NCOLS 150
NROWS 37
XLLCORNER 7394249
YLLCORNER 4843409
CELLSIZE 30
NODATA_VALUE -9999
975.831298828125 981.784301757812 974.002075195312 972.641540527344 974.8203125 981.542419433594 980.088012695312 987.28076171875 986.336975097656 978.5380859375 970.254699707031 971.840759277344 967.135803222656 968.8115234375 973.378051757812 974.04736328125 974.247009277344 981.016418457031 984.723388671875 985.419677734375 982.645874023438 978.955871582031 980.1923828125 979.9970703125 983.621704101562 985.37109375 991.027648925781 1002.73449707031 1004.43646240234 996.893493652344 1008.78527832031 1014.50384521484 1023.90734863281 1038.14965820312 1039.10778808594 1041.55090332031 1046.07763671875 1031.1103515625 1031.00231933594 1043.78332519531 1038.59643554688 1035.66088867188 1038.83056640625 1042.84814453125 1033.70703125 1028.84899902344 1026.75341796875 1035.07653808594 1031.58288574219 1022.01525878906 1013.46575927734 1004.56713867188 1008.57739257812 1010.33605957031 1009.57531738281 1011.70581054688 1013.51177978516 1014.08990478516 1017.56225585938 1023.14752197266 1020.62994384766 1029.59594726562 1023.43121337891 1024.92626953125 1027.44799804688 1022.25939941406 1012.44793701172 1004.6845703125 1000.84161376953 1003.33312988281 1011.18603515625 1013.04876708984 1012.92254638672 1023.67944335938 1018.84729003906 1029.75109863281 1031.935546875 1029.60119628906 1021.69671630859 1023.92681884766 1022.93890380859 1020.23480224609 1023.25543212891 1027.376953125 1018.04437255859 1003.0556640625 995.421203613281 983.84814453125 969.78564453125 966.819763183594 962.615966796875 956.670349121094 960.452575683594 966.640441894531 951.3291015625 954.721740722656 960.700073242188 959.838195800781 970.360778808594 979.253295898438 975.166259765625 977.904296875 965.717956542969 966.558715820312 967.709411621094 968.223205566406 977.168579101562 980.713256835938 974.714660644531 980.528625488281 966.552124023438 953.506652832031 941.022705078125 936.91796875 934.596923828125 927.775268554688 927.574645996094 941.153137207031 944.623718261719 944.416137695312 960.134460449219 966.956237792969 976.349792480469 989.276184082031 994.955932617188 1002.12951660156 1005.41741943359 1013.30847167969 1018.69073486328 1018.1435546875 1026.14294433594 1044.42431640625 1043.52270507812 1055.96630859375 1053.26000976562 1045.70349121094 1069.04602050781 1074.7607421875 1078.47326660156 1073.44494628906 1076.05102539062 1091.87756347656 1108.23583984375 1107.94299316406 1106.83862304688 1110.224609375 1107.27270507812 1101.62548828125 1099.61206054688 1086.00671386719
982.566772460938 980.809875488281 985.398681640625 972.494201660156 977.021362304688 989.1630859375 982.385375976562 986.012329101562 987.508728027344 965.583862304688 960.015563964844 969.022888183594 969.080444335938 972.910583496094 969.764892578125 963.89306640625 973.322814941406 977.041137695312 977.322204589844 980.221923828125 979.207092285156 980.05126953125 978.38916015625 976.471923828125 989.577392578125 991.289672851562 999.480895996094 1007.25897216797 1003.36340332031 1012.94909667969 1013.09429931641 1022.22424316406 1027.4091796875 1032.60278320312 1031.7685546875 1039.681640625 1030.87634277344 1025.96166992188 1037.99987792969 1038.74328613281 1045.59545898438 1040.5712890625 1038.80395507812 1044.75598144531 1038.59350585938 1026.72509765625 1027.71936035156 1028.990234375 1012.57757568359 1015.35864257812 1008.53839111328 1002.56396484375 1007.46575927734 1005.09832763672 1009.7705078125 1010.50164794922 1012.54321289062 1019.86779785156 1023.30065917969 1025.71264648438 1024.43823242188 1020.96313476562 1024.03100585938 1029.02282714844 1030.6572265625 1023.64038085938 1019.64953613281 1018.45678710938 1019.51373291016 1012.25805664062 1015.55981445312 1020.82250976562 1017.55804443359 1017.44488525391 1019.36492919922 1023.08276367188 1024.99169921875 1029.306640625 1012.97277832031 1011.76806640625 1014.15283203125 1021.64990234375 1026.06652832031 1033.66284179688 1019.12756347656 1014.54986572266 1000.26605224609 983.415954589844 973.901672363281 967.641906738281 969.449584960938 977.957763671875 972.5712890625 969.858337402344 952.9375 957.114624023438 961.217407226562 966.021850585938 973.357727050781 976.641784667969 980.890808105469 980.769775390625 969.042236328125 969.859741210938 973.950256347656 969.009887695312 975.853820800781 977.446533203125 976.25927734375 975.615539550781 973.704040527344 957.381958007812 954.75 943.962341308594 938.709289550781 932.117797851562 932.14306640625 940.052612304688 941.916809082031 942.671447753906 966.747436523438 982.216369628906 978.665466308594 990.677124023438 1007.19366455078 1005.71551513672 1011.39819335938 1023.84985351562 1012.61889648438 1018.06213378906 1032.63330078125 1038.48291015625 1050.49157714844 1059.03820800781 1054.75219726562 1051.51489257812 1064.42211914062 1079.16650390625 1068.73791503906 1070.57360839844 1072.33081054688 1089.28308105469 1101.16564941406 1107.8173828125 1113.0458984375 1104.57971191406 1104.54968261719 1101.09594726562 1093.05078125 1087.03698730469
973.512390136719 970.883361816406 977.072021484375 966.730163574219 976.706604003906 973.594665527344 983.765991210938 975.257385253906 979.371948242188 967.96240234375 962.3583984375 964.636535644531 971.461669921875 964.317260742188 972.153015136719 971.565002441406 965.075744628906 973.652282714844 969.881591796875 977.562683105469 973.471862792969 982.218444824219 979.473876953125 983.329284667969 988.041076660156 999.454467773438 1005.83746337891 1005.61242675781 1008.85345458984 1017.41955566406 1022.91931152344 1024.2744140625 1033.22692871094 1018.68872070312 1019.09075927734 1032.01025390625 1029.48693847656 1031.9775390625 1034.86535644531 1041.25476074219 1039.07165527344 1040.22631835938 1042.46508789062 1041.14428710938 1032.6640625 1024.29248046875 1030.64025878906 1026.3427734375 1003.87469482422 1002.19622802734 1002.35760498047 994.27783203125 998.208984375 998.922241210938 998.049011230469 1004.42523193359 1006.32843017578 1005.60778808594 1017.17425537109 1021.78674316406 1020.41107177734 1017.22222900391 1029.28002929688 1037.26599121094 1028.79553222656 1026.8056640625 1016.89221191406 1022.55133056641 1025.84777832031 1033.03149414062 1022.68566894531 1022.74609375 1019.00006103516 1016.91235351562 1018.08715820312 1019.43048095703 1016.25848388672 1027.677734375 1015.24877929688 1011.88983154297 1019.71960449219 1020.11444091797 1026.02233886719 1028.56359863281 1019.48126220703 1011.55902099609 993.492553710938 993.059265136719 983.197937011719 985.580444335938 983.334655761719 985.722717285156 977.810974121094 978.298217773438 976.060607910156 971.910461425781 979.276062011719 966.602966308594 975.083251953125 987.314208984375 979.871459960938 984.7373046875 985.585571289062 982.432312011719 974.035400390625 973.936157226562 979.174133300781 982.438110351562 985.867248535156 983.016174316406 976.444946289062 973.272827148438 958.814636230469 943.27392578125 930.2646484375 933.7919921875 931.757751464844 937.519592285156 947.473388671875 952.987365722656 975.580139160156 985.597045898438 983.294555664062 999.129333496094 1007.3916015625 1008.84814453125 1010.13903808594 1020.11163330078 1021.15240478516 1023.07641601562 1028.48608398438 1038.162109375 1045.71704101562 1046.90832519531 1052.32958984375 1055.43823242188 1059.69079589844 1070.85095214844 1074.91528320312 1075.60974121094 1082.97058105469 1088.00061035156 1092.10571289062 1096.90124511719 1091.22155761719 1092.84265136719 1085.09228515625 1085.76647949219 1081.71301269531 1073.04638671875
958.837585449219 955.555786132812 959.011596679688 961.851989746094 961.615173339844 962.927124023438 962.150512695312 970.921752929688 971.537292480469 967.331298828125 959.088745117188 962.828552246094 959.011291503906 957.208251953125 967.656372070312 972.168640136719 978.696350097656 979.128845214844 980.0361328125 969.926025390625 969.91943359375 969.582153320312 979.617004394531 986.727783203125 989.531127929688 996.551208496094 1004.23217773438 1010.80133056641 1012.43811035156 1014.4091796875 1019.39587402344 1025.81433105469 1028.35131835938 1025.87866210938 1022.25109863281 1030.54040527344 1029.11413574219 1033.0517578125 1033.36364746094 1032.75512695312 1041.74499511719 1033.20666503906 1042.93041992188 1042.80944824219 1042.65441894531 1029.10986328125 1028.10852050781 1024.77722167969 1004.10186767578 994.635498046875 997.274841308594 998.247680664062 992.007202148438 998.04736328125 1005.93286132812 1004.86798095703 1007.26513671875 1008.64166259766 1010.15710449219 1011.0634765625 1023.00225830078 1013.62518310547 1018.9443359375 1025.61352539062 1024.03674316406 1026.38610839844 1021.50427246094 1024.38488769531 1025.49499511719 1027.36047363281 1025.26977539062 1022.86975097656 1015.85357666016 1013.29522705078 1014.86315917969 1013.95538330078 1011.01153564453 1014.88500976562 1023.49426269531 1028.91259765625 1024.89379882812 1025.18725585938 1017.71459960938 1022.70147705078 1021.47576904297 1014.53771972656 1005.15826416016 1005.46990966797 1004.68603515625 990.675720214844 999.31494140625 988.77099609375 989.671447753906 999.536682128906 1000.94421386719 995.912475585938 977.973083496094 983.621704101562 985.381591796875 991.511047363281 985.862487792969 991.484680175781 996.203857421875 985.9013671875 981.040100097656 977.235534667969 983.160705566406 988.299987792969 982.58251953125 979.977355957031 970.849792480469 968.588134765625 956.158813476562 947.015197753906 931.040832519531 932.622009277344 933.418640136719 934.687377929688 941.6171875 959.227600097656 976.232421875 981.546936035156 992.8095703125 1008.00512695312 1011.56463623047 1008.46209716797 1010.099609375 1032.15002441406 1034.36437988281 1033.36437988281 1044.70166015625 1046.10119628906 1040.1025390625 1035.06567382812 1051.48571777344 1059.1259765625 1057.94958496094 1065.98889160156 1080.62036132812 1082.509765625 1075.22961425781 1082.67333984375 1091.02319335938 1088.59753417969 1094.10168457031 1091.93298339844 1085.37756347656 1081.65661621094 1080.83618164062 1070.82482910156
956.255187988281 947.193664550781 948.810363769531 951.866943359375 956.050964355469 959.142822265625 952.134582519531 962.369934082031 956.629211425781 960.935302734375 953.604919433594 958.965515136719 956.239440917969 960.758361816406 967.292297363281 960.49365234375 966.753295898438 974.693542480469 971.474670410156 960.057189941406 966.060729980469 968.410095214844 975.502990722656 975.109313964844 981.882995605469 993.169494628906 995.440795898438 999.126403808594 1005.81591796875 1014.24145507812 1011.64562988281 1011.96765136719 1015.47296142578 1016.16101074219 1029.03637695312 1030.1484375 1028.31262207031 1034.59509277344 1033.90246582031 1025.21618652344 1026.25988769531 1026.9990234375 1027.00695800781 1027.63037109375 1022.48669433594 1018.16973876953 1026.78991699219 1009.26354980469 1002.17175292969 1003.05200195312 1001.57360839844 998.038513183594 991.575622558594 1001.09625244141 1005.77905273438 1012.01763916016 1003.51629638672 1012.44067382812 1015.51770019531 1007.70989990234 1011.16241455078 1001.75531005859 1011.10803222656 1020.06848144531 1022.71453857422 1027.64074707031 1027.787109375 1030.56628417969 1031.58898925781 1021.548828125 1019.05352783203 1016.49182128906 1021.19311523438 1009.36053466797 1012.08337402344 1004.32177734375 1009.06481933594 1000.25653076172 1009.76678466797 1014.49774169922 1021.04107666016 1027.87963867188 1026.63146972656 1022.15020751953 1022.87744140625 1011.41876220703 1013.21142578125 1007.58697509766 1007.35363769531 1004.70062255859 1001.97985839844 996.306518554688 993.616760253906 999.720275878906 1004.93200683594 1005.02294921875 989.579895019531 983.196044921875 977.339904785156 984.177795410156 983.340148925781 987.308288574219 992.473693847656 987.011413574219 982.533264160156 991.971435546875 992.573791503906 996.459045410156 986.559997558594 979.263244628906 977.047973632812 968.442321777344 955.624206542969 939.556945800781 931.307312011719 925.410888671875 927.588073730469 937.201965332031 941.698547363281 961.662292480469 978.874633789062 994.016906738281 1002.96087646484 1013.42291259766 1015.62213134766 1013.57452392578 1017.87677001953 1033.51000976562 1034.42529296875 1035.74865722656 1034.15600585938 1035.10437011719 1040.42248535156 1044.26708984375 1048.55737304688 1061.00415039062 1058.23510742188 1070.24914550781 1078.56164550781 1084.80236816406 1085.76220703125 1087.61938476562 1095.05358886719 1096.95532226562 1095.12353515625 1085.29846191406 1079.83984375 1080.06335449219 1087.05322265625 1076.83312988281
953.673950195312 950.380004882812 942.757446289062 950.954956054688 950.405578613281 940.827026367188 949.225402832031 957.388610839844 958.160766601562 948.347290039062 951.040893554688 953.746459960938 954.901550292969 963.367736816406 966.206359863281 959.855590820312 956.60791015625 959.363464355469 956.040222167969 958.952392578125 963.049865722656 965.839416503906 966.437438964844 976.2275390625 987.091247558594 983.603698730469 989.258728027344 995.504638671875 1000.82916259766 1010.07019042969 1012.74249267578 1006.64434814453 1009.84387207031 1017.587890625 1019.23028564453 1023.64703369141 1022.70404052734 1025.21276855469 1027.00573730469 1014.10607910156 1019.63909912109 1018.75640869141 1014.4619140625 1016.36395263672 1014.59729003906 1012.52606201172 1012.76556396484 1006.65502929688 1003.11047363281 1000.75262451172 1001.03717041016 1004.97045898438 1004.0498046875 994.374877929688 1007.74279785156 1003.16003417969 1002.23547363281 1009.47796630859 1007.83966064453 1012.05853271484 1007.50140380859 1006.22344970703 1007.57635498047 1015.76318359375 1017.42230224609 1020.732421875 1023.24432373047 1027.94348144531 1026.5966796875 1022.75164794922 1014.43450927734 1012.03063964844 1015.53729248047 1000.51556396484 1006.33117675781 1008.11505126953 1002.05975341797 1002.50329589844 1002.19592285156 1013.66363525391 1026.57836914062 1027.76928710938 1024.88940429688 1019.95709228516 1015.55828857422 1007.85955810547 1012.01727294922 1011.72930908203 1015.85546875 1006.56762695312 1006.85327148438 1007.16766357422 1001.140625 997.708923339844 1014.86370849609 1009.54510498047 1000.45739746094 995.377990722656 989.640075683594 992.134216308594 992.907958984375 993.565734863281 1000.0634765625 994.471618652344 995.094299316406 996.932189941406 993.65625 1001.21539306641 998.507446289062 988.596557617188 977.913696289062 969.783996582031 954.675231933594 944.714904785156 932.838989257812 939.374877929688 942.980712890625 941.229064941406 950.947204589844 960.564514160156 980.890563964844 987.371704101562 997.334655761719 1002.24993896484 1011.52111816406 1012.71545410156 1024.56042480469 1035.86303710938 1032.53076171875 1034.35302734375 1037.52746582031 1047.06225585938 1039.16491699219 1053.36791992188 1048.11291503906 1053.58081054688 1066.56481933594 1078.86791992188 1084.45812988281 1082.56884765625 1081.27734375 1094.53820800781 1095.76281738281 1095.12133789062 1088.6015625 1082.6201171875 1080.39538574219 1084.89575195312 1086.0107421875 1091.11926269531
951.303161621094 943.392333984375 944.823547363281 947.983764648438 949.347229003906 947.858276367188 947.540893554688 955.295837402344 958.358459472656 963.920043945312 962.540283203125 957.921142578125 958.8466796875 964.936218261719 970.785766601562 964.208618164062 951.284240722656 950.97802734375 950.544494628906 956.996826171875 961.502807617188 964.979553222656 967.722961425781 974.211730957031 984.855712890625 981.964904785156 985.083557128906 989.229858398438 1005.92114257812 1010.78173828125 1003.13073730469 1003.86163330078 1011.27984619141 1014.48785400391 1011.33703613281 1012.64947509766 1018.49371337891 1017.27917480469 1009.50866699219 1009.58673095703 1002.47052001953 1008.73175048828 1010.48699951172 1005.68963623047 1003.53332519531 1012.15777587891 999.981811523438 1006.14056396484 1005.77850341797 1001.23913574219 997.729309082031 1004.82684326172 1007.40850830078 993.590942382812 1001.15313720703 993.008850097656 997.512573242188 1000.50708007812 1002.72253417969 1006.15856933594 1000.04028320312 1006.54553222656 1007.93017578125 1007.77789306641 1012.39263916016 1024.64892578125 1017.80767822266 1026.84411621094 1020.02081298828 1020.51489257812 1011.2802734375 1015.32904052734 1018.19848632812 1004.64239501953 1015.85363769531 1010.94836425781 1003.38336181641 1001.57702636719 1006.29010009766 1020.35809326172 1020.59643554688 1021.03576660156 1019.19232177734 1026.43249511719 1013.76049804688 1008.00836181641 1016.82879638672 1019.7998046875 1012.21069335938 1007.15759277344 1006.38385009766 1005.82080078125 1000.77667236328 1009.66906738281 1020.09692382812 1028.58837890625 1008.3642578125 1013.40954589844 1002.61053466797 1006.14086914062 1010.55383300781 1009.12445068359 1001.77661132812 1007.46557617188 1007.93200683594 1003.66088867188 1003.58721923828 1002.79925537109 997.6396484375 982.617980957031 976.43017578125 964.919616699219 950.951599121094 956.376159667969 949.268493652344 951.133361816406 942.62060546875 946.422180175781 957.08935546875 974.368286132812 974.663330078125 991.824768066406 989.984375 999.461059570312 1010.70782470703 1025.22351074219 1032.6630859375 1034.05749511719 1036.55432128906 1037.12976074219 1039.35729980469 1046.66943359375 1054.92736816406 1044.45007324219 1049.24194335938 1057.83569335938 1052.39282226562 1066.20556640625 1073.84851074219 1076.67346191406 1075.95629882812 1090.443359375 1094.78784179688 1092.31481933594 1089.93176269531 1084.67541503906 1080.60583496094 1081.57360839844 1086.32348632812 1082.77172851562
941.151611328125 940.886291503906 943.080932617188 944.829650878906 952.401000976562 956.835571289062 945.15966796875 949.314392089844 959.989562988281 955.902099609375 951.6328125 957.700988769531 955.615844726562 954.15234375 959.232666015625 955.443359375 951.040283203125 953.200500488281 960.529724121094 962.373657226562 957.168640136719 962.63330078125 973.621154785156 976.452087402344 981.497985839844 982.6728515625 983.187622070312 1000.26245117188 1005.7412109375 1007.35736083984 1000.0029296875 1002.853515625 1011.27758789062 1017.208984375 1008.56085205078 1012.51538085938 1016.74401855469 1016.45385742188 1005.15612792969 996.958984375 992.044128417969 996.006286621094 1000.669921875 998.931884765625 992.1787109375 996.653991699219 997.720520019531 1004.54870605469 994.838928222656 990.218444824219 1000.45428466797 1000.89483642578 1002.81872558594 993.574951171875 994.74462890625 994.680847167969 999.932800292969 1002.20532226562 1004.27075195312 999.601623535156 1000.68231201172 999.226623535156 1002.25946044922 1008.73718261719 1006.41125488281 1015.88250732422 1023.29339599609 1025.28271484375 1019.31585693359 1016.55163574219 1017.24914550781 1022.91253662109 1020.91925048828 1015.54412841797 1014.71722412109 1008.11706542969 1007.45446777344 1006.19403076172 1003.89422607422 1013.54339599609 1010.27996826172 1013.14556884766 1013.62353515625 1022.25445556641 1012.54669189453 1011.03717041016 1005.20684814453 1012.48663330078 1013.56707763672 1011.60980224609 1008.72039794922 1018.16912841797 1017.02532958984 1027.38854980469 1029.96118164062 1029.11157226562 1019.32135009766 1018.93157958984 1013.08514404297 1007.17242431641 1013.10314941406 1008.67517089844 1004.10595703125 1010.12493896484 1012.50726318359 1014.34710693359 1005.86688232422 998.104248046875 996.637817382812 983.682373046875 983.498291015625 966.02294921875 963.296630859375 957.940124511719 955.475402832031 952.545471191406 954.6376953125 961.471557617188 973.326538085938 990.451232910156 992.117309570312 995.835632324219 1003.21276855469 1009.09930419922 1015.01049804688 1026.75280761719 1037.51501464844 1031.17883300781 1041.26000976562 1046.88293457031 1047.46435546875 1042.17834472656 1049.130859375 1058.9091796875 1051.56396484375 1053.00695800781 1055.39111328125 1061.22326660156 1068.90393066406 1068.14038085938 1078.658203125 1088.71960449219 1093.35900878906 1090.25646972656 1089.00500488281 1087.46813964844 1083.63244628906 1080.96899414062 1086.06506347656 1085.78295898438
947.571166992188 945.974365234375 944.964538574219 943.501892089844 952.841186523438 954.515563964844 947.35888671875 949.745300292969 949.923767089844 953.65234375 950.837158203125 948.309448242188 952.517700195312 950.275085449219 957.919738769531 953.65771484375 944.629455566406 953.765319824219 963.246459960938 958.029235839844 961.346618652344 962.715270996094 978.109436035156 967.119567871094 973.00927734375 982.760803222656 986.448486328125 998.693664550781 1000.21954345703 1001.36053466797 1002.95648193359 997.565673828125 1003.60571289062 1004.0693359375 1016.81396484375 1003.72143554688 1006.42474365234 1011.58489990234 1007.37451171875 982.851928710938 980.863342285156 987.209045410156 988.484985351562 992.904357910156 992.88916015625 999.9267578125 1004.4755859375 1001.13232421875 993.53466796875 992.99951171875 999.015930175781 994.956909179688 988.0322265625 990.264099121094 991.760437011719 992.948608398438 1000.65435791016 1003.83947753906 1002.68212890625 1004.11010742188 1000.96832275391 999.766235351562 998.236694335938 1005.56280517578 1003.74365234375 1008.94219970703 1015.25543212891 1015.04138183594 1019.0458984375 1013.85186767578 1018.40008544922 1024.92724609375 1028.89245605469 1017.66412353516 1005.62145996094 995.234680175781 1003.96398925781 1001.61907958984 997.648132324219 999.6689453125 1001.2294921875 1004.9462890625 1010.11474609375 1016.35614013672 1006.51409912109 1007.60772705078 1003.00921630859 1005.76312255859 1008.55725097656 1019.60656738281 1022.07836914062 1024.25964355469 1025.80139160156 1027.90185546875 1032.30334472656 1032.474609375 1018.81207275391 1017.93713378906 1015.55181884766 1010.87243652344 1013.11285400391 1007.63983154297 998.843017578125 1000.02716064453 1012.16125488281 1011.4619140625 1009.37579345703 1008.83380126953 1000.99633789062 994.163146972656 981.58740234375 965.978088378906 966.33203125 960.939758300781 954.460632324219 965.713195800781 959.521850585938 974.317504882812 985.427673339844 987.104736328125 996.815551757812 999.185729980469 1012.22296142578 1017.5869140625 1022.6162109375 1033.31018066406 1037.95251464844 1041.35095214844 1042.74401855469 1048.06286621094 1047.53674316406 1046.12084960938 1047.26806640625 1051.58935546875 1044.96325683594 1052.57080078125 1057.75598144531 1059.60778808594 1068.54296875 1069.5341796875 1070.87280273438 1080.28845214844 1076.11755371094 1080.68591308594 1082.19946289062 1086.52331542969 1085.62109375 1090.0673828125 1086.46691894531 1088.82885742188
941.658325195312 948.203186035156 947.926452636719 951.100830078125 960.386108398438 961.872314453125 947.942321777344 953.003784179688 959.177856445312 954.98291015625 947.182250976562 963.285278320312 956.54150390625 948.381164550781 958.796142578125 961.860412597656 955.133422851562 961.817810058594 969.244384765625 971.464172363281 971.184814453125 978.736755371094 977.816589355469 970.265991210938 967.908264160156 978.570190429688 983.411865234375 988.75732421875 995.038635253906 995.348510742188 995.930725097656 992.0322265625 987.762268066406 985.218505859375 1002.54901123047 1004.56005859375 1005.33050537109 1008.28594970703 997.595703125 985.404418945312 982.801513671875 989.019226074219 982.812316894531 992.018005371094 995.796081542969 993.630920410156 998.020812988281 1001.84503173828 994.621398925781 990.933044433594 986.066650390625 987.578796386719 980.743041992188 980.746215820312 991.370788574219 997.098510742188 995.485412597656 1001.43493652344 1006.00250244141 1009.71240234375 1002.31005859375 1001.87060546875 999.605529785156 1000.63708496094 991.827941894531 1006.55291748047 1008.40899658203 1009.80004882812 1010.82513427734 1005.86529541016 1018.90661621094 1029.17456054688 1022.83441162109 1011.98504638672 999.809020996094 992.753845214844 1002.26641845703 998.5166015625 989.084655761719 986.517822265625 1005.94256591797 1003.76434326172 1005.66693115234 1007.74798583984 1005.8251953125 1012.49304199219 1020.73394775391 1016.169921875 1017.56329345703 1020.970703125 1026.73522949219 1029.86267089844 1023.22790527344 1026.94165039062 1024.20385742188 1031.58715820312 1019.64239501953 1014.04351806641 1007.52612304688 1006.00036621094 1007.27807617188 1005.78192138672 1005.27008056641 1008.75085449219 1007.52642822266 1009.23773193359 1004.46948242188 1006.89959716797 1002.32196044922 987.590759277344 975.675476074219 966.369384765625 965.686157226562 958.675842285156 942.753601074219 956.178649902344 955.764770507812 966.728271484375 983.603942871094 993.632202148438 990.968444824219 1006.62170410156 1011.73870849609 1023.57373046875 1035.50537109375 1034.5146484375 1046.54724121094 1048.02355957031 1050.31921386719 1042.10168457031 1047.92175292969 1048.99462890625 1042.96215820312 1038.48815917969 1035.74011230469 1042.2734375 1049.22521972656 1055.57409667969 1062.18762207031 1055.94421386719 1068.64245605469 1072.65307617188 1072.51489257812 1073.01354980469 1087.23059082031 1086.01135253906 1088.00891113281 1094.63977050781 1086.1884765625 1084.10510253906
938.873474121094 945.146850585938 945.023315429688 945.541137695312 951.554138183594 966.812255859375 963.933349609375 954.525024414062 953.894775390625 957.685180664062 954.401062011719 955.563171386719 962.459411621094 961.764343261719 959.501831054688 964.666381835938 966.971984863281 965.126892089844 971.507141113281 975.542297363281 978.336059570312 984.2744140625 975.803894042969 973.973693847656 972.35009765625 969.600646972656 977.989501953125 988.983032226562 989.848266601562 990.149658203125 992.815673828125 996.425476074219 992.612670898438 991.079223632812 993.797424316406 995.226196289062 1011.23522949219 998.395324707031 995.726623535156 980.72216796875 987.813293457031 983.398620605469 987.100036621094 991.279602050781 996.236022949219 1001.19665527344 1003.23187255859 1004.50836181641 995.316711425781 996.73828125 988.241271972656 983.837280273438 978.629516601562 982.839538574219 980.741577148438 992.774963378906 1004.78363037109 999.636657714844 1007.88354492188 1002.33666992188 994.250549316406 999.361938476562 1001.26086425781 997.083435058594 995.831237792969 1003.59246826172 1008.34423828125 1012.73199462891 1008.64904785156 1009.19232177734 1014.11560058594 1020.55480957031 1016.72863769531 1011.31567382812 999.891296386719 991.941162109375 993.324645996094 992.290832519531 984.419311523438 992.144348144531 999.3701171875 1002.62457275391 1002.64599609375 1010.51678466797 1011.76550292969 1010.189453125 1009.14758300781 1011.35034179688 1015.74090576172 1022.92041015625 1024.78381347656 1020.66851806641 1023.59722900391 1024.09411621094 1021.40905761719 1012.22882080078 1014.98626708984 1011.36663818359 1009.46032714844 1001.80944824219 1009.06207275391 1007.177734375 1008.25469970703 1009.05657958984 1006.57086181641 997.456726074219 1001.01385498047 994.395629882812 986.771789550781 986.322326660156 977.908996582031 959.568603515625 953.807373046875 950.72900390625 951.659301757812 950.812316894531 960.8271484375 972.277526855469 974.398803710938 998.669006347656 1003.64001464844 1002.25341796875 1014.73614501953 1032.1142578125 1026.40856933594 1035.83251953125 1041.34326171875 1049.76232910156 1052.24841308594 1047.43383789062 1052.58984375 1042.02514648438 1039.73315429688 1025.90478515625 1027.23217773438 1025.73291015625 1034.51452636719 1048.91259765625 1046.31689453125 1049.92517089844 1050.78637695312 1058.361328125 1066.55578613281 1073.05163574219 1075.97436523438 1076.63488769531 1077.2998046875 1091.77209472656 1085.24719238281 1095.13586425781
938.778686523438 938.689636230469 942.737121582031 940.545776367188 946.010131835938 958.504638671875 964.501586914062 962.001037597656 959.663757324219 966.681457519531 969.516235351562 968.79638671875 963.542785644531 968.491760253906 970.168395996094 971.340209960938 972.966857910156 973.383422851562 982.417846679688 979.040161132812 989.183532714844 987.51123046875 976.238342285156 976.403686523438 968.934814453125 977.455749511719 980.7890625 991.285034179688 996.486511230469 985.112182617188 994.946533203125 985.623046875 989.050231933594 997.947204589844 991.039001464844 993.420471191406 1002.32312011719 992.23388671875 982.771118164062 980.1474609375 980.709350585938 978.604736328125 983.851196289062 986.554565429688 990.944641113281 996.60205078125 995.074462890625 1011.79870605469 995.4462890625 999.471008300781 999.083374023438 989.761657714844 987.097900390625 986.680053710938 984.989379882812 992.746154785156 994.991271972656 1005.5107421875 1006.89984130859 1006.16186523438 994.851928710938 990.771789550781 994.241088867188 989.087280273438 990.676513671875 1001.18139648438 996.241088867188 1000.69384765625 1011.51000976562 1008.45025634766 1015.80010986328 1016.28588867188 1006.04498291016 1010.60919189453 1003.76611328125 1001.34051513672 992.816833496094 984.595581054688 992.825073242188 988.848999023438 999.871276855469 1004.01635742188 1003.86096191406 1012.31506347656 1008.00738525391 1007.43579101562 1004.93505859375 1016.37609863281 1019.43914794922 1020.63842773438 1024.94812011719 1020.26739501953 1021.83190917969 1014.80688476562 1017.63995361328 1009.51403808594 1016.61999511719 1019.99523925781 1013.43365478516 1008.48120117188 1007.31036376953 1007.42993164062 1004.59716796875 1012.17590332031 1008.16882324219 995.489013671875 994.302734375 986.589721679688 983.040222167969 985.4931640625 977.08056640625 961.593444824219 953.083374023438 950.446655273438 942.693359375 950.198608398438 968.787231445312 972.150634765625 980.521301269531 1000.04150390625 1018.19549560547 1021.40313720703 1016.59112548828 1027.34606933594 1031.9521484375 1038.10021972656 1034.49682617188 1040.97009277344 1047.87780761719 1048.29077148438 1044.28601074219 1047.5927734375 1040.2333984375 1019.75579833984 1017.58245849609 1023.85247802734 1026.44812011719 1032.35412597656 1037.88293457031 1043.70812988281 1044.30993652344 1048.03894042969 1060.43005371094 1065.80456542969 1070.82421875 1067.57824707031 1074.81506347656 1077.54125976562 1076.10400390625 1090.80432128906
932.739013671875 929.444274902344 933.541748046875 947.310729980469 955.630676269531 958.9306640625 971.450134277344 961.073791503906 964.103210449219 965.520263671875 971.480163574219 972.826538085938 974.7080078125 979.166870117188 976.147399902344 981.448425292969 978.003234863281 978.288940429688 987.558288574219 987.869567871094 991.370727539062 991.744506835938 984.648742675781 973.855224609375 974.706726074219 981.496520996094 983.716735839844 985.673645019531 993.500366210938 986.247863769531 982.267211914062 981.617309570312 990.448791503906 992.015197753906 987.815795898438 990.271057128906 1000.26940917969 992.982360839844 989.892578125 979.378845214844 982.585388183594 978.127685546875 990.265625 985.770629882812 984.249755859375 996.552062988281 996.757995605469 997.419250488281 996.534790039062 1002.27056884766 991.895385742188 992.623413085938 987.791625976562 981.835083007812 985.821411132812 990.836669921875 993.818481445312 1000.39025878906 1000.91955566406 1004.25262451172 1001.60229492188 994.732971191406 988.844970703125 979.384033203125 983.300415039062 993.375244140625 1003.87927246094 991.883544921875 1002.60833740234 999.615356445312 1006.42431640625 1005.56060791016 1002.02795410156 1002.09777832031 996.403259277344 986.213439941406 988.088073730469 994.007080078125 990.36474609375 997.192626953125 990.385559082031 991.365661621094 1004.06024169922 1002.00427246094 1008.30004882812 1009.2109375 1005.91186523438 1015.63781738281 1021.16149902344 1020.04193115234 1023.99029541016 1018.92498779297 1022.74896240234 1009.20129394531 1009.83428955078 1008.74670410156 1010.90093994141 1008.87023925781 1003.54150390625 1002.80804443359 1006.89630126953 1003.27648925781 1008.49273681641 1006.63690185547 1013.01098632812 993.295166015625 989.400024414062 979.141418457031 987.751281738281 994.726623535156 981.510375976562 972.595520019531 952.125366210938 955.8193359375 943.205261230469 948.631958007812 959.985168457031 960.264770507812 974.502502441406 994.455688476562 1007.23406982422 1013.61315917969 1021.52685546875 1038.2802734375 1033.69189453125 1032.74377441406 1037.50769042969 1043.97229003906 1037.3056640625 1042.64685058594 1042.06994628906 1040.16198730469 1037.63671875 1029.47644042969 1016.83361816406 1017.07635498047 1025.38903808594 1025.68518066406 1037.92468261719 1039.80810546875 1041.87805175781 1045.92016601562 1052.73327636719 1057.6416015625 1066.63000488281 1066.61254882812 1064.91955566406 1069.78771972656 1082.40966796875 1095.85607910156
933.866394042969 943.278442382812 945.695739746094 954.192077636719 955.753479003906 956.005737304688 961.325866699219 962.134765625 964.975463867188 971.400634765625 976.152221679688 981.826782226562 981.816589355469 982.581726074219 978.700256347656 973.658020019531 979.218444824219 981.977478027344 979.383911132812 985.614074707031 992.40966796875 985.271179199219 982.124572753906 986.203063964844 984.953430175781 986.825927734375 987.947204589844 991.953674316406 988.336181640625 983.527526855469 981.523132324219 990.587097167969 996.085327148438 991.360717773438 984.914184570312 988.915649414062 989.873718261719 989.461669921875 988.193115234375 976.767883300781 977.01904296875 979.024169921875 983.2099609375 994.561462402344 988.587585449219 987.064086914062 986.423889160156 993.917724609375 992.711181640625 991.650085449219 986.826416015625 981.030517578125 983.639038085938 979.579406738281 986.733337402344 994.429382324219 989.943603515625 991.406921386719 987.632080078125 1005.71258544922 1001.00579833984 995.01416015625 977.894287109375 977.1005859375 983.20751953125 988.048217773438 999.577819824219 997.031005859375 1002.98547363281 989.628723144531 997.872375488281 1001.93280029297 1003.38635253906 994.427307128906 987.524780273438 986.934204101562 984.870178222656 988.333435058594 994.916748046875 993.463134765625 992.069091796875 991.970581054688 1004.46520996094 1013.38446044922 1009.03424072266 1009.25994873047 1013.96588134766 1018.43395996094 1018.89385986328 1012.7587890625 1016.04174804688 1012.56494140625 1024.07995605469 1012.58117675781 1014.62915039062 1013.12890625 1007.83575439453 1005.08685302734 1006.03009033203 998.326538085938 1007.69061279297 996.471069335938 998.696899414062 1008.77563476562 1017.23425292969 1001.52923583984 998.815063476562 998.720397949219 991.187438964844 987.46630859375 981.11279296875 966.111206054688 956.524230957031 948.056884765625 942.216857910156 946.132019042969 954.040954589844 963.542175292969 971.320373535156 997.495361328125 1001.82751464844 1006.49230957031 1022.67474365234 1032.93493652344 1031.43249511719 1025.83227539062 1033.61926269531 1040.9931640625 1041.00061035156 1041.69287109375 1041.26000976562 1032.87438964844 1036.68200683594 1029.99340820312 1015.42144775391 1019.77722167969 1031.06982421875 1029.3017578125 1033.16625976562 1034.37438964844 1046.39221191406 1047.15881347656 1048.60473632812 1055.64697265625 1064.44873046875 1060.31457519531 1059.58422851562 1068.49291992188 1090.70043945312 1093.33276367188
946.700500488281 949.101806640625 960.759704589844 963.342651367188 961.487609863281 966.2392578125 968.840026855469 964.433471679688 964.854309082031 974.236083984375 977.435180664062 979.061584472656 980.520812988281 978.0595703125 969.794006347656 973.978088378906 979.937438964844 981.108520507812 990.722778320312 986.822143554688 986.207397460938 987.856384277344 985.825927734375 981.128601074219 992.152099609375 985.112915039062 986.540405273438 990.415466308594 982.385681152344 977.880920410156 985.56689453125 986.789794921875 992.5908203125 996.847595214844 986.794921875 986.198913574219 987.079772949219 987.781127929688 985.088684082031 974.826721191406 979.83740234375 989.679016113281 995.730529785156 1001.13354492188 993.565368652344 988.9091796875 980.402526855469 985.354858398438 985.635192871094 985.9384765625 977.465698242188 980.11083984375 979.314697265625 987.55029296875 974.098510742188 981.819213867188 993.903930664062 991.90478515625 977.64013671875 988.985046386719 1001.82482910156 995.256225585938 982.004821777344 977.881713867188 982.673400878906 993.467163085938 999.955322265625 997.639343261719 993.500366210938 990.485412597656 990.827209472656 997.649963378906 1001.14813232422 997.943908691406 980.592041015625 974.860229492188 983.963562011719 993.79296875 993.233093261719 999.572265625 996.996276855469 998.177490234375 1002.26782226562 1002.17950439453 1001.74694824219 1015.56762695312 1020.96228027344 1026.59045410156 1013.10791015625 1021.501953125 1020.10650634766 1022.34234619141 1016.97448730469 1016.3037109375 1012.63012695312 1020.92224121094 1010.49810791016 1005.32177734375 1011.33660888672 1012.23400878906 1004.60260009766 1003.02355957031 1005.01135253906 1009.99847412109 1012.46014404297 1006.44537353516 1006.55993652344 999.330200195312 981.983764648438 976.322998046875 971.253356933594 963.489624023438 956.107788085938 944.565979003906 948.897338867188 949.436096191406 957.166442871094 961.998962402344 976.739685058594 988.221252441406 1000.58190917969 1009.65295410156 1019.04370117188 1027.61560058594 1025.52587890625 1021.6552734375 1034.43823242188 1031.11206054688 1032.76477050781 1041.97961425781 1034.39013671875 1025.79479980469 1027.169921875 1015.6953125 1018.69122314453 1025.03198242188 1026.67590332031 1025.93493652344 1027.30041503906 1028.25158691406 1046.4482421875 1048.77709960938 1056.46411132812 1065.29858398438 1069.80712890625 1070.9443359375 1073.34204101562 1073.57458496094 1095.40759277344 1097.66162109375
950.63720703125 961.451843261719 962.377746582031 967.302124023438 971.490173339844 971.244750976562 974.930297851562 967.938415527344 968.014953613281 952.570861816406 969.998718261719 979.470642089844 979.950927734375 983.244750976562 971.533386230469 973.203063964844 967.29833984375 971.578857421875 978.245544433594 982.072265625 988.669067382812 980.661987304688 987.202453613281 976.036743164062 984.389038085938 991.572814941406 989.306091308594 986.364379882812 981.941040039062 991.773864746094 989.267700195312 989.642761230469 999.616760253906 990.900512695312 987.299621582031 979.664184570312 990.037536621094 984.318786621094 969.919555664062 983.148620605469 984.566162109375 994.284118652344 995.915893554688 999.484985351562 991.658630371094 989.421142578125 980.7333984375 985.814880371094 987.3916015625 979.384582519531 977.179809570312 978.892822265625 974.514953613281 978.520874023438 966.271118164062 973.237365722656 988.328308105469 985.660278320312 978.152893066406 979.473327636719 988.273132324219 994.256042480469 987.399780273438 996.035949707031 998.53466796875 993.292602539062 997.918273925781 999.730163574219 998.865600585938 985.507202148438 987.503173828125 998.478637695312 996.116516113281 987.312316894531 987.044921875 975.436157226562 980.381958007812 987.4150390625 991.611022949219 992.793212890625 1002.74340820312 999.113525390625 999.007080078125 1006.05517578125 1006.19738769531 1014.55877685547 1011.05920410156 1011.82824707031 1014.16162109375 1007.63781738281 1017.23577880859 1012.12335205078 1011.95202636719 1010.76141357422 1004.52496337891 1005.03839111328 1002.90606689453 994.654113769531 1007.98413085938 1007.51123046875 1011.89672851562 1007.05841064453 1004.89367675781 1001.48742675781 993.469604492188 1002.92419433594 1001.916015625 993.853759765625 987.949157714844 974.248474121094 976.744140625 966.997497558594 955.799438476562 957.854309082031 955.118591308594 948.843383789062 949.68408203125 965.006042480469 986.030151367188 990.330871582031 1000.65966796875 1005.18499755859 1012.58227539062 1022.19543457031 1019.49658203125 1020.85736083984 1025.83703613281 1025.18872070312 1036.45129394531 1030.03833007812 1027.07360839844 1025.24011230469 1022.61541748047 1018.24987792969 1014.19421386719 1012.88250732422 1013.11444091797 1021.28198242188 1028.0869140625 1033.93676757812 1045.65222167969 1058.13610839844 1060.568359375 1061.61779785156 1070.94995117188 1072.73706054688 1079.78564453125 1087.19067382812 1098.29321289062 1105.17224121094
953.057495117188 957.210021972656 957.7470703125 959.316284179688 978.378356933594 979.314147949219 968.821350097656 969.092895507812 956.207092285156 964.642761230469 967.696899414062 968.959533691406 977.006530761719 983.743225097656 971.675720214844 967.860961914062 969.217163085938 975.969482421875 981.281005859375 976.767517089844 991.831848144531 987.567321777344 984.461669921875 980.44140625 984.088623046875 978.376220703125 984.766052246094 979.212829589844 985.791381835938 987.00927734375 979.260986328125 990.312377929688 995.13720703125 988.318420410156 980.340881347656 975.111145019531 984.485961914062 974.158203125 973.6201171875 976.667602539062 978.4853515625 984.523864746094 992.535034179688 996.309020996094 993.451599121094 986.185424804688 981.004455566406 989.6337890625 981.733703613281 980.356384277344 980.940795898438 977.801879882812 970.20361328125 965.097229003906 967.788024902344 965.201843261719 978.929992675781 975.388366699219 978.015869140625 972.93798828125 981.755187988281 993.011962890625 985.525756835938 991.703125 1001.15167236328 986.907043457031 991.53955078125 1001.02008056641 999.478088378906 987.380187988281 991.300109863281 987.250671386719 999.191284179688 994.592712402344 990.12548828125 984.113586425781 980.184997558594 987.775207519531 995.681823730469 993.705017089844 989.27099609375 999.092651367188 1006.09320068359 1006.04699707031 1008.85723876953 1009.66607666016 1004.76928710938 1012.0546875 1010.9658203125 1009.00494384766 1002.18640136719 1012.14154052734 1004.11328125 1005.71649169922 1007.71002197266 1001.70385742188 994.794555664062 988.068481445312 1006.45654296875 1000.50567626953 996.707885742188 1005.92053222656 1002.33013916016 996.896179199219 988.207092285156 998.794616699219 997.289123535156 992.580749511719 983.36865234375 984.213928222656 973.948852539062 971.280517578125 965.587463378906 965.930297851562 962.824584960938 959.403442382812 965.905090332031 974.135192871094 983.690185546875 995.132019042969 999.384521484375 997.766540527344 1013.89178466797 1017.67114257812 1024.05212402344 1024.94714355469 1021.53582763672 1024.64672851562 1021.15893554688 1021.83386230469 1019.58081054688 1022.86181640625 1028.66137695312 1019.56243896484 1015.40454101562 1010.11450195312 1011.74993896484 1018.34625244141 1020.65502929688 1030.37036132812 1037.16577148438 1049.19885253906 1064.83251953125 1067.82885742188 1071.56689453125 1078.01733398438 1089.4775390625 1095.66943359375 1095.77294921875 1100.96337890625
949.657897949219 946.122375488281 953.799255371094 965.752502441406 974.408630371094 978.720825195312 975.344604492188 977.209716796875 967.17333984375 963.504699707031 961.422790527344 968.449462890625 976.966125488281 980.465148925781 986.542785644531 977.04638671875 977.424133300781 972.9296875 972.633850097656 977.2841796875 984.899658203125 984.247314453125 985.349853515625 978.989440917969 976.4541015625 978.564819335938 976.039794921875 981.413452148438 988.428955078125 988.722839355469 982.989868164062 987.548645019531 989.024108886719 980.251770019531 978.528747558594 972.044494628906 973.530029296875 975.095825195312 973.139831542969 976.248962402344 981.20947265625 985.288635253906 988.489196777344 985.975036621094 988.640686035156 986.702880859375 975.718688964844 978.512573242188 972.285705566406 980.293151855469 979.513427734375 975.564147949219 971.885559082031 977.3828125 972.642883300781 974.770202636719 974.445678710938 973.006286621094 968.337951660156 970.190185546875 982.236572265625 988.303344726562 996.567565917969 997.05712890625 994.634582519531 990.821044921875 989.030883789062 985.083374023438 990.084838867188 980.275207519531 980.162841796875 983.751281738281 984.552917480469 988.869934082031 990.067077636719 990.391418457031 986.725891113281 993.726013183594 997.250427246094 995.924255371094 990.996643066406 1003.37133789062 1003.15966796875 1004.61596679688 1001.12457275391 1000.76428222656 1000.08172607422 1005.96881103516 1006.23046875 1010.27105712891 997.441589355469 1003.99011230469 1002.74346923828 1008.5419921875 1010.35430908203 1002.78747558594 1000.95819091797 998.732360839844 999.514709472656 1000.39678955078 1008.53051757812 998.865234375 997.404418945312 993.7919921875 987.313293457031 993.208190917969 995.065673828125 991.439636230469 984.698303222656 982.595825195312 977.857238769531 974.490600585938 973.924621582031 967.935913085938 964.600524902344 964.985656738281 971.178527832031 973.400512695312 991.362854003906 993.335998535156 1003.92846679688 1004.26416015625 1003.79479980469 1014.20068359375 1018.18719482422 1022.19995117188 1010.73834228516 1012.64434814453 1015.92700195312 1015.39788818359 1013.68170166016 1019.10717773438 1026.0009765625 1017.38336181641 1013.3505859375 1011.16625976562 1010.96099853516 1022.43682861328 1031.72485351562 1028.56884765625 1042.900390625 1053.13586425781 1069.16357421875 1069.34411621094 1071.39721679688 1080.06164550781 1083.35998535156 1089.00268554688 1094.21887207031 1105.21105957031
949.068420410156 942.29248046875 947.123229980469 968.402526855469 969.255126953125 970.574951171875 973.813659667969 976.697570800781 965.592956542969 973.162170410156 968.383605957031 968.483947753906 984.68212890625 979.528930664062 974.056945800781 982.857421875 980.697998046875 975.510925292969 979.451965332031 979.070739746094 983.461669921875 984.873718261719 982.942565917969 975.062133789062 974.323059082031 983.577270507812 979.902282714844 976.285095214844 984.197692871094 975.606262207031 984.735656738281 984.869323730469 993.20361328125 983.028686523438 968.250366210938 972.481994628906 966.882934570312 970.321533203125 978.242126464844 975.485717773438 977.537109375 980.37255859375 988.042175292969 988.410278320312 987.660522460938 978.389831542969 980.318908691406 980.924682617188 979.418395996094 981.964050292969 982.018920898438 977.787719726562 985.203369140625 977.20849609375 976.994201660156 971.323059082031 963.781127929688 966.126708984375 967.933471679688 977.132202148438 983.09033203125 984.788513183594 997.444030761719 991.057922363281 987.982666015625 992.777282714844 991.182922363281 985.25927734375 981.402587890625 980.034057617188 974.740234375 976.187927246094 979.005920410156 987.016784667969 992.543518066406 990.080932617188 982.915710449219 991.11767578125 1002.72845458984 999.1435546875 989.138366699219 997.201477050781 998.794677734375 1003.82293701172 1003.85119628906 1008.36126708984 1001.52532958984 998.432067871094 1005.49328613281 993.889831542969 993.671997070312 1005.45880126953 998.243286132812 1001.50360107422 1014.31396484375 1010.43811035156 1011.73248291016 1002.28570556641 995.617126464844 999.763000488281 997.341918945312 999.13134765625 996.881408691406 994.395751953125 991.467895507812 990.627197265625 997.924133300781 995.688781738281 989.781005859375 989.513488769531 979.169250488281 981.1650390625 976.907043457031 977.068237304688 968.960876464844 970.050231933594 971.751403808594 987.592895507812 990.510620117188 992.015197753906 1007.15161132812 1007.00909423828 1013.20910644531 1009.07672119141 1015.63598632812 1016.69409179688 1011.06286621094 1015.12908935547 1008.51794433594 1009.41027832031 1016.65258789062 1022.02172851562 1030.00122070312 1020.5888671875 1012.82806396484 1008.83569335938 1017.07843017578 1025.37963867188 1037.443359375 1032.74011230469 1039.11303710938 1049.01672363281 1061.27465820312 1064.53601074219 1071.41455078125 1074.67797851562 1088.29016113281 1088.71044921875 1101.24975585938 1106.57470703125
945.377380371094 942.185485839844 956.155334472656 964.744201660156 955.488098144531 965.498046875 966.273498535156 968.421508789062 965.932861328125 966.388366699219 979.892822265625 971.397827148438 978.018920898438 978.086059570312 966.930725097656 969.742248535156 966.61279296875 968.593627929688 974.316833496094 983.742797851562 984.400085449219 977.51806640625 969.473815917969 974.106201171875 970.7939453125 975.636840820312 981.374938964844 978.2333984375 984.258117675781 978.918395996094 982.559387207031 985.64892578125 989.07373046875 981.708312988281 975.821166992188 978.882629394531 970.8896484375 974.799438476562 971.480224609375 977.660583496094 979.310791015625 982.873413085938 984.02978515625 982.445129394531 983.43505859375 977.470092773438 973.318603515625 974.483093261719 970.9951171875 979.056335449219 979.06982421875 983.774230957031 987.195251464844 967.731262207031 970.043212890625 967.615844726562 963.2041015625 962.027526855469 968.050109863281 975.688781738281 988.992126464844 990.70361328125 990.765380859375 979.787414550781 981.727905273438 987.462707519531 985.125183105469 982.644470214844 975.109741210938 973.923278808594 970.752136230469 980.678100585938 978.731567382812 983.8525390625 1004.27868652344 990.324768066406 989.172058105469 989.282165527344 991.439086914062 997.173034667969 990.5048828125 991.163391113281 993.998718261719 1003.86553955078 1010.94476318359 1001.75531005859 1004.36029052734 996.793884277344 991.71044921875 988.688659667969 993.757263183594 995.443420410156 1003.64196777344 1006.78820800781 1010.92205810547 1023.58288574219 1017.38818359375 1011.43487548828 1001.08367919922 994.462829589844 998.838195800781 996.861511230469 998.845397949219 995.07568359375 994.963317871094 999.200378417969 999.576721191406 997.553527832031 993.393005371094 982.878723144531 980.598388671875 985.722412109375 986.306091308594 986.216857910156 977.885986328125 975.768310546875 986.575134277344 989.4755859375 983.424011230469 994.873474121094 1002.84167480469 1000.8623046875 1009.10577392578 1015.79730224609 1017.19207763672 1016.84069824219 1021.51458740234 1011.38385009766 1004.33874511719 1011.80938720703 1013.87591552734 1022.13665771484 1019.76519775391 1016.76251220703 1009.35028076172 1006.33520507812 1017.55413818359 1028.93212890625 1037.41223144531 1037.23022460938 1044.83349609375 1048.40771484375 1065.80737304688 1070.36364746094 1061.74548339844 1072.43835449219 1090.42346191406 1092.89636230469 1102.46728515625 1109.38098144531
947.404602050781 941.227478027344 957.290832519531 964.758911132812 963.519409179688 961.517578125 970.132080078125 970.790405273438 970.03515625 970.771484375 968.520080566406 972.064147949219 972.086791992188 974.942810058594 965.166625976562 964.626770019531 962.130493164062 974.869689941406 979.169616699219 979.207885742188 978.097778320312 981.553100585938 965.3369140625 967.003845214844 967.803771972656 974.3935546875 974.720275878906 972.007995605469 968.422790527344 972.3359375 977.555725097656 982.190734863281 983.080139160156 986.81787109375 982.574768066406 977.901123046875 970.192260742188 971.898986816406 975.083801269531 975.563049316406 977.422546386719 977.683471679688 988.952392578125 991.061279296875 976.874084472656 973.485473632812 966.781799316406 975.970886230469 980.897644042969 982.651123046875 976.120971679688 978.038269042969 976.380920410156 972.248596191406 970.487976074219 968.777465820312 974.922668457031 971.489624023438 957.424072265625 973.9853515625 990.947204589844 983.827514648438 990.276672363281 988.680114746094 986.79541015625 988.1259765625 984.659851074219 975.144409179688 977.481201171875 975.430236816406 973.012390136719 980.09814453125 979.270629882812 984.333068847656 986.917602539062 990.502258300781 976.466430664062 984.010986328125 983.01513671875 998.409423828125 996.447631835938 984.238220214844 994.815979003906 1003.59832763672 1010.06225585938 1002.068359375 1011.43432617188 1012.57073974609 1001.85992431641 987.533874511719 987.025390625 996.0146484375 1002.3447265625 1004.24084472656 1014.52545166016 1026.18493652344 1013.08483886719 1007.69805908203 999.716857910156 984.939392089844 988.235961914062 992.069396972656 998.492004394531 1000.47399902344 997.478881835938 990.221801757812 993.196899414062 987.970275878906 985.320251464844 987.599548339844 986.4716796875 996.085571289062 994.6484375 993.380981445312 986.672729492188 987.797729492188 994.081176757812 991.6943359375 990.943237304688 1005.20959472656 1002.98590087891 1009.00396728516 1006.7978515625 1008.88195800781 1017.43359375 1012.12701416016 1019.86566162109 1012.94921875 1012.755859375 1008.21569824219 1009.73291015625 1022.68084716797 1018.36193847656 1012.36627197266 1013.74096679688 1014.62939453125 1015.12780761719 1026.18994140625 1031.77722167969 1038.14270019531 1048.88586425781 1058.34936523438 1072.13122558594 1082.87109375 1084.84948730469 1085.50146484375 1089.94665527344 1100.33227539062 1106.42736816406 1113.91467285156
953.047424316406 953.456481933594 961.413208007812 969.659362792969 975.547241210938 973.161499023438 974.078796386719 969.778869628906 964.161254882812 967.20947265625 967.598327636719 967.851745605469 975.091735839844 974.1513671875 964.89306640625 966.205383300781 964.132019042969 969.068359375 969.685913085938 989.715393066406 983.523193359375 977.932250976562 972.118957519531 975.875610351562 969.121643066406 960.621337890625 974.098083496094 969.817810058594 967.551940917969 961.200439453125 974.674987792969 972.625305175781 971.025390625 974.92138671875 988.376037597656 973.720520019531 976.380676269531 984.954040527344 987.080383300781 972.879028320312 969.189758300781 970.071350097656 982.280822753906 979.399230957031 970.643310546875 972.649597167969 975.470703125 972.896301269531 978.843994140625 977.570739746094 976.027160644531 979.58740234375 967.941345214844 966.100158691406 973.043518066406 975.407592773438 981.021728515625 977.473022460938 971.700378417969 973.678344726562 987.028625488281 984.17431640625 982.33251953125 975.516357421875 979.819091796875 983.899597167969 985.176025390625 973.753540039062 974.351867675781 976.457336425781 975.458435058594 978.092163085938 975.908325195312 980.136657714844 979.16552734375 983.008605957031 978.735168457031 985.401245117188 982.302429199219 985.643127441406 984.98486328125 985.012329101562 992.61669921875 998.183776855469 1015.01007080078 1010.96704101562 1021.75762939453 1013.07250976562 999.777893066406 994.008361816406 994.487609863281 998.632568359375 1015.53240966797 1012.95135498047 1008.90826416016 1008.40197753906 996.834228515625 1006.4150390625 988.828857421875 984.736633300781 984.545166015625 989.994812011719 986.58935546875 988.903686523438 995.893371582031 986.564331054688 987.486267089844 977.818054199219 988.637451171875 988.789428710938 989.175903320312 992.905822753906 1001.16766357422 998.454528808594 997.095031738281 990.532348632812 989.192443847656 986.252014160156 999.08251953125 1006.4052734375 1002.1767578125 1003.85864257812 1007.51348876953 1007.31134033203 1012.00811767578 1008.35394287109 1005.76037597656 1005.06890869141 1008.38287353516 1008.44171142578 1012.42590332031 1022.55987548828 1019.59094238281 1016.50457763672 1013.08898925781 1020.36999511719 1024.03735351562 1028.48657226562 1033.90844726562 1048.68859863281 1061.74841308594 1078.2626953125 1084.55322265625 1081.86633300781 1088.89416503906 1099.00708007812 1106.09973144531 1106.0234375 1109.701171875 1115.33386230469
948.306030273438 962.284484863281 967.19482421875 982.346313476562 974.594665527344 970.990539550781 975.431518554688 968.475158691406 964.727966308594 960.743286132812 962.321105957031 972.526672363281 972.6318359375 967.677307128906 967.814758300781 973.299255371094 974.423828125 973.164367675781 975.786315917969 981.908264160156 988.732116699219 981.853210449219 971.522338867188 972.307678222656 964.894104003906 968.740966796875 968.680480957031 975.0390625 967.284362792969 968.979187011719 977.532653808594 974.859619140625 965.629333496094 975.255676269531 982.758056640625 980.152221679688 977.109375 983.297973632812 986.862121582031 979.87060546875 968.144897460938 970.576721191406 977.69140625 978.227905273438 981.813720703125 977.827514648438 971.909362792969 971.594848632812 980.76904296875 979.703857421875 977.245727539062 982.290710449219 975.213195800781 970.7861328125 974.636657714844 969.96875 980.321472167969 974.729858398438 978.109313964844 973.056396484375 988.94287109375 980.133361816406 978.226257324219 979.01904296875 977.235290527344 984.292358398438 986.29052734375 969.433410644531 976.387939453125 975.615478515625 973.59033203125 972.099609375 975.103393554688 978.2607421875 973.226928710938 969.894226074219 975.688110351562 976.098205566406 972.879028320312 977.7529296875 985.587219238281 993.060363769531 989.959411621094 999.144653320312 1011.48956298828 1019.46563720703 1024.17358398438 1012.58856201172 1004.35198974609 989.187377929688 996.109741210938 1004.52954101562 1016.30084228516 1013.01055908203 1013.40295410156 1011.15814208984 1011.40698242188 996.558654785156 988.558471679688 992.855712890625 988.239501953125 990.862365722656 990.718872070312 985.273742675781 991.791442871094 985.648864746094 978.378173828125 976.627868652344 990.244201660156 986.986999511719 993.703369140625 1000.98516845703 999.446838378906 998.455017089844 1004.48944091797 995.651123046875 984.592529296875 990.987060546875 998.756591796875 1005.18560791016 1001.94293212891 999.875732421875 1009.3017578125 1011.44421386719 1007.81695556641 1006.48529052734 1003.93170166016 991.666870117188 995.140197753906 1004.89501953125 1010.07873535156 1016.44439697266 1027.39343261719 1024.4892578125 1024.92517089844 1024.61474609375 1028.64526367188 1038.31774902344 1043.41259765625 1058.05017089844 1068.34265136719 1078.85705566406 1093.83215332031 1098.77453613281 1102.9189453125 1108.501953125 1113.1337890625 1111.3134765625 1105.09033203125 1111.42626953125
942.205139160156 954.951904296875 972.654846191406 977.079711914062 979.046142578125 969.152954101562 963.778137207031 963.152648925781 961.341979980469 962.184509277344 966.445678710938 972.196411132812 970.693298339844 972.574645996094 968.475158691406 976.592224121094 976.740295410156 988.074584960938 982.128723144531 977.455749511719 971.445068359375 974.467041015625 971.664916992188 975.796997070312 973.949401855469 966.587097167969 968.52978515625 971.5986328125 969.076477050781 971.498168945312 974.2998046875 975.5390625 971.078735351562 983.223388671875 979.891784667969 992.398315429688 985.604248046875 983.744567871094 982.760620117188 976.693481445312 971.304992675781 976.9716796875 968.286499023438 974.397277832031 977.866638183594 970.95751953125 968.375671386719 966.600463867188 973.644226074219 969.081970214844 970.000427246094 975.30517578125 974.093139648438 973.944580078125 972.481262207031 978.173217773438 977.099670410156 969.894958496094 973.399780273438 973.9873046875 983.310241699219 982.0341796875 979.60693359375 974.11865234375 971.674438476562 980.724609375 985.408569335938 987.794250488281 978.651550292969 973.050964355469 975.969665527344 973.212219238281 972.745178222656 978.018310546875 978.598937988281 980.840698242188 978.003479003906 976.932189941406 982.108276367188 984.35888671875 983.983520507812 990.337158203125 985.187133789062 996.137634277344 1010.48803710938 1013.677734375 1003.55737304688 1005.25482177734 1001.697265625 994.135314941406 993.621948242188 1007.18957519531 1014.94854736328 1015.25787353516 1009.27490234375 1013.99432373047 1006.93054199219 993.804443359375 983.880798339844 987.211975097656 984.759338378906 985.885314941406 980.201293945312 980.892395019531 981.677062988281 980.349365234375 980.145751953125 976.452697753906 980.236206054688 989.414978027344 991.138305664062 996.988220214844 995.739318847656 1002.35748291016 996.737182617188 996.4794921875 990.735168457031 991.972351074219 991.9423828125 996.198181152344 999.730407714844 1006.43200683594 1012.44738769531 1012.02850341797 1011.11877441406 999.894592285156 996.20458984375 1001.10241699219 1005.23492431641 1011.91479492188 1012.18975830078 1022.91497802734 1028.37365722656 1031.97961425781 1033.57373046875 1027.94543457031 1043.92578125 1044.86206054688 1051.47497558594 1063.75439453125 1065.271484375 1070.67761230469 1080.13342285156 1098.05773925781 1106.14147949219 1109.13647460938 1104.6103515625 1108.51159667969 1113.45971679688 1117.76257324219
946.118103027344 955.174194335938 959.643432617188 965.432861328125 961.493774414062 953.098205566406 951.451416015625 952.048461914062 955.018127441406 962.122253417969 965.275207519531 966.059143066406 968.892822265625 969.911315917969 972.76123046875 975.595703125 983.328369140625 979.427978515625 978.854675292969 972.707702636719 966.532165527344 977.302429199219 981.712890625 985.5458984375 982.451843261719 974.682189941406 968.756225585938 965.656860351562 969.522583007812 968.761901855469 980.424438476562 970.305053710938 971.070129394531 975.826843261719 985.375244140625 985.046020507812 983.861450195312 982.081176757812 974.893676757812 980.161926269531 970.413757324219 982.213989257812 968.746704101562 971.05078125 973.1435546875 967.622924804688 963.004150390625 965.63232421875 978.561401367188 974.471313476562 983.252502441406 981.221496582031 976.949279785156 971.387817382812 971.352722167969 969.686340332031 979.069213867188 973.673767089844 963.482055664062 967.229125976562 969.846069335938 977.724487304688 974.265441894531 981.968811035156 973.00634765625 981.961059570312 985.035278320312 983.661743164062 982.037414550781 975.938171386719 977.805236816406 986.153381347656 980.4306640625 974.537780761719 980.1435546875 987.354919433594 978.624450683594 979.778198242188 980.505493164062 985.195007324219 986.354675292969 983.090026855469 979.806274414062 980.5517578125 995.7822265625 1000.51147460938 1004.13726806641 999.747741699219 998.463928222656 991.614074707031 987.420654296875 1003.09619140625 1009.17828369141 1004.33715820312 1002.30615234375 1003.45648193359 998.973266601562 986.648376464844 980.642395019531 985.660949707031 976.981567382812 983.161376953125 982.943969726562 981.728515625 980.535034179688 976.081909179688 979.436889648438 977.632873535156 985.209167480469 989.828491210938 991.894165039062 992.000793457031 995.193115234375 1004.13446044922 1004.96813964844 989.581970214844 995.095458984375 997.540466308594 993.242980957031 996.556457519531 996.6650390625 1006.189453125 1007.84820556641 1006.59106445312 1007.71929931641 1003.146484375 1008.60388183594 1015.79467773438 1014.03424072266 1012.99639892578 1017.03851318359 1026.66540527344 1039.26574707031 1048.3447265625 1041.74194335938 1036.18640136719 1037.89624023438 1045.32006835938 1058.67883300781 1074.14221191406 1071.95434570312 1072.67309570312 1086.31115722656 1098.34045410156 1104.25402832031 1104.08898925781 1100.37646484375 1112.73901367188 1115.88073730469 1108.23974609375
948.846496582031 959.697204589844 958.79296875 954.51953125 954.322326660156 947.611999511719 953.221313476562 950.564880371094 958.222778320312 961.833679199219 968.481628417969 969.577270507812 964.275390625 978.308044433594 978.318786621094 972.364929199219 970.936096191406 973.7587890625 976.606323242188 979.26611328125 977.957702636719 984.466186523438 978.165832519531 981.166748046875 976.920227050781 972.124328613281 955.7509765625 965.398986816406 969.38427734375 975.330749511719 975.426391601562 978.2138671875 982.198364257812 976.267028808594 979.765686035156 978.130004882812 979.172058105469 974.701049804688 973.319396972656 972.600280761719 967.213500976562 965.565795898438 971.202758789062 971.969482421875 967.568786621094 976.771240234375 973.816528320312 974.411437988281 975.545776367188 973.463439941406 977.699768066406 971.992980957031 988.21142578125 976.824157714844 967.556884765625 975.424072265625 974.916381835938 968.997192382812 965.351501464844 969.818298339844 962.722229003906 971.558227539062 976.44970703125 980.7646484375 970.381225585938 976.524230957031 982.158386230469 985.876159667969 988.358947753906 982.424377441406 973.349182128906 984.431274414062 976.575012207031 971.452819824219 969.774658203125 974.817199707031 973.057006835938 976.8583984375 981.57568359375 983.663146972656 981.962890625 978.943481445312 979.247741699219 984.463562011719 992.251586914062 997.763793945312 992.049438476562 992.845092773438 986.398559570312 987.163879394531 986.69580078125 992.273254394531 984.866516113281 993.59033203125 990.985046386719 992.9111328125 991.310546875 983.550170898438 983.395202636719 986.283142089844 979.729675292969 981.647705078125 981.0107421875 972.332824707031 975.536254882812 985.068298339844 982.321350097656 981.948852539062 980.71630859375 984.770324707031 987.742126464844 988.145812988281 998.154541015625 1003.52935791016 997.929260253906 995.607666015625 990.256469726562 996.364685058594 994.484680175781 1001.96795654297 995.967163085938 998.960510253906 1007.09606933594 1001.51800537109 1002.72998046875 1005.62976074219 1010.25775146484 1015.49267578125 1026.16540527344 1033.18103027344 1033.79724121094 1033.09619140625 1040.7373046875 1044.56481933594 1052.41015625 1049.07067871094 1048.02783203125 1055.63488769531 1056.68542480469 1066.82849121094 1079.28857421875 1084.99487304688 1094.74584960938 1106.37768554688 1104.32055664062 1113.56640625 1118.67907714844 1124.87280273438 1121.73095703125 1124.89636230469
943.900329589844 944.801086425781 948.482666015625 953.25634765625 955.653869628906 951.716613769531 948.030639648438 946.711608886719 956.7314453125 960.989440917969 962.120483398438 972.172668457031 971.124938964844 973.213134765625 976.39892578125 966.3779296875 976.101135253906 976.831604003906 980.218139648438 975.953247070312 977.762817382812 987.152221679688 986.819396972656 986.020385742188 977.509460449219 970.1357421875 962.739379882812 966.664794921875 963.100463867188 972.627075195312 985.119140625 987.478088378906 993.010620117188 990.75439453125 986.546875 984.218505859375 979.655578613281 979.868347167969 975.550964355469 972.889709472656 978.513244628906 969.916015625 964.3486328125 969.627380371094 975.799499511719 984.59130859375 979.563659667969 983.404602050781 977.331115722656 967.103820800781 962.085327148438 972.0244140625 976.739196777344 970.099243164062 970.574645996094 966.984191894531 972.673767089844 980.388854980469 977.257141113281 970.326354980469 972.166625976562 975.419616699219 980.715881347656 973.571533203125 970.22998046875 974.531494140625 985.240295410156 987.120422363281 986.781921386719 978.565368652344 978.083740234375 976.061767578125 969.238037109375 974.317810058594 968.518005371094 977.812683105469 968.459655761719 972.484558105469 976.897338867188 977.048950195312 983.813720703125 979.516967773438 983.885864257812 989.921691894531 990.674438476562 992.472229003906 990.462158203125 981.796447753906 980.408813476562 979.854248046875 981.99169921875 988.64404296875 987.043090820312 979.317321777344 987.800415039062 984.744140625 980.756286621094 979.445495605469 985.643920898438 984.263977050781 986.42041015625 986.828308105469 982.998107910156 978.651916503906 985.530639648438 985.818603515625 983.179565429688 983.170837402344 990.41943359375 989.053466796875 992.96142578125 985.922180175781 991.2685546875 986.702941894531 993.660400390625 995.65673828125 999.863220214844 999.758483886719 994.993347167969 992.096374511719 990.007446289062 994.807006835938 1006.27966308594 1008.74578857422 1011.28588867188 1018.92016601562 1015.06921386719 1016.30834960938 1027.41931152344 1025.66784667969 1037.90905761719 1039.19262695312 1043.60546875 1041.37585449219 1049.4521484375 1049.55639648438 1061.32678222656 1060.28979492188 1059.33569335938 1067.89221191406 1086.76062011719 1090.01220703125 1095.12036132812 1109.85192871094 1117.80651855469 1121.63195800781 1133.97570800781 1145.49194335938 1138.12219238281 1137.39562988281
940.882202148438 941.708129882812 949.911254882812 948.846252441406 953.860656738281 952.378112792969 957.050964355469 947.214538574219 960.629455566406 959.070495605469 967.7138671875 964.347290039062 966.954040527344 967.489624023438 975.943054199219 972.64794921875 977.848083496094 977.27587890625 969.524230957031 979.683044433594 969.463134765625 978.6240234375 983.115966796875 979.748596191406 978.089416503906 972.6552734375 963.41162109375 965.163330078125 968.178344726562 977.213195800781 981.449035644531 989.498596191406 1003.30517578125 992.129699707031 981.296997070312 976.232238769531 966.71923828125 978.556762695312 977.07470703125 971.408142089844 978.659606933594 971.600158691406 973.17041015625 968.890808105469 964.630981445312 971.491333007812 975.971435546875 975.138061523438 972.735656738281 969.276611328125 960.314086914062 962.140869140625 970.674743652344 966.075134277344 969.23486328125 969.81396484375 971.279968261719 979.601379394531 973.45849609375 972.435668945312 972.172912597656 977.147399902344 981.921508789062 970.129821777344 969.148559570312 977.344055175781 989.629333496094 991.911437988281 979.35302734375 984.591857910156 989.778686523438 975.091674804688 966.162780761719 964.749328613281 974.900207519531 973.8642578125 976.29248046875 972.893127441406 970.037841796875 967.981689453125 974.852783203125 974.683776855469 981.563110351562 988.223937988281 989.250305175781 991.356201171875 987.927307128906 985.162292480469 979.542419433594 967.563537597656 969.252075195312 980.559997558594 995.528747558594 985.606079101562 986.182861328125 982.520812988281 976.576782226562 978.848388671875 979.318054199219 987.746215820312 982.842102050781 987.7119140625 983.87109375 986.150085449219 983.623474121094 981.968078613281 979.832702636719 987.443420410156 985.778198242188 982.074096679688 996.73486328125 983.322204589844 978.20458984375 993.261108398438 984.547058105469 988.31689453125 994.22998046875 990.246704101562 993.974914550781 998.518920898438 996.188049316406 989.175476074219 1002.70068359375 1004.59228515625 1015.62628173828 1019.76574707031 1020.62817382812 1018.67028808594 1017.90093994141 1029.88854980469 1041.86950683594 1047.9765625 1044.13488769531 1047.63464355469 1053.884765625 1058.40283203125 1062.03942871094 1066.97338867188 1067.79736328125 1079.31469726562 1088.68103027344 1097.25671386719 1102.93310546875 1119.48315429688 1119.25671386719 1128.76379394531 1148.14172363281 1154.37121582031 1152.84362792969 1146.58312988281
949.128173828125 942.113647460938 945.79248046875 950.816650390625 955.875427246094 944.999450683594 956.40087890625 953.151733398438 961.288269042969 957.408752441406 958.362060546875 965.952087402344 964.1396484375 972.03759765625 976.467834472656 971.900390625 983.146423339844 975.769165039062 973.62939453125 981.193420410156 977.91943359375 973.863403320312 980.044250488281 985.198791503906 973.406127929688 973.682067871094 970.721130371094 969.163452148438 964.364379882812 973.030395507812 984.355346679688 990.793884277344 1000.25695800781 997.530151367188 984.576477050781 966.407104492188 965.214050292969 968.024963378906 967.290954589844 978.672607421875 970.16552734375 961.330322265625 959.396667480469 958.316162109375 963.556457519531 969.018859863281 960.934875488281 966.591186523438 972.34814453125 970.7939453125 965.715270996094 964.076293945312 970.469543457031 963.894470214844 961.430541992188 968.040405273438 966.893249511719 973.581665039062 971.641662597656 976.836059570312 983.453552246094 974.371032714844 980.411071777344 977.759216308594 974.12939453125 977.14599609375 973.22802734375 978.555603027344 975.000915527344 974.943298339844 982.807250976562 975.999450683594 982.257019042969 971.290405273438 974.112243652344 975.7587890625 976.982055664062 978.281982421875 975.818298339844 976.4921875 972.066467285156 972.378234863281 984.811889648438 983.432250976562 1000.93756103516 1002.55102539062 991.1240234375 981.496154785156 973.627990722656 973.743896484375 972.144836425781 974.698425292969 985.70458984375 984.429443359375 979.751831054688 983.274353027344 974.80419921875 969.774475097656 971.070678710938 976.644836425781 986.849792480469 989.375671386719 983.482421875 978.918701171875 985.999877929688 980.205017089844 980.913208007812 982.603942871094 982.420349121094 995.150146484375 989.476379394531 998.388122558594 994.172424316406 986.374145507812 988.014953613281 982.867065429688 992.265930175781 991.66064453125 999.575500488281 991.835571289062 980.283081054688 981.581176757812 985.566955566406 996.250854492188 1006.52557373047 1009.21417236328 1023.91400146484 1024.67749023438 1017.9599609375 1025.75646972656 1037.80163574219 1044.47314453125 1051.57421875 1059.5185546875 1069.58056640625 1070.22570800781 1071.3251953125 1069.75598144531 1076.81213378906 1080.22204589844 1087.60083007812 1096.48205566406 1114.30358886719 1125.13134765625 1127.91857910156 1148.46203613281 1162.8994140625 1160.18530273438 1162.72326660156 1159.46215820312
945.432373046875 943.853332519531 950.744812011719 950.170776367188 950.713073730469 951.516235351562 944.627136230469 964.085754394531 963.914733886719 960.694152832031 962.358337402344 966.7412109375 972.963562011719 973.115234375 969.904296875 969.305358886719 978.090515136719 981.174926757812 975.089416503906 980.966125488281 983.078186035156 977.969482421875 980.286437988281 976.277587890625 977.505981445312 974.143798828125 977.296020507812 964.638366699219 963.828430175781 976.014038085938 975.873291015625 985.303283691406 977.500427246094 985.846862792969 981.383178710938 969.483093261719 967.196228027344 965.562744140625 966.446105957031 971.80517578125 968.121276855469 971.363586425781 964.767761230469 967.304138183594 961.697204589844 959.010986328125 961.758361816406 962.654479980469 960.833679199219 971.569885253906 971.037536621094 972.891845703125 969.191345214844 958.573852539062 960.954223632812 968.559509277344 974.929626464844 974.876342773438 979.737487792969 974.91064453125 971.732055664062 976.486572265625 976.493041992188 981.603088378906 977.362915039062 971.229614257812 972.418518066406 967.137939453125 973.9384765625 972.0361328125 976.571350097656 976.832885742188 965.656127929688 970.208068847656 974.581787109375 974.735168457031 974.238586425781 972.017272949219 973.892883300781 970.271850585938 976.316528320312 973.114196777344 973.651550292969 982.19970703125 990.719970703125 989.25146484375 986.061950683594 977.092407226562 979.79443359375 974.558471679688 975.39990234375 973.894409179688 976.9228515625 986.422424316406 976.951538085938 971.6923828125 975.375549316406 969.644409179688 966.356018066406 969.144104003906 974.111450195312 979.882751464844 969.439270019531 975.156372070312 980.114440917969 988.511352539062 979.595703125 980.266845703125 987.087646484375 999.345397949219 993.155578613281 997.996704101562 996.680603027344 988.33837890625 984.650268554688 996.018920898438 1006.40539550781 1007.35192871094 1001.62646484375 998.581970214844 986.125366210938 984.649719238281 988.543762207031 985.540771484375 1005.37377929688 1017.66027832031 1032.91845703125 1025.63256835938 1028.03649902344 1044.68322753906 1048.87622070312 1053.24487304688 1054.89440917969 1065.28686523438 1073.78869628906 1080.12890625 1075.69592285156 1082.44689941406 1077.85388183594 1071.78356933594 1088.50439453125 1100.43029785156 1117.21313476562 1124.43225097656 1133.98645019531 1152.03344726562 1167.9599609375 1169.89086914062 1166.99255371094 1165.32727050781
952.005920410156 957.882080078125 958.795959472656 953.649780273438 955.779052734375 951.790466308594 962.71728515625 968.972045898438 967.772277832031 968.925659179688 971.116760253906 965.707763671875 973.123718261719 973.765014648438 978.043640136719 983.058227539062 977.0009765625 981.097106933594 973.298522949219 970.950927734375 975.888916015625 968.103149414062 974.730773925781 969.108825683594 971.559143066406 972.165222167969 977.722473144531 971.285217285156 967.904418945312 978.989440917969 975.275695800781 974.612915039062 979.484313964844 976.191223144531 975.060729980469 972.99853515625 968.365112304688 966.451965332031 966.931457519531 972.230346679688 966.499206542969 970.124145507812 963.556884765625 956.572692871094 956.356384277344 965.97607421875 957.3564453125 959.366271972656 946.831176757812 960.013427734375 973.223754882812 978.631286621094 968.639038085938 962.635681152344 954.626342773438 971.985656738281 973.403625488281 975.126892089844 973.998168945312 977.314758300781 969.238891601562 969.122253417969 971.798217773438 977.515625 973.902282714844 977.028442382812 973.809143066406 966.193664550781 968.278076171875 965.605529785156 964.311218261719 958.251892089844 961.6650390625 964.810852050781 965.573547363281 967.256286621094 972.391296386719 967.512329101562 970.520935058594 973.558471679688 968.342407226562 968.823852539062 970.209838867188 977.573120117188 979.128540039062 976.087280273438 975.717651367188 974.426818847656 972.619812011719 969.517333984375 970.849670410156 970.058471679688 972.6181640625 976.85595703125 974.761413574219 964.810241699219 961.793762207031 970.805908203125 970.182495117188 973.758911132812 977.092224121094 980.316528320312 971.984252929688 974.349304199219 987.149719238281 988.524658203125 987.309020996094 990.52880859375 998.345092773438 998.717590332031 995.383361816406 998.145751953125 998.462951660156 994.804077148438 991.246154785156 1002.19171142578 1008.44152832031 1015.21826171875 997.497924804688 998.724243164062 992.926025390625 988.259826660156 992.893920898438 988.433532714844 999.574768066406 1012.70568847656 1015.84558105469 1021.81713867188 1043.95935058594 1052.45446777344 1060.55126953125 1059.525390625 1062.13671875 1077.57495117188 1081.80725097656 1085.58142089844 1092.39282226562 1084.34997558594 1082.4375 1088.43664550781 1092.78991699219 1107.91137695312 1124.66467285156 1129.53332519531 1145.47692871094 1149.337890625 1158.71374511719 1166.20434570312 1166.81652832031 1168.14270019531
962.476196289062 958.788940429688 960.849182128906 955.982788085938 962.85986328125 965.095397949219 958.772277832031 965.792663574219 964.364990234375 968.342529296875 960.734741210938 976.757568359375 977.308227539062 979.623229980469 975.793823242188 970.807800292969 982.186096191406 980.099182128906 975.603881835938 976.413940429688 973.6416015625 973.137634277344 976.171813964844 970.297119140625 965.613830566406 966.7158203125 966.804626464844 979.487426757812 974.843933105469 974.129943847656 969.8291015625 983.474182128906 980.278991699219 970.121032714844 967.106140136719 971.435180664062 970.080627441406 962.950500488281 965.848876953125 959.524475097656 961.882690429688 977.681518554688 969.98486328125 960.443176269531 960.432312011719 961.018249511719 951.220520019531 950.741333007812 950.458923339844 971.275085449219 974.13671875 980.474304199219 969.585693359375 963.134765625 967.064758300781 966.888305664062 971.236022949219 971.527709960938 972.298461914062 975.611999511719 965.762634277344 958.62890625 962.138854980469 965.193786621094 972.891662597656 958.869995117188 971.954406738281 965.139526367188 965.561218261719 964.355651855469 964.185180664062 960.6279296875 963.566467285156 966.537353515625 965.89306640625 966.548156738281 967.378845214844 976.392150878906 976.518676757812 976.461364746094 968.867797851562 971.956787109375 967.968872070312 978.335876464844 970.446594238281 974.536926269531 970.894348144531 974.630615234375 967.345520019531 966.43408203125 971.587646484375 967.204772949219 968.554748535156 965.397155761719 961.747497558594 962.453002929688 965.006591796875 965.580505371094 971.267639160156 970.616455078125 984.410217285156 977.424072265625 978.85986328125 986.077880859375 987.962097167969 984.286865234375 998.042541503906 995.976928710938 992.180847167969 986.097961425781 994.746704101562 993.098876953125 993.655334472656 998.277526855469 997.158447265625 1010.58459472656 1002.90509033203 1009.81823730469 1013.56079101562 1011.56915283203 1001.22186279297 999.471801757812 997.685729980469 996.441162109375 995.252075195312 1000.62689208984 1018.3017578125 1031.87194824219 1045.88317871094 1058.61804199219 1061.86340332031 1062.94104003906 1074.57153320312 1087.4912109375 1095.27673339844 1095.65197753906 1105.93237304688 1094.77172851562 1086.38940429688 1090.26953125 1100.87365722656 1109.78540039062 1128.30029296875 1135.36853027344 1149.98278808594 1148.185546875 1151.98181152344 1158.29431152344 1159.86547851562 1156.60522460938
960.208129882812 952.405700683594 958.404846191406 962.410217285156 965.917236328125 966.192321777344 970.412353515625 963.484130859375 963.5615234375 967.025451660156 968.089782714844 969.341186523438 970.178161621094 975.86865234375 973.649291992188 970.680725097656 978.458374023438 980.048156738281 976.964660644531 975.797973632812 970.12353515625 971.258239746094 972.058288574219 960.748901367188 958.259521484375 961.667541503906 963.705810546875 975.488708496094 975.279968261719 974.831604003906 975.132690429688 970.442138671875 974.78955078125 979.737976074219 972.999206542969 968.3623046875 966.672607421875 962.056274414062 966.748474121094 961.001586914062 964.017150878906 962.413513183594 956.668701171875 962.727172851562 965.660888671875 956.709045410156 951.595886230469 959.552368164062 966.210815429688 972.23095703125 981.322692871094 981.474365234375 976.559814453125 970.740112304688 966.165954589844 966.495544433594 968.466125488281 969.493286132812 973.6005859375 969.366149902344 965.012939453125 969.636291503906 959.229248046875 963.403747558594 974.172912597656 969.910583496094 969.450378417969 961.827270507812 967.17529296875 960.281188964844 964.746520996094 972.616760253906 969.96435546875 966.825927734375 969.747192382812 973.713989257812 964.941223144531 970.777893066406 968.283386230469 967.333801269531 972.298522949219 969.675354003906 968.646301269531 977.462280273438 979.919311523438 973.019287109375 966.386291503906 968.752868652344 961.037719726562 962.579711914062 964.777893066406 970.808044433594 968.149597167969 968.317016601562 976.311767578125 984.667419433594 981.566589355469 977.309753417969 963.427185058594 973.792236328125 981.254211425781 974.781860351562 975.864807128906 987.198120117188 993.447387695312 991.999755859375 999.5009765625 999.688171386719 996.638305664062 988.70556640625 993.375427246094 996.061950683594 994.930480957031 998.079040527344 1005.55310058594 1009.73693847656 1010.76348876953 1013.5576171875 1012.00628662109 1008.81890869141 1006.15850830078 1006.27722167969 1011.09515380859 1006.01525878906 999.634582519531 1007.30572509766 1020.36505126953 1032.24206542969 1043.62023925781 1054.31579589844 1060.36743164062 1067.17724609375 1080.2412109375 1098.94519042969 1092.32019042969 1100.99548339844 1097.24658203125 1092.82250976562 1093.11828613281 1096.380859375 1107.33435058594 1118.33764648438 1128.96105957031 1133.73217773438 1137.01916503906 1140.43188476562 1139.15454101562 1148.12805175781 1153.63842773438 1151.46276855469
959.194641113281 955.96484375 961.077026367188 965.314086914062 964.219055175781 968.187683105469 970.415893554688 968.856140136719 969.083923339844 954.110717773438 967.576782226562 967.108337402344 968.7705078125 978.215759277344 973.897033691406 966.064514160156 971.471618652344 975.800048828125 977.514953613281 981.873229980469 974.1943359375 974.603942871094 972.26416015625 963.650390625 945.523132324219 958.53857421875 957.882629394531 972.736877441406 975.926513671875 981.69677734375 976.029418945312 977.319763183594 966.164489746094 974.497924804688 969.213806152344 971.106689453125 973.912414550781 966.574523925781 966.416198730469 964.621276855469 961.455810546875 961.882507324219 956.522766113281 954.374084472656 966.697448730469 959.68798828125 950.784729003906 958.900756835938 964.586730957031 963.056274414062 971.989013671875 983.629516601562 977.212097167969 977.37890625 962.784057617188 960.021057128906 962.245727539062 964.836547851562 964.338073730469 959.882202148438 965.752746582031 970.11767578125 966.503173828125 960.618469238281 963.48193359375 972.459594726562 963.575561523438 962.447265625 967.853088378906 964.037963867188 965.794982910156 969.266357421875 968.57177734375 977.047180175781 975.119018554688 972.894897460938 972.891418457031 965.436096191406 960.977416992188 964.543579101562 962.619445800781 961.214599609375 962.992797851562 971.544677734375 973.859313964844 973.612365722656 965.427124023438 968.690612792969 964.917541503906 966.541076660156 961.362487792969 965.88134765625 969.661560058594 968.590454101562 979.424560546875 984.572509765625 977.12353515625 960.550720214844 965.681030273438 972.115844726562 973.001342773438 981.620056152344 973.889343261719 982.239379882812 981.943298339844 995.564270019531 992.861083984375 986.380187988281 983.456909179688 986.255493164062 980.73388671875 991.506774902344 995.019226074219 995.781860351562 998.196166992188 1004.30865478516 1006.83013916016 1009.43518066406 1008.72839355469 1005.572265625 1004.41680908203 1005.41906738281 1010.29809570312 1012.15997314453 1008.72790527344 1014.85186767578 1019.40649414062 1024.80200195312 1039.00219726562 1050.34375 1067.72839355469 1071.92028808594 1082.39416503906 1095.62133789062 1091.95581054688 1097.224609375 1100.017578125 1105.04455566406 1101.494140625 1101.83630371094 1113.92919921875 1125.23010253906 1134.76049804688 1129.68664550781 1134.36279296875 1136.8271484375 1134.36511230469 1139.65551757812 1142.138671875 1147.71020507812
962.496337890625 960.750610351562 968.316162109375 970.183044433594 968.184143066406 970.810485839844 969.915649414062 965.005065917969 966.344604492188 961.271179199219 969.104858398438 973.253173828125 968.428100585938 977.926635742188 967.791442871094 969.8544921875 971.720031738281 973.647583007812 982.090148925781 975.064514160156 966.44873046875 958.981994628906 965.958984375 968.513488769531 956.556945800781 952.958557128906 958.868347167969 967.969909667969 978.741821289062 974.149841308594 970.98046875 975.965942382812 971.832458496094 969.328796386719 963.666748046875 968.416259765625 963.408569335938 965.09619140625 964.582458496094 955.020080566406 953.569702148438 956.578186035156 964.085205078125 965.732971191406 960.253845214844 964.61962890625 962.018676757812 965.307678222656 959.52587890625 956.600769042969 967.269409179688 979.964660644531 979.071350097656 977.279235839844 961.786560058594 965.731079101562 959.385559082031 966.213256835938 963.64453125 959.252746582031 959.012023925781 957.062744140625 964.011962890625 968.714233398438 964.458068847656 970.496948242188 962.629516601562 969.074035644531 959.753051757812 966.934326171875 967.182678222656 964.732116699219 969.317199707031 972.428588867188 980.911254882812 978.890014648438 965.099975585938 967.346557617188 963.256164550781 962.443908691406 956.452941894531 959.644714355469 963.751159667969 981.464416503906 971.150329589844 972.449523925781 967.729248046875 969.576171875 966.641418457031 968.398376464844 968.714416503906 966.769653320312 976.721862792969 976.081420898438 980.398071289062 971.798461914062 968.481201171875 965.779113769531 963.125061035156 976.436462402344 978.246765136719 970.071105957031 985.652160644531 985.894653320312 980.259155273438 984.853637695312 976.592956542969 975.775329589844 973.44384765625 981.317199707031 986.733947753906 988.162902832031 981.001403808594 986.571655273438 994.396789550781 1003.96697998047 999.929260253906 1004.72784423828 1005.88116455078 1008.13397216797 1003.54467773438 1010.03820800781 1012.47509765625 1017.95184326172 1018.03619384766 1024.18579101562 1022.5791015625 1021.69085693359 1029.873046875 1033.33483886719 1044.02905273438 1071.13488769531 1080.04443359375 1097.63342285156 1100.32153320312 1098.27355957031 1108.02233886719 1101.65966796875 1098.2626953125 1098.30688476562 1107.36499023438 1124.76916503906 1128.9765625 1127.16870117188 1132.73901367188 1133.79052734375 1134.533203125 1131.79248046875 1131.58679199219 1128.9970703125
962.208190917969 958.426330566406 965.91357421875 967.626342773438 959.704833984375 968.273193359375 959.125427246094 956.998901367188 964.042419433594 965.687194824219 970.386291503906 970.248962402344 964.4345703125 973.764465332031 978.530090332031 973.74853515625 965.70458984375 975.717407226562 977.028503417969 956.858093261719 964.47021484375 968.674499511719 964.362121582031 963.822326660156 955.636840820312 957.501342773438 963.404968261719 963.884460449219 977.122985839844 971.834228515625 962.549011230469 966.454650878906 962.367980957031 965.281005859375 964.567077636719 971.913818359375 968.56689453125 971.924072265625 965.153381347656 954.63623046875 957.724243164062 956.866821289062 964.518615722656 957.154479980469 958.556213378906 967.31982421875 965.141296386719 963.559020996094 965.2490234375 960.94873046875 972.075134277344 971.698974609375 978.40380859375 975.765747070312 966.346252441406 964.157836914062 969.313354492188 966.74658203125 963.449035644531 965.127868652344 961.88671875 958.4873046875 957.114868164062 964.909118652344 962.431945800781 966.877990722656 966.2529296875 970.877746582031 959.151184082031 964.486389160156 970.151550292969 969.478515625 954.399597167969 963.564453125 975.133911132812 968.645812988281 964.60791015625 971.475036621094 962.636840820312 966.180297851562 961.135192871094 957.196716308594 966.254150390625 960.518249511719 973.335266113281 972.80419921875 970.145263671875 971.955322265625 970.564758300781 963.764404296875 972.925415039062 974.087707519531 976.638977050781 972.511474609375 970.298400878906 972.380126953125 967.381042480469 973.208618164062 968.36083984375 972.671630859375 983.635620117188 981.430847167969 986.763549804688 977.600524902344 979.794860839844 980.384338378906 973.769836425781 973.201171875 978.522766113281 984.091064453125 991.541076660156 993.898132324219 993.244995117188 991.265808105469 998.752807617188 998.931091308594 1005.10021972656 1017.59436035156 1013.60015869141 1017.07525634766 1023.86096191406 1017.2392578125 1023.88299560547 1027.50769042969 1031.11108398438 1028.51147460938 1021.08801269531 1020.94366455078 1021.44763183594 1029.58361816406 1053.2080078125 1055.09924316406 1061.43798828125 1077.82983398438 1089.39001464844 1103.97546386719 1110.84924316406 1104.58422851562 1098.95654296875 1102.29113769531 1110.82434082031 1113.96667480469 1117.59631347656 1118.09899902344 1128.87670898438 1125.13684082031 1131.12329101562 1128.77136230469 1125.90368652344 1119.06042480469
947.187927246094 956.053649902344 966.12158203125 967.828308105469 964.116394042969 965.746887207031 965.263488769531 967.460144042969 965.097595214844 968.986206054688 970.446838378906 975.795288085938 972.057556152344 980.167846679688 973.115905761719 973.198486328125 971.225646972656 973.1494140625 972.184448242188 963.453735351562 967.692810058594 968.9951171875 966.6259765625 965.987365722656 967.363342285156 963.006103515625 959.328796386719 960.210876464844 967.343627929688 967.168029785156 968.500854492188 964.051025390625 949.7724609375 962.554626464844 957.093139648438 970.35693359375 976.362976074219 974.122497558594 969.80126953125 962.646301269531 959.193054199219 953.594848632812 954.7197265625 957.982727050781 962.894470214844 966.635681152344 963.890197753906 961.844909667969 958.330505371094 956.387084960938 963.220642089844 975.80419921875 968.149169921875 964.630859375 965.719360351562 966.096618652344 960.468933105469 961.604370117188 965.482482910156 957.950988769531 966.04052734375 958.505798339844 957.108764648438 963.924865722656 964.697570800781 956.025634765625 954.697692871094 961.259094238281 955.674072265625 959.506530761719 963.063293457031 964.826965332031 954.248901367188 964.484985351562 967.707336425781 960.414855957031 971.667297363281 964.041076660156 964.234680175781 955.296813964844 966.259704589844 963.181640625 963.599609375 967.327392578125 980.178344726562 974.376647949219 977.40673828125 967.544311523438 964.0634765625 969.825561523438 976.243713378906 970.984741210938 973.608947753906 973.044921875 973.372131347656 971.953918457031 973.710754394531 971.303161621094 973.348205566406 975.604919433594 977.520812988281 982.434326171875 985.833435058594 977.341491699219 979.519775390625 975.723876953125 970.69482421875 979.7734375 974.692565917969 977.7880859375 981.39892578125 990.770629882812 992.918334960938 991.51513671875 997.850036621094 997.24462890625 999.84423828125 1012.25012207031 1009.59796142578 1016.44360351562 1018.76257324219 1025.533203125 1032.90185546875 1033.85437011719 1031.38879394531 1029.90930175781 1020.42010498047 1032.48950195312 1026.50756835938 1032.9013671875 1045.38208007812 1052.50842285156 1061.93127441406 1080.29138183594 1088.62829589844 1111.39184570312 1105.51220703125 1101.01867675781 1090.26110839844 1093.55786132812 1106.01647949219 1115.42333984375 1109.75366210938 1106.45190429688 1114.21130371094 1115.60388183594 1118.55541992188 1120.3583984375 1113.15234375 1109.57470703125
