NCOLS 150
NROWS 37
XLLCORNER 7394249
YLLCORNER 4842329
CELLSIZE 30
NODATA_VALUE -9999
955.177185058594 955.47509765625 956.311706542969 952.125061035156 959.916870117188 967.36376953125 972.295715332031 970.153259277344 967.752319335938 975.73583984375 980.318603515625 975.347045898438 979.436767578125 976.955261230469 968.840698242188 964.434020996094 961.545715332031 969.268615722656 968.760864257812 965.225463867188 960.849243164062 955.4130859375 965.950378417969 964.264465332031 968.353759765625 957.531799316406 961.163452148438 956.774047851562 957.099914550781 963.863647460938 968.899230957031 962.99658203125 965.667114257812 960.815551757812 968.889343261719 968.071716308594 970.177490234375 966.963134765625 965.392456054688 956.831176757812 949.179992675781 958.544250488281 961.174377441406 957.50244140625 956.378662109375 962.083374023438 966.435729980469 954.854797363281 953.957092285156 959.188171386719 956.109375 956.159362792969 959.038879394531 953.926025390625 948.167724609375 949.847534179688 957.268432617188 960.092224121094 958.018798828125 961.44970703125 952.495056152344 957.615844726562 963.07177734375 959.050048828125 954.904296875 964.338073730469 959.395629882812 960.567077636719 950.5244140625 954.149597167969 954.011474609375 966.320556640625 963.756958007812 957.456176757812 955.975708007812 964.883483886719 963.421691894531 961.704528808594 960.771545410156 956.863342285156 957.75244140625 965.192260742188 954.532287597656 964.124206542969 962.942077636719 972.965393066406 971.486877441406 965.660461425781 963.645080566406 970.643493652344 974.998657226562 961.335144042969 970.266418457031 970.418273925781 971.007446289062 978.819091796875 975.519714355469 975.547546386719 971.947631835938 982.416076660156 978.633239746094 980.603820800781 986.342956542969 978.640014648438 984.045166015625 971.215393066406 973.691284179688 976.678161621094 979.061401367188 979.377319335938 988.001342773438 995.952392578125 1000.18762207031 987.311279296875 986.924438476562 997.449401855469 999.505310058594 1002.52868652344 1004.49743652344 1014.02630615234 1017.56762695312 1011.77825927734 1019.32287597656 1029.30151367188 1029.01550292969 1024.68273925781 1035.52319335938 1033.57946777344 1034.14135742188 1029.57885742188 1040.86547851562 1060.24523925781 1073.61328125 1073.32470703125 1083.75732421875 1090.85131835938 1094.15783691406 1102.42309570312 1102.81689453125 1099.75830078125 1096.77380371094 1092.55126953125 1100.94970703125 1100.68981933594 1094.36926269531 1102.70837402344 1122.09301757812 1122.41528320312 1125.68298339844 1130.90209960938
960.290771484375 963.12109375 961.828796386719 960.020446777344 967.429504394531 967.419677734375 975.483154296875 978.432739257812 972.61669921875 970.509094238281 973.987365722656 967.740112304688 974.2470703125 970.966918945312 971.500122070312 969.844116210938 967.76171875 970.083984375 967.58203125 969.692260742188 958.306701660156 969.286254882812 964.915832519531 960.241577148438 962.274780273438 958.118469238281 958.355895996094 957.665405273438 956.488525390625 963.893249511719 961.697875976562 956.185241699219 960.377136230469 962.914916992188 969.400207519531 973.522094726562 960.193054199219 968.559509277344 962.368225097656 956.193969726562 958.66357421875 953.0888671875 955.820922851562 950.342468261719 955.461730957031 960.199279785156 965.037719726562 963.984924316406 956.735656738281 955.942626953125 952.5029296875 957.953491210938 948.270874023438 954 955.362487792969 958.231262207031 956.782653808594 954.119079589844 958.712951660156 957.053649902344 959.278137207031 960.603759765625 952.455322265625 953.661804199219 957.003234863281 960.422668457031 958.721435546875 952.294799804688 952.440490722656 954.251098632812 951.312805175781 956.958740234375 963.992065429688 964.052856445312 951.282897949219 961.847595214844 964.2666015625 962.825866699219 959.344055175781 954.301330566406 952.291259765625 959.093688964844 954.108642578125 960.41552734375 971.257934570312 971.098571777344 962.3935546875 963.728515625 970.557006835938 971.444152832031 976.04931640625 971.987182617188 963.619567871094 973.527465820312 970.913208007812 968.109985351562 976.655334472656 967.418273925781 969.334838867188 977.98876953125 982.82275390625 982.805969238281 979.383605957031 982.992004394531 981.979125976562 980.846801757812 975.80908203125 975.057556152344 987.516418457031 982.332336425781 988.21337890625 994.671020507812 1000.91467285156 996.755859375 991.715454101562 983.154479980469 996.43505859375 1002.60778808594 999.684204101562 1009.92108154297 1012.73480224609 1015.59429931641 1017.48492431641 1027.39172363281 1025.13903808594 1027.12170410156 1034.97412109375 1029.64294433594 1025.99597167969 1026.37512207031 1048.20568847656 1054.71325683594 1068.48791503906 1073.73742675781 1090.36108398438 1098.30847167969 1093.66833496094 1112.01623535156 1105.02026367188 1092.67797851562 1087.46130371094 1086.50134277344 1086.25024414062 1088.52075195312 1091.79614257812 1099.8212890625 1107.02697753906 1114.12744140625 1117.44604492188 1123.29345703125
962.843505859375 962.248840332031 968.602172851562 972.426940917969 972.388488769531 966.220520019531 973.146850585938 979.92919921875 973.536743164062 978.087768554688 975.945495605469 971.009338378906 969.139404296875 969.842407226562 971.723999023438 965.732299804688 973.579467773438 970.593872070312 973.72802734375 966.300598144531 966.949096679688 962.696166992188 964.381225585938 957.430297851562 963.981140136719 971.586547851562 961.366394042969 957.774230957031 960.244873046875 966.622680664062 963.170166015625 956.564697265625 957.869445800781 960.218505859375 969.521850585938 965.847106933594 966.951477050781 962.70556640625 962.094604492188 955.537902832031 959.694458007812 960.295043945312 960.795104980469 955.404663085938 957.37255859375 962.165405273438 961.293579101562 954.048828125 951.567993164062 952.1962890625 951.653625488281 952.999450683594 960.898986816406 962.398742675781 953.318298339844 955.480407714844 959.432983398438 962.1953125 963.21923828125 960.672607421875 953.434692382812 952.424865722656 951.649719238281 954.276428222656 960.129821777344 958.1123046875 958.932067871094 959.376892089844 956.089721679688 949.6376953125 958.381164550781 968.382080078125 962.265319824219 963.8642578125 956.256408691406 967.785766601562 961.632873535156 959.823425292969 955.682922363281 955.501586914062 957.356384277344 958.26318359375 953.781494140625 960.569641113281 966.419311523438 965.763854980469 967.343139648438 958.235534667969 969.668334960938 968.329528808594 968.008422851562 967.938659667969 964.518859863281 966.521606445312 961.801086425781 970.468811035156 967.544189453125 970.135925292969 969.411010742188 973.9189453125 973.311584472656 978.918518066406 977.114990234375 976.346496582031 981.682373046875 984.27001953125 980.235168457031 985.294311523438 989.634582519531 978.299987792969 980.860656738281 988.711853027344 989.959045410156 987.815673828125 992.611450195312 988.060607910156 995.326721191406 988.619140625 1001.12426757812 1004.23962402344 1009.09301757812 1006.54626464844 1011.64739990234 1008.87139892578 1016.44000244141 1028.89331054688 1023.21209716797 1031.27453613281 1017.20831298828 1026.38854980469 1041.85595703125 1054.26037597656 1069.34094238281 1084.7890625 1089.56506347656 1095.40222167969 1096.38366699219 1100.39575195312 1095.07421875 1092.80981445312 1088.3271484375 1090.32958984375 1083.65368652344 1087.16931152344 1093.26953125 1095.18811035156 1099.080078125 1100.89440917969 1112.3916015625 1120.43627929688
964.840576171875 969.763732910156 971.953979492188 969.506164550781 976.313354492188 971.695007324219 972.651977539062 974.961364746094 970.652160644531 971.342163085938 971.998596191406 969.969055175781 965.899169921875 973.731506347656 978.775085449219 971.724792480469 971.410339355469 967.42431640625 962.273803710938 967.439147949219 971.077453613281 976.475830078125 968.866943359375 965.795227050781 965.65869140625 961.763549804688 960.517333984375 961.854919433594 962.424011230469 958.273071289062 960.93798828125 960.963439941406 955.337951660156 959.2119140625 962.184265136719 964.886596679688 961.886291503906 969.249938964844 964.402893066406 961.330993652344 965.644958496094 962.817443847656 958.0986328125 950.888244628906 949.823120117188 961.469299316406 956.061584472656 949.32373046875 947.232666015625 949.409240722656 948.017944335938 954.894958496094 961.275573730469 963.11181640625 950.171447753906 954.452758789062 964.494873046875 966.523559570312 957.331359863281 957.814819335938 955.779663085938 946.905517578125 946.92578125 951.761474609375 958.78515625 960.804321289062 953.806823730469 965.984252929688 968.330078125 961.980773925781 963.051330566406 958.951904296875 960.198486328125 963.788146972656 960.5498046875 962.998962402344 962.123107910156 962.132995605469 958.392822265625 956.634765625 956.410400390625 954.013122558594 950.783203125 950.993713378906 955.665466308594 946.424743652344 964.7001953125 959.943298339844 957.092102050781 969.097106933594 973.786315917969 974.020446777344 971.752380371094 971.109008789062 963.664367675781 963.229919433594 972.208435058594 971.652709960938 974.268859863281 976.296875 973.929443359375 984.964660644531 989.693969726562 985.285461425781 987.00390625 986.822265625 979.826904296875 987.762145996094 992.5908203125 991.899353027344 983.454711914062 982.675109863281 982.650939941406 987.5830078125 988.989440917969 990.287841796875 993.386474609375 1001.36376953125 1001.04406738281 1002.40258789062 1002.58990478516 998.070434570312 1000.13293457031 1010.56579589844 1016.29888916016 1029.65441894531 1027.96789550781 1033.021484375 1036.05883789062 1031.39404296875 1044.00402832031 1054.35791015625 1058.66662597656 1069.33361816406 1084.21520996094 1097.60766601562 1094.95288085938 1091.96069335938 1087.2119140625 1072.328125 1083.48571777344 1082.83349609375 1088.34460449219 1084.27893066406 1092.1962890625 1092.00354003906 1087.97509765625 1096.54968261719 1110.67077636719 1118.0283203125
971.019409179688 975.651062011719 972.651428222656 973.268615722656 970.018737792969 970.652954101562 977.322692871094 974.604675292969 971.2880859375 965.039978027344 969.457946777344 961.638000488281 955.83056640625 967.68310546875 972.020202636719 976.329711914062 981.684631347656 970.899963378906 972.373352050781 966.442138671875 975.176208496094 971.879760742188 967.318481445312 961.1064453125 966.703918457031 959.196716308594 960.868530273438 961.784606933594 970.461669921875 963.937622070312 963.814575195312 974.429443359375 964.157409667969 962.889038085938 958.552734375 959.208190917969 967.246826171875 964.6328125 959.72216796875 960.329956054688 966.601501464844 958.269714355469 951.358703613281 960.031005859375 956.505310058594 956.483215332031 956.332946777344 944.818054199219 943.792297363281 952.337890625 950.761840820312 953.028625488281 955.62548828125 959.401672363281 958.627136230469 953.908264160156 957.664428710938 964.091857910156 959.0478515625 961.179016113281 957.601867675781 951.084838867188 962.119567871094 953.809692382812 953.807373046875 954.518737792969 957.199462890625 966.252380371094 970.821228027344 966.152648925781 966.776794433594 962.539001464844 958.348999023438 968.281555175781 961.212768554688 959.871948242188 957.854431152344 956.61767578125 959.821472167969 960.321228027344 959.663635253906 960.064453125 952.895874023438 959.313110351562 951.8896484375 956.513916015625 963.293029785156 958.008666992188 958.849548339844 970.511352539062 963.94384765625 975.167846679688 975.613525390625 977.250732421875 970.126770019531 967.936462402344 977.906372070312 977.389343261719 972.799865722656 967.532531738281 978.108703613281 984.650756835938 986.722778320312 1000.15734863281 986.130859375 984.40771484375 980.716369628906 985.19189453125 994.507751464844 989.733459472656 984.356201171875 990.844787597656 987.369445800781 990.126098632812 996.412963867188 994.924560546875 1001.18041992188 998.384826660156 988.425842285156 989.620727539062 1004.10198974609 999.868408203125 1002.48272705078 1009.37255859375 1014.65423583984 1026.93493652344 1025.22595214844 1031.42407226562 1029.18713378906 1034.21838378906 1048.5673828125 1049.09533691406 1054.27587890625 1072.44567871094 1080.12426757812 1096.53076171875 1093.61157226562 1082.83740234375 1089.23681640625 1073.65856933594 1071.67517089844 1072.33154296875 1074.10144042969 1072.61987304688 1077.45141601562 1092.3662109375 1081.20190429688 1095.51745605469 1112.89721679688 1117.15234375
978.261962890625 970.211608886719 972.829406738281 973.111938476562 969.00341796875 972.7421875 971.646179199219 966.462768554688 966.054504394531 963.503967285156 968.546081542969 967.456970214844 974.620910644531 966.604553222656 977.325256347656 973.742736816406 971.187438964844 968.068115234375 966.019226074219 965.652954101562 977.488464355469 976.288391113281 970.537353515625 960.500183105469 954.960021972656 955.771545410156 957.532348632812 954.040649414062 958.534484863281 959.194458007812 963.640014648438 953.666564941406 965.07958984375 955.298400878906 956.57373046875 962.950378417969 962.6796875 953.779418945312 947.848205566406 952.965576171875 951.630493164062 957.882629394531 955.750122070312 959.289184570312 960.619689941406 951.989501953125 959.221435546875 948.664001464844 952.874084472656 952.0830078125 953.154418945312 947.674438476562 955.338806152344 947.314331054688 951.26123046875 946.653259277344 952.974304199219 957.871337890625 958.041015625 961.308227539062 958.589477539062 971.413635253906 970.0166015625 966.176635742188 954.571166992188 954.353332519531 952.752746582031 963.744689941406 961.703430175781 963.798278808594 966.093322753906 964.299011230469 965.784301757812 957.754150390625 958.984008789062 970.021911621094 962.142150878906 966.204345703125 958.234130859375 964.542907714844 956.851013183594 961.462341308594 959.86279296875 948.928466796875 953.177673339844 964.294616699219 962.170715332031 957.697631835938 960.631469726562 963.644165039062 969.631408691406 968.397888183594 981.148254394531 977.667785644531 977.027465820312 978.057739257812 978.909729003906 983.953735351562 981.202087402344 980.616943359375 977.619140625 978.682373046875 985.243469238281 990.302978515625 989.983764648438 988.239501953125 985.27294921875 985.255432128906 987.000854492188 992.149353027344 992.5146484375 999.340148925781 1005.19757080078 988.006042480469 992.117858886719 993.028747558594 997.355102539062 996.605712890625 984.173400878906 991.384094238281 1005.87469482422 999.194885253906 997.710205078125 1000.93756103516 1011.66326904297 1026.34631347656 1021.89868164062 1031.29638671875 1029.87841796875 1037.0546875 1054.46447753906 1057.23059082031 1061.30395507812 1070.74060058594 1077.17016601562 1088.33984375 1082.69775390625 1086.93371582031 1079.11840820312 1071.27600097656 1066.69421386719 1057.68249511719 1063.01879882812 1073.33239746094 1070.65124511719 1082.65747070312 1080.07153320312 1090.13427734375 1108.58666992188 1099.99011230469
978.401428222656 982.233459472656 981.494018554688 981.333801269531 959.448852539062 961.896057128906 970.179321289062 974.801086425781 967.638977050781 969.121887207031 958.817077636719 970.164794921875 955.053833007812 964.857421875 964.106201171875 964.079895019531 961.048400878906 957.938171386719 962.765625 967.134338378906 975.733642578125 970.45654296875 969.828491210938 957.163330078125 955.187133789062 949.56640625 954.953735351562 958.683715820312 958.548767089844 962.463256835938 954.3251953125 951.861450195312 956.751159667969 956.034118652344 956.995056152344 959.921936035156 954.691223144531 957.595275878906 951.415222167969 949.043884277344 959.827453613281 954.752685546875 959.621643066406 956.009338378906 955.459289550781 947.697692871094 946.123840332031 949.131408691406 948.883361816406 956.519592285156 950.818786621094 954.008422851562 948.130187988281 951.3212890625 945.593994140625 949.94091796875 949.918762207031 965.349731445312 962.410766601562 964.48193359375 960.281494140625 976.355651855469 965.981811523438 964.248840332031 961.971374511719 965.087463378906 959.767517089844 956.766479492188 951.961120605469 962.610107421875 960.606994628906 956.510986328125 953.484008789062 961.873779296875 952.316284179688 958.84326171875 964.632629394531 963.692077636719 960.91552734375 968.052551269531 964.034545898438 953.764038085938 954.874328613281 960.631774902344 965.117248535156 961.863220214844 965.644470214844 973.066528320312 966.957580566406 972.726196289062 975.6396484375 976.544921875 977.426147460938 977.325256347656 976.637268066406 982.996154785156 977.174743652344 980.269165039062 977.7060546875 980.240478515625 981.105285644531 987.278381347656 980.729736328125 991.037048339844 994.73046875 987.866394042969 991.921447753906 982.586975097656 990.107849121094 989.704284667969 998.887634277344 996.068237304688 998.176330566406 991.376647949219 984.379699707031 989.107055664062 997.171203613281 996.535400390625 996.057250976562 994.052612304688 992.893249511719 995.742309570312 1000.15539550781 1008.91845703125 1015.029296875 1021.41510009766 1025.91796875 1034.34765625 1035.76062011719 1034.51489257812 1046.78344726562 1061.62280273438 1067.73657226562 1062.09020996094 1070.74475097656 1075.91491699219 1072.90063476562 1073.79956054688 1074.23815917969 1063.52453613281 1059.16906738281 1046.064453125 1053.49304199219 1060.95300292969 1056.65063476562 1060.42980957031 1072.01293945312 1079.87414550781 1095.88354492188 1091.94799804688
980.487670898438 977.04931640625 978.019836425781 977.326721191406 975.020751953125 974.782653808594 972.938842773438 984.209594726562 975.062255859375 972.120483398438 960.949584960938 957.443786621094 954.451110839844 962.32373046875 952.630615234375 962.461791992188 965.246520996094 967.519104003906 965.904357910156 973.351379394531 973.861083984375 974.207214355469 970.473327636719 961.126708984375 958.485290527344 953.205932617188 956.945678710938 962.850341796875 962.758666992188 956.033752441406 960.255310058594 957.253723144531 962.132568359375 950.630432128906 955.451232910156 957.652709960938 951.844909667969 947.702880859375 952.097290039062 947.186889648438 951.580810546875 947.8671875 955.225830078125 958.256286621094 957.572265625 955.710327148438 947.915893554688 948.874084472656 955.927062988281 950.460266113281 947.818054199219 948.97705078125 948.866088867188 950.37841796875 950.4404296875 956.333312988281 957.831237792969 960.897399902344 962.544067382812 958.094787597656 974.406433105469 972.608642578125 972.650146484375 961.694946289062 952.264343261719 956.976257324219 953.459594726562 960.338012695312 959.692443847656 959.629333496094 968.618774414062 962.66357421875 961.623474121094 957.565246582031 957.807434082031 954.3271484375 961.078552246094 958.225524902344 960.680114746094 968.047302246094 956.339050292969 960.987365722656 960.042114257812 969.241882324219 970.858032226562 976.966674804688 970.700134277344 974.570556640625 978.944030761719 976.5849609375 980.276062011719 967.944702148438 970.51123046875 985.401794433594 984.102966308594 982.99658203125 982.603454589844 975.383911132812 979.980346679688 980.236999511719 982.045104980469 985.216674804688 978.259704589844 995.252258300781 996.304626464844 994.991149902344 989.561584472656 995.583801269531 988.781616210938 1001.22564697266 997.377685546875 995.281066894531 991.321350097656 991.903381347656 983.815368652344 991.790283203125 990.240539550781 996.124572753906 998.145568847656 995.63720703125 990.451843261719 999.481018066406 1003.87347412109 1007.63287353516 1021.21655273438 1029.03125 1029.75939941406 1029.62890625 1029.88684082031 1037.60498046875 1045.3408203125 1054.14196777344 1058.33581542969 1061.66284179688 1063.24609375 1059.05590820312 1064.94970703125 1069.67687988281 1062.84106445312 1058.98693847656 1052.05847167969 1041.08117675781 1035.04724121094 1044.0126953125 1044.70336914062 1048.71203613281 1060.36987304688 1075.427734375 1081.74450683594 1080.24926757812
974.800170898438 979.836547851562 987.935180664062 985.029174804688 978.052490234375 974.460998535156 975.989624023438 973.060302734375 974.058044433594 963.282409667969 958.775634765625 955.260375976562 951.128540039062 949.151184082031 941.963745117188 951.587585449219 956.643005371094 956.212646484375 959.792053222656 963.356628417969 964.932861328125 968.783203125 959.829223632812 966.667236328125 958.257873535156 959.28759765625 953.15185546875 954.935913085938 949.015563964844 948.827819824219 959.343505859375 966.893737792969 960.863708496094 954.253845214844 951.624816894531 948.677368164062 954.454711914062 956.074035644531 949.765258789062 945.276489257812 949.266479492188 946.436950683594 950.502136230469 958.118774414062 957.818054199219 954.269714355469 957.487243652344 951.772521972656 956.807678222656 959.286499023438 954.585205078125 958.37109375 957.446105957031 958.037780761719 958.369812011719 963.563415527344 960.259399414062 957.811889648438 970.340515136719 960.258666992188 960.707824707031 963.566223144531 962.3359375 962.066955566406 959.595153808594 954.390075683594 961.69091796875 965.283386230469 965.860107421875 962.07568359375 970.832580566406 968.091247558594 970.289245605469 962.753662109375 960.482482910156 966.050231933594 969.99755859375 966.713317871094 960.736755371094 965.996215820312 961.225769042969 960.422790527344 970.307373046875 972.419128417969 964.356384277344 968.036010742188 972.958190917969 976.255554199219 976.161743164062 977.814331054688 975.306091308594 971.877197265625 975.659057617188 971.47900390625 974.458374023438 980.981994628906 972.488037109375 982.594604492188 983.429016113281 977.256408691406 983.738525390625 983.571655273438 985.068603515625 998.771362304688 998.264099121094 993.570861816406 993.326110839844 997.992492675781 996.66357421875 997.732238769531 1001.59899902344 1005.39556884766 1003.88580322266 1001.03607177734 1000.35522460938 998.368530273438 993.835693359375 998.474670410156 1000.87390136719 1003.47937011719 999.939208984375 1001.98028564453 997.897705078125 1010.92919921875 1017.15747070312 1023.20666503906 1023.79284667969 1022.58337402344 1022.24963378906 1034.8671875 1045.93432617188 1051.72570800781 1053.232421875 1063.75805664062 1060.87316894531 1063.79052734375 1072.22131347656 1063.490234375 1055.48120117188 1048.75024414062 1042.77319335938 1035.06640625 1023.41229248047 1032.7373046875 1034.52478027344 1037.68383789062 1044.90893554688 1053.09521484375 1064.41101074219 1063.21838378906
976.163940429688 981.74755859375 988.509521484375 984.519653320312 981.004943847656 975.1884765625 971.198608398438 971.882690429688 960.727172851562 960.304321289062 956.377746582031 946.337097167969 952.145324707031 951.478942871094 948.685852050781 948.549682617188 952.878662109375 949.728515625 956.819580078125 959.743896484375 954.9970703125 960.380310058594 966.312866210938 967.003295898438 962.633850097656 954.427429199219 947.814086914062 950.759399414062 954.6943359375 949.291198730469 951.151428222656 961.563598632812 951.129089355469 949.692565917969 944.198974609375 947.312683105469 950.586364746094 951.82421875 950.615844726562 951.234619140625 946.408447265625 950.514587402344 954.246154785156 959.213623046875 951.154846191406 953.491088867188 958.477966308594 957.878540039062 954.739318847656 957.999145507812 961.592590332031 954.767944335938 955.753784179688 964.412048339844 967.545471191406 959.586791992188 959.716064453125 958.275573730469 968.787719726562 956.594970703125 972.475341796875 963.925415039062 967.51318359375 971.40234375 965.755859375 951.016357421875 952.48046875 961.246826171875 969.039978027344 976.538024902344 970.75390625 972.056945800781 964.385498046875 967.240051269531 962.385498046875 971.450744628906 970.133544921875 963.173095703125 967.799499511719 969.794250488281 968.197326660156 965.453247070312 974.460021972656 975.292602539062 977.031799316406 969.458740234375 973.058654785156 975.182006835938 971.375 976.122863769531 977.439025878906 971.266967773438 972.222900390625 966.75390625 982.363220214844 975.929626464844 978.958251953125 977.010559082031 984.648986816406 977.400024414062 982.252990722656 986.115173339844 985.985229492188 990.471923828125 994.9150390625 995.295166015625 999.587341308594 1004.72784423828 994.500122070312 998.197448730469 1008.52703857422 1010.13232421875 1006.04595947266 1004.19543457031 1003.53894042969 1002.81604003906 997.100341796875 996.378112792969 1001.06127929688 1011.73345947266 1012.11743164062 1006.86944580078 993.964965820312 1016.0693359375 1020.63226318359 1016.23138427734 1022.89868164062 1015.94183349609 1018.67175292969 1029.05517578125 1026.48217773438 1041.56066894531 1049.97521972656 1060.09094238281 1053.06323242188 1060.849609375 1064.22668457031 1051.60229492188 1049.15368652344 1048.34814453125 1040.36096191406 1025.15173339844 1021.71710205078 1026.80432128906 1035.00219726562 1031.50036621094 1029.23107910156 1044.48474121094 1048.64611816406 1053.04187011719
972.303100585938 977.5615234375 976.667663574219 977.531311035156 980.39892578125 969.38525390625 959.596984863281 957.830139160156 958.232543945312 961.756103515625 951.862731933594 952.175109863281 953.828918457031 950.9365234375 948.808410644531 945.964599609375 952.577941894531 956.719055175781 949.224487304688 954.556335449219 955.144592285156 956.9833984375 962.280151367188 968.77978515625 955.717041015625 949.54052734375 949.077697753906 945.201782226562 947.766662597656 946.097045898438 954.444641113281 960.314575195312 956.429565429688 953.950317382812 955.130676269531 954.971313476562 948.954162597656 952.30810546875 947.018005371094 957.431640625 947.03759765625 949.454772949219 948.422729492188 955.507446289062 955.0693359375 964.680114746094 970.709350585938 973.252685546875 959.030517578125 965.918090820312 969.334655761719 962.90771484375 961.343444824219 960.589965820312 962.784973144531 974.460510253906 973.21728515625 963.851135253906 963.999206542969 959.121215820312 965.377563476562 965.051330566406 964.460388183594 960.829650878906 957.436584472656 948.686645507812 952.102905273438 951.093505859375 960.155456542969 969.383605957031 968.445373535156 979.086120605469 975.529663085938 965.445922851562 961.366638183594 971.012817382812 972.466796875 975.6572265625 973.745849609375 971.767761230469 980.469970703125 974.441284179688 980.308715820312 987.310974121094 982.394226074219 980.263793945312 976.679504394531 985.843322753906 980.271545410156 973.120178222656 978.808654785156 978.829528808594 972.778930664062 970.756408691406 975.8828125 985.202087402344 979.538696289062 971.945617675781 979.018920898438 979.736206054688 979.223022460938 990.240295410156 997.310241699219 992.810668945312 1003.79541015625 1009.52026367188 1002.88006591797 991.746704101562 997.835815429688 1006.95910644531 1005.24731445312 1013.48638916016 1014.71478271484 1006.68872070312 1002.61309814453 997.272766113281 1004.57745361328 1004.81970214844 1009.44036865234 1012.75030517578 1017.62872314453 1006.26806640625 997.329345703125 1005.38494873047 1020.015625 1018.91607666016 1018.59777832031 1023.48553466797 1025.41723632812 1029.52160644531 1028.03576660156 1026.06140136719 1046.82043457031 1045.955078125 1055.9052734375 1051.31372070312 1054.33740234375 1046.58825683594 1045.79370117188 1038.73986816406 1034.95239257812 1024.41284179688 1028.21142578125 1027.28186035156 1039.05688476562 1033.3046875 1033.32250976562 1032.66589355469 1043.15869140625 1043.00964355469
963.216796875 963.438171386719 964.569091796875 968.071899414062 974.975402832031 965.439697265625 954.245727539062 950.165405273438 954.096740722656 955.333312988281 955.390808105469 954.84423828125 947.997680664062 952.023254394531 945.912841796875 942.717895507812 952.253723144531 942.713073730469 952.37744140625 946.935119628906 951.630065917969 952.897827148438 960.177368164062 960.939453125 955.141357421875 945.632446289062 942.509460449219 937.417175292969 937.679992675781 940.847106933594 955.381652832031 952.666809082031 959.823181152344 947.590881347656 952.594543457031 954.383483886719 953.882568359375 950.372375488281 958.324462890625 953.734130859375 954.850463867188 947.676330566406 951.938232421875 959.589538574219 966.557739257812 973.103271484375 970.639770507812 971.064758300781 969.954528808594 966.941589355469 968.403137207031 960.638549804688 959.984375 956.551330566406 965.199584960938 971.036743164062 971.997680664062 966.84228515625 967.507690429688 962.966003417969 960.199340820312 964.085021972656 967.173461914062 965.296325683594 961.436645507812 948.173156738281 951.001525878906 953.646423339844 967.081359863281 968.651916503906 960.53173828125 967.5556640625 973.797729492188 968.38525390625 976.965942382812 965.105407714844 972.876586914062 976.759460449219 970.139770507812 969.934997558594 976.072204589844 974.880004882812 984.752258300781 983.817016601562 977.476989746094 984.956970214844 993.851440429688 988.446350097656 978.336730957031 975.960205078125 980.0712890625 981.982666015625 984.54345703125 976.654846191406 978.212341308594 982.012573242188 978.528503417969 983.357971191406 988.5927734375 982.843200683594 985.909484863281 988.712951660156 993.614318847656 1004.51879882812 1007.49621582031 1005.60772705078 998.166687011719 1002.42938232422 1009.38580322266 1010.80731201172 1002.80621337891 1004.79418945312 1016.265625 1013.6376953125 1011.93634033203 1007.09344482422 1012.50054931641 1003.02807617188 1008.46502685547 1011.38104248047 1015.14880371094 1007.98016357422 998.260070800781 1005.74285888672 1017.61486816406 1025.72338867188 1018.21850585938 1017.89892578125 1023.03051757812 1024.03552246094 1030.37829589844 1033.88171386719 1046.564453125 1042.34899902344 1043.56555175781 1044.84521484375 1047.92614746094 1037.0771484375 1035.83068847656 1032.44348144531 1031.01782226562 1029.77856445312 1029.87976074219 1035.39184570312 1040.47241210938 1039.74108886719 1030.5419921875 1029.87915039062 1022.57482910156 1036.17150878906
951.369384765625 946.510498046875 952.199340820312 960.031005859375 963.231689453125 965.682983398438 951.057861328125 953.261413574219 955.419860839844 955.990966796875 962.564880371094 951.511169433594 950.320007324219 944.808654785156 948.585754394531 939.093505859375 944.920532226562 953.881591796875 946.667724609375 944.679382324219 951.291687011719 949.614196777344 957.411865234375 947.066955566406 941.695617675781 931.124816894531 938.603576660156 940.908081054688 944.418579101562 945.821960449219 951.893371582031 958.6640625 949.05322265625 949.508178710938 947.304626464844 953.42626953125 951.2548828125 954.701232910156 953.867126464844 948.558166503906 955.19189453125 957.710388183594 957.51806640625 956.388854980469 965.019165039062 973.086303710938 978.490966796875 977.771484375 985.814636230469 980.472229003906 981.442199707031 973.096923828125 962.023681640625 965.181457519531 963.176513671875 973.483947753906 977.623657226562 970.505615234375 968.476745605469 966.51171875 969.176330566406 964.666137695312 978.130798339844 966.162109375 962.095153808594 960.695556640625 953.432189941406 957.01318359375 956.357849121094 963.6337890625 964.009948730469 963.186157226562 970.670654296875 970.454650878906 968.649536132812 964.031677246094 969.238220214844 973.705871582031 967.501220703125 969.967407226562 978.068969726562 979.924987792969 981.956359863281 981.248474121094 983.880798339844 983.355041503906 984.23291015625 988.546997070312 974.534973144531 985.149658203125 981.772766113281 980.673645019531 984.414978027344 982.416381835938 979.192565917969 984.431335449219 984.434265136719 985.474182128906 989.383544921875 987.354431152344 985.867919921875 986.970947265625 985.180847167969 1000.46997070312 1010.85516357422 996.915832519531 1002.2744140625 1000.36346435547 1011.13671875 1011.59875488281 1016.23315429688 1019.51983642578 1027.2646484375 1025.84741210938 1013.92761230469 1021.19891357422 1017.39190673828 1005.07147216797 1007.34991455078 1010.55529785156 1007.00018310547 1010.12145996094 1008.08508300781 1008.98950195312 1019.51245117188 1020.80706787109 1017.72924804688 1029.90295410156 1023.68133544922 1024.61938476562 1032.59643554688 1037.24255371094 1038.46264648438 1032.99987792969 1030.39050292969 1033.29455566406 1031.50561523438 1031.21533203125 1034.59057617188 1035.61303710938 1030.99328613281 1032.529296875 1032.228515625 1025.03381347656 1034.55688476562 1032.11022949219 1025.9970703125 1025.91625976562 1023.3154296875 1035.07678222656
956.162414550781 952.594787597656 951.128295898438 951.4013671875 949.875915527344 957.453125 962.066833496094 952.190490722656 953.154174804688 957.243774414062 951.795776367188 950.640258789062 949.474609375 944.074096679688 938.830688476562 940.874694824219 948.166198730469 950.478515625 942.315612792969 940.686157226562 947.353759765625 938.846374511719 942.487182617188 950.681457519531 944.485778808594 933.588806152344 940.278503417969 944.072937011719 942.191772460938 945.415893554688 949.471008300781 958.206909179688 952.537963867188 944.664489746094 936.574279785156 940.932250976562 955.949096679688 953.649780273438 958.760314941406 948.290100097656 954.097473144531 959.088012695312 960.362243652344 962.888244628906 962.934509277344 971.68603515625 980.551940917969 994.3681640625 994.21484375 986.002807617188 986.750183105469 975.261596679688 976.757141113281 975.567016601562 975.461486816406 972.470825195312 973.4912109375 985.111145019531 977.00390625 966.284973144531 970.668395996094 966.065856933594 967.500671386719 968.275390625 962.782775878906 958.044494628906 961.653259277344 964.414916992188 958.513732910156 972.010864257812 974.736450195312 962.461975097656 970.438598632812 974.4580078125 971.259521484375 964.311645507812 968.010559082031 974.592407226562 965.297424316406 973.771667480469 981.552612304688 978.76513671875 985.958374023438 979.972839355469 986.683227539062 984.830261230469 985.9599609375 979.889282226562 982.761108398438 986.084655761719 984.644836425781 981.015869140625 973.289672851562 971.700378417969 972.711486816406 976.5322265625 980.883056640625 987.808959960938 984.683410644531 988.629272460938 988.866638183594 990.495788574219 978.638000488281 993.349243164062 1004.76312255859 1003.443359375 1002.63653564453 1004.60815429688 1013.14447021484 1011.85565185547 1009.38616943359 1031.7177734375 1038.96057128906 1036.45092773438 1024.87646484375 1018.19934082031 1023.06958007812 1014.91851806641 1015.76971435547 1012.91717529297 1017.70129394531 1019.36273193359 1011.99749755859 1004.24926757812 1016.64630126953 1018.34399414062 1018.49060058594 1020.97503662109 1023.05804443359 1027.91662597656 1030.61047363281 1034.16455078125 1036.74353027344 1026.08288574219 1026.58740234375 1031.06884765625 1032.23168945312 1033.86242675781 1037.05639648438 1039.10119628906 1045.87707519531 1028.71154785156 1017.88909912109 1022.96783447266 1022.70715332031 1032.244140625 1029.78369140625 1024.59936523438 1030.01794433594 1028.5146484375
955.898742675781 952.038024902344 950.365234375 943.831970214844 948.4375 949.775024414062 951.40673828125 955.385864257812 947.064331054688 951.2978515625 943.7841796875 937.692932128906 948.916137695312 943.68017578125 940.691040039062 944.768127441406 945.042419433594 941.19873046875 941.290283203125 943.531616210938 941.315612792969 947.8095703125 944.828430175781 944.291015625 938.651733398438 940.274963378906 949.694946289062 940.894409179688 946.03466796875 952.500122070312 949.955993652344 945.177978515625 947.105590820312 949.688842773438 941.738342285156 944.229858398438 949.787048339844 946.58203125 957.748474121094 952.912414550781 953.476501464844 961.267456054688 961.025939941406 963.887634277344 971.3857421875 980.199951171875 982.928894042969 983.505249023438 986.978454589844 985.755737304688 988.740844726562 987.037231445312 979.555969238281 978.127319335938 970.288879394531 980.065246582031 984.400756835938 984.859680175781 974.849365234375 969.171264648438 963.110778808594 963.350769042969 973.822875976562 976.282836914062 974.677551269531 971.088134765625 966.559326171875 969.703063964844 966.994384765625 969.765686035156 975.655456542969 980.778686523438 974.973388671875 982.596435546875 985.635375976562 980.005981445312 971.288208007812 972.927368164062 966.252197265625 969.111022949219 969.585998535156 983.030395507812 982.199462890625 978.605285644531 984.100646972656 983.384399414062 979.389587402344 983.369445800781 978.774963378906 982.361145019531 976.476501464844 969.918334960938 972.80224609375 975.226318359375 970.057006835938 973.435485839844 984.527648925781 991.115844726562 995.227172851562 995.252014160156 994.712768554688 994.462768554688 984.403198242188 997.939392089844 1002.72052001953 999.398315429688 997.929626464844 1002.25512695312 1008.77972412109 1013.68170166016 1020.42559814453 1025.41821289062 1030.99987792969 1031.76623535156 1029.42492675781 1022.93157958984 1031.01062011719 1026.47766113281 1026.68408203125 1025.38684082031 1028.79736328125 1027.75610351562 1015.54833984375 1005.83563232422 1012.75103759766 1018.81335449219 1023.71533203125 1018.78924560547 1025.65661621094 1034.4189453125 1032.94995117188 1036.70483398438 1027.06970214844 1031.736328125 1032.05297851562 1032.59240722656 1032.5595703125 1036.34619140625 1031.33850097656 1032.03369140625 1033.94189453125 1022.79577636719 1025.76586914062 1019.6142578125 1017.62786865234 1022.15075683594 1013.51635742188 1010.25708007812 1019.96398925781 1031.66198730469
953.656677246094 949.177307128906 953.385803222656 942.373657226562 948.455810546875 949.854370117188 956.657836914062 958.872314453125 946.270751953125 943.556396484375 942.449645996094 942.603698730469 948.774169921875 947.603637695312 938.826782226562 940.587646484375 946.671508789062 942.7099609375 946.4384765625 952.983581542969 951.162170410156 951.98486328125 954.190612792969 950.244079589844 942.499389648438 945.917663574219 955.758178710938 950.002624511719 950.085693359375 952.741577148438 952.657470703125 949.490051269531 950.377319335938 948.019775390625 943.663940429688 950.281311035156 955.690002441406 954.003356933594 957.729614257812 950.788513183594 957.677001953125 956.356750488281 960.824401855469 966.72705078125 962.410949707031 976.023986816406 983.875793457031 980.180908203125 977.2080078125 983.15771484375 981.912414550781 977.661560058594 979.643676757812 972.731811523438 973.955322265625 980.282348632812 991.33056640625 987.05908203125 974.580078125 971.745361328125 969.075622558594 971.162963867188 967.746032714844 973.037292480469 977.835571289062 972.388671875 976.284545898438 971.025939941406 972.249206542969 974.428405761719 982.0390625 987.637084960938 984.621704101562 989.026916503906 984.475219726562 976.5322265625 969.70751953125 975.490539550781 973.178588867188 967.400329589844 970.930847167969 978.028015136719 986.040893554688 989.630187988281 983.373291015625 988.568603515625 984.507995605469 982.599609375 975.547180175781 973.402465820312 966.362670898438 970.185424804688 961.597717285156 974.385070800781 977.080505371094 977.395263671875 990.721740722656 989.514709472656 991.602294921875 994.263000488281 997.373962402344 992.730529785156 1000.75640869141 987.755859375 996.417602539062 994.981384277344 997.466674804688 1014.57354736328 1009.54345703125 1017.76586914062 1030.4326171875 1034.38366699219 1031.68713378906 1028.57751464844 1035.11804199219 1039.86853027344 1026.41357421875 1028.16760253906 1030.76245117188 1043.63781738281 1037.82153320312 1030.3095703125 1020.13604736328 1019.59112548828 1011.05670166016 1016.22320556641 1023.4775390625 1021.68145751953 1023.20892333984 1025.57116699219 1024.48303222656 1027.51196289062 1028.89538574219 1031.01208496094 1034.64367675781 1031.43408203125 1036.32873535156 1033.76159667969 1029.53784179688 1023.60021972656 1025.20568847656 1025.7705078125 1023.35479736328 1021.97662353516 1017.60723876953 1014.31939697266 1007.80889892578 1013.29858398438 1013.87670898438 1017.30578613281
947.3056640625 945.771606445312 950.358520507812 945.0107421875 945.3916015625 955.376281738281 958.476623535156 946.991943359375 938.108459472656 935.360046386719 946.553161621094 946.218505859375 951.475769042969 952.828430175781 944.508239746094 947.686218261719 951.626342773438 957.785827636719 957.691711425781 962.806030273438 959.875915527344 965.623474121094 959.054077148438 956.974853515625 946.126037597656 941.673095703125 954.412780761719 960.769958496094 953.167541503906 952.373718261719 954.723022460938 958.49560546875 951.806396484375 950.880676269531 948.646484375 953.148620605469 952.374206542969 953.066772460938 953.186462402344 949.367431640625 961.442077636719 951.595642089844 965.77294921875 971.304565429688 963.032775878906 974.09814453125 982.224853515625 975.934509277344 988.334350585938 985.410583496094 991.819885253906 988.490539550781 986.792358398438 983.943298339844 979.346130371094 978.223815917969 987.319885253906 980.798461914062 983.781066894531 978.382690429688 973.527770996094 975.860534667969 969.484558105469 983.4990234375 983.47119140625 975.86669921875 973.4755859375 967.891540527344 971.757446289062 976.663024902344 981.050598144531 986.956909179688 980.495788574219 979.541870117188 983.743591308594 975.867736816406 979.368347167969 970.821960449219 967.21435546875 968.151306152344 970.453735351562 975.888305664062 990.685180664062 992.943359375 982.286193847656 992.909484863281 990.321044921875 985.012084960938 977.582946777344 973.37890625 962.211242675781 961.911682128906 968.2880859375 979.177185058594 985.972412109375 986.132080078125 983.784423828125 984.265380859375 992.614501953125 996.429626464844 994.011962890625 1000.97283935547 999.389709472656 994.13525390625 995.26806640625 994.586059570312 1007.36267089844 1010.68884277344 1017.69146728516 1023.05548095703 1032.62707519531 1034.11206054688 1038.18627929688 1035.13317871094 1035.29528808594 1035.38293457031 1034.94519042969 1034.93395996094 1043.14306640625 1048.6044921875 1043.62829589844 1035.01879882812 1032.63452148438 1023.5126953125 1028.22216796875 1019.81146240234 1019.63269042969 1023.36578369141 1024.81396484375 1024.3876953125 1024.28198242188 1026.05493164062 1016.78375244141 1023.41845703125 1029.88659667969 1039.98791503906 1030.79443359375 1031.49560546875 1023.80224609375 1022.8984375 1025.18200683594 1021.8974609375 1019.70758056641 1016.19995117188 1015.83123779297 1004.97155761719 1008.23699951172 1012.28100585938 1012.70135498047 1016.28851318359
951.743041992188 951.834350585938 948.234436035156 941.688842773438 948.771179199219 948.880615234375 950.715881347656 940.250427246094 940.408813476562 937.949890136719 945.829345703125 947.546447753906 949.445556640625 959.885437011719 953.855224609375 956.410339355469 966.893676757812 963.388000488281 960.038879394531 961.65185546875 968.047302246094 969.031127929688 965.6474609375 962.501831054688 957.812622070312 957.450256347656 962.370300292969 956.702819824219 954.69140625 958.459045410156 962.214172363281 953.301025390625 954.047058105469 953.998413085938 955.574890136719 956.388366699219 955.480773925781 954.997131347656 955.032653808594 957.770751953125 957.02978515625 961.887573242188 965.062377929688 971.842590332031 980.831970214844 982.813720703125 988.384948730469 992.661376953125 988.2060546875 988.189758300781 977.260803222656 984.221618652344 988.632507324219 980.851135253906 982.395568847656 980.77685546875 983.41748046875 982.762756347656 995.293701171875 982.578125 971.218139648438 974.668029785156 974.4111328125 971.773254394531 977.519592285156 968.285583496094 972.032348632812 971.020874023438 963.0732421875 981.091247558594 996.358276367188 989.678161621094 981.40380859375 979.630676269531 988.276672363281 987.049865722656 986.550109863281 980.523620605469 980.64404296875 975.533874511719 980.269409179688 976.9013671875 982.816589355469 992.118286132812 986.118041992188 988.557556152344 988.349914550781 979.717895507812 979.530517578125 973.453308105469 973.238647460938 969.894287109375 974.197143554688 972.237976074219 992.610717773438 989.4892578125 984.332336425781 990.63671875 990.838989257812 989.1337890625 987.384948730469 991.927856445312 991.317138671875 989.404541015625 993.344299316406 1001.45483398438 997.82568359375 1001.48974609375 1010.37670898438 1025.37316894531 1025.21862792969 1020.52813720703 1023.36328125 1035.09301757812 1035.056640625 1039.89184570312 1041.24145507812 1044.68835449219 1049.31030273438 1053.68981933594 1048.80749511719 1038.41418457031 1042.75012207031 1035.30029296875 1026.04235839844 1028.0419921875 1020.91796875 1025.89831542969 1014.48657226562 1020.62835693359 1015.603515625 1022.51007080078 1026.86267089844 1031.89111328125 1035.31884765625 1040.38916015625 1038.15234375 1029.88098144531 1023.62542724609 1020.310546875 1017.85278320312 1017.25750732422 1020.00103759766 1016.212890625 1007.47619628906 1010.69323730469 1013.12042236328 1000.86291503906 1009.90307617188 1009.05578613281
952.404968261719 960.555236816406 954.009155273438 951.07666015625 950.887756347656 948.423095703125 943.294982910156 936.586608886719 940.738525390625 938.472106933594 947.329650878906 953.07373046875 954.578247070312 958.921691894531 959.50439453125 965.340515136719 966.13671875 968.804138183594 970.273742675781 967.011962890625 968.446594238281 972.034240722656 972.165832519531 967.990539550781 961.303039550781 961.486450195312 960.6845703125 962.500305175781 970.850769042969 965.86181640625 965.970703125 958.59814453125 968.900207519531 964.908447265625 971.810791015625 972.396179199219 967.617858886719 967.91455078125 960.924926757812 959.163696289062 964.896240234375 968.77783203125 974.805358886719 976.194458007812 981.755981445312 980.863037109375 985.845703125 990.501953125 987.902099609375 988.184387207031 989.522094726562 984.164855957031 987.854248046875 991.316650390625 992.545776367188 984.15625 981.480102539062 985.235778808594 989.471557617188 988.55029296875 972.998107910156 966.979125976562 969.051330566406 974.239685058594 967.924011230469 967.991821289062 969.10595703125 964.10009765625 971.878967285156 981.751159667969 991.953308105469 991.932006835938 984.62060546875 985.064331054688 985.239685058594 990.333862304688 982.625427246094 984.514343261719 978.662292480469 977.336120605469 981.631896972656 981.594116210938 977.345581054688 982.629516601562 986.399963378906 982.989990234375 983.677795410156 982.695251464844 980.408630371094 977.486328125 976.195556640625 975.812072753906 980.088134765625 979.517883300781 991.366577148438 995.354858398438 994.525939941406 998.059997558594 990.842834472656 991.053161621094 988.048400878906 991.77001953125 989.69775390625 996.361083984375 1005.474609375 1007.05865478516 1002.78057861328 1005.01495361328 1020.06976318359 1019.40899658203 1016.19085693359 1013.19348144531 1023.17578125 1025.84875488281 1034.20190429688 1039.09423828125 1041.59680175781 1045.81701660156 1043.63903808594 1053.83581542969 1049.10656738281 1044.94934082031 1041.32751464844 1041.40441894531 1034.37731933594 1025.30407714844 1022.67047119141 1017.72644042969 1006.73083496094 1025.49487304688 1021.86053466797 1025.31958007812 1016.97320556641 1034.22241210938 1032.14990234375 1033.76806640625 1031.63256835938 1026.92163085938 1025.08508300781 1021.50811767578 1025.23083496094 1019.52734375 1016.57202148438 1009.17791748047 1008.73699951172 1012.65270996094 1011.58020019531 999.888061523438 998.976501464844 1003.9541015625
956.026062011719 955.497985839844 951.796203613281 951.397766113281 947.894470214844 947.173217773438 949.779907226562 940.734375 940.906921386719 948.048278808594 943.579956054688 940.062377929688 945.318725585938 957.101257324219 967.013244628906 974.889831542969 971.167175292969 973.429626464844 977.717590332031 976.124389648438 977.5048828125 978.766235351562 973.884216308594 975.767578125 973.82080078125 974.463256835938 967.548461914062 967.590454101562 964.957702636719 971.257568359375 966.971313476562 971.104553222656 982.656982421875 980.843139648438 973.660461425781 979.931030273438 972.489440917969 969.874633789062 963.94921875 973.958557128906 971.841796875 977.693298339844 980.715026855469 973.355773925781 984.212707519531 984.005249023438 989.507873535156 990.295959472656 985.540771484375 987.370056152344 995.178283691406 993.428344726562 983.869750976562 992.90283203125 991.077331542969 981.558288574219 974.397644042969 973.797790527344 979.797485351562 981.233337402344 971.161499023438 972.157653808594 965.751342773438 967.028198242188 971.378234863281 967.517761230469 967.012023925781 965.885131835938 974.800415039062 986.123046875 983.322631835938 983.590393066406 981.253967285156 986.365173339844 981.556823730469 984.8291015625 980.826599121094 978.385559082031 981.139770507812 975.603515625 981.850219726562 989.131896972656 985.66748046875 986.972473144531 979.610595703125 985.419799804688 983.137390136719 986.446228027344 992.005737304688 980.254516601562 979.511596679688 977.492797851562 974.114074707031 978.773681640625 984.519653320312 991.606506347656 992.180480957031 998.957153320312 987.823425292969 989.725341796875 988.858703613281 989.852233886719 1002.13543701172 997.996398925781 1005.84478759766 1015.75115966797 1016.47918701172 1017.60791015625 1017.50677490234 1028.61657714844 1023.10357666016 1027.66870117188 1035.19030761719 1035.92102050781 1030.44030761719 1034.22729492188 1029.55822753906 1029.23266601562 1039.77124023438 1048.23229980469 1053.18432617188 1041.81286621094 1044.24914550781 1039.92810058594 1035.7978515625 1038.60363769531 1023.32818603516 1018.70074462891 1008.53424072266 1020.06451416016 1027.9150390625 1021.85437011719 1024.88610839844 1043.35192871094 1042.18347167969 1031.58947753906 1030.20349121094 1027.33618164062 1026.45227050781 1007.27923583984 1006.59051513672 1014.49078369141 1008.99450683594 1008.44311523438 1013.50396728516 1006.61785888672 999.794128417969 988.706420898438 995.112548828125 1005.48785400391
951.563049316406 958.607238769531 947.409362792969 946.252746582031 950.023803710938 947.585571289062 949.29443359375 938.41162109375 938.268859863281 937.9267578125 942.488830566406 944.796203613281 946.499572753906 957.911010742188 970.188232421875 969.858703613281 974.882446289062 976.987060546875 975.791564941406 970.812805175781 978.140197753906 978.229309082031 978.5126953125 983.294494628906 978.232482910156 979.789184570312 978.481018066406 969.343322753906 966.593872070312 975.062255859375 981.101806640625 973.271789550781 982.074035644531 974.956115722656 982.050476074219 979.487182617188 979.473327636719 976.022338867188 973.070373535156 975.120788574219 969.407836914062 978.176940917969 987.165466308594 992.602294921875 996.343017578125 994.092468261719 993.488708496094 999.992065429688 989.669372558594 995.537658691406 1003.62237548828 995.563659667969 992.379272460938 991.103515625 981.294067382812 979.8203125 983.089599609375 980.228576660156 979.540954589844 980.265563964844 967.713439941406 974.486022949219 972.017211914062 970.079345703125 959.884460449219 960.236694335938 967.043762207031 967.915344238281 977.696166992188 984.348999023438 980.885620117188 984.639404296875 984.44287109375 988.789184570312 985.864196777344 989.85009765625 984.73046875 979.042541503906 978.999206542969 981.784240722656 980.748291015625 985.925537109375 986.065185546875 986.445617675781 979.811645507812 977.885803222656 973.721008300781 983.523254394531 988.212585449219 989.231811523438 985.321105957031 976.757873535156 977.460266113281 982.5625 983.845825195312 991.204040527344 991.006408691406 997.106201171875 999.455017089844 994.719604492188 994.601501464844 997.607116699219 1006.52374267578 1009.57458496094 1017.40124511719 1023.84008789062 1019.50653076172 1021.98596191406 1022.58764648438 1020.0537109375 1021.76025390625 1031.16967773438 1037.23388671875 1039.978515625 1033.79333496094 1033.62976074219 1027.32702636719 1032.70983886719 1035.37316894531 1046.55029296875 1055.44982910156 1043.97497558594 1036.2587890625 1030.57116699219 1037.25915527344 1028.06811523438 1018.61083984375 1011.18695068359 1006.76043701172 1008.77142333984 1014.65875244141 1019.07574462891 1016.13500976562 1025.92761230469 1039.55895996094 1034.30895996094 1021.89984130859 1019.65087890625 1023.92431640625 1012.34228515625 1005.61309814453 1007.37225341797 1010.20190429688 1003.85546875 1009.30163574219 1007.11181640625 994.586120605469 990.671569824219 999.238098144531 1003.86022949219
956.393005371094 955.224670410156 947.050476074219 941.027282714844 941.957214355469 944.519409179688 938.585510253906 938.869812011719 934.698181152344 931.06396484375 938.87451171875 939.264831542969 952.923278808594 965.962951660156 973.819152832031 981.730407714844 982.058837890625 982.213806152344 990.009948730469 990.819641113281 988.054748535156 982.97509765625 982.544982910156 986.797302246094 986.418273925781 976.556213378906 976.773193359375 976.821533203125 980.28173828125 967.578430175781 972.524841308594 964.443237304688 968.470153808594 972.905090332031 977.6904296875 982.210144042969 982.612548828125 981.191223144531 980.464233398438 981.295166015625 980.004272460938 980.426086425781 986.349792480469 1000.09564208984 996.75146484375 988.861083984375 990.393005371094 1006.03527832031 999.954345703125 1000.10217285156 994.146545410156 997.409362792969 988.114196777344 987.265869140625 984.790161132812 981.599670410156 979.832092285156 977.38134765625 980.122253417969 977.037353515625 975.009765625 976.114196777344 976.477966308594 967.014282226562 963.697143554688 961.729614257812 968.862609863281 979.588989257812 992.133361816406 996.003784179688 987.559265136719 983.242980957031 985.626586914062 987.257934570312 990.868713378906 991.894348144531 984.539184570312 979.223876953125 984.27978515625 986.1201171875 979.885498046875 978.741394042969 984.628723144531 986.856140136719 980.450744628906 978.000610351562 980.078796386719 985.77880859375 994.658813476562 981.439575195312 984.598876953125 980.5634765625 977.595764160156 977.880676269531 990.4775390625 995.473266601562 986.962829589844 992.790344238281 992.009582519531 992.487854003906 999.359069824219 1003.87945556641 1008.76184082031 1013.61834716797 1013.40063476562 1017.64764404297 1018.01611328125 1012.32928466797 1018.66778564453 1022.94146728516 1017.12139892578 1029.09887695312 1039.54516601562 1032.73278808594 1035.39965820312 1035.9755859375 1027.63610839844 1033.06286621094 1034.58801269531 1040.50915527344 1045.01770019531 1042.04846191406 1034.74279785156 1023.22540283203 1024.46276855469 1017.19165039062 1014.95562744141 1009.63220214844 1014.45733642578 1012.61138916016 1003.74212646484 1012.31726074219 1010.43170166016 1016.79858398438 1029.30932617188 1020.85552978516 1014.63940429688 1013.20977783203 1007.72839355469 1004.16247558594 1004.09893798828 1008.18896484375 1001.77575683594 1004.63110351562 1004.23864746094 1002.42309570312 998.005859375 991.964721679688 996.559631347656 998.754150390625
954.837707519531 940.166809082031 936.619934082031 934.147399902344 941.471618652344 937.635559082031 932.379760742188 935.880859375 934.889892578125 934.519226074219 935.38818359375 948.73291015625 954.037292480469 972.023071289062 976.947204589844 994.929077148438 983.184814453125 989.509033203125 992.026733398438 996.147827148438 993.65380859375 985.45751953125 983.92724609375 980.381286621094 976.406555175781 981.345397949219 987.89794921875 982.312072753906 971.964416503906 970.388244628906 972.028015136719 974.491394042969 976.476257324219 975.501892089844 977.597106933594 981.661315917969 983.857604980469 978.4423828125 980.988159179688 984.290161132812 988.605407714844 990.946655273438 1002.18176269531 1002.53735351562 999.788513183594 997.417419433594 996.375915527344 1000.22259521484 997.794006347656 1006.34466552734 997.548889160156 993.890319824219 986.144287109375 988.784545898438 991.33935546875 982.034851074219 983.963256835938 981.516784667969 986.198669433594 974.896179199219 973.182434082031 976.59033203125 972.239685058594 969.961303710938 969.025573730469 967.116149902344 978.955078125 979.173278808594 991.89013671875 992.268615722656 990.540344238281 982.859313964844 978.425354003906 986.084045410156 1002.37371826172 1000.56433105469 995.1728515625 988.878967285156 997.866821289062 996.588806152344 979.330688476562 976.996459960938 978.406860351562 980.203491210938 987.343078613281 987.265808105469 989.904296875 989.518676757812 989.892272949219 981.765991210938 988.8330078125 982.70361328125 979.208618164062 983.536254882812 987.287780761719 991.567810058594 990.591552734375 990.951171875 986.519348144531 994.237976074219 997.418823242188 999.863159179688 1010.73809814453 1011.66918945312 1015.03399658203 1020.91424560547 1023.98126220703 1024.13244628906 1024.95190429688 1022.50164794922 1026.39172363281 1030.83020019531 1042.40747070312 1036.10375976562 1026.48681640625 1018.94665527344 1014.83746337891 1024.14331054688 1031.9990234375 1027.63684082031 1026.34643554688 1026.615234375 1018.05065917969 1021.72308349609 1025.07446289062 1023.53369140625 1015.12780761719 1011.53039550781 1008.97912597656 998.2255859375 1004.95123291016 1012.33074951172 1013.77368164062 1018.75964355469 1021.36547851562 1015.80737304688 1019.99719238281 1013.2197265625 1005.49389648438 1001.62872314453 998.962890625 1001.20465087891 999.671569824219 1003.30236816406 997.239868164062 997.683410644531 996.595947265625 993.25244140625 1001.65191650391 993.9306640625
936.079223632812 937.400756835938 937.740966796875 934.994140625 936.174438476562 931.591369628906 923.670104980469 923.410400390625 929.333190917969 931.423400878906 940.776428222656 954.701416015625 962.610595703125 973.467590332031 983.405578613281 986.555419921875 985.011779785156 984.053833007812 993.344787597656 991.733459472656 997.689331054688 991.420959472656 984.885131835938 981.694885253906 984.320251464844 991.670166015625 999.375061035156 983.375793457031 971.273498535156 977.287353515625 969.499694824219 975.03173828125 980.513610839844 980.274780273438 971.364990234375 974.345275878906 975.83056640625 979.973205566406 983.22314453125 986.805725097656 997.940063476562 996.994567871094 1002.36285400391 1003.03588867188 1001.6044921875 1003.66265869141 1001.39959716797 1013.01019287109 1009.23229980469 1004.75152587891 1005.45849609375 1008.21142578125 992.648742675781 988.077026367188 993.112670898438 994.100830078125 991.498779296875 977.321472167969 983.182312011719 969.49951171875 971.853759765625 970.935974121094 974.792724609375 983.796203613281 978.537963867188 972.986450195312 981.807434082031 987.724914550781 990.025512695312 988.791870117188 991.027526855469 984.809692382812 987.34033203125 992.579895019531 1003.78039550781 997.303466796875 1000.96984863281 991.843139648438 991.265197753906 988.402099609375 987.6005859375 985.251281738281 984.134704589844 992.202758789062 1000.75677490234 992.325134277344 996.144592285156 992.689758300781 983.468322753906 989.22607421875 979.873291015625 979.203918457031 984.01171875 983.723571777344 994.878845214844 997.366394042969 991.388122558594 996.901916503906 996.159912109375 1002.26812744141 1002.33734130859 1002.13214111328 1010.19586181641 1004.84222412109 1012.33605957031 1022.1171875 1028.45556640625 1022.88177490234 1024.20080566406 1029.70751953125 1030.79089355469 1036.54113769531 1028.69677734375 1029.73486328125 1022.92156982422 1021.94140625 1013.9443359375 1017.96624755859 1027.33911132812 1028.94226074219 1027.27453613281 1020.65570068359 1011.45867919922 1013.70501708984 1017.02185058594 1019.56457519531 1011.17303466797 1010.27423095703 1003.20220947266 1004.75036621094 1005.07836914062 1017.98101806641 1007.16473388672 1017.78985595703 1023.45416259766 1013.15234375 1016.87457275391 1006.43725585938 1001.35571289062 995.186584472656 992.644714355469 993.984008789062 990.552917480469 995.714721679688 994.362426757812 993.814086914062 984.502197265625 986.115539550781 992.632690429688 998.227416992188
934.682250976562 936.479248046875 939.19189453125 934.35888671875 930.117980957031 929.186584472656 932.008666992188 937.001647949219 944.622802734375 935.978698730469 950.717651367188 962.129638671875 963.998168945312 987.324645996094 988.510314941406 987.558471679688 990.486572265625 989.495178222656 984.222534179688 996.57080078125 993.65234375 984.576354980469 987.681457519531 995.374267578125 985.789611816406 997.745178222656 994.758239746094 986.124755859375 979.118713378906 973.40185546875 965.847473144531 972.51171875 979.451538085938 982.384765625 979.240173339844 979.114562988281 978.888916015625 969.786743164062 992.051940917969 997.415588378906 1000.62084960938 1004.71063232422 1006.91595458984 1006.95648193359 1006.63793945312 1012.44482421875 1014.25982666016 1014.80255126953 1010.15240478516 1006.03375244141 1005.1640625 999.75048828125 986.538879394531 991.250671386719 991.693359375 988.623840332031 991.557189941406 987.1689453125 976.912963867188 982.652038574219 969.138244628906 977.125549316406 976.230529785156 984.73779296875 978.463684082031 979.654663085938 984.023742675781 986.076904296875 989.384948730469 986.93701171875 989.875610351562 981.537841796875 986.116516113281 992.189331054688 997.094848632812 1001.13287353516 991.934814453125 995.545104980469 981.652954101562 986.191040039062 994.893005371094 988.320007324219 988.365783691406 990.766723632812 999.371032714844 997.977661132812 1000.48492431641 993.109191894531 984.760803222656 985.441833496094 990.57373046875 987.306396484375 986.085144042969 992.355102539062 995.950256347656 1003.24322509766 1003.21704101562 1001.26867675781 1001.75958251953 1002.68841552734 997.372131347656 1003.03515625 1011.27752685547 1011.24615478516 1012.56323242188 1021.56964111328 1022.00939941406 1029.04504394531 1033.07299804688 1033.32202148438 1022.55847167969 1028.98022460938 1028.69372558594 1022.8544921875 1023.68383789062 1025.48388671875 1014.65301513672 1020.88055419922 1024.40258789062 1027.68298339844 1018.80633544922 1013.32116699219 1014.05462646484 1013.14154052734 1012.76666259766 1023.66680908203 1018.20660400391 1003.8056640625 1010.24340820312 1003.25988769531 1006.72186279297 1008.56451416016 1008.34661865234 1002.74554443359 1008.06030273438 1003.49127197266 1005.24676513672 997.354187011719 990.227722167969 983.681579589844 991.161682128906 986.201354980469 982.844787597656 983.807983398438 987.611267089844 986.09326171875 986.580200195312 990.119567871094 989.332275390625 995.261108398438
931.120422363281 937.627197265625 936.930786132812 934.869079589844 931.717651367188 932.338439941406 938.64453125 936.940063476562 948.329895019531 951.74951171875 955.844909667969 967.562683105469 974.030822753906 985.522216796875 976.7978515625 981.233703613281 990.497009277344 989.968566894531 983.817260742188 984.37744140625 980.822937011719 983.343566894531 994.546997070312 999.18310546875 998.573425292969 1001.84130859375 995.37890625 984.181396484375 981.497680664062 966.583618164062 974.986877441406 974.002075195312 976.554321289062 980.893310546875 985.897888183594 994.523010253906 993.051330566406 989.833862304688 990.076843261719 993.811157226562 999.391540527344 1003.7490234375 1010.15002441406 1010.38934326172 1008.63854980469 1017.50915527344 1016.16906738281 1016.43865966797 1010.46209716797 1009.201171875 997.448547363281 1007.45367431641 996.492309570312 996.66259765625 992.702331542969 996.267639160156 989.8369140625 983.824584960938 979.824157714844 974.2646484375 975.311950683594 978.768981933594 980.343994140625 983.101013183594 978.4072265625 979.159423828125 976.311950683594 984.030639648438 979.940368652344 985.075866699219 986.036743164062 991.5263671875 995.837707519531 1004.93676757812 1004.37713623047 992.982849121094 989.648742675781 996.697814941406 991.126647949219 989.048706054688 991.745971679688 981.770446777344 989.593017578125 993.885131835938 997.457641601562 998.327087402344 1001.92163085938 990.47607421875 984.2607421875 992.550537109375 995.004699707031 982.1943359375 985.916198730469 986.685668945312 983.870422363281 995.314025878906 1002.53784179688 1008.52496337891 1004.1220703125 1008.37164306641 1007.80334472656 1010.80316162109 1006.61254882812 1021.05932617188 1017.76885986328 1025.06237792969 1028.51916503906 1026.71215820312 1029.32849121094 1029.16528320312 1029.13256835938 1027.35266113281 1030.02709960938 1032.66809082031 1026.47448730469 1020.00811767578 1016.62310791016 1022.29699707031 1019.45391845703 1023.93463134766 1020.59338378906 1015.73431396484 1022.07684326172 1014.44616699219 1003.515625 1010.71801757812 1018.00482177734 1009.17468261719 1004.20013427734 1003.78845214844 1000.78057861328 993.997497558594 1001.58135986328 998.669738769531 998.636901855469 1002.02307128906 992.510681152344 996.777587890625 995.737426757812 986.6005859375 979.228820800781 991.939270019531 993.518981933594 992.623779296875 984.338989257812 980.170349121094 977.923767089844 978.634521484375 987.395080566406 994.129699707031
929.036010742188 924.7392578125 933.105895996094 930.36376953125 933.902221679688 930.790771484375 938.152526855469 950.676452636719 953.602783203125 955.559143066406 962.863098144531 968.087341308594 970.444763183594 983.385681152344 982.896057128906 981.769470214844 994.942565917969 990.80078125 987.356323242188 980.852172851562 987.94873046875 987.448181152344 996.443542480469 994.262512207031 993.056030273438 994.101135253906 985.078063964844 986.554382324219 976.3955078125 975.833618164062 980.154052734375 979.718505859375 987.858215332031 980.023559570312 985.923217773438 996.030578613281 993.920166015625 1000.14117431641 996.986755371094 1000.513671875 1004.13336181641 1000.10314941406 1000.19305419922 1007.31457519531 1007.11639404297 1007.18951416016 1017.04205322266 1012.89141845703 1002.75811767578 999.849914550781 995.223205566406 1005.43151855469 1001.17767333984 992.971008300781 993.21728515625 982.484619140625 978.178649902344 986.190246582031 976.941162109375 981.389404296875 981.576782226562 984.156005859375 986.059204101562 981.915161132812 982.467407226562 979.466735839844 977.419189453125 972.057922363281 981.323425292969 981.991271972656 984.965881347656 994.792663574219 1000.03277587891 1002.81811523438 996.394165039062 994.431274414062 995.481506347656 992.99072265625 995.939697265625 998.131225585938 996.650268554688 997.543518066406 993.616577148438 993.474426269531 993.850036621094 996.099487304688 995.96484375 993.159118652344 994.417663574219 996.119201660156 994.365112304688 993.747253417969 996.551208496094 988.194458007812 995.410278320312 1000.81896972656 1004.39367675781 1006.56787109375 1010.10522460938 1005.19116210938 1005.46429443359 1008.83630371094 1006.63781738281 1022.62811279297 1024.82604980469 1019.67224121094 1020.38830566406 1016.42504882812 1024.2177734375 1033.39892578125 1030.04162597656 1034.71374511719 1037.79077148438 1035.701171875 1036.14282226562 1034.0830078125 1033.5341796875 1026.69128417969 1026.56799316406 1025.189453125 1024.86791992188 1017.001953125 1013.38470458984 1010.30389404297 1006.79309082031 1004.62078857422 1007.1298828125 998.804992675781 995.220642089844 1004.61309814453 997.584899902344 992.027038574219 992.951049804688 994.113708496094 1000.14416503906 995.994873046875 993.469299316406 992.12646484375 996.101379394531 988.443786621094 983.171508789062 986.367309570312 995.122375488281 987.016784667969 986.402893066406 982.989379882812 971.143981933594 974.64892578125 979.47998046875 987.555847167969
925.796325683594 918.266967773438 924.78662109375 928.835632324219 937.966186523438 933.420593261719 946.726318359375 947.517150878906 946.542541503906 954.246398925781 966.963745117188 970.8779296875 974.899841308594 981.770263671875 982.734008789062 980.030700683594 989.891235351562 987.950378417969 977.397888183594 976.29931640625 983.547912597656 976.140686035156 981.523315429688 990.473876953125 988.004211425781 988.682556152344 987.690551757812 989.167846679688 977.078491210938 983.039733886719 979.000915527344 982.574890136719 983.689758300781 978.160095214844 987.990905761719 987.326049804688 996.3076171875 997.389221191406 1000.05676269531 993.189270019531 999.078918457031 998.635864257812 1001.23266601562 1005.09320068359 1013.05682373047 1007.42254638672 1006.91528320312 1007.33764648438 1007.95440673828 997.830505371094 992.47900390625 999.348510742188 995.883728027344 995.109069824219 997.038208007812 994.290466308594 991.806823730469 984.128051757812 984.18408203125 978.213500976562 983.120727539062 989.762268066406 982.018249511719 983.163940429688 981.680236816406 984.340454101562 979.05615234375 981.867492675781 980.514404296875 985.568481445312 985.987731933594 988.029541015625 989.527893066406 999.407104492188 1000.33471679688 995.271667480469 995.749145507812 993.711547851562 1000.64508056641 1009.21185302734 1007.57867431641 1008.19476318359 1004.32098388672 998.652465820312 1002.93481445312 997.751586914062 995.28662109375 995.6025390625 990.0595703125 989.279296875 992.009948730469 986.091674804688 994.528381347656 989.358215332031 994.713195800781 997.18798828125 1001.67199707031 999.698547363281 1002.04382324219 1006.65362548828 1004.05291748047 1007.00103759766 1008.67767333984 1018.23614501953 1030.05078125 1015.57257080078 1011.66656494141 1014.07312011719 1025.13500976562 1032.54089355469 1034.25073242188 1035.95971679688 1045.44775390625 1040.18615722656 1040.9619140625 1036.32580566406 1031.5908203125 1028.7548828125 1027.83728027344 1035.60998535156 1022.18127441406 1017.67047119141 1006.87017822266 999.110290527344 998.939392089844 1000.75830078125 996.967041015625 996.792053222656 999.591003417969 1001.79162597656 996.842346191406 1006.23028564453 1005.23583984375 998.043212890625 998.980346679688 999.735717773438 995.236572265625 985.330749511719 984.826904296875 985.211730957031 986.199645996094 987.434387207031 992.217224121094 989.275695800781 983.846801757812 975.976928710938 970.994873046875 975.892944335938 980.845153808594 983.769958496094
927.948791503906 925.575256347656 934.128479003906 935.80224609375 939.043334960938 939.036987304688 951.043090820312 952.360168457031 952.731750488281 957.681457519531 967.195495605469 964.275085449219 964.922302246094 977.298217773438 975.208984375 981.012634277344 975.188171386719 976.945251464844 984.656799316406 983.3681640625 978.350708007812 971.469299316406 976.945739746094 987.616882324219 989.001586914062 992.051513671875 989.03759765625 988.142211914062 983.162292480469 986.019714355469 982.576538085938 987.193664550781 990.528564453125 985.179992675781 988.88525390625 988.4287109375 993.493103027344 992.25732421875 997.408325195312 994.281921386719 998.085815429688 997.461486816406 1002.52868652344 1007.46997070312 1010.43695068359 998.177062988281 993.138977050781 995.889404296875 999.427917480469 996.41796875 988.764831542969 1000.00335693359 997.167541503906 996.588562011719 994.101440429688 994.648193359375 992.329284667969 990.370910644531 991.21484375 979.082153320312 984.225952148438 989.964416503906 984.104431152344 981.893127441406 979.30029296875 977.639099121094 978.2099609375 982.798645019531 975.766906738281 978.566162109375 974.904663085938 983.368713378906 993.324523925781 996.657043457031 995.560913085938 996.8388671875 989.404724121094 989.996276855469 997.762878417969 1004.92437744141 1004.92858886719 1011.75463867188 1011.78796386719 1007.25213623047 1005.28356933594 1001.23510742188 1009.15307617188 998.452575683594 991.979675292969 993.138061523438 994.332580566406 985.630310058594 982.185607910156 991.091125488281 988.842712402344 999.282165527344 998.285400390625 999.933288574219 1007.75628662109 1005.95617675781 1003.56707763672 1009.28643798828 1006.37548828125 1014.19506835938 1013.0732421875 1011.56030273438 1005.47076416016 1015.685546875 1024.23913574219 1027.4375 1038.32824707031 1040.59020996094 1044.85412597656 1042.03137207031 1042.96374511719 1039.99841308594 1032.65661621094 1030.55590820312 1031.50378417969 1042.71691894531 1028.99865722656 1019.24328613281 1003.70123291016 997.446350097656 993.389343261719 995.220458984375 1008.76293945312 1001.48382568359 1002.95953369141 1002.39239501953 1000.62713623047 1010.56634521484 1003.92102050781 1000.65911865234 1001.68981933594 996.651794433594 994.810180664062 989.230224609375 982.700622558594 983.432861328125 987.834289550781 983.844665527344 987.630187988281 979.836730957031 984.607055664062 977.065063476562 971.317749023438 976.544128417969 987.201538085938 992.296508789062
926.380432128906 937.869812011719 940.807006835938 936.838195800781 939.536926269531 937.1416015625 944.134338378906 946.053283691406 953.932495117188 953.716369628906 958.936645507812 961.404479980469 965.602661132812 976.205200195312 972.986999511719 972.985778808594 976.381591796875 973.645263671875 977.709594726562 979.451599121094 970.169860839844 974.380249023438 977.050720214844 981.397094726562 984.292358398438 990.346984863281 990.811462402344 984.694946289062 990.058959960938 981.054443359375 984.242919921875 986.507507324219 986.226745605469 979.614562988281 979.809509277344 983.947814941406 980.190002441406 994.960205078125 994.227966308594 992.968566894531 997.506896972656 1000.37701416016 993.000854492188 997.983825683594 1003.68505859375 993.018127441406 989.348266601562 996.697387695312 996.859130859375 990.044067382812 984.892333984375 989.920471191406 1001.70355224609 993.277160644531 987.845581054688 984.386352539062 987.754455566406 985.373168945312 984.871398925781 983.354736328125 975.924682617188 979.519165039062 982.502868652344 977.671508789062 982.293518066406 974.184997558594 981.373718261719 973.391052246094 979.432373046875 979.321533203125 980.014465332031 985.844055175781 994.582641601562 991.226806640625 996.760559082031 993.128784179688 996.585998535156 993.898742675781 999.908386230469 997.311645507812 1005.64886474609 1009.96929931641 1011.76092529297 1004.63177490234 1000.99615478516 1001.28790283203 998.893859863281 992.485595703125 997.594543457031 994.754333496094 992.268920898438 994.420593261719 990.5546875 983.75390625 989.219665527344 994.404724121094 998.448120117188 1004.98754882812 1008.1845703125 998.284606933594 1005.73077392578 999.807067871094 1008.63610839844 1005.47125244141 1011.01007080078 1004.23718261719 1007.31970214844 1025.70056152344 1015.19091796875 1033.67541503906 1040.74304199219 1048.52270507812 1048.20178222656 1041.23132324219 1039.86804199219 1040.65893554688 1038.56958007812 1036.05249023438 1030.82653808594 1030.86096191406 1031.88293457031 1015.72314453125 1004.93676757812 995.625305175781 998.42578125 995.786315917969 994.538452148438 992.747497558594 999.003601074219 997.738159179688 1007.97033691406 1000.35308837891 1001.46246337891 1000.51263427734 989.914123535156 991.799560546875 990.999816894531 996.819396972656 995.410888671875 987.106384277344 991.045227050781 987.686279296875 988.220458984375 979.515441894531 978.013244628906 971.855102539062 976.07275390625 972.856567382812 985.681701660156 990.001831054688
919.377380371094 938.624084472656 944.235473632812 943.804321289062 936.289855957031 939.332153320312 948.041259765625 949.486572265625 955.939819335938 959.329833984375 961.954956054688 960.323608398438 959.963989257812 966.849243164062 973.174987792969 972.477966308594 971.674377441406 967.1005859375 971.557983398438 972.645935058594 962.588562011719 961.3681640625 972.55419921875 979.561340332031 985.577880859375 986.300903320312 985.920166015625 980.900329589844 982.003967285156 973.364868164062 979.163269042969 982.731506347656 977.276977539062 975.622985839844 980.251159667969 970.953735351562 982.760559082031 988.704040527344 989.102294921875 988.58349609375 994.483764648438 1001.96624755859 999.700134277344 1000.30261230469 996.514343261719 992.730651855469 990.42138671875 987.199035644531 991.9619140625 989.262023925781 989.602783203125 994.124206542969 1000.25042724609 993.982299804688 988.222045898438 988.299011230469 991.104553222656 981.510314941406 971.089965820312 980.680480957031 980.002685546875 972.916870117188 983.508972167969 980.840576171875 980.042358398438 974.725830078125 969.622741699219 978.338500976562 985.146118164062 985.074157714844 982.839538574219 992.796813964844 981.263244628906 980.10107421875 983.066833496094 993.842407226562 985.103637695312 991.211059570312 987.861145019531 993.289672851562 1004.66174316406 1000.09582519531 1004.95684814453 1002.80706787109 1005.95751953125 1002.66595458984 996.202209472656 997.649475097656 994.817810058594 996.810852050781 1000.66693115234 996.714782714844 1000.88800048828 990.197631835938 985.401245117188 990.011596679688 995.049438476562 1000.24261474609 999.178894042969 1001.21826171875 1002.97741699219 997.519348144531 1001.21325683594 1009.52746582031 1006.7421875 1010.92565917969 1013.16723632812 1031.11376953125 1026.90002441406 1038.57739257812 1045.73742675781 1049.83227539062 1044.70361328125 1044.60754394531 1042.74438476562 1050.71923828125 1043.7783203125 1036.01220703125 1033.44287109375 1032.07141113281 1016.10632324219 1024.70874023438 1011.47424316406 1001.79248046875 1005.18670654297 994.037353515625 982.923583984375 983.634216308594 992.475646972656 999.071105957031 999.31640625 992.625610351562 994.22900390625 998.456970214844 982.968872070312 981.20361328125 979.947387695312 990.435974121094 1000.01879882812 993.241271972656 982.908935546875 976.239318847656 978.353576660156 984.872619628906 984.878967285156 965.612915039062 979.401428222656 971.428894042969 973.364440917969 981.748901367188
932.4716796875 946.105895996094 945.071899414062 944.040954589844 940.814697265625 942.73046875 947.181640625 948.991943359375 950.401000976562 952.34130859375 952.356689453125 956.26123046875 955.445190429688 952.073791503906 960.336669921875 956.336303710938 958.923461914062 961.948852539062 963.550048828125 967.678466796875 963.783203125 967.363464355469 971.658264160156 966.077880859375 973.152648925781 981.382751464844 989.006042480469 984.260009765625 983.740966796875 974.399841308594 964.418395996094 967.974609375 972.703002929688 966.490661621094 973.085693359375 968.691162109375 974.913818359375 991.020568847656 988.117065429688 983.613525390625 985.768493652344 991.7060546875 991.2158203125 988.399108886719 988.9716796875 981.813537597656 982.354736328125 982.565307617188 979.682983398438 990.99169921875 997.00439453125 1001.21209716797 1000.72894287109 996.216064453125 991.608947753906 989.465942382812 990.135131835938 989.9462890625 985.96484375 982.307189941406 978.798889160156 986.1953125 986.0625 983.375915527344 979.052917480469 981.759155273438 970.305419921875 981.581665039062 984.585693359375 987.302551269531 984.585815429688 987.25341796875 986.426025390625 988.34912109375 981.593933105469 990.250854492188 987.747619628906 987.320434570312 992.003845214844 992.534118652344 992.238403320312 994.212890625 996.853088378906 1002.01342773438 1008.62969970703 1004.51324462891 992.236145019531 996.558776855469 996.874328613281 989.035888671875 991.732238769531 998.466674804688 994.755493164062 989.25830078125 992.031799316406 994.460876464844 995.743347167969 1002.01190185547 1006.11175537109 1008.72955322266 1002.31042480469 997.098937988281 996.151550292969 998.797912597656 1005.65545654297 1018.06457519531 1020.34576416016 1027.60266113281 1034.75036621094 1043.0986328125 1052.59509277344 1048.67114257812 1042.9765625 1056.68603515625 1055.14929199219 1054.45874023438 1048.21533203125 1039.98596191406 1033.57849121094 1025.97839355469 1016.96356201172 1019.31170654297 1011.25384521484 1008.52911376953 1002.21789550781 997.429992675781 991.121154785156 983.258361816406 987.421813964844 987.226135253906 999.495422363281 989.607299804688 984.325317382812 987.744445800781 976.461730957031 974.707397460938 982.176391601562 991.606384277344 996.024047851562 988.331176757812 978.282287597656 974.931091308594 972.924133300781 977.403991699219 973.527404785156 973.006469726562 973.626708984375 977.725769042969 974.168884277344 987.782409667969
947.816955566406 946.599731445312 945.085327148438 939.255065917969 942.823547363281 937.565490722656 937.715148925781 940.287475585938 943.059631347656 945.140441894531 946.186157226562 947.2509765625 951.370300292969 952.044860839844 951.864868164062 951.778625488281 955.916076660156 960.264526367188 962.742370605469 962.444458007812 963.253295898438 963.787536621094 964.188049316406 962.142333984375 963.211730957031 973.853210449219 977.285583496094 970.966003417969 976.930603027344 972.427673339844 964.278686523438 961.552490234375 963.327697753906 968.740295410156 967.368530273438 971.347778320312 971.173034667969 983.5146484375 978.370056152344 974.091491699219 982.947631835938 990.409057617188 991.050903320312 980.568542480469 981.209655761719 982.319763183594 980.471557617188 983.543640136719 979.759948730469 983.602355957031 986.247314453125 995.666198730469 995.376831054688 990.193725585938 992.600769042969 994.270629882812 998.142150878906 993.154724121094 992.950744628906 983.997009277344 983.168212890625 983.157836914062 984.381103515625 989.373168945312 986.048461914062 980.734802246094 974.313842773438 983.418212890625 983.835510253906 990.813171386719 983.027954101562 982.443542480469 979.847717285156 989.536437988281 989.015502929688 988.394348144531 988.181762695312 990.575744628906 993.14111328125 993.985473632812 998.3515625 994.852722167969 997.739624023438 1006.11297607422 1005.92730712891 999.593322753906 996.258544921875 1000.5107421875 989.036010742188 992.632995605469 1001.51837158203 1002.49493408203 996.1630859375 998.915649414062 995.394592285156 1003.55627441406 1018.52941894531 1007.31750488281 1006.88525390625 1000.34942626953 1007.31640625 1010.87322998047 1003.439453125 1011.35388183594 1009.0859375 1023.3583984375 1022.34637451172 1025.13720703125 1033.54663085938 1041.62036132812 1049.39794921875 1055.7158203125 1057.794921875 1057.68835449219 1062.57531738281 1063.02136230469 1048.28942871094 1050.52502441406 1051.30627441406 1031.53881835938 1017.92651367188 1019.11352539062 1010.41845703125 1006.74462890625 1005.14868164062 1006.56774902344 999.314758300781 993.126281738281 981.443054199219 991.624938964844 990.1337890625 983.587219238281 986.148010253906 981.993896484375 977.78125 973.064392089844 973.938232421875 975.478454589844 988.774780273438 983.763854980469 972.773315429688 973.053039550781 974.286743164062 970.7763671875 961.057556152344 976.425598144531 975.812133789062 978.298217773438 984.655029296875 982.201599121094
939.820739746094 943.267639160156 939.864135742188 940.774169921875 945.411560058594 940.442016601562 937.383239746094 939.030456542969 947.474243164062 931.392272949219 930.489440917969 940.008483886719 946.693359375 942.016906738281 933.233093261719 942.670776367188 953.846435546875 951.064880371094 953.516052246094 952.131530761719 950.931701660156 953.237365722656 955.881164550781 969.107116699219 959.893188476562 955.807006835938 965.820739746094 963.244995117188 969.4619140625 963.024780273438 968.298400878906 958.127197265625 959.86376953125 973.947631835938 973.420532226562 974.39404296875 975.208801269531 972.409118652344 978.134704589844 982.034790039062 984.295593261719 986.826599121094 990.063354492188 988.781311035156 983.629516601562 986.263000488281 987.574951171875 982.672119140625 983.766296386719 988.459411621094 984.016235351562 997.649169921875 996.397216796875 991.750671386719 992.37646484375 1001.43475341797 998.378234863281 994.745544433594 997.7705078125 987.889099121094 984.770385742188 989.582702636719 985.626770019531 987.116516113281 988.791442871094 982.161010742188 982.757690429688 985.971008300781 982.224548339844 989.168151855469 977.94140625 989.329162597656 983.845153808594 997.099243164062 989.785522460938 995.079406738281 992.867309570312 995.284301757812 992.772338867188 989.69580078125 995.434753417969 1000.53948974609 1005.1826171875 1008.24603271484 1004.52252197266 999.43603515625 993.00341796875 995.223022460938 993.13818359375 993.790100097656 1002.32806396484 1009.08282470703 998.538696289062 1005.98693847656 1008.89398193359 1008.60186767578 1018.44708251953 1011.91400146484 1012.22827148438 1008.87152099609 1011.16784667969 1015.14782714844 1009.18524169922 1004.65911865234 1014.04168701172 1024.07385253906 1027.13525390625 1035.17199707031 1041.38684082031 1044.38598632812 1046.08532714844 1060.59924316406 1052.802734375 1051.49108886719 1053.80004882812 1060.64770507812 1059.03479003906 1053.17138671875 1046.61657714844 1034.25073242188 1031.93359375 1022.36938476562 1017.42938232422 1003.09381103516 1004.24078369141 1005.16333007812 997.128723144531 983.974853515625 980.8056640625 979.312072753906 985.449523925781 980.187316894531 982.546264648438 988.53662109375 977.051330566406 972.624877929688 972.550720214844 970.400207519531 982.00244140625 985.804870605469 972.509826660156 970.691162109375 971.429077148438 968.343811035156 967.473205566406 974.049743652344 968.557250976562 975.041870117188 982.126098632812 981.592468261719
950.886962890625 947.969421386719 948.682922363281 950.084106445312 944.200500488281 949.402770996094 945.13818359375 942.348693847656 940.333801269531 933.468872070312 946.897155761719 936.202331542969 946.568420410156 942.145446777344 926.683349609375 939.097534179688 953.783630371094 955.681701660156 948.80908203125 952.300231933594 955.3212890625 959.415405273438 959.718933105469 970.376342773438 970.777893066406 959.64697265625 955.784057617188 958.385437011719 963.326477050781 959.805297851562 963.455322265625 967.975158691406 961.447448730469 967.07275390625 968.067565917969 967.695678710938 967.769470214844 964.012634277344 970.040710449219 975.323791503906 974.71337890625 978.892578125 983.258544921875 989.260437011719 993.825500488281 989.180114746094 987.455078125 987.105163574219 990.773010253906 985.324829101562 989.554992675781 989.922485351562 995.014465332031 992.315307617188 997.511779785156 1001.70739746094 997.940002441406 988.507995605469 991.738708496094 996.766479492188 995.897766113281 998.847106933594 992.009155273438 991.826843261719 991.492736816406 987.27880859375 987.994140625 993.543212890625 981.839904785156 990.791931152344 990.636413574219 982.118469238281 987.715759277344 992.542114257812 998.489318847656 998.090881347656 988.728515625 988.835144042969 988.25927734375 990.843566894531 989.876220703125 1000.38464355469 1004.96917724609 998.578857421875 1006.88366699219 1010.18542480469 994.244873046875 1003.25207519531 1000.94464111328 1005.87145996094 1008.87548828125 1012.03692626953 1005.90747070312 1004.19122314453 1005.04608154297 1006.93084716797 1011.30218505859 1009.73156738281 1011.91644287109 1021.15283203125 1019.93908691406 1023.57550048828 1012.05590820312 1010.29180908203 1019.35192871094 1021.30633544922 1030.79284667969 1029.5751953125 1043.12194824219 1053.92260742188 1052.32263183594 1057.89379882812 1054.53259277344 1062.91552734375 1068.18017578125 1068.515625 1057.15209960938 1054.1806640625 1046.16320800781 1036.01501464844 1031.60607910156 1025.86315917969 1013.84906005859 1011.65203857422 1014.58605957031 1013.10589599609 1004.33581542969 994.821166992188 983.188659667969 978.524230957031 976.056213378906 975.00927734375 974.635803222656 982.211791992188 977.497192382812 972.481994628906 964.150146484375 962.598693847656 982.262023925781 980.7392578125 975.127075195312 968.050842285156 962.742248535156 964.46826171875 961.808532714844 970.851623535156 968.901550292969 981.543151855469 977.787231445312 977.003967285156
958.325439453125 957.632995605469 960.760498046875 955.464660644531 952.235290527344 946.290283203125 947.580810546875 945.6162109375 942.306762695312 942.037536621094 948.177490234375 944.206726074219 946.621032714844 942.112487792969 939.720336914062 945.708129882812 946.46435546875 955.411315917969 953.478210449219 955.526916503906 961.982055664062 961.974548339844 962.249877929688 956.910522460938 965.692504882812 962.290832519531 958.788818359375 960.595336914062 961.058898925781 961.010986328125 955.879516601562 965.692504882812 963.816833496094 969.838195800781 963.787048339844 963.550048828125 965.630737304688 966.738098144531 967.026977539062 967.381652832031 971.656188964844 976.237670898438 980.154052734375 981.162536621094 991.449951171875 987.782897949219 991.739379882812 989.90673828125 983.067810058594 984.389404296875 989.218017578125 1001.78424072266 994.858825683594 998.698669433594 998.484802246094 994.923461914062 999.428649902344 997.043212890625 985.977294921875 992.9208984375 990.4833984375 990.251281738281 988.594909667969 999.406982421875 1003.35260009766 1000.97344970703 989.933166503906 997.851196289062 991.880249023438 987.75146484375 985.159301757812 991.925659179688 991.007934570312 983.089050292969 990.789855957031 995.942810058594 993.691162109375 983.125061035156 988.625061035156 996.883239746094 995.065551757812 998.794921875 999.229919433594 999.674865722656 998.519775390625 1009.083984375 1003.17132568359 1005.10723876953 1007.43420410156 1009.52008056641 1010.38623046875 1008.71008300781 1014.46954345703 1010.78088378906 1004.18029785156 997.545532226562 1009.72625732422 1009.84631347656 1011.72222900391 1027.16552734375 1024.24096679688 1019.57690429688 1017.64874267578 1023.55340576172 1017.94348144531 1028.13989257812 1034.11962890625 1035.50085449219 1040.18249511719 1054.12316894531 1061.05847167969 1068.11853027344 1055.52661132812 1061.12866210938 1061.60339355469 1049.82885742188 1049.68811035156 1058.62683105469 1050.85900878906 1045.74072265625 1039.91870117188 1031.65197753906 1024.52075195312 1023.71832275391 1018.11175537109 1016.11804199219 1001.83935546875 994.786987304688 991.610961914062 982.89794921875 973.783569335938 979.187194824219 980.235656738281 973.199462890625 970.685852050781 969.913024902344 964.4443359375 959.027770996094 972.103942871094 973.382629394531 959.34521484375 974.650695800781 972.838989257812 964.05615234375 967.400024414062 965.294799804688 957.816833496094 962.693115234375 975.95947265625 975.148071289062
956.496154785156 961.033935546875 954.123657226562 956.5576171875 956.071533203125 950.318725585938 952.118591308594 949.549621582031 944.063537597656 943.876281738281 939.727661132812 945.567260742188 950.747619628906 956.588806152344 950.96875 953.084716796875 955.707580566406 958.245849609375 956.520690917969 961.796264648438 963.226257324219 967.658447265625 959.678955078125 957.440307617188 970.837036132812 967.043640136719 965.84765625 958.167419433594 954.66015625 963.417907714844 956.983032226562 962.343505859375 969.866455078125 971.696533203125 966.246398925781 954.830627441406 953.075073242188 958.312316894531 967.424438476562 972.377014160156 968.351501464844 975.943420410156 974.658874511719 983.497497558594 987.306396484375 988.810974121094 989.322570800781 981.559265136719 992.27392578125 994.808654785156 996.270080566406 1000.88995361328 1004.66400146484 1009.48077392578 998.732666015625 997.854675292969 999.013122558594 997.000549316406 986.585815429688 986.677734375 987.616333007812 984.000671386719 992.502136230469 997.956726074219 1000.93206787109 990.94482421875 995.047424316406 1001.55871582031 995.005737304688 995.156555175781 997.757629394531 993.180236816406 995.4833984375 984.361328125 986.679931640625 994.833129882812 996.936828613281 991.175048828125 980.874450683594 997.10595703125 998.9501953125 1003.12573242188 1003.32116699219 1000.93090820312 996.521545410156 1000.77612304688 1003.88861083984 1006.9375 1004.61199951172 1014.22479248047 1022.17797851562 1018.09869384766 1008.78106689453 1017.82421875 1008.84777832031 1002.81909179688 1008.82800292969 1009.44897460938 1015.81988525391 1020.11474609375 1029.67150878906 1023.25817871094 1026.09790039062 1025.60864257812 1031.94921875 1039.09643554688 1039.74169921875 1038.52124023438 1037.11682128906 1051.56103515625 1048.79528808594 1055.99060058594 1057.23742675781 1052.56079101562 1062.71215820312 1056.16540527344 1051.2060546875 1050.99865722656 1049.87744140625 1052.53088378906 1040.59533691406 1033.13928222656 1030.80639648438 1023.63549804688 1023.91290283203 1016.63146972656 1001.04650878906 994.716430664062 989.125549316406 991.348510742188 981.047912597656 982.580200195312 984.321838378906 973.634704589844 970.982238769531 966.932922363281 958.612731933594 955.583740234375 964.408203125 968.150573730469 965.444519042969 967.497253417969 970.718322753906 972.914306640625 958.899291992188 966.971130371094 968.038452148438 967.740051269531 966.844360351562 968.952270507812
