NCOLS 150
NROWS 37
XLLCORNER 7394249
YLLCORNER 4842839
CELLSIZE 30
NODATA_VALUE -9999
952.042175292969 959.277465820312 957.469360351562 963.55078125 963.375854492188 962.514831542969 966.9853515625 981.014953613281 975.209167480469 978.117614746094 978.5927734375 972.449157714844 971.0146484375 971.522766113281 961.290466308594 970.438659667969 963.274841308594 963.927734375 965.456176757812 972.856750488281 971.347473144531 975.779968261719 976.012573242188 972.001098632812 975.047119140625 967.479797363281 974.15283203125 973.405334472656 976.267211914062 982.749633789062 974.517700195312 982.845397949219 982.538818359375 981.201477050781 968.688903808594 972.2314453125 975.486694335938 969.7939453125 969.356750488281 978.470642089844 981.008544921875 975.973999023438 986.349426269531 987.472595214844 985.5048828125 988.09814453125 976.754943847656 966.898254394531 972.414184570312 979.645080566406 985.515075683594 980.923156738281 982.248352050781 978.101196289062 969.851684570312 968.227783203125 980.786315917969 983.232177734375 985.955017089844 987.335388183594 973.143737792969 961.813415527344 967.173095703125 968.656127929688 964.78955078125 975.832458496094 974.761596679688 981.400146484375 977.67626953125 981.506591796875 985.832946777344 978.253112792969 977.657775878906 985.1474609375 984.723388671875 983.424377441406 989.484375 987.079345703125 990.985473632812 995.101745605469 991.01611328125 1000.32153320312 1006.75897216797 1006.15930175781 1001.57934570312 1009.92315673828 1004.45318603516 1002.81768798828 1009.31066894531 1003.51849365234 1006.90405273438 1010.34527587891 1009.39898681641 1006.45886230469 1003.31140136719 1002.52105712891 1005.16973876953 1009.68566894531 1016.193359375 1015.18133544922 1000.48974609375 994.490112304688 990.720397949219 995.288696289062 992.012817382812 996.867614746094 986.566833496094 990.005737304688 988.50830078125 994.421569824219 992.845886230469 989.05859375 994.939453125 992.247741699219 984.582214355469 974.290283203125 973.36962890625 976.474182128906 974.157592773438 982.585571289062 988.589294433594 992.625183105469 996.28759765625 1001.49896240234 1013.21026611328 1016.8662109375 1017.17810058594 1022.95904541016 1021.37615966797 1019.40014648438 1016.24206542969 1013.69683837891 1010.83972167969 1009.78649902344 1017.89489746094 1021.84869384766 1030.0361328125 1037.62194824219 1034.52172851562 1051.61657714844 1064.22778320312 1074.60266113281 1091.2705078125 1086.01574707031 1098.70361328125 1125.77783203125 1122.56665039062 1139.39965820312 1140.15258789062 1139.09838867188
944.745422363281 954.602844238281 960.403442382812 962.561706542969 965.877990722656 971.007019042969 972.723937988281 971.697448730469 974.399475097656 972.557983398438 979.204650878906 980.691528320312 973.034118652344 970.426391601562 961.439880371094 963.9677734375 964.489929199219 965.219543457031 970.023559570312 970.794372558594 975.534851074219 976.358032226562 975.269897460938 973.669189453125 970.419494628906 973.701843261719 973.660827636719 981.636047363281 986.024475097656 972.966003417969 975.909484863281 970.441589355469 979.871704101562 978.208374023438 981.141418457031 973.993347167969 975.537536621094 973.334594726562 972.923583984375 978.581909179688 976.357604980469 983.076599121094 983.4189453125 993.315368652344 987.434997558594 977.68115234375 967.323120117188 971.021667480469 972.539611816406 979.691040039062 985.678161621094 982.539978027344 971.569763183594 969.734375 971.204772949219 974.356689453125 973.877563476562 978.509216308594 980.24462890625 973.881103515625 965.647277832031 959.471069335938 955.407958984375 960.491577148438 962.3994140625 975.108215332031 970.54541015625 975.638977050781 984.170288085938 979.66845703125 982.539306640625 973.3798828125 974.205993652344 986.173645019531 993.580810546875 995.043029785156 984.514587402344 982.286254882812 983.049194335938 988.238830566406 996.335754394531 994.746337890625 999.007629394531 996.37744140625 998.110229492188 1004.24426269531 1001.03674316406 998.718566894531 1001.8330078125 998.515625 995.020751953125 992.6455078125 993.594421386719 1004.51116943359 1000.74566650391 997.969665527344 1009.03930664062 1006.38513183594 1003.20440673828 996.988098144531 993.153869628906 984.894226074219 985.382751464844 981.773498535156 994.312744140625 997.145385742188 986.016296386719 987.056396484375 986.940979003906 988.127136230469 986.8056640625 995.419555664062 993.403991699219 997.495361328125 995.41015625 978.919311523438 982.346740722656 989.323486328125 984.739440917969 996.748596191406 989.439819335938 997.066101074219 997.385375976562 1012.64758300781 1009.92352294922 1019.20959472656 1013.88812255859 1014.70971679688 1012.71795654297 1015.63116455078 1011.15679931641 1008.28625488281 1018.943359375 1020.21209716797 1024.02868652344 1030.09558105469 1027.73547363281 1034.25048828125 1035.58801269531 1049.08471679688 1066.07751464844 1080.23046875 1094.21044921875 1099.265625 1112.54602050781 1117.07873535156 1125.47021484375 1139.13903808594 1140.73413085938 1141.44189453125
944.591125488281 951.981872558594 964.524108886719 968.707580566406 964.87158203125 960.640930175781 957.859924316406 967.577270507812 984.537780761719 980.731994628906 983.546752929688 984.114624023438 971.091064453125 971.208190917969 967.446655273438 969.703735351562 968.331420898438 967.209594726562 977.086853027344 975.437927246094 978.595458984375 970.709106445312 975.554870605469 971.419067382812 974.385803222656 975.160278320312 971.652099609375 982.776550292969 981.210632324219 978.458679199219 975.331604003906 982.731628417969 979.181579589844 972.919494628906 973.861999511719 967.832763671875 971.42529296875 979.926513671875 976.264099121094 984.306274414062 977.279907226562 978.361145019531 977.229064941406 986.315490722656 977.344482421875 968.149047851562 966.612609863281 971.291870117188 970.035217285156 980.3173828125 981.644714355469 972.328735351562 977.432067871094 969.26025390625 970.809326171875 978.361267089844 977.545043945312 979.338623046875 971.250061035156 968.775024414062 959.799438476562 959.577758789062 969.940856933594 961.203552246094 967.528869628906 970.834838867188 971.696350097656 977.743286132812 974.981506347656 982.864685058594 974.003723144531 965.812927246094 976.125244140625 984.571594238281 984.641906738281 984.377258300781 989.613403320312 988.010803222656 987.128967285156 987.834838867188 990.482788085938 988.467224121094 991.002197265625 994.092529296875 1000.59112548828 1006.30035400391 1004.30657958984 1003.22705078125 1008.244140625 1008.83074951172 996.186767578125 980.146545410156 987.767822265625 988.305786132812 993.782104492188 993.116394042969 1002.23663330078 1002.14904785156 992.081481933594 986.509765625 988.321716308594 989.436828613281 990.204956054688 987.175170898438 987.544189453125 988.715515136719 985.930908203125 983.311157226562 991.077209472656 992.312377929688 993.520751953125 1001.08605957031 998.69091796875 1000.59503173828 989.250793457031 984.5634765625 988.915893554688 989.659240722656 989.600646972656 1011.01666259766 998.305358886719 999.1005859375 1003.52807617188 1004.68005371094 1001.51336669922 1011.49816894531 1008.01013183594 1010.69342041016 1009.59320068359 1010.11346435547 1013.26446533203 1012.92041015625 1019.73303222656 1021.71826171875 1028.5751953125 1030.1875 1040.56665039062 1039.0341796875 1043.29663085938 1048.07189941406 1068.60375976562 1086.04077148438 1092.64807128906 1114.08312988281 1119.68310546875 1123.80786132812 1128.97900390625 1136.18127441406 1143.30541992188 1139.55920410156
941.691772460938 950.606506347656 963.544128417969 968.922241210938 966.899291992188 969.438232421875 964.486022949219 961.379211425781 981.452758789062 982.988220214844 981.883483886719 977.914184570312 972.9287109375 967.828002929688 971.990600585938 972.357299804688 974.580505371094 972.964477539062 977.331359863281 978.572021484375 976.062316894531 983.174865722656 975.731079101562 973.582397460938 972.065551757812 963.963317871094 970.219848632812 978.13232421875 981.384399414062 980.792236328125 974.388427734375 981.063049316406 977.23583984375 981.396911621094 979.796997070312 970.502319335938 971.302307128906 974.490234375 971.389038085938 982.326171875 976.188720703125 971.990234375 972.041320800781 969.65380859375 968.537475585938 970.548217773438 966.850708007812 971.255493164062 981.33349609375 977.6357421875 977.573120117188 974.222106933594 972.406372070312 968.06494140625 974.96044921875 968.247436523438 972.51611328125 972.509399414062 979.143737792969 970.278015136719 971.833190917969 969.254089355469 975.479431152344 966.970703125 973.409973144531 973.089172363281 969.779479980469 964.819885253906 970.179443359375 973.345825195312 966.024230957031 971.234313964844 973.914367675781 973.195556640625 977.026062011719 984.178649902344 992.980834960938 988.233154296875 986.586608886719 989.497009277344 992.943420410156 993.429626464844 984.659240722656 992.310424804688 994.036743164062 1002.57330322266 1002.23614501953 1005.62829589844 1004.48883056641 994.8896484375 994.486389160156 986.198120117188 990.350891113281 989.833129882812 992.110900878906 989.806762695312 996.030700683594 998.385314941406 987.238830566406 983.443420410156 979.931335449219 988.789428710938 985.977416992188 986.099731445312 989.796203613281 990.087158203125 992.025512695312 991.927429199219 996.038146972656 994.463500976562 993.961669921875 1000.62683105469 991.211730957031 995.14404296875 1001.54180908203 984.617797851562 999.262756347656 998.395324707031 1004.21453857422 1005.05487060547 1004.77679443359 1000.60815429688 1003.92218017578 1000.05554199219 1001.58642578125 997.023376464844 1003.18389892578 1010.90582275391 1012.06213378906 1017.16491699219 1016.27532958984 1019.30883789062 1014.42797851562 1025.29479980469 1033.96862792969 1041.51208496094 1047.0478515625 1046.31640625 1040.51721191406 1048.95385742188 1066.06750488281 1089.50109863281 1100.18090820312 1113.39978027344 1121.34936523438 1128.65661621094 1132.30346679688 1140.09655761719 1151.8798828125 1145.36328125
935.935302734375 942.487854003906 954.433349609375 965.198486328125 977.708557128906 968.756408691406 964.15576171875 966.92822265625 964.740661621094 974.671325683594 972.931396484375 968.62646484375 975.358825683594 974.066650390625 970.724609375 974.29052734375 973.535827636719 980.486145019531 971.993469238281 979.014465332031 981.100280761719 984.315734863281 982.9765625 973.643188476562 976.897399902344 972.9248046875 978.252319335938 983.341979980469 985.078491210938 979.775329589844 978.229187011719 981.3935546875 978.321166992188 979.513366699219 983.7197265625 981.753479003906 971.281188964844 966.920776367188 972.133972167969 969.979858398438 964.9091796875 972.576538085938 967.974182128906 959.556823730469 958.828002929688 960.703125 968.084594726562 969.540100097656 978.035766601562 987.352172851562 978.422180175781 975.322387695312 968.273559570312 964.48974609375 968.403381347656 975.645629882812 967.910888671875 971.409057617188 976.321044921875 977.445251464844 971.501586914062 972.732971191406 974.31787109375 968.995727539062 972.651184082031 974.152709960938 970.015075683594 970.207580566406 973.944702148438 972.590515136719 970.976440429688 977.22705078125 977.443359375 974.0107421875 969.146362304688 974.897583007812 987.947387695312 991.857727050781 987.986999511719 992.489013671875 991.693420410156 987.443725585938 990.941040039062 987.787292480469 984.391174316406 992.638122558594 998.494873046875 1004.82879638672 996.513244628906 991.856872558594 988.80224609375 991.263916015625 997.747436523438 1000.61798095703 998.516357421875 992.053771972656 989.220458984375 985.620056152344 985.740539550781 992.001831054688 985.160461425781 982.93505859375 985.063537597656 986.920776367188 985.857482910156 992.014221191406 990.381164550781 993.728881835938 995.821411132812 995.927185058594 993.705078125 996.988098144531 993.45263671875 992.845031738281 985.263061523438 987.171203613281 994.635864257812 998.262329101562 997.903381347656 1000.14440917969 1002.02655029297 1002.91595458984 996.145324707031 999.541198730469 1004.98681640625 1011.58502197266 998.725891113281 1008.96557617188 1019.41644287109 1012.55499267578 1020.61077880859 1022.40393066406 1025.77612304688 1031.826171875 1050.47570800781 1045.55786132812 1047.62097167969 1056.65795898438 1054.19689941406 1057.86791992188 1070.97277832031 1093.12133789062 1104.53100585938 1112.94262695312 1120.46240234375 1122.93188476562 1133.67822265625 1142.02709960938 1146.22705078125 1150.08288574219
932.091003417969 938.97607421875 957.692443847656 963.038635253906 959.664611816406 960.692932128906 960.776733398438 965.737487792969 964.390625 959.669921875 964.798156738281 969.542663574219 973.975524902344 969.216552734375 975.080505371094 973.091003417969 984.554504394531 985.778991699219 973.467590332031 970.655578613281 976.646789550781 978.204711914062 978.604370117188 975.259948730469 976.129455566406 982.747436523438 977.845825195312 978.983215332031 987.296813964844 988.650573730469 988.984008789062 981.451354980469 987.6630859375 985.535217285156 974.645874023438 979.455749511719 969.760986328125 973.823974609375 968.893005371094 970.282348632812 966.807861328125 968.3896484375 967.199157714844 961.858093261719 959.185485839844 969.158508300781 970.562316894531 970.969909667969 981.67724609375 984.176147460938 967.994689941406 973.160339355469 971.543090820312 975.698669433594 973.173767089844 974.711669921875 968.344299316406 969.623291015625 977.893249511719 967.938781738281 972.626098632812 978.535522460938 972.998168945312 964.282043457031 966.074890136719 977.777770996094 969.554382324219 973.585388183594 973.089233398438 975.351379394531 971.672607421875 978.430541992188 979.25244140625 966.077758789062 967.410217285156 974.692504882812 972.795776367188 980.531555175781 982.218872070312 990.024841308594 992.035400390625 990.908752441406 993.930847167969 990.069946289062 983.65625 986.819885253906 993.9287109375 998.583618164062 991.825500488281 995.969604492188 995.404663085938 996.8662109375 994.3798828125 996.901000976562 999.771240234375 998.145629882812 993.695617675781 987.194396972656 983.952758789062 987.983093261719 985.795959472656 980.673950195312 977.144958496094 977.542663574219 979.219116210938 983.664733886719 978.492980957031 990.343688964844 982.789428710938 993.356079101562 997.239807128906 991.985229492188 993.329956054688 991.601318359375 990.113098144531 992.847595214844 994.358459472656 1001.42639160156 997.449584960938 999.673706054688 997.36083984375 1002.02770996094 1007.42712402344 1003.56787109375 1003.80511474609 1002.72106933594 995.619689941406 1006.73480224609 1008.66241455078 1021.00469970703 1026.01123046875 1035.71228027344 1024.81164550781 1043.83361816406 1051.35266113281 1050.13354492188 1050.53100585938 1065.2109375 1058.5185546875 1066.96655273438 1083.05712890625 1096.00805664062 1108.20141601562 1110.43383789062 1114.07360839844 1122.07873535156 1138.68798828125 1146.17224121094 1147.56359863281 1162.32421875
925.823486328125 939.392944335938 947.313171386719 957.779541015625 958.3095703125 960.369079589844 959.34814453125 955.815002441406 962.794738769531 962.056030273438 967.2197265625 967.520202636719 968.899963378906 972.120056152344 967.936462402344 980.282531738281 979.415771484375 980.054748535156 985.314453125 975.433044433594 978.724975585938 967.308044433594 972.592651367188 974.55517578125 973.4921875 971.186401367188 979.863220214844 978.351013183594 987.077453613281 984.931274414062 975.447021484375 982.447998046875 981.266235351562 977.95458984375 969.296081542969 969.35986328125 968.459289550781 975.308532714844 968.457336425781 970.978576660156 974.244445800781 972.261535644531 970.51123046875 957.347717285156 959.164001464844 972.000793457031 969.628295898438 970.053894042969 975.739440917969 977.252990722656 976.386047363281 973.652282714844 968.609436035156 969.510070800781 979.889099121094 966.943908691406 966.567260742188 954.745361328125 963.717468261719 967.817077636719 971.925415039062 980.97705078125 971.283935546875 963.205505371094 969.519958496094 978.698547363281 977.350402832031 971.74365234375 975.383117675781 977.367858886719 974.058837890625 973.35791015625 970.871643066406 965.548400878906 972.23681640625 976.066833496094 967.711486816406 978.277221679688 981.56982421875 978.927124023438 985.098449707031 990.853454589844 996.249816894531 990.812683105469 986.347595214844 988.300842285156 994.983154296875 992.296142578125 989.944641113281 988.700012207031 989.431396484375 989.517211914062 988.441711425781 989.325805664062 991.28515625 994.027770996094 991.782958984375 984.282165527344 989.907775878906 982.861083984375 979.784057617188 973.1591796875 971.887145996094 976.091735839844 979.458068847656 991.18310546875 985.890197753906 978.475402832031 980.096069335938 985.885925292969 986.755798339844 984.153869628906 993.226135253906 993.017822265625 1011.29077148438 1008.69104003906 1008.98010253906 1004.29095458984 996.230041503906 994.527465820312 997.148193359375 1001.43597412109 1007.54339599609 999.272827148438 998.309936523438 998.974182128906 999.878967285156 1014.05902099609 1020.51202392578 1025.00036621094 1039.49926757812 1039.39770507812 1031.25695800781 1040.02954101562 1048.22497558594 1049.57141113281 1055.36279296875 1058.98449707031 1058.28344726562 1064.94665527344 1083.18994140625 1095.47595214844 1105.4658203125 1107.21398925781 1124.69750976562 1129.65014648438 1143.35388183594 1150.07495117188 1152.97619628906 1168.14074707031
939.882873535156 942.332275390625 935.851928710938 950.205322265625 951.585388183594 948.940246582031 948.410888671875 948.677185058594 954.078918457031 959.059936523438 973.718017578125 969.41455078125 974.23876953125 962.2783203125 969.785583496094 978.622680664062 976.509399414062 981.57666015625 975.837707519531 985.01171875 985.0517578125 971.533935546875 971.666198730469 973.798522949219 969.893371582031 968.841125488281 974.973876953125 987.831481933594 984.023132324219 978.196044921875 968.974914550781 974.396789550781 969.8740234375 982.167541503906 978.717712402344 969.773132324219 971.887329101562 984.150329589844 974.521118164062 965.964782714844 972.107360839844 973.793701171875 965.621398925781 963.346435546875 958.634399414062 959.783630371094 970.482482910156 970.692443847656 967.199890136719 972.498596191406 970.255187988281 970.818786621094 969.044372558594 968.007507324219 974.790771484375 974.05810546875 962.4638671875 960.472229003906 957.144836425781 967.294616699219 973.883117675781 970.215942382812 966.333312988281 964.654418945312 977.014221191406 977.041076660156 978.619873046875 977.49609375 975.59033203125 975.596130371094 976.132629394531 977.687866210938 969.528930664062 968.210021972656 965.074645996094 966.933715820312 972.661254882812 981.753662109375 977.610900878906 969.354309082031 979.157470703125 985.610717773438 990.995788574219 985.823486328125 992.970336914062 988.855651855469 990.905456542969 987.826232910156 981.083129882812 983.550354003906 985.323303222656 987.219970703125 986.731994628906 984.824035644531 986.070739746094 987.972045898438 984.335388183594 985.163940429688 991.4296875 993.134094238281 988.234436035156 973.824462890625 973.380859375 983.224060058594 983.16455078125 980.397521972656 984.158569335938 985.241149902344 982.948974609375 981.284240722656 975.423767089844 978.313110351562 985.866577148438 996.249206542969 1008.69512939453 1007.32995605469 1003.09417724609 1001.39373779297 991.074768066406 993.181945800781 989.979370117188 994.126037597656 1005.31756591797 999.2373046875 997.44287109375 1001.16967773438 1005.10943603516 1016.57141113281 1029.11083984375 1030.70971679688 1039.96069335938 1039.4072265625 1040.08862304688 1042.86804199219 1052.04235839844 1050.99755859375 1060.24133300781 1061.1572265625 1059.20629882812 1071.15795898438 1094.0791015625 1097.69104003906 1105.21643066406 1114.26818847656 1123.28479003906 1141.64135742188 1148.22912597656 1157.03515625 1164.07177734375 1162.90063476562
947.015563964844 945.425537109375 945.296325683594 950.384338378906 948.988098144531 957.489685058594 939.0859375 936.272766113281 948.308715820312 956.148803710938 965.444030761719 970.907104492188 968.8291015625 963.5625 969.17822265625 968.888305664062 977.503295898438 971.493347167969 977.843139648438 980.215698242188 974.7216796875 977.893432617188 971.912719726562 975.367980957031 975.805114746094 973.454345703125 980.544189453125 991.890869140625 982.269470214844 981.377868652344 978.685913085938 969.427856445312 973.789978027344 982.661926269531 982.776000976562 982.892150878906 976.863342285156 971.152465820312 973.094787597656 969.356262207031 962.978332519531 963.246643066406 964.300476074219 966.701599121094 957.862426757812 961.693176269531 968.259216308594 964.229919433594 969.193725585938 972.732055664062 973.935546875 974.093994140625 979.444091796875 974.636596679688 968.459594726562 968.43994140625 958.839477539062 961.950622558594 964.321411132812 975.434143066406 977.9794921875 974.551940917969 966.951782226562 969.607543945312 972.678405761719 969.091613769531 976.913269042969 977.039733886719 975.143127441406 976.553466796875 976.008117675781 972.185791015625 982.385559082031 967.620056152344 961.295288085938 965.334228515625 974.0869140625 982.809936523438 975.840148925781 976.908142089844 973.405822753906 987.265197753906 989.007446289062 980.735717773438 992.455932617188 988.489929199219 987.205078125 985.453735351562 973.647399902344 981.117248535156 975.507019042969 980.021484375 981.703674316406 985.564331054688 990.674011230469 985.492309570312 985.525207519531 983.855529785156 995.498596191406 991.468566894531 985.266357421875 977.472045898438 972.575073242188 975.6513671875 984.746704101562 975.074401855469 980.594665527344 979.53271484375 984.122985839844 984.617431640625 983.790710449219 981.447937011719 993.066528320312 993.785339355469 1007.04693603516 1005.25946044922 1006.49517822266 1003.74334716797 1001.81939697266 1003.38018798828 1000.85174560547 1006.68609619141 1002.60577392578 996.957214355469 1006.30426025391 1013.37573242188 1016.44079589844 1020.38757324219 1031.35021972656 1037.91271972656 1039.81176757812 1040.31286621094 1050.576171875 1044.58459472656 1050.67529296875 1061.25183105469 1066.86926269531 1068.3349609375 1074.95446777344 1087.10192871094 1091.88061523438 1103.99340820312 1113.8828125 1119.60266113281 1131.36022949219 1147.63061523438 1155.76318359375 1166.15698242188 1169.72583007812 1162.40856933594
947.671569824219 953.463562011719 952.11962890625 953.6318359375 955.179321289062 952.6044921875 944.690002441406 937.548583984375 955.555053710938 958.665954589844 964.418762207031 963.986083984375 967.767700195312 973.808898925781 970.469482421875 974.229125976562 970.291687011719 969.515075683594 976.773071289062 977.238525390625 971.786926269531 974.710327148438 970.870178222656 963.425537109375 971.954833984375 974.496154785156 983.940612792969 991.882629394531 978.914672851562 986.540954589844 975.669250488281 980.139343261719 969.056945800781 968.296142578125 980.288635253906 980.040710449219 975.002319335938 969.19482421875 973.172241210938 974.973266601562 968.4072265625 965.604309082031 961.332214355469 960.484741210938 968.132080078125 960.465209960938 960.570739746094 968.902099609375 963.968627929688 962.649108886719 971.536743164062 975.984313964844 971.938903808594 965.989501953125 971.169677734375 974.364685058594 966.138732910156 968.11474609375 968.872863769531 973.653259277344 982.635559082031 975.488708496094 971.196472167969 965.704467773438 968.557006835938 975.428894042969 977.32568359375 978.170837402344 980.189331054688 972.594787597656 972.528686523438 969.238220214844 967.111755371094 973.765441894531 967.511108398438 967.641906738281 975.075439453125 978.093444824219 979.900146484375 973.031127929688 976.495056152344 977.184387207031 984.792175292969 979.383972167969 987.518310546875 991.61767578125 985.786682128906 979.930847167969 971.341918945312 967.841918945312 969.810363769531 970.416259765625 973.672302246094 976.91845703125 988.49072265625 978.492065429688 975.707214355469 985.518920898438 988.117614746094 986.800415039062 991.426696777344 976.262084960938 981.878540039062 979.878845214844 985.147644042969 980.3251953125 982.235290527344 984.038818359375 983.913330078125 987.520568847656 988.94677734375 991.716918945312 999.625427246094 1002.62817382812 1006.68524169922 1006.98956298828 1010.15826416016 1008.31207275391 1006.24554443359 1008.33892822266 1011.65667724609 1013.14874267578 1006.48693847656 999.565979003906 1007.16333007812 1022.33953857422 1030.52392578125 1036.8466796875 1041.14733886719 1046.47436523438 1047.04284667969 1048.79028320312 1059.96813964844 1054.42590332031 1053.12316894531 1063.30041503906 1066.84069824219 1073.68103027344 1082.35803222656 1087.76196289062 1094.36535644531 1104.04724121094 1113.40954589844 1127.15246582031 1146.89599609375 1148.53564453125 1158.1123046875 1170.7900390625 1171.77355957031 1163.2939453125
951.115112304688 948.909057617188 949.060546875 950.857788085938 956.018676757812 952.735046386719 949.940795898438 949.638488769531 956.685668945312 966.664428710938 970.472290039062 969.137084960938 972.295043945312 967.420654296875 965.948669433594 971.08349609375 977.776306152344 973.194396972656 971.888671875 971.83935546875 968.3935546875 972.53271484375 974.73095703125 971.192687988281 979.015747070312 981.298095703125 982.449951171875 989.671142578125 990.534790039062 989.611267089844 981.391723632812 976.424865722656 977.630187988281 976.460510253906 977.868774414062 979.385681152344 976.552673339844 965.031616210938 966.825134277344 975.709350585938 971.192199707031 961.137023925781 960.642700195312 951.037902832031 968.353942871094 962.191955566406 964.597412109375 965.854187011719 976.428283691406 967.420837402344 970.845947265625 967.095092773438 966.746826171875 975.773254394531 970.902221679688 977.450012207031 975.012939453125 974.057983398438 967.440246582031 966.950988769531 977.400512695312 973.76611328125 975.542175292969 970.968383789062 970.687072753906 974.746337890625 982.647216796875 980.616821289062 979.876037597656 973.920104980469 979.539733886719 965.473754882812 963.95556640625 960.768249511719 969.226318359375 969.695861816406 975.057739257812 973.026000976562 972.624328613281 970.95263671875 968.058227539062 973.024108886719 976.003479003906 979.018676757812 984.321533203125 982.269958496094 978.894958496094 972.889526367188 970.956176757812 966.372253417969 974.895812988281 976.044921875 970.161560058594 974.035095214844 971.135681152344 977.408142089844 974.9921875 982.166198730469 985.806945800781 982.44580078125 980.499267578125 977.106567382812 979.292114257812 983.522888183594 977.064331054688 990.961547851562 987.137878417969 988.354736328125 990.184143066406 996.81103515625 994.578186035156 998.353881835938 1004.58276367188 1002.80804443359 1013.21569824219 1008.54663085938 1013.81298828125 1009.00830078125 1010.11999511719 1007.02600097656 1001.49011230469 1009.80395507812 1004.85198974609 1003.01666259766 1013.57891845703 1026.75622558594 1035.76916503906 1034.36889648438 1047.68103027344 1056.15344238281 1057.66735839844 1058.71179199219 1063.04797363281 1048.9873046875 1054.27355957031 1065.56872558594 1067.68237304688 1071.21545410156 1092.5068359375 1097.24401855469 1094.72631835938 1107.07238769531 1112.7060546875 1135.52258300781 1151.31799316406 1160.28479003906 1162.67370605469 1172.31396484375 1173.25842285156 1160.36181640625
961.791198730469 957.160339355469 949.448974609375 949.029907226562 959.711791992188 957.718200683594 950.273254394531 948.739807128906 968.202453613281 969.366027832031 969.434448242188 974.337890625 979.557250976562 984.140686035156 978.826110839844 970.302490234375 972.419921875 973.061950683594 970.22021484375 974.681396484375 975.152465820312 971.167114257812 969.651428222656 968.784484863281 975.289245605469 979.373718261719 980.710388183594 976.731262207031 981.649719238281 978.342468261719 969.478820800781 969.550720214844 977.799682617188 984.721557617188 977.951782226562 968.411682128906 966.543029785156 962.918762207031 961.941711425781 973.347778320312 968.552795410156 961.787841796875 960.34423828125 957.463317871094 962.218322753906 971.280456542969 963.35546875 965.0498046875 962.335144042969 970.247009277344 974.80029296875 969.754455566406 963.1279296875 973.499328613281 974.966735839844 968.362121582031 973.978210449219 973.443725585938 965.271057128906 970.414123535156 971.972900390625 978.655029296875 973.302978515625 971.098937988281 976.404052734375 978.240783691406 969.731201171875 973.223999023438 967.041381835938 967.905700683594 972.762145996094 972.214660644531 968.558837890625 959.399169921875 960.631469726562 969.831970214844 978.493530273438 972.073913574219 978.17724609375 976.045654296875 971.283020019531 961.984680175781 966.366821289062 975.944763183594 982.540222167969 977.407958984375 964.344970703125 963.620788574219 966.738342285156 962.289184570312 975.576782226562 971.151794433594 972.920166015625 965.607971191406 967.766418457031 975.707702636719 986.722229003906 979.871643066406 976.398132324219 972.494201660156 971.690612792969 976.837646484375 984.438781738281 985.044982910156 984.987426757812 986.614440917969 989.025451660156 994.631286621094 999.355224609375 1006.7607421875 1002.6396484375 1004.42718505859 1012.03723144531 999.494995117188 1000.79858398438 1003.75061035156 1006.58325195312 1006.47631835938 1001.41162109375 1003.70220947266 1007.99829101562 1004.83020019531 1015.0419921875 1010.23382568359 1016.69018554688 1019.93798828125 1024.41967773438 1033.14440917969 1044.84606933594 1052.73815917969 1057.53540039062 1064.78344726562 1058.68737792969 1058.5361328125 1059.79235839844 1071.76879882812 1069.27880859375 1076.69018554688 1090.65673828125 1097.95251464844 1098.18737792969 1095.73083496094 1115.51477050781 1139.94006347656 1155.93469238281 1156.73901367188 1161.55224609375 1162.36157226562 1153.85632324219 1150.44519042969
952.974548339844 952.099182128906 953.2001953125 958.180847167969 975.019287109375 963.999633789062 957.053527832031 961.753051757812 963.824401855469 968.691772460938 971.74853515625 965.881164550781 979.66357421875 980.691467285156 978.585144042969 971.851989746094 976.578735351562 970.8525390625 974.054077148438 976.577209472656 975.740600585938 971.789001464844 963.795043945312 972.795654296875 962.264526367188 970.182678222656 976.552551269531 969.728088378906 966.385192871094 969.786193847656 966.039245605469 969.048461914062 980.506469726562 980.755187988281 979.600830078125 973.428039550781 964.309265136719 955.534851074219 963.538452148438 974.923950195312 972.959899902344 972.279357910156 965.596862792969 967.548767089844 963.532592773438 960.239135742188 957.046325683594 958.026977539062 961.681030273438 968.978271484375 969.944580078125 966.517944335938 967.487731933594 967.462768554688 971.547912597656 969.371154785156 966.630676269531 963.842956542969 974.737670898438 968.61328125 969.89404296875 967.595275878906 962.438415527344 964.68994140625 968.630981445312 975.847778320312 975.743530273438 965.784606933594 969.254577636719 964.332214355469 965.696228027344 960.553588867188 955.610229492188 970.808410644531 963.488647460938 970.192565917969 975.934509277344 971.031066894531 969.687255859375 965.346374511719 969.149841308594 959.67578125 967.477416992188 962.550598144531 975.446960449219 968.848693847656 968.773864746094 963.1982421875 962.019592285156 967.442687988281 973.168823242188 975.752502441406 978.2822265625 979.958435058594 976.183288574219 975.800842285156 978.771057128906 981.087707519531 975.930603027344 975.511962890625 974.21728515625 975.687683105469 984.113098144531 985.536560058594 988.569030761719 990.418762207031 1002.10943603516 1001.42895507812 1004.72906494141 1009.31030273438 1014.96350097656 1010.72821044922 1005.88293457031 1002.669921875 999.850341796875 1008.91540527344 1008.94799804688 1005.05584716797 1000.72717285156 1009.24603271484 1003.41125488281 1015.41888427734 1015.98797607422 1018.046875 1014.17474365234 1014.90087890625 1025.56689453125 1031.13659667969 1045.50939941406 1045.62121582031 1058.32897949219 1055.99914550781 1056.91833496094 1053.50244140625 1071.30285644531 1079.75805664062 1083.10534667969 1079.322265625 1097.16076660156 1097.58715820312 1106.33605957031 1108.49548339844 1112.41271972656 1130.57067871094 1143.51953125 1143.75537109375 1143.38244628906 1141.63439941406 1146.20446777344 1146.90209960938
955.86474609375 959.006103515625 963.48779296875 954.568298339844 960.925476074219 964.608581542969 965.862426757812 966.556640625 964.497253417969 963.755859375 966.890075683594 968.954833984375 976.946350097656 985.311096191406 980.685424804688 976.081359863281 976.962585449219 975.07373046875 982.972351074219 981.058288574219 976.131164550781 972.7822265625 963.935180664062 969.496276855469 967.210144042969 964.506652832031 965.160583496094 962.714416503906 963.84130859375 966.561828613281 969.227783203125 970.0126953125 970.178161621094 978.768859863281 979.820678710938 970.843505859375 970.424926757812 963.720825195312 961.048461914062 966.351806640625 960.655456542969 966.864868164062 957.703491210938 958.108703613281 962.042724609375 964.980529785156 962.215148925781 959.666931152344 971.341674804688 966.088806152344 971.02978515625 968.245544433594 967.52978515625 963.186401367188 961.30029296875 969.59228515625 970.73046875 964.257690429688 966.152709960938 966.401977539062 971.985778808594 960.073486328125 961.116638183594 966.936828613281 974.06494140625 967.217163085938 968.059204101562 962.247192382812 969.767211914062 959.875061035156 962.895568847656 969.488464355469 962.763732910156 966.763977050781 962.720397949219 965.764953613281 974.08447265625 964.266723632812 968.558288574219 971.272277832031 968.506164550781 967.967224121094 966.665161132812 968.496032714844 967.975036621094 967.94287109375 972.2744140625 969.662170410156 966.576477050781 966.7470703125 973.233764648438 981.308959960938 980.206176757812 983.0390625 976.557800292969 975.773376464844 982.609558105469 978.699462890625 980.63330078125 968.54248046875 975.322326660156 981.99658203125 985.107788085938 987.083923339844 982.295471191406 995.008483886719 1005.51257324219 1007.20288085938 1012.92938232422 1004.18713378906 1008.72894287109 1008.89727783203 1003.69659423828 1004.14276123047 1004.91973876953 1007.32202148438 1003.72259521484 1002.2138671875 997.375732421875 1008.52227783203 1011.33508300781 1022.86383056641 1018.73315429688 1022.20361328125 1015.40142822266 1013.42681884766 1014.7431640625 1032.7548828125 1041.8779296875 1053.01171875 1059.1396484375 1058.75537109375 1052.92724609375 1054.90087890625 1058.22814941406 1078.58129882812 1079.61401367188 1088.27612304688 1096.66040039062 1098.2421875 1108.73986816406 1102.32568359375 1108.30297851562 1125.75720214844 1120.55773925781 1130.1787109375 1129.51086425781 1133.2333984375 1140.53247070312 1143.63098144531
953.481018066406 954.445617675781 949.646789550781 953.055725097656 963.22021484375 964.739624023438 969.386108398438 966.327575683594 963.366577148438 960.238159179688 963.801391601562 979.821594238281 977.553283691406 981.504089355469 979.964782714844 976.158996582031 977.669372558594 985.751770019531 975.658996582031 984.991821289062 973.488403320312 966.403564453125 965.533935546875 959.053649902344 961.612976074219 966.564025878906 961.213439941406 960.807006835938 966.301086425781 975.433776855469 974.592956542969 971.036682128906 967.300476074219 968.728088378906 973.517761230469 976.986022949219 970.563049316406 966.359924316406 968.353393554688 963.755554199219 961.049011230469 959.867126464844 951.56591796875 952.31005859375 955.4404296875 958.433654785156 970.982299804688 965.423950195312 968.856628417969 969.433349609375 971.227111816406 969.999267578125 974.489990234375 968.658142089844 967.983520507812 956.828796386719 966.502502441406 952.217468261719 963.388671875 955.32470703125 965.408874511719 955.007202148438 962.404418945312 967.055480957031 967.714782714844 970.650573730469 963.428100585938 958.662170410156 957.793151855469 959.575317382812 967.187377929688 966.941467285156 966.612976074219 964.346618652344 963.843200683594 960.072143554688 970.688659667969 966.034484863281 968.8349609375 969.644348144531 978.951721191406 966.410522460938 966.5927734375 966.037902832031 957.468017578125 964.734252929688 970.011596679688 967.225952148438 964.32958984375 969.654235839844 975.110595703125 981.57666015625 969.359313964844 973.286804199219 977.638854980469 972.443969726562 978.504760742188 985.798645019531 978.726623535156 974.442810058594 972.204833984375 978.651123046875 982.86474609375 984.443054199219 985.008422851562 989.299499511719 1001.71441650391 1012.12652587891 1006.19848632812 1002.80676269531 1001.41784667969 996.8369140625 1004.36029052734 1006.80810546875 995.535705566406 1004.58770751953 1011.20703125 1007.47930908203 1000.85961914062 1012.79290771484 1016.00622558594 1025.44836425781 1024.57531738281 1021.83264160156 1020.39880371094 1013.63067626953 1019.64825439453 1037.26782226562 1041.43273925781 1050.91845703125 1057.44799804688 1059.35974121094 1057.6513671875 1054.56262207031 1068.14526367188 1076.97131347656 1074.49621582031 1079.28442382812 1089.24353027344 1095.14038085938 1099.73950195312 1107.06420898438 1110.41833496094 1117.39318847656 1116.86865234375 1124.88195800781 1122.48693847656 1134.798828125 1131.962890625 1130.525390625
962.323120117188 955.130859375 943.357421875 949.483276367188 955.661743164062 965.105834960938 968.233642578125 969.791137695312 969.448120117188 967.6669921875 966.760925292969 983.231872558594 982.014770507812 982.386901855469 981.192321777344 980.367797851562 975.841918945312 976.115417480469 974.267028808594 982.788452148438 972.482543945312 963.435974121094 957.216003417969 956.929382324219 969.094055175781 963.809753417969 960.284362792969 964.31298828125 960.4794921875 969.589477539062 968.881042480469 970.203063964844 962.674499511719 965.888427734375 971.53466796875 968.888671875 965.842956542969 972.845336914062 964.554382324219 957.738342285156 950.020812988281 969.160705566406 954.87353515625 951.300842285156 946.105224609375 962.403259277344 956.15576171875 959.892944335938 969.999938964844 964.348754882812 969.698852539062 982.273071289062 967.841186523438 961.582946777344 962.598022460938 958.471862792969 952.502563476562 957.990539550781 950.963684082031 951.435729980469 957.6708984375 959.449523925781 956.916625976562 963.058776855469 971.820190429688 966.025268554688 964.102905273438 955.169311523438 951.699645996094 960.0146484375 962.393188476562 967.083740234375 965.391235351562 965.141296386719 966.781799316406 963.206970214844 969.919372558594 965.229675292969 965.139526367188 961.774230957031 962.866088867188 960.234619140625 957.167236328125 958.355529785156 964.190246582031 967.471984863281 967.08203125 971.541137695312 966.989624023438 968.223510742188 973.095092773438 976.466064453125 971.286926269531 973.144958496094 969.552368164062 976.446472167969 982.7998046875 978.415771484375 974.798217773438 975.287902832031 975.951965332031 980.347045898438 980.544311523438 979.820861816406 981.81640625 985.619445800781 998.279174804688 998.75 1003.57427978516 998.774291992188 992.769958496094 989.585571289062 993.434143066406 997.467041015625 996.123291015625 1009.20013427734 1007.4423828125 1011.38702392578 1007.21343994141 1012.24658203125 1015.34362792969 1015.88342285156 1019.00695800781 1025.79077148438 1017.51214599609 1026.43249511719 1022.94201660156 1038.08178710938 1046.71423339844 1059.27587890625 1071.41149902344 1064.50048828125 1060.04711914062 1063.82336425781 1066.97741699219 1074.80090332031 1081.5849609375 1081.98168945312 1089.85217285156 1092.31420898438 1093.21850585938 1094.97412109375 1102.46447753906 1102.71069335938 1122.63879394531 1117.57385253906 1118.10998535156 1121.32836914062 1124.12585449219 1119.26831054688
967.059509277344 967.418884277344 950.872802734375 950.735778808594 958.627868652344 969.173400878906 972.429870605469 972.745788574219 972.955810546875 969.949584960938 973.002319335938 977.5244140625 985.410705566406 977.697265625 986.046264648438 977.791564941406 978.849853515625 972.736999511719 977.849243164062 968.63232421875 968.579772949219 975.395568847656 966.199523925781 965.391845703125 964.726623535156 961.154235839844 957.196960449219 960.831481933594 964.439758300781 972.033264160156 970.685119628906 971.085021972656 964.147094726562 970.186218261719 966.598388671875 966.693359375 958.114074707031 964.013916015625 962.480895996094 958.924194335938 961.624633789062 954.100708007812 954.916015625 956.703125 953.425842285156 958.761779785156 957.028930664062 960.993408203125 961.243957519531 970.271118164062 977.960388183594 972.262573242188 973.6669921875 973.201171875 965.090942382812 949.911437988281 955.902770996094 955.221923828125 944.396362304688 947.262329101562 947.903747558594 965.795532226562 966.640319824219 963.375671386719 963.6552734375 969.52978515625 966.498474121094 961.048645019531 951.840881347656 963.381530761719 971.5908203125 972.20751953125 963.649658203125 970.5302734375 970.163818359375 965.723754882812 961.752014160156 961.926818847656 965.922302246094 958.314819335938 963.346435546875 962.643432617188 968.872741699219 968.326721191406 971.5576171875 970.551879882812 973.851440429688 962.546203613281 963.047668457031 966.875427246094 968.699096679688 975.184448242188 972.495544433594 975.0908203125 981.886047363281 976.938781738281 978.552978515625 978.593505859375 971.525390625 973.248657226562 971.519287109375 972.798645019531 969.460571289062 975.966186523438 972.481567382812 980.169555664062 991.985717773438 993.831848144531 990.059265136719 993.535949707031 992.917846679688 994.013793945312 986.478515625 992.278076171875 997.271423339844 1003.68383789062 1004.20147705078 1008.58184814453 1012.79571533203 1014.21594238281 1017.45031738281 1018.75958251953 1018.87005615234 1019.70281982422 1022.56805419922 1019.57635498047 1023.97589111328 1040.82238769531 1055.46472167969 1071.85400390625 1059.76330566406 1063.36926269531 1059.74890136719 1058.0869140625 1064.36535644531 1072.20825195312 1079.86938476562 1082.67529296875 1099.33837890625 1087.69140625 1088.4453125 1088.82556152344 1105.20068359375 1095.31298828125 1110.02087402344 1110.24401855469 1103.89501953125 1111.00109863281 1120.37890625 1109.78259277344
973.894714355469 968.416442871094 958.60791015625 959.12451171875 960.716064453125 971.84814453125 971.606506347656 976.558959960938 969.923034667969 967.011413574219 978.274169921875 979.751037597656 982.70849609375 979.304504394531 981.51708984375 986.921264648438 978.588256835938 970.016357421875 967.40478515625 964.221374511719 965.895935058594 968.205444335938 973.928527832031 967.527038574219 965.266906738281 965.102111816406 954.670288085938 954.246032714844 965.239807128906 967.762390136719 969.822937011719 968.814880371094 964.399291992188 963.003112792969 963.103820800781 963.3408203125 956.473510742188 966.353698730469 961.770324707031 957.089660644531 964.225952148438 962.124084472656 954.927185058594 946.093566894531 935.610778808594 947.579162597656 966.879028320312 955.150024414062 957.93896484375 958.65087890625 976.705871582031 973.494750976562 979.81396484375 973.790466308594 957.854064941406 947.072021484375 947.058837890625 951.946166992188 956.734191894531 952.471313476562 947.600524902344 959.060302734375 965.769348144531 962.523559570312 966.317443847656 960.257080078125 965.857177734375 952.471069335938 953.475158691406 957.8076171875 966.6337890625 962.856994628906 962.059326171875 960.655822753906 958.100769042969 964.251159667969 969.538452148438 965.251586914062 968.291625976562 960.603881835938 964.956176757812 959.124755859375 962.534362792969 971.626098632812 968.397155761719 955.374450683594 964.898986816406 967.068054199219 968.158020019531 963.608520507812 967.269653320312 967.103637695312 976.206481933594 982.359802246094 988.466735839844 978.898498535156 971.187316894531 969.383361816406 972.172302246094 971.705688476562 971.35009765625 974.128784179688 969.232788085938 973.976379394531 979.233642578125 981.676330566406 991.027709960938 992.577575683594 985.374389648438 988.354125976562 993.799438476562 998.4541015625 988.225402832031 997.3974609375 998.194763183594 1005.14312744141 1004.95471191406 1008.37066650391 1011.66351318359 1017.11938476562 1014.09460449219 1023.689453125 1024.17492675781 1023.57531738281 1028.24633789062 1029.4404296875 1021.83563232422 1028.91845703125 1048.98876953125 1058.47253417969 1074.10888671875 1067.17407226562 1073.26843261719 1073.52392578125 1069.47668457031 1071.54467773438 1086.16906738281 1092.81286621094 1102.7890625 1094.00537109375 1094.08166503906 1098.48278808594 1097.06359863281 1089.37048339844 1097.36962890625 1096.59350585938 1092.77819824219 1105.03283691406 1104.87829589844 1100.29846191406
971.85302734375 964.032958984375 953.591552734375 955.839599609375 965.035827636719 979.490905761719 976.918029785156 972.325012207031 967.473083496094 972.470031738281 975.822204589844 983.638122558594 982.979309082031 980.606994628906 980.026977539062 982.699584960938 974.276977539062 970.709594726562 973.832885742188 966.525756835938 963.741271972656 964.020141601562 963.057800292969 955.871765136719 959.384155273438 960.286560058594 960.354553222656 961.097717285156 961.031677246094 970.197998046875 970.722412109375 964.960876464844 963.026916503906 961.16943359375 966.01513671875 969.929992675781 959.2158203125 967.079406738281 964.259094238281 965.821166992188 972.046630859375 963.513488769531 960.66064453125 953.326232910156 944.390747070312 954.570007324219 951.050842285156 955.203186035156 944.535278320312 953.096923828125 964.090454101562 976.584045410156 982.933044433594 972.651000976562 961.24462890625 946.714477539062 941.246032714844 952.983825683594 960.21533203125 954.400512695312 952.105773925781 961.269165039062 960.480041503906 970.857971191406 969.016052246094 949.783142089844 963.607727050781 958.790222167969 954.959106445312 959.633728027344 956.540649414062 962.6259765625 962.810791015625 958.573181152344 962.0751953125 956.63671875 965.814514160156 967.365112304688 968.178466796875 965.064697265625 971.51953125 969.317443847656 958.579833984375 965.759399414062 958.585144042969 954.19140625 961.379333496094 959.74560546875 963.435546875 969.474670410156 964.75341796875 964.538146972656 973.070739746094 980.097900390625 983.569213867188 975.166931152344 969.097961425781 964.944091796875 965.470703125 976.93212890625 979.607238769531 969.333984375 980.966003417969 983.928649902344 970.393981933594 974.969604492188 991.403747558594 978.588134765625 979.288208007812 985.868408203125 996.852661132812 997.623168945312 985.998229980469 991.300354003906 986.4599609375 991.517333984375 999.675842285156 1005.73425292969 1011.43310546875 1014.38012695312 1015.69647216797 1015.52893066406 1016.62646484375 1021.05877685547 1035.72839355469 1033.1142578125 1027.56103515625 1024.13879394531 1041.08386230469 1050.31628417969 1062.83703613281 1063.86413574219 1075.36889648438 1080.35363769531 1083.69860839844 1080.19641113281 1095.05651855469 1091.0751953125 1099.46118164062 1099.22814941406 1093.95520019531 1096.42761230469 1095.92956542969 1091.20239257812 1093.34533691406 1096.95288085938 1092.900390625 1099.00402832031 1094.7705078125 1092.70678710938
960.844482421875 955.666748046875 951.574951171875 963.308044433594 971.053466796875 981.323913574219 978.344055175781 976.941833496094 965.367309570312 964.624267578125 973.514587402344 978.222961425781 980.584228515625 983.531066894531 979.352783203125 978.326171875 974.211975097656 970.063415527344 967.254333496094 967.82861328125 969.427307128906 968.270385742188 962.484252929688 966.777404785156 960.384155273438 961.746765136719 960.894653320312 958.535095214844 966.571472167969 967.346618652344 964.867980957031 965.55224609375 957.568298339844 962.570983886719 966.135681152344 968.18359375 957.68408203125 957.611999511719 959.942749023438 963.694091796875 973.905700683594 966.290405273438 962.775146484375 955.090393066406 954.701171875 954.020324707031 955.418090820312 954.001220703125 954.44677734375 956.548950195312 965.774108886719 972.235656738281 976.172485351562 968.057434082031 963.394836425781 959.004455566406 948.109069824219 941.138916015625 953.284545898438 953.735717773438 947.620361328125 960.15380859375 966.6748046875 963.746032714844 959.803527832031 958.921264648438 966.535339355469 967.406799316406 963.435119628906 956.167053222656 961.849792480469 965.979614257812 959.403625488281 964.364929199219 964.481018066406 961.460083007812 959.112487792969 954.832092285156 956.856628417969 963.483825683594 966.711242675781 957.389343261719 959.057678222656 968.716247558594 961.624267578125 961.788757324219 967.416442871094 967.412292480469 970.311889648438 969.937927246094 977.557678222656 966.887573242188 970.461791992188 975.040100097656 976.293762207031 971.895935058594 971.521484375 969.391723632812 974.572570800781 977.103515625 978.33349609375 978.3828125 968.903747558594 983.358276367188 966.488525390625 981.358459472656 977.764770507812 976.992919921875 984.869201660156 986.378601074219 998.930053710938 988.121459960938 992.553588867188 981.028198242188 990.537170410156 995.597229003906 998.932006835938 1003.45141601562 1004.47351074219 1008.80212402344 1008.7978515625 1015.52746582031 1017.72442626953 1033.33874511719 1028.75988769531 1027.70324707031 1025.17236328125 1026.24621582031 1035.70275878906 1041.04406738281 1056.35827636719 1070.11877441406 1081.06665039062 1089.30224609375 1088.62084960938 1083.08459472656 1091.04577636719 1096.23034667969 1094.75415039062 1096.529296875 1099.8232421875 1092.10144042969 1094.119140625 1095.33666992188 1087.27600097656 1085.28100585938 1085.16674804688 1091.19653320312 1085.74450683594 1082.55334472656
959.924072265625 960.507263183594 956.92041015625 961.155822753906 972.321533203125 983.033569335938 983.251892089844 971.58056640625 974.568420410156 975.522705078125 969.877319335938 968.642028808594 973.3662109375 972.71533203125 972.132568359375 970.999572753906 971.208435058594 965.883544921875 972.746704101562 968.940246582031 965.040100097656 962.884460449219 955.803405761719 960.94775390625 958.256774902344 960.925109863281 967.579284667969 965.498229980469 963.136352539062 961.766418457031 955.6484375 960.266662597656 956.419982910156 961.93505859375 963.899291992188 962.217468261719 958.180847167969 952.777160644531 950.909790039062 957.343933105469 967.745422363281 961.355163574219 961.100463867188 957.380065917969 958.84033203125 952.208923339844 956.883605957031 962.412231445312 956.131896972656 965.595336914062 971.786682128906 969.452026367188 967.76806640625 969.629760742188 960.732421875 957.072998046875 948.436950683594 947.900695800781 953.4990234375 954.84130859375 954.380126953125 950.051818847656 967.977111816406 961.551940917969 962.789245605469 962.905334472656 957.347900390625 957.816772460938 963.484130859375 962.229431152344 962.087646484375 968.2919921875 973.913513183594 968.858947753906 961.036193847656 952.901306152344 952.242004394531 953.725891113281 955.527587890625 966.679016113281 964.127685546875 963.832275390625 952.158996582031 957.677917480469 957.818908691406 957.507629394531 955.431640625 961.870971679688 958.508422851562 966.585266113281 970.868774414062 974.899475097656 972.581970214844 966.171691894531 969.37158203125 966.266723632812 964.732849121094 973.480895996094 985.323059082031 978.032470703125 978.393127441406 972.451599121094 974.199035644531 981.138427734375 974.244812011719 973.580383300781 970.107238769531 982.381103515625 989.666748046875 992.482543945312 991.498718261719 992.726318359375 993.588317871094 993.993469238281 1000.15582275391 995.859252929688 996.093200683594 994.430480957031 1001.92370605469 1009.84741210938 1014.90966796875 1015.72833251953 1020.61755371094 1023.60821533203 1021.67144775391 1019.18103027344 1027.189453125 1036.19750976562 1048.20568847656 1050.64172363281 1052.2578125 1068.07604980469 1083.6025390625 1093.646484375 1087.90246582031 1092.92944335938 1090.99401855469 1092.27331542969 1088.72033691406 1093.88623046875 1094.74072265625 1092.908203125 1084.25817871094 1082.17199707031 1075.77978515625 1072.79296875 1078.68310546875 1078.28869628906 1086.42309570312 1085.49963378906
963.940124511719 961.261474609375 952.546142578125 958.886596679688 972.244262695312 982.717102050781 981.528869628906 974.727416992188 967.582885742188 964.29443359375 964.98583984375 969.210327148438 969.852478027344 965.643737792969 970.94677734375 974.24462890625 969.343566894531 970.175170898438 967.852722167969 963.321899414062 964.772277832031 953.765808105469 948.522644042969 958.119812011719 969.276245117188 959.748962402344 959.043151855469 956.432983398438 956.857360839844 955.164794921875 957.130310058594 965.226745605469 960.820251464844 968.768432617188 962.500061035156 960.281799316406 955.66748046875 952.285522460938 951.946105957031 959.171997070312 956.537658691406 953.344421386719 963.151733398438 960.152465820312 952.187805175781 955.995239257812 954.181030273438 961.651000976562 960.052673339844 973.869750976562 967.690124511719 964.317199707031 963.412658691406 962.685852050781 956.247863769531 957.977233886719 947.909790039062 942.353698730469 947.732055664062 950.944030761719 953.824401855469 959.753601074219 968.168090820312 963.800659179688 950.00439453125 957.040954589844 955.608215332031 954.872375488281 964.16455078125 963.641540527344 967.108154296875 979.339538574219 979.763732910156 966.036499023438 963.061401367188 952.988342285156 959.529418945312 958.680969238281 959.89111328125 959.942321777344 960.653930664062 954.581787109375 954.9189453125 955.006286621094 955.475769042969 955.1123046875 955.51513671875 953.021423339844 947.980285644531 959.80810546875 967.590209960938 970.962280273438 979.554504394531 963.212463378906 961.249328613281 968.205139160156 978.482299804688 976.351440429688 971.585632324219 968.914672851562 972.440490722656 964.809143066406 964.04248046875 971.009155273438 972.824584960938 971.683837890625 979.708129882812 983.985412597656 985.635498046875 993.986999511719 990.573364257812 993.769348144531 985.674133300781 998.359008789062 993.304626464844 991.895874023438 987.456115722656 995.028869628906 1000.85540771484 1011.69195556641 1016.69659423828 1016.95819091797 1020.09674072266 1022.42071533203 1020.00164794922 1021.14093017578 1029.07556152344 1034.88793945312 1049.52392578125 1056.22485351562 1062.55334472656 1066.3564453125 1075.69396972656 1078.79663085938 1086.671875 1093.38024902344 1092.93359375 1099.2578125 1088.95288085938 1084.45361328125 1084.41528320312 1085.67321777344 1079.84057617188 1068.65612792969 1059.85803222656 1067.3876953125 1066.806640625 1060.19714355469 1071.86218261719 1075.79455566406
960.309020996094 956.0146484375 956.737121582031 966.80322265625 975.870971679688 987.874877929688 976.189575195312 970.087097167969 965.810974121094 963.382446289062 963.143249511719 970.369445800781 966.264831542969 972.084777832031 979.025512695312 974.665893554688 982.616760253906 974.644897460938 968.763305664062 966.977416992188 961.942443847656 952.414367675781 947.881774902344 947.034301757812 953.528625488281 958.341064453125 957.905517578125 954.750183105469 955.424011230469 952.324401855469 958.256896972656 959.386596679688 955.368530273438 961.949035644531 962.743896484375 965.742126464844 961.837524414062 954.719421386719 965.798583984375 955.391479492188 956.998291015625 963.827758789062 959.183715820312 954.167297363281 952.102722167969 958.312255859375 953.388488769531 958.741271972656 957.311218261719 956.568664550781 962.301391601562 966.531433105469 954.313415527344 952.140380859375 948.766357421875 948.416748046875 951.63818359375 952.956420898438 955.189819335938 959.609802246094 954.920654296875 961.964111328125 959.836120605469 957.970458984375 960.452392578125 960.886779785156 971.96240234375 965.558288574219 972.7548828125 973.918273925781 972.452209472656 970.865905761719 967.999816894531 962.559387207031 971.770324707031 973.994750976562 965.616821289062 965.746459960938 967.568542480469 964.110534667969 959.681701660156 962.415466308594 951.18017578125 955.771545410156 959.193603515625 968.864685058594 966.621520996094 959.386291503906 956.134887695312 958.993835449219 965.612121582031 963.420166015625 967.93212890625 967.155639648438 969.113220214844 976.218811035156 981.177551269531 980.267211914062 975.387817382812 975.012329101562 969.355163574219 962.972229003906 972.92578125 972.877014160156 982.066528320312 984.255126953125 982.733825683594 992.844299316406 981.866821289062 987.449340820312 989.8544921875 987.46533203125 988.697631835938 985.983276367188 991.177917480469 995.595275878906 985.216674804688 995.720703125 1016.21398925781 1014.27490234375 1018.13336181641 1015.89978027344 1018.87371826172 1022.62689208984 1022.41650390625 1029.65637207031 1037.29907226562 1042.61206054688 1046.81225585938 1057.72729492188 1059.0888671875 1066.41845703125 1068.30212402344 1068.61730957031 1073.10437011719 1085.69421386719 1093.91296386719 1088.17346191406 1079.48828125 1091.53894042969 1080.07080078125 1064.69140625 1061.05712890625 1060.77001953125 1053.78149414062 1055.88696289062 1050.70581054688 1047.63208007812 1066.96130371094 1071.27465820312
947.067810058594 955.640991210938 953.940551757812 965.629272460938 975.830261230469 977.381652832031 977.571105957031 973.658874511719 967.062744140625 959.824829101562 956.297912597656 969.877014160156 967.843872070312 967.994995117188 976.451354980469 982.443237304688 972.192810058594 970.899169921875 971.295776367188 961.197692871094 957.951232910156 960.914978027344 963.132873535156 958.585815429688 955.2890625 950.407287597656 955.051574707031 959.387512207031 955.6884765625 958.065551757812 955.117553710938 950.314880371094 955.06689453125 951.4326171875 963.533386230469 964.808410644531 961.373474121094 971.082580566406 960.770812988281 957.526733398438 954.108581542969 950.843139648438 948.737487792969 944.350402832031 948.773986816406 953.719604492188 953.52099609375 956.690612792969 951.235107421875 957.536376953125 960.19677734375 958.324035644531 957.855773925781 949.3505859375 939.988342285156 946.439880371094 953.950256347656 958.584533691406 960.382446289062 962.292053222656 959.822204589844 963.965942382812 958.698486328125 957.171508789062 957.186828613281 962.183898925781 970.5673828125 982.328125 977.797241210938 968.14111328125 962.411071777344 964.513671875 963.0283203125 966.290161132812 968.291320800781 978.502319335938 971.99267578125 963.068359375 968.375183105469 967.5986328125 965.073608398438 964.146484375 961.2509765625 967.095092773438 966.357788085938 972.793701171875 969.408386230469 969.763671875 962.796630859375 968.868713378906 972.274841308594 964.9423828125 966.721313476562 967.225280761719 968.803283691406 980.690368652344 982.116638183594 987.145324707031 989.965026855469 977.070190429688 976.487609863281 977.725830078125 985.512939453125 987.310546875 990.183288574219 985.952209472656 989.497802734375 991.996948242188 987.700256347656 996.464111328125 995.106201171875 987.687255859375 991.559814453125 992.199645996094 993.030151367188 993.229797363281 997.976867675781 997.807983398438 1007.68048095703 1005.75970458984 1010.30834960938 1008.81707763672 1016.08862304688 1019.16558837891 1012.35211181641 1024.69189453125 1040.66003417969 1039.98413085938 1046.77941894531 1057.90319824219 1056.443359375 1057.25476074219 1062.94177246094 1056.80725097656 1073.27795410156 1077.01123046875 1084.79150390625 1084.12048339844 1079.90563964844 1082.84887695312 1074.01306152344 1055.49548339844 1057.70947265625 1047.88610839844 1046.5322265625 1044.22680664062 1051.55859375 1047.15661621094 1056.61682128906 1066.16381835938
944.744812011719 942.510864257812 956.350158691406 959.689453125 972.384460449219 973.578247070312 972.951110839844 968.454040527344 972.749267578125 968.454833984375 959.785278320312 965.796203613281 970.717102050781 969.329956054688 970.865234375 976.263671875 965.203674316406 964.887939453125 970.114929199219 960.599670410156 964.842651367188 959.190490722656 957.587768554688 953.527221679688 953.330261230469 943.97802734375 943.227844238281 950.782104492188 955.685180664062 961.495849609375 953.653198242188 953.647521972656 950.53173828125 948.046569824219 958.497131347656 957.212219238281 963.810119628906 955.679260253906 956.88720703125 953.783142089844 948.713256835938 951.436096191406 940.548217773438 942.265258789062 948.996643066406 952.815185546875 955.708618164062 950.630310058594 954.736755371094 949.832153320312 963.495300292969 958.826599121094 955.115966796875 952.93603515625 947.160888671875 953.489013671875 954.211547851562 954.874084472656 966.418273925781 964.942321777344 965.231201171875 967.016967773438 966.684997558594 956.16455078125 961.676086425781 972.393737792969 973.477111816406 969.570007324219 970.716247558594 964.493103027344 963.45751953125 960.962463378906 965.75390625 965.547973632812 965.30615234375 970.354309082031 971.138854980469 968.614135742188 965.752563476562 972.280395507812 964.099914550781 964.625549316406 963.433044433594 960.717346191406 967.714477539062 973.132690429688 970.89453125 963.689819335938 964.939453125 981.435852050781 972.716857910156 975.079040527344 966.237731933594 966.125549316406 967.017272949219 975.294006347656 979.797729492188 989.426330566406 989.008972167969 986.554260253906 984.778137207031 980.884887695312 979.97265625 988.360778808594 987.77099609375 991.291015625 991.298278808594 993.413757324219 986.445922851562 992.069702148438 992.605712890625 987.867980957031 993.518493652344 990.382995605469 1008.82928466797 1004.91082763672 1002.37512207031 1008.58325195312 1003.42144775391 1004.56909179688 999.015197753906 1007.60345458984 1007.80639648438 1011.75988769531 1015.25146484375 1019.12286376953 1032.08349609375 1035.26770019531 1041.1552734375 1054.90954589844 1058.76208496094 1061.54211425781 1063.17614746094 1067.08239746094 1075.94360351562 1075.87536621094 1082.46508789062 1076.76904296875 1069.03930664062 1068.94934082031 1058.82434082031 1043.66662597656 1047.8994140625 1040.65856933594 1043.57470703125 1044.88684082031 1048.41174316406 1044.37060546875 1053.13220214844 1052.7158203125
957.214294433594 962.444213867188 957.060913085938 964.788513183594 966.006896972656 972.570190429688 972.149230957031 970.016540527344 971.080383300781 974.687255859375 959.089782714844 957.401184082031 957.473205566406 966.716918945312 969.697387695312 963.123718261719 961.929443359375 962.070678710938 959.988830566406 956.565612792969 952.512451171875 947.411499023438 941.886413574219 949.253662109375 952.963745117188 944.828186035156 941.799255371094 948.122009277344 951.560119628906 956.794555664062 953.406005859375 952.075439453125 949.918884277344 954.290954589844 953.910949707031 958.557739257812 954.159423828125 951.92333984375 941.628479003906 940.827697753906 944.132202148438 941.493408203125 947.725891113281 941.564025878906 947.528991699219 952.117431640625 951.383850097656 943.238464355469 952.490905761719 952.286865234375 956.308166503906 964.344482421875 956.592102050781 953.139953613281 950.799255371094 955.916809082031 963.941650390625 959.329956054688 966.515380859375 965.625732421875 973.716918945312 968.796203613281 966.604125976562 968.424865722656 965.037902832031 974.915954589844 958.221130371094 969.756408691406 962.484130859375 958.872802734375 961.339050292969 962.360046386719 966.563598632812 963.944396972656 966.680541992188 970.179382324219 973.821533203125 970.899047851562 968.29150390625 963.055114746094 961.101135253906 961.800964355469 955.07763671875 965.719604492188 970.146606445312 972.551025390625 972.920288085938 966.858581542969 968.738220214844 977.229309082031 975.218933105469 977.620849609375 961.225158691406 959.099426269531 961.568664550781 968.921264648438 972.294311523438 985.744201660156 980.787841796875 987.368591308594 987.203857421875 989.304321289062 990.446472167969 986.396789550781 996.656127929688 994.770446777344 999.463195800781 990.59716796875 992.460327148438 994.73193359375 991.076416015625 994.344177246094 995.455871582031 994.789001464844 1010.77783203125 1013.07354736328 1007.82904052734 1013.01733398438 1005.41864013672 1013.04766845703 1003.27795410156 1005.11419677734 1017.85168457031 1014.04974365234 1015.97210693359 1018.91778564453 1025.03063964844 1031.15270996094 1033.41394042969 1050.060546875 1058.28515625 1061.82421875 1060.67456054688 1066.74816894531 1058.23461914062 1060.8486328125 1070.59631347656 1062.61145019531 1062.44287109375 1048.55187988281 1039.5185546875 1033.76647949219 1028.58764648438 1030.69665527344 1040.52856445312 1050.75817871094 1049.02185058594 1053.45629882812 1049.14831542969 1055.55261230469
967.170349121094 966.990234375 968.585571289062 967.550354003906 964.524719238281 975.019470214844 973.010070800781 975.04150390625 971.946594238281 966.347961425781 956.438232421875 954.588623046875 954.932861328125 959.674377441406 964.242980957031 960.158447265625 956.6787109375 961.719665527344 956.461059570312 960.113952636719 953.037719726562 941.225769042969 951.341674804688 955.580749511719 943.348022460938 940.539978027344 938.673217773438 944.431579589844 948.842468261719 950.425476074219 957.403930664062 947.725830078125 949.75634765625 953.045715332031 950.881408691406 955.101989746094 953.68701171875 949.188110351562 944.934204101562 942.272155761719 945.03466796875 941.4990234375 952.892517089844 950.096740722656 952.277893066406 951.561462402344 947.028503417969 950.741577148438 950.711608886719 956.462463378906 958.615478515625 953.26025390625 954.354736328125 967.604187011719 964.807983398438 959.029235839844 963.564270019531 966.404541015625 966.451782226562 968.779296875 969.981567382812 973.964416503906 976.86279296875 980.763977050781 971.403686523438 967.821899414062 972.3125 962.758483886719 961.869445800781 959.22021484375 961.329284667969 964.272521972656 958.011352539062 955.862243652344 970.546997070312 970.630065917969 974.877563476562 964.886047363281 967.819458007812 965.7119140625 959.376403808594 968.859497070312 969.500305175781 967.146789550781 972.847717285156 971.032287597656 975.05615234375 967.516784667969 976.242065429688 979.546508789062 970.742614746094 974.45654296875 968.415832519531 954.361999511719 963.173828125 959.921508789062 970.013122558594 974.124145507812 976.5244140625 972.848693847656 975.135070800781 980.570068359375 987.231994628906 986.010559082031 994.600524902344 991.299072265625 991.217590332031 992.143127441406 992.58984375 991.368103027344 996.786682128906 993.764953613281 989.096313476562 1002.33868408203 1005.87896728516 1008.61248779297 1007.81384277344 1014.74560546875 1011.28100585938 1003.15368652344 999.526428222656 1005.76501464844 1009.087890625 1016.16967773438 1020.82666015625 1019.74871826172 1021.8759765625 1026.47399902344 1024.9482421875 1041.94860839844 1049.28186035156 1062.69653320312 1058.51257324219 1054.27880859375 1054.28796386719 1054.4990234375 1060.98046875 1057.11389160156 1047.72424316406 1048.81042480469 1033.4033203125 1025.59045410156 1027.25769042969 1033.58520507812 1039.58154296875 1041.77319335938 1040.287109375 1037.66296386719 1043.91003417969 1049.12145996094
963.906188964844 957.8349609375 964.916564941406 964.736633300781 967.958740234375 977.806213378906 973.084533691406 966.624450683594 976.697875976562 964.388610839844 960.304992675781 954.3486328125 961.183349609375 955.193420410156 953.766723632812 946.896118164062 942.373840332031 951.975830078125 959.659790039062 958.368957519531 954.552124023438 942.632019042969 947.512634277344 941.549255371094 941.382019042969 945.257019042969 935.990356445312 939.608825683594 941.75048828125 935.415954589844 947.040466308594 940.434265136719 946.536071777344 947.917785644531 946.580688476562 956.479370117188 952.362182617188 952.110107421875 948.619262695312 946.6318359375 953.657958984375 945.473205566406 951.302795410156 959.011474609375 963.915344238281 958.5048828125 952.968811035156 949.337341308594 950.098937988281 947.524291992188 954.661743164062 967.337890625 962.349304199219 971.145263671875 963.687805175781 963.425964355469 970.10400390625 967.607727050781 965.070373535156 965.644714355469 964.249572753906 983.539916992188 990.911987304688 982.512939453125 974.717102050781 976.293762207031 970.356140136719 965.458984375 965.061401367188 963.9375 959.911926269531 959.287963867188 959.360900878906 968.292297363281 972.666687011719 965.939514160156 973.119018554688 967.138549804688 971.017028808594 973.484497070312 975.925354003906 977.0078125 976.850769042969 976.226501464844 977.494445800781 981.429077148438 974.810363769531 977.848083496094 978.367492675781 976.453308105469 964.826965332031 967.355163574219 972.359436035156 964.154907226562 962.49658203125 972.3330078125 970.315673828125 968.059265136719 970.253356933594 979.212280273438 982.602478027344 981.99462890625 985.993347167969 989.733459472656 993.11865234375 990.189636230469 988.478088378906 993.848571777344 988.405456542969 990.642211914062 993.671508789062 998.360656738281 997.689025878906 1007.43542480469 1015.12506103516 1011.39526367188 1011.078125 1008.05694580078 1004.94390869141 1003.59759521484 1001.18218994141 1002.70806884766 1015.48376464844 1020.39654541016 1016.06463623047 1023.57067871094 1025.37023925781 1024.31872558594 1031.89501953125 1038.72827148438 1039.95275878906 1047.787109375 1048.45947265625 1054.53186035156 1047.62084960938 1054.13391113281 1052.66162109375 1053.67236328125 1039.36743164062 1039.15881347656 1034.44738769531 1027.6455078125 1028.56665039062 1030.51928710938 1036.10437011719 1027.90087890625 1028.84924316406 1038.95446777344 1035.37634277344 1034.75903320312
954.703796386719 956.610778808594 961.887390136719 958.347778320312 966.437927246094 977.637939453125 971.617553710938 963.295959472656 962.412048339844 956.451782226562 959.893981933594 960.356201171875 957.694213867188 949.270935058594 946.955993652344 941.7822265625 942.978149414062 945.444580078125 936.003356933594 942.273864746094 942.884765625 944.733520507812 937.932189941406 934.951049804688 933.547180175781 938.670654296875 935.876831054688 934.7109375 926.647155761719 933.830688476562 937.058227539062 944.569213867188 939.112182617188 948.505249023438 941.979125976562 957.2138671875 955.380310058594 950.9677734375 945.524841308594 947.094787597656 950.447814941406 959.651794433594 965.318725585938 964.627075195312 969.860412597656 963.927612304688 957.355773925781 951.732604980469 955.455749511719 952.873779296875 953.322387695312 967.216491699219 960.471313476562 968.648498535156 958.861633300781 963.968811035156 968.180603027344 967.312561035156 965.09033203125 967.45068359375 977.791625976562 979.327941894531 976.510192871094 979.214416503906 960.255065917969 972.804809570312 967.575256347656 962.334594726562 963.613830566406 970.522827148438 961.643920898438 958.803161621094 959.369873046875 968.55859375 973.187805175781 971.582275390625 975.886840820312 969.869689941406 967.880493164062 973.970092773438 979.523620605469 979.513549804688 978.054504394531 985.464782714844 983.86767578125 982.812927246094 983.419921875 985.79833984375 985.721374511719 973.599853515625 966.788146972656 960.794616699219 966.603149414062 963.721313476562 962.387573242188 972.006652832031 970.180419921875 970.645202636719 967.435607910156 974.033203125 985.563842773438 981.799072265625 993.4013671875 993.943237304688 986.029052734375 976.711791992188 985.267700195312 981.680847167969 986.670715332031 988.90478515625 995.011901855469 995.702514648438 999.130126953125 1009.10278320312 1017.84649658203 1013.95343017578 1011.26434326172 1015.21545410156 1014.87109375 997.372680664062 1001.15051269531 1005.89215087891 1009.95257568359 1019.41174316406 1007.77038574219 1019.99938964844 1026.59020996094 1024.87463378906 1027.27917480469 1026.70520019531 1033.71154785156 1038.37072753906 1039.24279785156 1042.75964355469 1042.08154296875 1043.83215332031 1035.76086425781 1040.46899414062 1025.82678222656 1026.42822265625 1021.90319824219 1023.23394775391 1023.27740478516 1033.88366699219 1032.16772460938 1024.68298339844 1028.60498046875 1022.33142089844 1018.3828125 1021.10424804688
952.831237792969 949.710693359375 958.039978027344 957.840576171875 962.479614257812 959.534851074219 969.496398925781 968.176879882812 959.087036132812 955.551147460938 951.859619140625 955.250122070312 952.210693359375 947.575134277344 935.268188476562 950.106750488281 944.846618652344 935.474731445312 936.502563476562 942.730285644531 945.451538085938 945.103881835938 933.380859375 931.541809082031 943.540954589844 944.903503417969 941.087158203125 935.015319824219 936.724365234375 946.73583984375 945.841491699219 944.581970214844 949.736145019531 952.240356445312 946.103942871094 944.024536132812 950.313903808594 942.333801269531 941.697937011719 952.204223632812 956.915649414062 959.018920898438 961.431640625 960.28076171875 959.369445800781 966.657165527344 952.544494628906 951.172424316406 950.87109375 949.620727539062 963.162414550781 964.934509277344 969.035217285156 968.9130859375 968.631469726562 967.438659667969 969.888671875 969.5693359375 970.181213378906 965.323120117188 969.345703125 972.812927246094 966.62158203125 974.686767578125 960.531677246094 960.174011230469 969.036376953125 960.603271484375 962.516845703125 966.25146484375 966.378051757812 963.771911621094 967.936279296875 975.205017089844 979.725280761719 966.920043945312 969.7626953125 970.264038085938 970.936096191406 966.510192871094 973.762451171875 977.981262207031 977.508544921875 988.240539550781 992.013732910156 989.117614746094 982.058715820312 982.505493164062 977.365783691406 980.736389160156 972.010070800781 966.18896484375 959.705810546875 971.227416992188 979.769714355469 973.936096191406 976.195983886719 979.457214355469 980.287719726562 983.063293457031 982.302917480469 981.123840332031 988.864196777344 987.528259277344 986.664428710938 986.910461425781 988.189880371094 992.083312988281 991.108032226562 993.65673828125 986.31640625 998.43798828125 1003.25598144531 1007.85815429688 1017.6513671875 1012.53167724609 1020.12670898438 1016.10668945312 1015.4228515625 1020.61688232422 1005.99713134766 1012.21722412109 1004.94274902344 1013.08618164062 1017.94091796875 1019.44708251953 1022.86328125 1031.16638183594 1036.43615722656 1035.10205078125 1040.48547363281 1030.43591308594 1038.32421875 1034.34973144531 1033.28662109375 1032.6083984375 1023.51306152344 1022.92230224609 1022.77923583984 1032.26513671875 1028.21667480469 1021.56555175781 1021.30139160156 1019.12640380859 1021.11743164062 1021.03674316406 1013.77416992188 1017.90740966797 1020.00122070312 1019.00177001953
962.418395996094 956.916687011719 954.651977539062 957.879760742188 956.028381347656 960.364807128906 961.06982421875 962.831420898438 959.409973144531 952.231140136719 954.613586425781 956.8671875 958.324523925781 945.621215820312 945.488342285156 946.979248046875 935.572204589844 939.236389160156 939.901733398438 945.063354492188 946.693054199219 944.168212890625 947.763854980469 934.329711914062 945.857299804688 944.509521484375 945.15478515625 943.015625 948.264831542969 951.556213378906 953.367370605469 943.131591796875 946.189819335938 943.329528808594 945.441467285156 943.481628417969 940.768615722656 939.160827636719 938.458312988281 948.92724609375 956.382080078125 958.700073242188 963.21142578125 959.795349121094 958.103332519531 966.641479492188 960.726623535156 962.101928710938 952.628051757812 957.02294921875 961.522033691406 960.552429199219 968.459533691406 968.991821289062 968.368957519531 969.294067382812 975.467346191406 969.134094238281 968.724243164062 974.703430175781 977.211181640625 974.031677246094 966.742797851562 964.28662109375 962.292053222656 961.603820800781 958.239807128906 961.188537597656 964.664733886719 976.665222167969 977.301635742188 980.834838867188 974.407775878906 978.014282226562 982.966369628906 980.031311035156 978.455444335938 976.092529296875 974.027648925781 970.371276855469 976.432312011719 974.557250976562 977.701416015625 981.322570800781 987.575622558594 988.004516601562 992.353271484375 982.542846679688 974.581970214844 977.668823242188 981.776916503906 974.390502929688 968.589904785156 970.310546875 985.180114746094 985.265197753906 979.776000976562 982.786193847656 983.495056152344 987.2578125 989.340637207031 988.904357910156 989.313171386719 993.286376953125 992.948669433594 996.719787597656 990.492553710938 1002.49664306641 1005.75366210938 1002.31170654297 1001.61077880859 1010.47344970703 1004.47045898438 1013.25549316406 1011.99768066406 1018.87097167969 1020.66564941406 1022.92797851562 1031.34643554688 1034.08984375 1031.31384277344 1013.22698974609 1021.68682861328 1019.51342773438 1014.70819091797 1015.26531982422 1030.58618164062 1033.9814453125 1025.60107421875 1041.625 1034.90783691406 1036.92846679688 1030.64184570312 1027.94201660156 1029.44592285156 1027.55834960938 1027.02368164062 1026.70434570312 1024.1923828125 1028.85217285156 1022.20257568359 1023.40570068359 1020.12158203125 1013.26025390625 1013.67919921875 1016.8798828125 1004.04376220703 1005.44995117188 1009.17712402344 1013.34942626953
954.309143066406 960.003234863281 951.006713867188 950.198486328125 951.550903320312 955.285705566406 950.578979492188 952.719177246094 944.343933105469 939.157775878906 946.239501953125 953.475036621094 942.978881835938 940.411560058594 941.498657226562 946.459655761719 940.833374023438 940.510437011719 942.996337890625 946.894409179688 947.783142089844 943.834045410156 957.525939941406 944.332824707031 948.169738769531 951.870422363281 954.098510742188 952.67626953125 938.81640625 950.635803222656 949.047485351562 945.748779296875 943.082214355469 942.675720214844 947.265441894531 945.724243164062 940.100036621094 939.052490234375 942.303100585938 954.53759765625 959.2275390625 957.78369140625 964.982788085938 970.567749023438 964.817749023438 965.562255859375 963.665405273438 957.350891113281 967.434936523438 959.967041015625 958.934326171875 966.513549804688 961.826965332031 967.417358398438 966.707641601562 967.591674804688 968.387451171875 965.063232421875 963.991821289062 978.820190429688 972.376647949219 971.809204101562 964.241821289062 969.099487304688 963.258972167969 961.937377929688 967.487426757812 968.601135253906 971.94482421875 973.334289550781 980.469604492188 990.217590332031 985.729614257812 992.907165527344 985.750732421875 970.571166992188 982.829711914062 979.313232421875 977.741149902344 971.382080078125 976.735107421875 981.823303222656 978.331909179688 983.31298828125 982.640747070312 976.203918457031 984.77978515625 985.096801757812 984.535705566406 980.070068359375 985.9326171875 972.087524414062 971.562072753906 976.911926269531 977.038940429688 976.62646484375 982.631103515625 980.726379394531 979.491882324219 983.52197265625 986.927917480469 989.192138671875 989.825500488281 989.084655761719 998.59619140625 999.014038085938 998.5126953125 1009.38299560547 1008.55804443359 1015.32489013672 1008.40618896484 1010.2900390625 1003.24566650391 1013.00122070312 1005.54888916016 1016.23309326172 1021.35571289062 1025.63903808594 1042.29125976562 1044.33923339844 1033.12719726562 1033.25695800781 1021.39978027344 1020.25616455078 1019.70043945312 1018.53338623047 1020.47265625 1019.92041015625 1032.5439453125 1035.88195800781 1040.92395019531 1034.87084960938 1029.04467773438 1027.29028320312 1033.083984375 1032.18713378906 1032.25732421875 1027.521484375 1034.13989257812 1031.97290039062 1022.61175537109 1016.41900634766 1011.00335693359 1019.92602539062 1011.88848876953 1007.78875732422 1003.392578125 1005.42523193359 1012.45379638672 1007.41571044922
955.167114257812 956.391540527344 952.782348632812 956.702331542969 938.469360351562 947.604919433594 947.629089355469 940.87744140625 941.094360351562 939.017761230469 944.109008789062 947.249694824219 943.887451171875 943.253967285156 936.47900390625 940.135131835938 947.998474121094 946.67626953125 947.987182617188 941.754638671875 939.4794921875 947.226501464844 959.506896972656 950.808959960938 957.946960449219 952.365295410156 946.596557617188 943.073059082031 942.030151367188 949.851196289062 948.998413085938 941.440490722656 954.348754882812 955.439086914062 952.103393554688 952.935180664062 949.784790039062 955.583984375 958.26611328125 961.197143554688 965.081848144531 962.155456542969 963.82666015625 978.752746582031 968.89794921875 962.348205566406 968.982788085938 968.566833496094 970.117858886719 971.595642089844 964.963256835938 967.984313964844 969.307189941406 958.017028808594 976.539672851562 964.951354980469 973.200378417969 979.93603515625 972.72998046875 973.759826660156 973.794616699219 974.647705078125 961.310974121094 953.4208984375 956.320007324219 960.282836914062 964.940490722656 978.605712890625 977.520568847656 972.768249511719 982.367248535156 988.967041015625 986.233276367188 987.089538574219 984.993103027344 982.2841796875 975.401184082031 981.828186035156 977.843505859375 973.83935546875 973.99560546875 974.471984863281 982.797790527344 980.965942382812 979.172241210938 980.354431152344 984.81201171875 985.906005859375 983.775451660156 974.59765625 990.359191894531 979.6513671875 976.783813476562 978.488464355469 979.11767578125 981.126403808594 984.199890136719 983.546447753906 987.628479003906 990.884704589844 994.044372558594 996.952880859375 990.563720703125 995.567565917969 999.355529785156 999.127563476562 1006.54852294922 1020.50073242188 1017.18572998047 1009.41149902344 1015.70257568359 1007.03143310547 1010.93505859375 1004.22711181641 1015.01483154297 1018.052734375 1029.86743164062 1033.14831542969 1033.70837402344 1047.87805175781 1039.70837402344 1027.66271972656 1027.45556640625 1026.46276855469 1025.12451171875 1016.28814697266 1018.54479980469 1026.03991699219 1035.79626464844 1036.68811035156 1046.40930175781 1033.94799804688 1026.033203125 1029.18530273438 1036.61791992188 1035.25329589844 1034.7763671875 1025.60217285156 1018.99084472656 1021.45391845703 1023.68646240234 1018.56494140625 1019.50610351562 1018.33911132812 1013.46643066406 1009.84448242188 1003.49890136719 1004.962890625 1007.48046875 1007.64086914062
957.4765625 948.817932128906 951.092407226562 943.291564941406 942.079895019531 940.056213378906 942.839721679688 941.793334960938 945.00732421875 942.149169921875 946.933044433594 951.356872558594 948.999572753906 942.187072753906 944.274963378906 942.530944824219 945.804382324219 948.902404785156 952.337219238281 947.401000976562 941.026977539062 953.664916992188 953.7705078125 956.338928222656 962.758056640625 956.656127929688 952.635437011719 950.185668945312 953.614013671875 952.484069824219 947.599182128906 955.331420898438 957.731567382812 955.226745605469 951.648010253906 960.220886230469 961.24267578125 968.193786621094 972.732421875 971.918884277344 976.873168945312 968.207763671875 966.968933105469 972.230163574219 968.481628417969 969.102478027344 972.208251953125 977.42529296875 976.369201660156 977.751037597656 973.132446289062 968.774658203125 977.953247070312 975.334350585938 982.064392089844 984.0283203125 988.694396972656 978.10791015625 970.867370605469 968.214050292969 972.1220703125 966.880920410156 952.761291503906 943.150817871094 953.702087402344 956.469543457031 971.776428222656 968.726257324219 974.587890625 976.324768066406 976.689575195312 983.510498046875 986.794738769531 987.946899414062 988.314636230469 977.577209472656 974.357604980469 976.334045410156 979.158386230469 978.83154296875 971.654174804688 969.947143554688 974.932983398438 980.797912597656 984.053161621094 982.551208496094 981.260009765625 980.138488769531 979.733459472656 982.603271484375 981.457885742188 983.286682128906 980.591979980469 981.701843261719 969.172180175781 987.048156738281 992.73681640625 991.171936035156 985.654235839844 996.118835449219 988.145324707031 989.505859375 991.337768554688 995.370178222656 993.027221679688 996.822387695312 999.984130859375 1009.08465576172 1006.88000488281 1004.44677734375 1016.73321533203 1013.64794921875 1012.10162353516 1009.17791748047 1010.49566650391 1029.18151855469 1034.45861816406 1034.62548828125 1033.12353515625 1050.93591308594 1047.30004882812 1041.95520019531 1037.53894042969 1025.97521972656 1017.64971923828 1023.78485107422 1025.40319824219 1023.25408935547 1033.25537109375 1036.59167480469 1037.96887207031 1028.7421875 1037.626953125 1042.28845214844 1034.91882324219 1027.29797363281 1026.60729980469 1020.23461914062 1018.21411132812 1013.69799804688 1014.26483154297 1005.90240478516 1015.60833740234 1020.65148925781 1019.32952880859 1007.45355224609 1003.48095703125 1002.23083496094 1009.16986083984 1003.87725830078
956.148986816406 948.811340332031 945.17333984375 945.746032714844 943.432800292969 933.92578125 941.112731933594 936.229553222656 943.393127441406 937.140258789062 942.152404785156 948.038635253906 944.482177734375 941.751037597656 944.835693359375 938.005981445312 951.488586425781 955.064392089844 955.214172363281 949.737854003906 946.062683105469 951.9990234375 952.803833007812 958.440002441406 964.869445800781 962.10546875 953.480102539062 957.511169433594 958.7578125 948.909729003906 948.513488769531 950.222534179688 947.968872070312 954.471862792969 955.89306640625 961.002014160156 965.550720214844 962.4384765625 965.875915527344 975.696166992188 983.318664550781 974.979614257812 968.956665039062 972.174499511719 977.100952148438 978.246704101562 988.173828125 983.684387207031 981.668579101562 978.179016113281 977.616271972656 975.248229980469 975.665344238281 976.678039550781 985.158813476562 987.54150390625 987.103454589844 979.712158203125 972.558166503906 965.637634277344 968.829162597656 966.322326660156 957.9658203125 961.926147460938 950.271423339844 953.590515136719 972.949768066406 975.096618652344 970.945251464844 985.495727539062 980.037353515625 977.872680664062 982.999755859375 985.320983886719 983.426879882812 979.945373535156 975.584838867188 983.488647460938 982.584228515625 978.934020996094 978.620666503906 977.590759277344 978.405029296875 975.895263671875 981.019714355469 984.362915039062 986.8837890625 980.2666015625 981.088500976562 980.829223632812 977.492431640625 983.486877441406 979.456298828125 979.980651855469 983.137145996094 985.269592285156 996.9560546875 1000.16802978516 995.980529785156 989.688293457031 980.764587402344 982.760803222656 985.654357910156 990.598449707031 993.622131347656 995.082153320312 1009.95739746094 1010.40826416016 1006.90911865234 1012.99365234375 1012.81866455078 1008.38452148438 1012.21783447266 1018.02880859375 1026.95300292969 1040.32446289062 1044.29040527344 1042.67431640625 1034.15307617188 1043.50537109375 1046.38732910156 1043.2548828125 1036.06091308594 1032.09460449219 1031.52783203125 1031.80151367188 1026.1298828125 1030.21447753906 1028.59716796875 1034.2578125 1037.12854003906 1024.27514648438 1031.02026367188 1043.37683105469 1038.03088378906 1021.63018798828 1016.21960449219 1013.45007324219 1019.41168212891 1013.05596923828 1011.24890136719 1010.67736816406 1010.44427490234 1013.21502685547 1010.62731933594 1008.828125 1002.28668212891 997.264953613281 996.116333007812 996.289184570312
955.221435546875 953.186218261719 949.891235351562 943.894287109375 945.813415527344 940.67138671875 935.843444824219 936.459411621094 932.794616699219 942.415161132812 948.067199707031 936.945739746094 941.767822265625 935.3447265625 943.872863769531 940.148071289062 957.715454101562 953.775756835938 958.030334472656 967.532531738281 964.492004394531 962.810852050781 967.491455078125 970.829162597656 966.014282226562 968.455383300781 960.83935546875 959.623962402344 950.7998046875 955.322509765625 962.028930664062 954.942687988281 949.573181152344 952.624145507812 961.508483886719 958.591430664062 966.928771972656 965.419555664062 966.875854492188 982.417541503906 988.623596191406 979.934509277344 980.834289550781 979.894897460938 985.025756835938 985.39794921875 983.481689453125 988.005126953125 988.998596191406 984.932800292969 985.249816894531 982.100402832031 982.10595703125 982.175598144531 987.1669921875 984.254211425781 985.520446777344 984.798645019531 969.981567382812 969.648071289062 976.254150390625 974.618225097656 973.378051757812 968.651794433594 963.385925292969 965.645446777344 967.847412109375 978.338317871094 972.901123046875 978.676391601562 974.202697753906 982.503295898438 983.232727050781 979.465087890625 982.435791015625 984.467163085938 982.885620117188 982.151733398438 981.749206542969 979.066589355469 982.106384277344 985.289978027344 982.094055175781 982.633117675781 982.784362792969 985.591796875 985.113708496094 977.947143554688 973.473449707031 983.156799316406 976.434997558594 974.101745605469 984.520080566406 986.8291015625 983.045166015625 984.677124023438 984.389587402344 999.831115722656 996.072875976562 988.082824707031 978.970642089844 986.657958984375 986.821594238281 994.4453125 987.221740722656 990.93212890625 1005.58819580078 1011.62554931641 1016.73162841797 1014.14971923828 1010.89739990234 1006.48931884766 1008.78881835938 1015.19219970703 1020.46160888672 1032.36291503906 1046.75744628906 1045.13159179688 1034.779296875 1041.32104492188 1048.74462890625 1049.7197265625 1046.39965820312 1038.00024414062 1028.728515625 1035.14172363281 1034.1123046875 1021.30725097656 1021.66809082031 1035.34875488281 1028.7880859375 1028.0947265625 1025.78137207031 1028.07763671875 1028.69799804688 1026.71008300781 1023.61102294922 1009.17669677734 1015.39904785156 1017.35430908203 1011.01049804688 1008.07824707031 1009.68017578125 1022.24304199219 1022.42919921875 1010.94262695312 1001.66461181641 996.382446289062 992.665588378906 1002.58142089844
948.685302734375 954.401672363281 959.325256347656 945.255859375 941.927490234375 948.128173828125 936.183959960938 941.282043457031 941.821899414062 943.918823242188 938.02880859375 935.3935546875 935.790100097656 945.233093261719 953.515563964844 955.388366699219 958.942443847656 961.246643066406 965.68115234375 972.30126953125 974.749267578125 976.244873046875 974.330871582031 968.631164550781 967.075439453125 960.008666992188 968.264404296875 956.962951660156 945.987365722656 947.259704589844 952.812561035156 964.228149414062 956.578491210938 957.281066894531 964.235778808594 956.549621582031 967.183288574219 962.032531738281 968.710571289062 978.549621582031 995.25 997.982849121094 993.39599609375 985.928344726562 993.200561523438 979.781982421875 987.29296875 985.856384277344 984.106567382812 983.44580078125 980.576965332031 987.323669433594 989.637329101562 974.710998535156 975.642150878906 982.294921875 976.361328125 973.701171875 969.045166015625 967.730651855469 967.466186523438 968.608825683594 965.831359863281 973.968139648438 972.287231445312 968.136535644531 972.048217773438 972.982482910156 972.710510253906 978.016906738281 979.175964355469 977.751403808594 986.298400878906 986.924072265625 981.991271972656 990.528381347656 986.506713867188 987.536437988281 985.188110351562 978.206909179688 986.887268066406 995.098815917969 998.363830566406 992.666198730469 985.618835449219 980.724426269531 981.825317382812 977.065002441406 973.67041015625 976.105834960938 982.016906738281 980.643737792969 979.008178710938 980.635681152344 985.782104492188 999.590087890625 1001.27661132812 997.59326171875 998.556823730469 992.990600585938 986.913940429688 993.411376953125 995.969970703125 996.418273925781 996.332275390625 1000.33605957031 1010.73217773438 1010.34844970703 1008.43347167969 1023.73376464844 1009.19897460938 1022.30993652344 1014.58752441406 1018.02362060547 1021.2197265625 1025.8095703125 1040.85607910156 1039.66723632812 1043.42700195312 1039.84545898438 1045.29431152344 1044.40551757812 1034.29528808594 1041.49829101562 1031.01013183594 1028.3955078125 1029.90051269531 1021.22668457031 1023.85772705078 1024.90795898438 1028.37536621094 1034.40283203125 1024.990234375 1022.64538574219 1029.01745605469 1021.94537353516 1018.80261230469 1012.65344238281 1012.62139892578 1015.05749511719 1014.42462158203 1008.14093017578 1009.22717285156 1007.14898681641 1003.16461181641 999.545043945312 1008.38031005859 994.119689941406 992.495300292969 995.431457519531
