NCOLS 150
NROWS 37
XLLCORNER 7394249
YLLCORNER 4843679
CELLSIZE 30
NODATA_VALUE -9999
993.102294921875 998.672607421875 988.732360839844 995.67626953125 1000.25 1021.18920898438 1031.31359863281 1026.83410644531 1012.26495361328 1011.33251953125 1006.80267333984 1001.39880371094 999.365844726562 997.92333984375 1004.21405029297 1005.78912353516 1001.87237548828 1007.20837402344 1008.76440429688 1017.26013183594 1028.40478515625 1027.8154296875 1024.193359375 1017.26318359375 1024.00158691406 1017.91967773438 1014.34875488281 1018.10717773438 1002.46417236328 1006.38092041016 1010.84118652344 1006.4912109375 1025.83569335938 1033.73913574219 1034.42102050781 1024.69775390625 1014.22058105469 1020.29345703125 1015.08770751953 1002.08648681641 1000.23132324219 1004.94635009766 1015.37292480469 1018.53350830078 1014.38830566406 1005.26177978516 998.562927246094 989.149658203125 983.490112304688 983.09375 985.984252929688 984.266174316406 985.056518554688 992.822875976562 992.126037597656 993.928955078125 992.892761230469 993.695251464844 1007.46136474609 998.423706054688 992.939453125 1006.14697265625 987.814453125 979.685791015625 962.668823242188 969.348266601562 975.642700195312 981.47412109375 969.987854003906 962.400024414062 964.693298339844 962.97705078125 974.665161132812 976.245361328125 974.130981445312 986.516784667969 1001.8740234375 1024.41735839844 1018.92486572266 1020.68627929688 1021.40167236328 1019.86151123047 1004.78881835938 997.245300292969 982.924194335938 970.147338867188 956.286254882812 948.725036621094 940.150634765625 931.44091796875 924.857727050781 924.552978515625 917.930053710938 914.0107421875 907.194396972656 905.052368164062 903.154479980469 906.345458984375 900.645202636719 897.29296875 901.708251953125 889.874694824219 893.724487304688 890.534973144531 880.895263671875 890.822265625 891.913208007812 897.943237304688 898.588012695312 889.270751953125 891.426086425781 892.032775878906 894.904296875 900.81494140625 902.688659667969 911.734680175781 907.890747070312 905.687377929688 909.03125 910.456420898438 921.333923339844 928.160949707031 938.180053710938 936.831665039062 945.190979003906 945.359985351562 964.703125 963.691955566406 965.96044921875 983.347900390625 997.389282226562 1012.86663818359 1019.17333984375 1037.34887695312 1038.41955566406 1053.03625488281 1059.29064941406 1069.38745117188 1088.55090332031 1096.7880859375 1112.1220703125 1124.04736328125 1132.72009277344 1140.13500976562 1140.22961425781 1140.31970214844 1122.68518066406 1114.09716796875 1101.017578125 1089.50854492188
996.44287109375 990.746459960938 995.053039550781 995.798400878906 1002.78479003906 1019.53546142578 1020.05834960938 1021.32171630859 1012.34808349609 1002.31787109375 1000.50042724609 997.342590332031 996.379638671875 998.064514160156 999.621948242188 999.198669433594 1008.26458740234 1013.19793701172 1015.59686279297 1024.65478515625 1012.55731201172 1013.45001220703 1019.46215820312 1014.46343994141 1020.53265380859 1026.29370117188 1018.46783447266 1006.61010742188 1004.42401123047 1006.52294921875 1010.31848144531 1020.14117431641 1024.865234375 1027.89660644531 1025.34509277344 1030.44921875 1011.39294433594 1016.63116455078 1012.52154541016 1006.12091064453 1001.71417236328 1005.28344726562 1011.84948730469 1019.86029052734 1022.58355712891 1015.97882080078 1000.71813964844 998.783386230469 996.98291015625 995.067138671875 999.23291015625 1005.41058349609 996.395874023438 994.768310546875 995.558532714844 993 993.385498046875 1011.69073486328 1004.07080078125 1000.58020019531 1000.64086914062 1005.47033691406 989.133056640625 980.306701660156 970.097351074219 976.260131835938 981.890686035156 977.206237792969 981.293762207031 970.414916992188 965.934387207031 970.214721679688 980.409362792969 982.169738769531 991.47900390625 1001.41778564453 1008.73767089844 1017.72326660156 1029.39807128906 1025.26623535156 1023.71716308594 1017.30792236328 1008.11895751953 997.654174804688 982.531372070312 973.744750976562 961.142761230469 949.85791015625 947.774963378906 932.1201171875 922.944091796875 919.681213378906 924.751770019531 920.168518066406 917.313842773438 908.700317382812 907.50634765625 909.709106445312 905.763793945312 906.977600097656 901.339782714844 901.747436523438 904.249145507812 909.0361328125 900.596801757812 900.11376953125 898.51025390625 902.49560546875 901.070129394531 903.816955566406 894.426513671875 899.883483886719 897.353637695312 904.5439453125 898.740844726562 903.30419921875 907.27294921875 908.867004394531 913.2373046875 919.352416992188 913.101379394531 920.036376953125 941.749328613281 938.698913574219 949.285034179688 955.15966796875 958.860534667969 966.031982421875 971.175720214844 980.965026855469 993.484497070312 1005.974609375 1022.98962402344 1035.1640625 1045.95434570312 1067.15759277344 1077.72924804688 1076.78540039062 1085.13842773438 1097.12475585938 1112.04223632812 1117.75903320312 1133.4541015625 1142.64599609375 1142.43078613281 1143.47119140625 1134.19201660156 1127.80065917969 1115.36364746094 1101.39013671875
985.226501464844 992.265075683594 993.195373535156 996.069885253906 1005.31945800781 1009.36401367188 1008.73510742188 1011.45336914062 1002.20526123047 993.90283203125 992.03125 998.050598144531 992.30322265625 995.74365234375 1006.36517333984 1000.28479003906 1012.01452636719 1014.17883300781 1026.5087890625 1018.87426757812 1009.6044921875 1014.36859130859 1006.50109863281 1010.27508544922 1013.50469970703 1010.521484375 1015.25958251953 1007.35546875 1001.85443115234 1000.80676269531 1015.57452392578 1018.51489257812 1017.04095458984 1015.81042480469 1020.88348388672 1012.30657958984 1011.51409912109 1004.98638916016 1009.71887207031 1002.24908447266 1001.99829101562 1009.81597900391 1015.21118164062 1015.44476318359 1020.46636962891 1021.10443115234 1020.9326171875 1013.07836914062 1003.7197265625 1003.46435546875 1000.98266601562 1001.49700927734 1005.38000488281 985.985412597656 991.638244628906 997.235900878906 1005.16003417969 1011.7958984375 1006.98718261719 1011.40960693359 1006.64233398438 1009.63635253906 1004.62591552734 989.195068359375 983.5341796875 981.959350585938 986.325012207031 985.794555664062 982.924621582031 979.832946777344 983.615051269531 974.325988769531 991.127136230469 997.353820800781 996.359680175781 1005.67065429688 1002.80108642578 1011.46655273438 1026.17077636719 1028.91271972656 1022.58227539062 1016.17224121094 1006.74542236328 996.40673828125 986.214294433594 978.387817382812 970.388122558594 955.463256835938 945.462951660156 940.4755859375 926.106384277344 927.153076171875 925.674011230469 923.793884277344 920.314880371094 917.501342773438 920.720825195312 919.725952148438 915.777038574219 911.82470703125 912.288757324219 910.193176269531 910.6044921875 916.332275390625 912.17041015625 906.337829589844 899.489990234375 908.679748535156 917.506591796875 913.455444335938 911.956420898438 910.070617675781 913.833801269531 906.583374023438 908.158264160156 909.594360351562 913.617248535156 914.735473632812 915.7509765625 924.179748535156 921.735534667969 928.754455566406 937.343872070312 939.139038085938 946.624267578125 954.104064941406 965.172058105469 979.48193359375 981.938842773438 994.255310058594 987.908569335938 1009.46472167969 1027.02258300781 1031.28173828125 1045.50610351562 1053.96057128906 1065.31640625 1077.92736816406 1087.52563476562 1093.11633300781 1108.71557617188 1126.23352050781 1130.30712890625 1141.10034179688 1148.69580078125 1142.51550292969 1142.03454589844 1138.74011230469 1130.84875488281 1103.80395507812
981.522399902344 982.269958496094 992.704467773438 998.277465820312 994.843872070312 1000.95452880859 1000.15380859375 995.064575195312 1000.21832275391 985.6982421875 985.641662597656 988.642944335938 991.229553222656 995.48974609375 1000.05950927734 1003.61102294922 992.160766601562 996.704895019531 1010.07159423828 1013.48156738281 1008.96472167969 1012.22296142578 1014.71026611328 1008.09997558594 1006.765625 1008.75146484375 1004.27313232422 1002.02160644531 999.811828613281 1007.25653076172 1017.16320800781 1015.73431396484 1015.59985351562 1014.61596679688 1011.05206298828 1015.09246826172 1014.42645263672 1003.34545898438 1009.42474365234 1008.47277832031 1004.63623046875 1011.14624023438 1015.62915039062 1016.95568847656 1016.19592285156 1013.01995849609 1010.85571289062 1011.34564208984 1007.51104736328 1010.95587158203 1014.50311279297 1009.07464599609 1010.4140625 999.085205078125 997.133422851562 1001.74353027344 1015.67883300781 1016.38122558594 1018.24176025391 1017.1611328125 1022.185546875 1000.73132324219 1005.70465087891 991.470153808594 995.559509277344 995.198669433594 1004.09582519531 997.718139648438 988.175842285156 994.232055664062 986.187072753906 983.937377929688 990.976440429688 998.164428710938 997.947265625 997.368286132812 992.080078125 1013.5830078125 1028.93200683594 1030.93408203125 1029.24719238281 1014.13269042969 1011.67596435547 1001.36254882812 987.465454101562 981.582885742188 968.312927246094 965.684326171875 954.490173339844 940.489624023438 927.999450683594 936.107849121094 938.076477050781 929.105834960938 924.553833007812 928.334777832031 925.765869140625 923.209655761719 925.830261230469 925.424682617188 926.109497070312 918.900329589844 914.056396484375 918.164367675781 914.660278320312 914.446533203125 915.117065429688 923.243530273438 922.340087890625 919.402648925781 908.242553710938 912.920349121094 914.273803710938 915.017578125 917.524658203125 922.184631347656 920.035583496094 927.501708984375 918.442077636719 927.828247070312 930.969299316406 930.884948730469 946.048767089844 946.989624023438 944.418823242188 957.447875976562 969.596984863281 986.004333496094 988.323303222656 990.293395996094 1005.52239990234 1016.31237792969 1034.8818359375 1031.10681152344 1046.25561523438 1051.09020996094 1068.60583496094 1083.46997070312 1078.49743652344 1096.1591796875 1111.17700195312 1120.10900878906 1128.94909667969 1143.33874511719 1149.20300292969 1147.99487304688 1143.17993164062 1141.03674316406 1122.05627441406 1113.68676757812
984.415222167969 984.322631835938 987.899108886719 1000.13555908203 995.396179199219 996.430908203125 992.724975585938 982.6689453125 979.087585449219 979.735168457031 989.245971679688 993.124938964844 994.922729492188 993.68310546875 994.410522460938 1002.55902099609 1000.30255126953 991.313781738281 999.099853515625 996.021118164062 1006.81140136719 1003.56091308594 1005.2216796875 1009.64642333984 999.582397460938 1007.1689453125 997.870361328125 994.580444335938 996.4453125 1006.44317626953 1013.97290039062 1022.28289794922 1018.89025878906 1014.03991699219 1015.69451904297 1016.98693847656 1007.57092285156 1009.94384765625 1006.61730957031 1008.25463867188 1007.9267578125 1014.02807617188 1015.80438232422 1012.47503662109 1020.01892089844 1010.45715332031 1004.75946044922 1017.37902832031 1011.46221923828 1013.58062744141 1002.15875244141 1005.21350097656 1009.15106201172 997.916625976562 999.910034179688 1004.85882568359 1011.00860595703 1023.99200439453 1020.27178955078 1015.03277587891 1021.30493164062 1008.45550537109 1003.35485839844 998.454162597656 998.109497070312 1000.91247558594 1003.2294921875 996.139770507812 992.2080078125 993.444946289062 988.635375976562 983.669921875 998.981506347656 1003.65447998047 1005.92291259766 1004.57421875 1012.17309570312 1017.13134765625 1025.78112792969 1034.55981445312 1024.87658691406 1017.6083984375 1019.15417480469 1004.93933105469 991.027526855469 977.563903808594 975.073303222656 966.925109863281 963.389099121094 950.335327148438 938.534729003906 937.941345214844 933.699401855469 932.058959960938 929.385681152344 926.487243652344 929.411804199219 935.7646484375 935.954345703125 929.830383300781 933.135986328125 926.591674804688 928.630126953125 926.659790039062 930.766357421875 933.460205078125 950.374877929688 944.572692871094 938.020385742188 931.812805175781 923.669677734375 926.738952636719 927.057800292969 922.194152832031 918.780395507812 922.222778320312 923.985107421875 923.621643066406 923.577331542969 922.630249023438 928.469848632812 946.302978515625 939.609313964844 942.145629882812 950.430297851562 968.693298339844 979.095520019531 986.546936035156 995.695495605469 995.317687988281 1012.99969482422 1032.19641113281 1039.630859375 1041.06286621094 1046.9169921875 1053.16455078125 1062.02758789062 1068.80151367188 1072.32006835938 1093.68835449219 1100.71716308594 1113.84326171875 1131.04187011719 1136.38903808594 1138.80725097656 1134.77258300781 1136.39318847656 1133.20031738281 1127.63244628906 1119.0205078125
978.8076171875 982.945373535156 987.215637207031 988.280029296875 987.579162597656 985.149230957031 973.406311035156 983.466796875 979.553833007812 986.193420410156 986.27734375 988.546691894531 993.351440429688 993.181091308594 994.865234375 997.789367675781 1005.09289550781 1004.29132080078 997.233764648438 1004.08856201172 1004.71630859375 998.429016113281 998.333923339844 1001.68719482422 1004.40325927734 994.237243652344 992.380249023438 997.374084472656 1004.14428710938 1011.19018554688 1016.94873046875 1014.48870849609 1012.37023925781 1009.71459960938 1015.83264160156 1013.9482421875 1010.02124023438 1009.76824951172 1002.541015625 1021.84094238281 1023.33795166016 1018.57067871094 1011.39172363281 1018.61712646484 1006.69573974609 997.889587402344 1002.01440429688 1011.78839111328 1006.97314453125 1009.79229736328 1003.73345947266 1005.36608886719 1008.61047363281 1013.69470214844 1015.26416015625 1014.93298339844 1016.43786621094 1011.44073486328 1021.31005859375 1018.65661621094 1014.1171875 1013.20697021484 1007.73980712891 1010.51068115234 1008.80065917969 1007.04577636719 1003.92797851562 1000.75659179688 999.637512207031 994.89599609375 995.346435546875 993.479675292969 1000.86395263672 1008.74035644531 1011.33270263672 1013.31817626953 1009.65289306641 1026.44665527344 1034.0234375 1031.91357421875 1030.50903320312 1024.26318359375 1017.75451660156 1002.50653076172 996.687561035156 978.279846191406 977.794555664062 972.40283203125 966.524536132812 948.027770996094 936.456176757812 939.741577148438 935.195617675781 932.050842285156 936.022399902344 928.4658203125 937.34326171875 932.595886230469 932.303466796875 940.635620117188 937.889465332031 934.182922363281 938.115356445312 936.338928222656 943.291870117188 942.117248535156 946.991149902344 946.567138671875 944.144958496094 945.017272949219 942.883483886719 942.213684082031 936.934020996094 928.460571289062 918.876647949219 917.537170410156 918.388244628906 928.762878417969 929.370483398438 926.758850097656 938.935119628906 945.376281738281 949.19189453125 957.475463867188 962.2216796875 974.247985839844 983.174194335938 988.570861816406 995.414916992188 1000.33673095703 1011.01068115234 1033.06262207031 1039.70007324219 1040.16162109375 1047.00866699219 1062.41162109375 1065.41345214844 1066.84216308594 1075.66333007812 1091.86047363281 1102.73364257812 1115.00390625 1110.95190429688 1119.68859863281 1122.24450683594 1133.75219726562 1134.91967773438 1128.52893066406 1124.32434082031 1121.03466796875
976.688293457031 992.626159667969 993.7451171875 983.023071289062 983.361999511719 983.396118164062 982.983337402344 981.440490722656 985.779296875 982.845336914062 985.984375 985.072265625 984.510070800781 982.190673828125 990.817810058594 988.586608886719 1000.00823974609 1005.10699462891 994.60791015625 995.178466796875 1001.45794677734 1000.84167480469 998.840942382812 994.419311523438 989.378601074219 993.535400390625 989.181030273438 993.910583496094 997.282104492188 1005.26782226562 1022.61968994141 1021.22918701172 1019.42248535156 1018.49676513672 1016.16455078125 1021.08612060547 1023.82873535156 1023.92279052734 1022.11083984375 1032.02770996094 1027.06079101562 1026.79248046875 1026.32055664062 1027.3203125 1005.90936279297 1002.18145751953 1002.40606689453 1005.96051025391 1005.33117675781 997.577331542969 1003.26904296875 1007.08740234375 1004.65228271484 1006.59753417969 1009.60717773438 1017.39251708984 1012.59442138672 1019.27947998047 1026.49536132812 1018.04168701172 1020.21008300781 1017.51727294922 1011.70819091797 1013.45288085938 1016.76275634766 1012.63482666016 1002.47943115234 1000.15307617188 1005.98791503906 1001.61358642578 1000.01470947266 996.728637695312 1003.00170898438 1015.11297607422 1013.56396484375 1023.04718017578 1027.05725097656 1024.72473144531 1032.06384277344 1037.39538574219 1033.64709472656 1019.65661621094 1019.82220458984 1003.20416259766 1000.58782958984 984.453796386719 973.199401855469 964.567016601562 958.928466796875 952.271423339844 945.513732910156 941.338439941406 934.115234375 923.427185058594 934.634216308594 935.232177734375 941.183654785156 942.390930175781 947.488342285156 941.736694335938 941.213745117188 954.230529785156 949.659912109375 954.359741210938 948.910400390625 955.214782714844 951.638244628906 957.157592773438 951.789733886719 953.112060546875 947.367248535156 943.989685058594 939.333374023438 932.659057617188 924.589599609375 921.41552734375 914.050659179688 919.56494140625 926.9013671875 934.331787109375 939.653991699219 955.06005859375 959.323181152344 963.520629882812 970.241882324219 979.61865234375 986.155151367188 993.450378417969 1000.27020263672 1003.53833007812 1005.69714355469 1024.30773925781 1034.421875 1043.26098632812 1048.92529296875 1060.86547851562 1059.40710449219 1069.24633789062 1076.43603515625 1095.04870605469 1095.39453125 1109.87158203125 1112.99011230469 1115.65026855469 1120.37194824219 1129.40734863281 1136.79052734375 1129.31420898438 1111.93603515625 1110.01672363281
984.226257324219 990.560729980469 983.287292480469 983.298095703125 983.629211425781 980.859558105469 981.670959472656 983.315734863281 987.043518066406 987.04931640625 974.862365722656 972.425537109375 965.32275390625 971.300720214844 976.843872070312 989.747924804688 995.620178222656 997.906860351562 998.223083496094 989.743713378906 989.936706542969 999.437438964844 1000.32098388672 993.312927246094 997.110290527344 994.310180664062 997.165100097656 999.45849609375 998.610229492188 1001.08026123047 1007.30090332031 1021.25750732422 1033.91650390625 1027.29638671875 1026.70202636719 1024.68835449219 1040.25122070312 1038.00537109375 1030.927734375 1033.61975097656 1032.54040527344 1026.04321289062 1030.06909179688 1022.79711914062 1015.73236083984 1008.87268066406 1003.87969970703 998.110290527344 1002.07037353516 1007.80706787109 1000.33947753906 1001.54461669922 1001.47277832031 1004.37329101562 1005.88482666016 1007.94030761719 1006.36962890625 1013.79010009766 1020.81481933594 1019.59497070312 1020.04577636719 1023.57629394531 1022.16986083984 1017.15093994141 1016.94885253906 1020.19580078125 1011.54449462891 1003.52087402344 1004.20678710938 996.510192871094 994.499389648438 999.08056640625 1004.53729248047 1019.27099609375 1022.39074707031 1028.57348632812 1032.56970214844 1026.4482421875 1032.81457519531 1031.00085449219 1028.46423339844 1024.84130859375 1023.04138183594 1015.18621826172 1006.40649414062 994.877502441406 976.380981445312 968.930847167969 962.1953125 957.592102050781 952.356628417969 930.90087890625 926.727355957031 925.580810546875 935.611450195312 936.551696777344 943.5166015625 941.59228515625 952.154907226562 953.302001953125 942.851135253906 958.940185546875 958.4326171875 962.158752441406 961.536315917969 956.410522460938 954.1748046875 952.006164550781 956.533447265625 961.733703613281 946.099670410156 944.006896972656 935.947265625 931.569396972656 924.782409667969 922.414733886719 915.577087402344 915.832336425781 932.585205078125 953.10595703125 958.098999023438 970.675109863281 961.84912109375 973.517456054688 974.668884277344 975.008361816406 990.844299316406 999.743835449219 994.807739257812 1015.07659912109 1014.17639160156 1020.06292724609 1032.33056640625 1045.28930664062 1045.82849121094 1055.19848632812 1058.00622558594 1072.5966796875 1076.55676269531 1088.05505371094 1093.01586914062 1099.64038085938 1107.4873046875 1103.19250488281 1112.42517089844 1132.57775878906 1128.72180175781 1132.34008789062 1122.77770996094 1107.21484375
976.887451171875 984.254516601562 985.730102539062 981.566650390625 987.859680175781 978.963195800781 988.501892089844 985.592102050781 992.094909667969 978.782592773438 972.34423828125 970.541381835938 961.969604492188 967.553344726562 969.97412109375 984.061706542969 989.337585449219 991.891357421875 988.660339355469 984.645080566406 996.41357421875 999.646179199219 1004.36651611328 1002.41613769531 996.792297363281 998.276794433594 994.659790039062 991.519287109375 996.366333007812 1008.73864746094 1018.52770996094 1020.78289794922 1032.54846191406 1038.10791015625 1040.28735351562 1046.00012207031 1040.76831054688 1033.82568359375 1039.49206542969 1038.00659179688 1039.03479003906 1042.06005859375 1032.98266601562 1019.2060546875 1019.27001953125 1015.52166748047 1012.40618896484 1000.419921875 1001.22863769531 1006.55804443359 999.547424316406 998.96826171875 1002.818359375 1009.13983154297 996.734252929688 999.225830078125 1009.01452636719 1005.42785644531 1012.49694824219 1017.11877441406 1019.66223144531 1020.63000488281 1024.15075683594 1024.94128417969 1021.30944824219 1026.29248046875 1021.86730957031 1010.58013916016 1000.45233154297 995.719482421875 1001.99371337891 1008.90277099609 1008.46203613281 1015.36608886719 1024.67749023438 1031.36828613281 1037.53442382812 1032.0185546875 1027.27844238281 1031.86181640625 1030.79174804688 1024.51708984375 1025.51110839844 1017.53454589844 1010.89990234375 998.587646484375 990.916870117188 984.632873535156 964.410766601562 956.477355957031 949.590942382812 931.392578125 933.137939453125 947.559204101562 940.136169433594 945.656066894531 948.139343261719 952.930053710938 969.456787109375 958.40771484375 962.741149902344 957.328125 966.480773925781 967.239196777344 972.208618164062 965.309936523438 967.4853515625 966.402221679688 971.529296875 971.276062011719 947.456420898438 951.892333984375 938.746154785156 929.802368164062 927.057861328125 920.1474609375 927.450073242188 929.924072265625 939.96044921875 951.133361816406 963.233154296875 960.802734375 970.560302734375 976.056335449219 977.524291992188 984.272766113281 990.257507324219 993.265991210938 1006.21240234375 1013.474609375 1016.09320068359 1021.54473876953 1023.19714355469 1038.37805175781 1049.01000976562 1056.33776855469 1065.03674316406 1072.83666992188 1082.95056152344 1091.61071777344 1103.85583496094 1109.55041503906 1101.88635253906 1103.80590820312 1116.7783203125 1122.21997070312 1118.51049804688 1130.04846191406 1122.33911132812 1120.79235839844
979.783874511719 983.183532714844 980.357971191406 976.618469238281 982.804870605469 980.440551757812 980.617797851562 983.772521972656 987.110961914062 976.625610351562 970.936645507812 963.718994140625 970.01513671875 960.567443847656 966.488464355469 983.155700683594 990.329650878906 984.971008300781 986.989807128906 995.519470214844 995.002014160156 999.070129394531 996.549743652344 991.894165039062 992.394592285156 996.9658203125 991.571411132812 989.225952148438 997.383422851562 1013.39636230469 1018.18121337891 1018.97576904297 1034.55126953125 1034.67858886719 1044.81652832031 1046.66540527344 1041.6142578125 1047.26245117188 1047.12353515625 1044.5751953125 1038.63024902344 1038.08142089844 1033.90930175781 1031.39819335938 1024.47033691406 1021.4306640625 1009.14703369141 1008.63903808594 1011.79547119141 1000.87707519531 998.308044433594 998.495666503906 999.539733886719 1003.53662109375 994.977172851562 997.034912109375 1006.35736083984 1003.26812744141 1001.8173828125 1013.05126953125 1021.39978027344 1022.26623535156 1021.63256835938 1027.48071289062 1023.77374267578 1027.80505371094 1028.46337890625 1013.05529785156 1003.81805419922 1001.34167480469 1011.40185546875 1011.33013916016 1006.75390625 1013.01702880859 1029.49096679688 1033.82983398438 1034.9853515625 1031.82556152344 1041.01916503906 1039.86364746094 1025.78271484375 1023.09350585938 1022.55676269531 1026.97961425781 1023.22882080078 1004.80010986328 1001.16638183594 989.11767578125 975.580810546875 967.371154785156 948.460021972656 948.525207519531 947.2021484375 955.117370605469 958.766967773438 956.671752929688 962.07177734375 968.472290039062 975.536010742188 978.502868652344 974.46435546875 968.709045410156 979.310424804688 982.094482421875 981.033935546875 969.3759765625 968.617126464844 971.579833984375 971.741027832031 968.496826171875 961.007507324219 951.005737304688 946.250671386719 934.421325683594 919.216735839844 922.506652832031 915.329833984375 928.394104003906 936.12744140625 951.819702148438 959.181091308594 963.510131835938 978.1171875 992.479309082031 990.706420898438 993.102844238281 1000.53973388672 995.275390625 1004.10833740234 1020.58489990234 1022.28625488281 1025.28735351562 1032.78686523438 1041.77075195312 1046.546875 1058.39587402344 1067.28283691406 1071.82495117188 1077.62158203125 1086.66711425781 1102.45300292969 1105.60998535156 1104.91589355469 1099.58654785156 1108.02722167969 1102.51525878906 1114.87475585938 1116.41625976562 1109.66259765625 1113.14025878906
971.941223144531 979.736328125 971.295776367188 977.130554199219 967.95263671875 977.889282226562 981.0087890625 984.305053710938 990.865478515625 987.543212890625 966.661193847656 964.161010742188 964.910461425781 960.604858398438 953.918640136719 961.344665527344 981.937255859375 983.166381835938 987.698425292969 986.316772460938 989.855041503906 989.700256347656 992.02197265625 987.143493652344 988.358642578125 994.983825683594 996.161926269531 1000.86956787109 1000.67724609375 1007.38952636719 1012.93560791016 1024.310546875 1031.57653808594 1035.53259277344 1042.27648925781 1044.59509277344 1049.93823242188 1047.33728027344 1046.22534179688 1038.46911621094 1042.63232421875 1041.65954589844 1037.83605957031 1036.73510742188 1027.76574707031 1018.91278076172 998.659729003906 1006.42669677734 1004.84661865234 999.725952148438 996.55712890625 1001.62353515625 997.206665039062 989.030578613281 988.537109375 996.244079589844 1008.44085693359 1010.83648681641 1010.45367431641 1013.92669677734 1024.17431640625 1018.26940917969 1021.93322753906 1019.88055419922 1027.16931152344 1038.16967773438 1020.54351806641 1015.1630859375 1007.28747558594 1005.58294677734 1010.57897949219 1009.07196044922 1009.64947509766 1016.64526367188 1031.60717773438 1030.27172851562 1033.18969726562 1025.47839355469 1034.15625 1036.81616210938 1031.36413574219 1021.27813720703 1027.19250488281 1025.82348632812 1023.38177490234 1013.28143310547 1003.78228759766 1003.34942626953 979.06103515625 968.046020507812 966.089233398438 957.748657226562 958.081481933594 964.553466796875 965.665893554688 976.55419921875 975.878601074219 979.380798339844 991.949035644531 987.151000976562 980.897216796875 972.698364257812 983.956665039062 984.397705078125 985.968994140625 973.692016601562 971.346252441406 981.139221191406 977.0029296875 979.578918457031 974.179931640625 955.204223632812 951.957153320312 929.301086425781 924.813598632812 926.325988769531 929.007995605469 926.849304199219 931.852233886719 949.763122558594 959.830749511719 968.130004882812 979.548095703125 995.93115234375 1001.12878417969 1006.548828125 1009.07611083984 1009.34051513672 1015.57977294922 1021.69085693359 1020.98852539062 1023.08709716797 1037.86486816406 1049.74853515625 1046.96411132812 1055.33068847656 1072.08483886719 1069.06091308594 1077.65673828125 1078.3818359375 1086.37927246094 1096.59338378906 1099.61779785156 1113.66748046875 1111.00671386719 1100.44018554688 1103.82006835938 1109.60070800781 1116.96484375 1107.31762695312
972.552734375 975.949890136719 973.443115234375 960.828125 969.074645996094 970.468200683594 980.202941894531 981.141052246094 980.68896484375 972.822509765625 966.911743164062 967.459838867188 958.947814941406 963.08544921875 962.919616699219 966.524230957031 974.616882324219 985.026550292969 983.222412109375 979.89013671875 983.175964355469 989.785583496094 988.998413085938 993.938415527344 989.348327636719 1001.97686767578 1006.8310546875 1012.71917724609 1002.11651611328 1008.54608154297 1014.75738525391 1023.43420410156 1032.04943847656 1035.40344238281 1040.75134277344 1036.06164550781 1033.36645507812 1043.07653808594 1039.90979003906 1034.27514648438 1040.58410644531 1043.35791015625 1033.77185058594 1035.37719726562 1029.96459960938 1013.31732177734 998.482116699219 997.998657226562 1004.69000244141 1009.57891845703 995.081115722656 999.337097167969 1003.87432861328 987.888061523438 992.545593261719 996.444946289062 997.987976074219 1006.87445068359 1016.82000732422 1020.99688720703 1021.21105957031 1024.69458007812 1020.56762695312 1027.88049316406 1018.78009033203 1024.38977050781 1026.64147949219 1022.34588623047 1018.08880615234 1006.46520996094 1008.57916259766 1023.15167236328 1021.62774658203 1024.49182128906 1018.64654541016 1018.48370361328 1023.81903076172 1023.5009765625 1033.12512207031 1038.83728027344 1030.50305175781 1022.12365722656 1031.38854980469 1023.83447265625 1014.70104980469 1007.26843261719 1004.31109619141 999.203857421875 990.286743164062 984.386596679688 987.682006835938 981.487609863281 981.399291992188 974.013610839844 971.173645019531 986.64208984375 991.095642089844 989.329223632812 997.358154296875 995.104370117188 992.186462402344 993.23583984375 991.102966308594 996.279541015625 987.68896484375 983.527893066406 982.125854492188 983.4873046875 979.702209472656 980.866943359375 974.736511230469 963.988342285156 949.561462402344 936.491455078125 922.794555664062 934.722290039062 933.481140136719 929.126770019531 937.740051269531 946.078735351562 959.695861816406 967.51123046875 982.952331542969 996.530029296875 1006.67712402344 1016.20544433594 1015.23913574219 1019.58270263672 1028.884765625 1033.99865722656 1030.53869628906 1030.66528320312 1040.68640136719 1041.65783691406 1044.09875488281 1042.8447265625 1057.80688476562 1065.16418457031 1067.11340332031 1074.13659667969 1080.37622070312 1086.2080078125 1095.08349609375 1101.11938476562 1101.27600097656 1105.85192871094 1102.73107910156 1112.59765625 1112.89868164062 1111.01171875
971.160461425781 965.108764648438 969.052307128906 964.128112792969 960.968444824219 962.431518554688 974.316772460938 976.677673339844 970.643371582031 963.549072265625 969.643493652344 959.072998046875 963.451843261719 964.549194335938 966.068786621094 966.654113769531 971.02783203125 979.388916015625 983.69091796875 982.268188476562 979.502319335938 981.081665039062 979.848571777344 989.246948242188 992.375061035156 1004.53112792969 1008.86968994141 1005.76214599609 1007.82012939453 998.437438964844 1005.13153076172 1024.1953125 1027.91137695312 1027.25952148438 1039.83740234375 1038.63232421875 1036.21984863281 1037.50805664062 1031.24450683594 1034.57800292969 1041.18322753906 1041.2275390625 1043.42614746094 1031.11315917969 1025.90100097656 1016.75164794922 1003.41888427734 995.405395507812 1000.59429931641 994.605346679688 995.337219238281 1001.16900634766 1004.44665527344 1000.23254394531 993.096557617188 994.517333984375 1000.99078369141 1012.140625 1020.36206054688 1020.86682128906 1029.26489257812 1027.87939453125 1028.55224609375 1028.17932128906 1024.43420410156 1028.67102050781 1028.52941894531 1028.8076171875 1027.63500976562 1006.89019775391 1014.97784423828 1022.59533691406 1030.48779296875 1028.18798828125 1027.23315429688 1028.71118164062 1022.18151855469 1020.39562988281 1031.21533203125 1033.91284179688 1031.09216308594 1031.88684082031 1026.68872070312 1022.58581542969 1005.65747070312 998.132080078125 1003.65704345703 1002.58197021484 996.774719238281 992.962219238281 998.811767578125 998.152221679688 990.601379394531 992.924133300781 996.471252441406 999.793395996094 1001.42230224609 1000.37756347656 999.908081054688 1001.64721679688 1005.87652587891 998.520812988281 1002.509765625 1004.70196533203 992.25830078125 985.563720703125 982.670654296875 981.733642578125 978.036743164062 975.67919921875 967.02978515625 964.807373046875 950.932800292969 941.330749511719 937.245361328125 932.505615234375 935.30126953125 934.053344726562 939.918395996094 950.257507324219 954.816040039062 965.633544921875 985.012451171875 995.340515136719 1004.13446044922 1008.96301269531 1015.72241210938 1016.91369628906 1024.70727539062 1035.0517578125 1039.33959960938 1042.72033691406 1039.5078125 1038.62634277344 1038.20886230469 1038.73083496094 1048.98706054688 1059.85766601562 1062.72705078125 1063.45458984375 1077.41735839844 1080.69116210938 1083.03283691406 1087.4384765625 1093.84130859375 1097.93481445312 1102.95458984375 1111.53332519531 1115.64099121094 1122.47729492188
963.997741699219 967.735717773438 970.694091796875 965.631042480469 961.69091796875 973.458801269531 971.689086914062 964.248413085938 964.593383789062 956.501831054688 960.339904785156 960.861572265625 963.997375488281 955.884948730469 951.149047851562 963.492980957031 970.260437011719 978.253784179688 978.794616699219 980.430603027344 977.31494140625 973.352905273438 978.054748535156 985.376708984375 998.188537597656 1000.71252441406 1006.74591064453 1013.76281738281 1003.13482666016 1004.87579345703 1009.80926513672 1006.31622314453 1017.74920654297 1018.40502929688 1021.68377685547 1031.2333984375 1033.302734375 1029.78601074219 1025.96850585938 1034.55773925781 1033.00769042969 1042.98779296875 1042.96728515625 1035.96752929688 1022.17211914062 1014.19439697266 1007.31127929688 1000.12652587891 996.724975585938 1003.46075439453 993.641418457031 997.40234375 1001.32153320312 1001.93908691406 1000.25927734375 1001.72875976562 998.437377929688 1008.45837402344 1023.95697021484 1032.51062011719 1034.38732910156 1033.83227539062 1034.14709472656 1022.06048583984 1021.71862792969 1032.8291015625 1023.908203125 1020.90777587891 1029.0966796875 1028.16760253906 1020.34710693359 1026.53955078125 1025.93701171875 1024.93505859375 1025.44470214844 1021.74829101562 1023.19262695312 1019.32012939453 1023.85565185547 1028.77233886719 1027.48962402344 1034.86401367188 1028.95739746094 1026.77172851562 1006.93927001953 1002.29846191406 1003.98455810547 1005.91839599609 1009.16088867188 1013.89703369141 1010.38372802734 1011.86785888672 1005.30493164062 1002.81298828125 1002.74444580078 1011.86999511719 1008.34832763672 1014.26617431641 1013.27160644531 1012.97991943359 1007.32922363281 999.226623535156 1011.369140625 1006.96789550781 994.739196777344 994.134887695312 988.12451171875 985.060302734375 983.088684082031 976.408325195312 972.568359375 962.864807128906 955.426696777344 941.421447753906 937.363037109375 931.8984375 933.471313476562 935.50244140625 932.976928710938 954.963195800781 964.182250976562 974.421081542969 980.798583984375 1000.69311523438 1007.93481445312 1018.73712158203 1017.67462158203 1025.77612304688 1031.8876953125 1030.95434570312 1038.22497558594 1035.49157714844 1045.86303710938 1035.31579589844 1043.34741210938 1045.30249023438 1059.68029785156 1061.37390136719 1065.62133789062 1063.53405761719 1072.06762695312 1072.47534179688 1072.42248535156 1073.57080078125 1084.98095703125 1090.82092285156 1102.86315917969 1104.96765136719 1112.7236328125 1114.93322753906
956.43310546875 962.518432617188 965.887390136719 960.270751953125 971.510314941406 965.460815429688 975.146362304688 965.854431152344 958.919250488281 958.281188964844 950.287048339844 958.464111328125 958.175537109375 955.439270019531 953.320678710938 958.366821289062 968.24365234375 976.671630859375 970.090454101562 970.412170410156 980.745788574219 972.041748046875 974.42529296875 988.349670410156 1007.00219726562 1005.64587402344 999.024597167969 1001.22259521484 1001.25 1007.97503662109 1006.35339355469 1013.91101074219 1013.16540527344 1015.86120605469 1016.06072998047 1023.16723632812 1024.76843261719 1022.12817382812 1025.21032714844 1020.63830566406 1028.39221191406 1038.64196777344 1036.58618164062 1033.09802246094 1015.43707275391 1018.77435302734 1010.7001953125 1011.26965332031 995.143493652344 1000.45593261719 1000.60339355469 1005.16888427734 998.3427734375 999.604248046875 1007.98834228516 1007.56646728516 1003.57067871094 1017.16918945312 1021.87506103516 1028.50573730469 1032.79370117188 1027.44189453125 1027.73754882812 1021.98889160156 1024.89819335938 1026.50939941406 1029.46533203125 1029.84619140625 1029.80444335938 1027.41052246094 1016.84466552734 1018.63610839844 1025.08850097656 1014.96411132812 1013.89990234375 1017.67785644531 1018.47015380859 1020.01953125 1015.85491943359 1021.20404052734 1021.40240478516 1029.98803710938 1024.32751464844 1022.61499023438 1004.48382568359 998.242126464844 1008.46661376953 1016.40325927734 1012.85552978516 1012.59759521484 1019.11895751953 1024.94702148438 1017.61737060547 1019.53485107422 1018.07690429688 1016.38299560547 1016.15625 1016.31890869141 1010.63421630859 1017.75775146484 1012.06860351562 1008.34216308594 1006.11755371094 995.315307617188 996.361206054688 1002.35162353516 992.591430664062 990.982543945312 984.157775878906 977.236572265625 971.863220214844 966.689514160156 954.308227539062 947.444030761719 937.81884765625 942.877319335938 936.340209960938 944.315124511719 950.529113769531 962.793029785156 971.701110839844 981.814331054688 999.6044921875 998.97265625 1011.32965087891 1020.47973632812 1016.49523925781 1022.08074951172 1034.08264160156 1038.80590820312 1049.03344726562 1052.83911132812 1049.4921875 1052.06030273438 1052.15930175781 1048.037109375 1059.123046875 1060.28759765625 1056.65649414062 1066.76232910156 1063.56494140625 1064.03820800781 1055.94836425781 1053.35998535156 1075.9130859375 1078.24743652344 1092.73779296875 1096.97705078125 1101.70178222656 1110.13049316406
956.344787597656 962.673645019531 957.578735351562 955.734619140625 955.954956054688 962.162231445312 963.468811035156 962.180969238281 951.679626464844 955.753295898438 955.275024414062 952.768249511719 961.198120117188 959.252197265625 957.003601074219 953.579040527344 964.896911621094 966.831359863281 967.170288085938 971.565795898438 963.640258789062 974.329650878906 978.476318359375 991.76416015625 1004.96929931641 1003.3046875 1000.69244384766 999.703308105469 1001.17712402344 1007.25177001953 1004.89654541016 1012.73205566406 1016.25451660156 1004.79089355469 1006.916015625 1015.29510498047 1019.78265380859 1013.04644775391 1018.60614013672 1027.80444335938 1028.83862304688 1029.25720214844 1029.66442871094 1028.84887695312 1017.11297607422 1014.80426025391 1011.43267822266 1003.39196777344 999.428955078125 1002.73992919922 1005.314453125 1002.18939208984 1004.27758789062 1003.93225097656 1010.09930419922 1006.75347900391 1002.94909667969 1013.40118408203 1019.79748535156 1023.58520507812 1028.80126953125 1032.09375 1028.1142578125 1020.56915283203 1029.17199707031 1021.10302734375 1024.61535644531 1024.35534667969 1027.24914550781 1023.58325195312 1013.41717529297 1011.78137207031 1019.19982910156 1014.72180175781 1012.15844726562 1012.82794189453 1008.53869628906 1017.458984375 1018.90850830078 1015.97229003906 1014.72039794922 1017.20837402344 1018.07916259766 1016.87432861328 1013.98486328125 1003.29876708984 1009.66009521484 1014.91235351562 1011.52569580078 1020.57989501953 1032.00927734375 1029.88916015625 1031.74072265625 1034.20666503906 1027.2216796875 1026.3642578125 1024.43286132812 1025.26879882812 1016.33325195312 1009.08917236328 1009.70257568359 1009.78479003906 1007.59118652344 999.375183105469 1001.13012695312 1003.64135742188 991.900451660156 993.389831542969 989.215026855469 976.72607421875 970.622375488281 967.820007324219 951.700317382812 941.686096191406 943.68798828125 947.319152832031 951.528442382812 949.762023925781 960.357604980469 967.230407714844 979.842346191406 983.420837402344 998.302062988281 1006.19732666016 1018.59906005859 1022.30383300781 1018.06011962891 1027.4658203125 1042.85607910156 1040.19995117188 1053.21594238281 1054.63391113281 1054.02331542969 1052.79321289062 1053.15051269531 1051.33142089844 1051.59558105469 1048.44116210938 1059.0625 1060.53125 1055.09265136719 1060.08874511719 1066.103515625 1068.06030273438 1070.38452148438 1073.24670410156 1080.666015625 1086.91467285156 1093.1484375 1103.80139160156
947.661865234375 947.657043457031 950.35791015625 947.569152832031 953.969360351562 952.002258300781 951.039367675781 949.705993652344 949.427429199219 957.999633789062 952.41845703125 950.580993652344 955.888916015625 955.618591308594 954.521423339844 962.252258300781 963.7236328125 973.141235351562 962.101135253906 960.391845703125 960.739440917969 976.154113769531 990.814270019531 986.996154785156 990.285339355469 994.997192382812 1002.94213867188 992.968872070312 988.680603027344 996.36279296875 1005.01867675781 1004.52520751953 1010.89105224609 1004.58093261719 1011.87609863281 1007.21484375 1010.66003417969 1016.12188720703 1021.02264404297 1026.25036621094 1032.0068359375 1030.86328125 1020.25170898438 1021.47143554688 1023.14190673828 1019.86322021484 1011.45013427734 1008.78759765625 999.927551269531 1002.19842529297 996.165832519531 1004.46221923828 1002.94873046875 1001.92498779297 999.953430175781 995.711608886719 1003.49377441406 1012.22283935547 1011.7783203125 1015.05670166016 1012.20825195312 1017.55383300781 1023.42413330078 1021.35852050781 1022.35137939453 1019.37194824219 1018.85345458984 1022.61065673828 1017.03271484375 1017.76422119141 1024.36474609375 1012.34625244141 1007.53045654297 1011.37176513672 1008.67083740234 1000.96502685547 996.505798339844 1008.45916748047 1014.12811279297 1011.10705566406 1012.82904052734 1018.23852539062 1005.01287841797 1013.99743652344 1005.38806152344 1000.40765380859 1012.62261962891 1008.94641113281 1021.6044921875 1016.939453125 1030.9345703125 1030.47570800781 1031.59802246094 1030.19519042969 1026.35693359375 1027.50500488281 1027.07556152344 1027.0419921875 1013.43713378906 1008.44567871094 1005.44604492188 1006.5986328125 1005.94427490234 1007.11309814453 1011.1865234375 1008.34002685547 1008.24536132812 1001.27099609375 986.244689941406 976.938110351562 979.285095214844 967.1513671875 952.042907714844 948.884094238281 942.031066894531 941.439392089844 954.012817382812 965.524230957031 971.590698242188 978.013488769531 989.995849609375 997.214050292969 1004.328125 1004.80047607422 1017.41583251953 1025.14245605469 1024.68542480469 1031.48754882812 1044.25805664062 1044.20373535156 1048.52258300781 1047.27795410156 1051.79418945312 1052.6279296875 1053.74841308594 1058.24499511719 1056.11608886719 1052.08874511719 1058.26403808594 1064.21704101562 1054.21166992188 1061.86315917969 1060.595703125 1081.72839355469 1077.0908203125 1082.97253417969 1082.267578125 1083.06384277344 1093.83532714844 1108.5400390625
936.924560546875 948.285522460938 949.640625 942.774291992188 948.125854492188 957.1865234375 953.774597167969 951.712158203125 945.711791992188 963.814331054688 957.046203613281 955.267517089844 956.961853027344 956.404724121094 963.016906738281 967.700622558594 967.274658203125 963.660217285156 957.903137207031 969.078857421875 972.435485839844 985.722351074219 990.207580566406 983.594482421875 980.368286132812 990.072387695312 991.137329101562 991.612121582031 988.762145996094 991.326293945312 1004.19696044922 1006.15893554688 1011.12103271484 1005.9765625 1012.35699462891 1004.29644775391 1004.33337402344 1014.66302490234 1013.2177734375 1020.95812988281 1028.06567382812 1029.28234863281 1027.88342285156 1024.44763183594 1019.11828613281 1010.52923583984 1020.12591552734 1013.59686279297 999.147155761719 998.219177246094 991.716369628906 995.308288574219 998.089965820312 995.63232421875 994.483154296875 992.830932617188 996.486511230469 1003.50775146484 1012.47308349609 1018.82434082031 1017.83227539062 1019.84381103516 1018.31158447266 1019.02355957031 1015.14984130859 1014.21856689453 1008.69226074219 1012.27514648438 1013.51257324219 1013.55432128906 1013.08734130859 1009.26428222656 1004.46405029297 1007.11926269531 1009.72216796875 1002.78765869141 1005.31976318359 1000.53790283203 1001.23590087891 1007.04040527344 1010.91833496094 1012.79290771484 1015.97125244141 1015.17736816406 1012.53479003906 1010.20648193359 1002.80291748047 1010.60577392578 1017.94207763672 1015.08746337891 1020.98303222656 1030.14562988281 1032.03112792969 1034.58178710938 1027.84436035156 1021.28680419922 1022.50854492188 1017.39349365234 1017.86743164062 1011.56781005859 997.865600585938 1001.28454589844 1005.29528808594 1003.97448730469 1009.92340087891 1014.00128173828 1009.98443603516 990.029907226562 984.8505859375 980.919799804688 972.039978027344 955.333435058594 947.539428710938 947.356140136719 939.879028320312 949.279907226562 960.931579589844 967.714660644531 978.163208007812 994.412963867188 997.104187011719 1002.17608642578 1016.16125488281 1019.5908203125 1021.11767578125 1021.78033447266 1026.13391113281 1035.36877441406 1039.46765136719 1039.98571777344 1051.34765625 1042.12548828125 1052.04077148438 1054.21374511719 1054.00341796875 1058.02587890625 1051.63317871094 1054.85766601562 1059.61401367188 1057.51245117188 1053.4755859375 1060.71179199219 1063.01318359375 1069.59948730469 1082.09582519531 1085.93566894531 1088.40515136719 1099.03735351562 1108.49450683594 1111.03930664062
938.88916015625 944.249877929688 938.958557128906 946.9345703125 956.129760742188 950.958129882812 960.442260742188 954.23876953125 949.24560546875 954.158508300781 958.142883300781 952.5849609375 964.2734375 963.603820800781 964.91796875 963.765686035156 964.337280273438 968.952941894531 964.801330566406 979.04833984375 969.882019042969 981.726684570312 991.841979980469 990.201293945312 991.682006835938 990.622497558594 992.408020019531 993.277038574219 989.464416503906 993.486572265625 1000.02532958984 1001.87573242188 1007.66625976562 1006.40197753906 1007.68829345703 1008.31396484375 1012.31451416016 1007.47436523438 1003.48937988281 1012.60083007812 1022.06127929688 1014.84265136719 1028.2529296875 1027.50622558594 1034.18627929688 1020.09234619141 1011.26922607422 1007.08062744141 1001.43414306641 992.241638183594 988.835998535156 986.942932128906 991.824645996094 994.411376953125 995.648864746094 990.26806640625 991.888366699219 1000.98767089844 1005.39642333984 1006.63092041016 1015.39465332031 1017.85205078125 1011.83831787109 1016.64910888672 1011.26245117188 1014.47229003906 1014.76422119141 1013.37774658203 1014.18499755859 1008.26324462891 1007.03729248047 1002.67126464844 1002.48065185547 1000.2685546875 1001.92407226562 1000.15014648438 1000.16442871094 995.387268066406 995.007568359375 1003.80236816406 1009.49603271484 1016.73126220703 1015.54211425781 1015.92816162109 1008.80908203125 1006.03186035156 1009.12121582031 1017.05786132812 1012.39978027344 1016.31048583984 1025.08959960938 1027.55908203125 1030.31420898438 1033.00891113281 1023.17700195312 1020.76654052734 1017.93511962891 1018.58532714844 1024.00268554688 1015.29998779297 1001.72247314453 999.0859375 1006.81182861328 1013.90490722656 1008.59405517578 1006.92657470703 999.133605957031 991.586547851562 983.302612304688 977.37255859375 969.258850097656 956.389831542969 955.734985351562 941.111694335938 948.9267578125 950.127197265625 963.988647460938 969.147338867188 973.963073730469 986.006652832031 1001.07312011719 1012.95288085938 1020.77722167969 1031.42602539062 1036.87353515625 1026.84790039062 1028.97241210938 1033.8466796875 1031.56286621094 1037.61401367188 1039.93994140625 1045.74291992188 1050.56811523438 1056.83532714844 1059.37829589844 1061.35510253906 1055.42993164062 1054.87438964844 1059.43420410156 1050.90856933594 1057.17541503906 1053.59655761719 1058.87512207031 1066.92333984375 1076.12316894531 1081.10571289062 1090.2392578125 1094.77941894531 1109.5224609375 1109.15661621094
943.328369140625 940.995361328125 944.260009765625 951.329040527344 952.670776367188 954.0732421875 957.909057617188 957.53515625 952.2490234375 951.839416503906 964.836608886719 965.149475097656 963.547790527344 972.183349609375 972.845275878906 962.168151855469 972.313415527344 969.606506347656 974.714599609375 974.848999023438 978.787109375 979.334655761719 989.173522949219 986.3583984375 977.291564941406 985.611450195312 989.688171386719 994.758117675781 997.348815917969 991.811401367188 993.301330566406 994.626647949219 1004.03106689453 1013.95031738281 1012.85906982422 1002.56628417969 999.852844238281 1002.77838134766 995.781433105469 1003.27337646484 1002.64685058594 1007.05511474609 1020.17358398438 1018.02264404297 1009.43511962891 1001.5595703125 996.846130371094 1003.88836669922 995.423889160156 989.747680664062 980.080017089844 974.16015625 980.447204589844 989.765869140625 992.136169433594 991.025024414062 992.544189453125 1001.15472412109 1004.25164794922 1004.78759765625 1008.11614990234 1012.86883544922 1012.09521484375 1008.85400390625 1006.84771728516 1018.80609130859 1010.31433105469 1004.04388427734 1008.02178955078 1009.03094482422 1006.63482666016 1009.28802490234 1012.302734375 1001.041015625 1000.63067626953 999.210571289062 998.067687988281 995.931518554688 1008.29827880859 1007.01666259766 1009.82763671875 1012.61755371094 1014.12994384766 1007.00677490234 1006.96142578125 1003.09197998047 1008.20574951172 1016.34729003906 1019.16314697266 1019.44812011719 1024.41662597656 1031.38562011719 1028.32104492188 1033.46960449219 1027.47778320312 1020.33251953125 1015.91381835938 1013.19952392578 1012.00024414062 1015.279296875 999.408813476562 998.717163085938 1010.14001464844 1012.82562255859 1016.65734863281 1004.5361328125 997.595153808594 991.074279785156 982.629943847656 971.7490234375 965.241577148438 955.326538085938 957.88134765625 957.093505859375 947.906494140625 950.795043945312 958.227600097656 962.355102539062 965.250671386719 979.560729980469 988.571594238281 1009.73150634766 1023.10229492188 1031.28527832031 1037.22180175781 1032.57507324219 1034.75451660156 1039.3427734375 1031.37536621094 1034.68176269531 1040.59741210938 1047.60498046875 1049.55981445312 1059.02099609375 1060.82800292969 1055.89270019531 1044.72106933594 1049.55163574219 1059.17468261719 1048.0029296875 1048.45629882812 1053.50573730469 1059.01147460938 1074.29406738281 1075.30615234375 1086.890625 1090.01867675781 1101.99987792969 1104.80212402344 1109.20910644531
947.486267089844 946.481689453125 947.905151367188 957.562194824219 949.361450195312 958.636596679688 963.298095703125 953.455993652344 960.3046875 964.538208007812 967.891479492188 973.441284179688 974.763549804688 976.088806152344 973.409912109375 968.809631347656 967.070434570312 971.262634277344 972.868957519531 970.271606445312 977.329467773438 982.06884765625 980.438232421875 976.534484863281 979.195495605469 992.286376953125 986.038269042969 994.984191894531 993.0830078125 993.990295410156 996.756530761719 988.917419433594 997.175476074219 1003.13061523438 1009.26062011719 1003.14233398438 1002.28399658203 1005.24420166016 989.272583007812 984.868713378906 992.47265625 997.590393066406 1008.38708496094 1005.97277832031 1002.38385009766 996.481018066406 995.273498535156 995.280395507812 986.159912109375 989.613586425781 985.4072265625 981.290466308594 982.412048339844 988.415344238281 993.272705078125 991.650268554688 992.857421875 1004.37982177734 1005.20452880859 1002.53247070312 1002.81134033203 1008.2763671875 1006.31439208984 1004.39208984375 998.089782714844 1009.26458740234 998.562255859375 1006.36468505859 1006.72296142578 1006.60675048828 1012.81243896484 1005.98193359375 1004.11804199219 1007.09246826172 1002.92474365234 1000.41784667969 992.860595703125 997.695434570312 1002.18951416016 1009.37890625 1003.3505859375 1007.96215820312 1009.85473632812 1015.6787109375 1012.06756591797 1011.98950195312 1014.83905029297 1005.93096923828 1015.36529541016 1019.96166992188 1024.2509765625 1026.21655273438 1019.70880126953 1020.11022949219 1010.16943359375 1006.65631103516 1006.40905761719 1011.15539550781 1007.06658935547 1010.45629882812 1007.77691650391 1000.69085693359 1007.43695068359 1006.90789794922 1009.369140625 1006.35711669922 998.165222167969 1001.78845214844 983.322082519531 975.378173828125 967.373657226562 951.480895996094 944.057922363281 941.631103515625 946.957336425781 949.37353515625 955.649597167969 962.591247558594 967.726806640625 982.798767089844 996.376342773438 1005.064453125 1012.71673583984 1034.32458496094 1029.49377441406 1036.90185546875 1037.33557128906 1046.18713378906 1031.4365234375 1035.70153808594 1043.01147460938 1039.63940429688 1051.95910644531 1051.61889648438 1054.8955078125 1043.65185546875 1037.37768554688 1042.01794433594 1047.2841796875 1046.77416992188 1049.38208007812 1061.32275390625 1063.97497558594 1072.13305664062 1076.62719726562 1081.01428222656 1083.34680175781 1095.25756835938 1107.26110839844 1108.42102050781
955.687744140625 949.812072753906 957.141845703125 965.474731445312 956.426635742188 956.332214355469 958.618957519531 955.687438964844 962.69677734375 967.818420410156 974.581848144531 972.891540527344 972.817687988281 976.454040527344 978.74462890625 969.126098632812 973.534362792969 970.927917480469 968.801208496094 982.317932128906 987.710693359375 977.840026855469 977.07080078125 987.327209472656 981.334777832031 988.495422363281 983.9873046875 984.811401367188 985.767883300781 982.985778808594 991.520141601562 991.86962890625 991.85205078125 996.9765625 999.199157714844 1006.93176269531 1005.26708984375 999.633361816406 990.723815917969 983.444702148438 984.604431152344 992.589050292969 985.337829589844 1000.08325195312 1004.52899169922 1004.30065917969 997.330993652344 992.461181640625 992.260498046875 991.859985351562 985.359313964844 987.674377441406 982.53857421875 984.841674804688 992.390869140625 993.832092285156 987.874450683594 993.598571777344 990.300109863281 990.439758300781 997.992492675781 1001.24517822266 999.10546875 999.951293945312 1001.6005859375 1006.66784667969 1004.60827636719 1015.92010498047 1006.68017578125 1013.88488769531 1004.97711181641 1005.79187011719 1002.57641601562 1008.17132568359 1004.50439453125 997.389892578125 992.424743652344 1000.18444824219 995.037231445312 1002.91937255859 993.888061523438 993.85986328125 1002.33575439453 1007.75402832031 1006.02062988281 1007.06640625 1009.123046875 1010.93829345703 1018.83203125 1023.33355712891 1025.02453613281 1024.41174316406 1019.33538818359 1012.20831298828 1007.83337402344 1006.39489746094 1011.46466064453 1011.99444580078 1001.81335449219 1005.21319580078 1007.80584716797 1007.19750976562 1000.94989013672 1005.6357421875 1005.79791259766 1007.43414306641 1004.13726806641 998.619262695312 987.952087402344 981.408325195312 971.650512695312 955.794860839844 944.167114257812 940.713745117188 937.134216308594 946.243041992188 956.996643066406 969.48681640625 971.414855957031 989.764404296875 1002.21301269531 1008.72491455078 1026.91137695312 1033.70007324219 1033.21032714844 1038.5927734375 1037.3994140625 1039.69750976562 1038.71411132812 1038.41027832031 1040.01501464844 1036.05249023438 1046.85070800781 1041.42956542969 1042.63732910156 1038.9736328125 1034.09802246094 1032.38671875 1042.39929199219 1051.71203613281 1056.29553222656 1061.15734863281 1073.08618164062 1069.37646484375 1071.94311523438 1075.7060546875 1082.23156738281 1098.6708984375 1107.80004882812 1112.84619140625
963.184631347656 962.972595214844 965.627136230469 960.6904296875 961.154174804688 960.193298339844 959.673950195312 961.765075683594 964.979187011719 966.383178710938 974.862121582031 975.547668457031 973.447692871094 979.98583984375 973.497619628906 974.495544433594 976.755249023438 971.810852050781 980.059387207031 982.919250488281 985.931579589844 989.574096679688 987.3271484375 987.624145507812 985.407775878906 984.951965332031 982.859741210938 981.689575195312 981.067687988281 987.838317871094 989.843994140625 990.797790527344 992.198547363281 990.994445800781 997.473754882812 1001.16339111328 992.9814453125 994.993469238281 990.64501953125 997.436584472656 990.34619140625 987.582580566406 985.451538085938 1001.75390625 1007.36163330078 1003.412109375 987.475952148438 993.764831542969 993.775085449219 988.543579101562 976.555419921875 978.376770019531 980.759582519531 977.864379882812 982.256408691406 990.742919921875 987.20458984375 977.404541015625 989.623840332031 990.735900878906 992.869201660156 1001.41546630859 997.559814453125 992.322998046875 986.240783691406 996.459289550781 1005.41839599609 1004.46905517578 1006.75378417969 1010.08154296875 997.352966308594 1002.23498535156 999.7900390625 995.375183105469 1003.82440185547 1005.88159179688 985.192260742188 987.619384765625 995.690551757812 991.334228515625 1006.81451416016 994.500122070312 997.007690429688 999.603759765625 996.472045898438 997.565673828125 1003.76873779297 1011.89093017578 1013.44567871094 1014.19458007812 1015.92266845703 1021.26898193359 1024.47338867188 1017.451171875 1007.34289550781 1005.69610595703 1008.95013427734 1006.59979248047 1000.35296630859 1008.6337890625 1005.29028320312 1005.49676513672 1006.60223388672 1011.5283203125 1010.71734619141 1016.09564208984 994.772827148438 989.872802734375 983.277404785156 967.098388671875 962.341430664062 965.315368652344 947.785888671875 941.322814941406 947.392944335938 948.408142089844 965.600463867188 971.003173828125 977.786376953125 991.057922363281 1001.97937011719 1010.19213867188 1020.17102050781 1023.46496582031 1029.86169433594 1031.82019042969 1036.87512207031 1031.04162597656 1026.47644042969 1037.35021972656 1033.48950195312 1036.27648925781 1025.78601074219 1029.78515625 1037.07702636719 1033.25903320312 1037.74133300781 1030.61242675781 1044.67980957031 1048.95043945312 1059.73986816406 1069.84399414062 1064.71240234375 1066.75146484375 1075.07177734375 1067.18811035156 1077.79943847656 1088.60620117188 1107.91967773438 1105.66723632812
959.758911132812 967.750732421875 967.178405761719 969.327270507812 973.118530273438 960.835388183594 963.686157226562 972.478576660156 966.277282714844 964.902404785156 970.461059570312 972.327941894531 976.669494628906 979.564453125 975.764587402344 979.175170898438 976.889831542969 987.976257324219 982.550354003906 983.609924316406 989.970825195312 977.359130859375 979.655639648438 983.331665039062 982.667541503906 978.14501953125 979.937622070312 989.347351074219 983.245971679688 983.995544433594 982.181274414062 985.030334472656 985.58154296875 994.037231445312 993.640869140625 994.362854003906 994.041931152344 992.013549804688 990.675354003906 987.173400878906 993.067260742188 987.736389160156 990.778259277344 1000.99407958984 999.552185058594 995.759399414062 988.557800292969 982.215454101562 987.753112792969 978.892822265625 975.889526367188 970.186706542969 977.069702148438 985.126953125 991.940185546875 981.728637695312 978.011840820312 978.377319335938 982.582946777344 989.058288574219 996.621643066406 1001.01129150391 1004.40026855469 1000.205078125 987.984130859375 985.512634277344 994.344909667969 998.421447753906 1005.84118652344 1002.90368652344 1000.02716064453 1004.44323730469 1001.47467041016 1004.4228515625 1004.65264892578 1000.99517822266 1001.24230957031 1000.04400634766 993.853881835938 997.864196777344 1001.56158447266 992.126831054688 996.917724609375 992.763061523438 996.059814453125 999.659973144531 998.301147460938 1000.77032470703 1010.41387939453 1011.447265625 1017.1640625 1023.42828369141 1017.54943847656 1019.18566894531 1012.55432128906 1007.59454345703 1007.01947021484 1002.91656494141 1000.94946289062 1006.47473144531 1010.49139404297 1009.51702880859 1015.06109619141 1008.16040039062 995.218078613281 1003.67645263672 996.812377929688 990.377380371094 974.352478027344 961.039306640625 951.144104003906 964.954467773438 954.515869140625 945.790405273438 944.926330566406 957.127319335938 956.818237304688 961.732238769531 986.127502441406 999.725402832031 1006.66424560547 1014.04071044922 1016.22711181641 1026.04345703125 1020.88946533203 1020.37194824219 1037.79321289062 1040.86364746094 1039.83947753906 1039.78784179688 1028.45751953125 1030.97668457031 1020.12164306641 1029.65087890625 1034.67419433594 1032.50109863281 1036.80139160156 1034.91003417969 1043.95104980469 1055.44396972656 1061.38061523438 1061.4140625 1054.08740234375 1061.67224121094 1066.97607421875 1072.27453613281 1074.09155273438 1089.6640625 1098.87976074219 1115.85632324219
960.127197265625 968.681274414062 963.41015625 961.223999023438 968.216979980469 972.565307617188 974.805480957031 974.012390136719 962.597839355469 963.465393066406 965.285095214844 965.444702148438 977.3310546875 976.949584960938 973.000427246094 981.351318359375 987.005126953125 987.791320800781 978.66015625 983.076965332031 981.629150390625 975.926879882812 986.833801269531 983.188110351562 981.643005371094 980.579711914062 986.033142089844 977.779113769531 981.549255371094 982.571166992188 987.459167480469 992.316772460938 993.778869628906 996.296081542969 990.9873046875 994.370361328125 992.465087890625 999.9189453125 983.477416992188 985.5263671875 987.310119628906 986.226989746094 994.463073730469 987.980285644531 989.628601074219 995.867370605469 986.130249023438 982.858703613281 981.06005859375 986.368896484375 971.415954589844 973.469421386719 974.880126953125 977.289245605469 980.602294921875 973.281433105469 978.419311523438 981.71826171875 982.020568847656 993.635620117188 997.8486328125 990.398620605469 998.463806152344 1002.7431640625 989.585327148438 988.414184570312 999.03955078125 989.550964355469 992.867736816406 999.138244628906 990.188415527344 994.242248535156 1002.52239990234 999.461242675781 996.40478515625 996.709350585938 987.828674316406 992.85791015625 996.139282226562 996.156066894531 1006.71063232422 1003.12524414062 998.380126953125 998.176147460938 997.007080078125 1000.50042724609 1001.62561035156 1002.26733398438 1001.46282958984 1011.65411376953 1019.06988525391 1019.95251464844 1015.54187011719 1020.22082519531 1008.509765625 1009.22540283203 1007.26025390625 1007.60986328125 1005.36749267578 1003.20190429688 998.103515625 994.517822265625 1001.13702392578 1004.57403564453 987.816772460938 998.964538574219 991.089111328125 988.319030761719 975.046813964844 961.479736328125 954.872924804688 949.491577148438 947.526672363281 948.861145019531 944.429016113281 952.789123535156 947.715881347656 965.009704589844 982.669494628906 991.987670898438 1007.61004638672 1013.38073730469 1018.30780029297 1025.27856445312 1020.65570068359 1025.97326660156 1028.677734375 1030.587890625 1035.45324707031 1034.78100585938 1025.4521484375 1026.33203125 1020.40026855469 1025.76342773438 1032.35278320312 1035.46032714844 1032.46276855469 1030.08056640625 1038.38208007812 1046.93737792969 1053.82165527344 1051.45568847656 1053.60314941406 1045.32983398438 1062.76586914062 1071.72912597656 1072.92895507812 1079.7138671875 1100.1064453125 1113.15869140625
966.722290039062 964.16552734375 967.203125 964.570739746094 966.757934570312 967.293701171875 968.881408691406 974.987426757812 970.259399414062 968.026245117188 960.314636230469 963.560180664062 972.082824707031 978.223999023438 979.411682128906 981.790466308594 979.808715820312 978.253540039062 971.909240722656 973.611511230469 983.676818847656 982.529602050781 986.875793457031 981.940673828125 979.651245117188 984.072082519531 985.28173828125 981.415466308594 981.374633789062 984.765686035156 990.140380859375 985.950927734375 990.982849121094 992.583923339844 997.190612792969 983.020263671875 984.16162109375 986.636657714844 982.465637207031 981.052307128906 984.182373046875 991.778869628906 996.351196289062 995.943420410156 993.053344726562 992.733947753906 980.837097167969 982.183044433594 991.286193847656 982.198608398438 979.16748046875 976.847534179688 974.668090820312 971.707458496094 970.629516601562 977.281799316406 979.858764648438 992.640197753906 987.597717285156 985.311218261719 993.899963378906 994.466369628906 998.608703613281 998.872985839844 993.407958984375 986.340209960938 984.958923339844 990.097961425781 995.325988769531 991.037902832031 991.65576171875 992.848388671875 997.241333007812 1006.19061279297 997.529235839844 989.068664550781 985.950439453125 988.978515625 987.532958984375 996.591735839844 991.437133789062 999.4296875 997.93359375 995.090026855469 1001.70330810547 998.255615234375 999.520812988281 1002.66632080078 999.6044921875 1012.13244628906 1012.43859863281 1020.75164794922 1022.63555908203 1020.65948486328 1009.64013671875 1007.14703369141 999.122924804688 999.455383300781 1001.76989746094 994.120666503906 994.5439453125 990.432434082031 989.429260253906 988.056701660156 987.668212890625 1001.93585205078 993.697326660156 994.776794433594 980.316284179688 972.763916015625 968.294006347656 960.470153808594 950.955017089844 950.329833984375 963.046081542969 960.174072265625 961.7890625 970.439575195312 980.72314453125 994.372619628906 1005.07073974609 1014.91931152344 1020.25164794922 1027.02124023438 1020.77587890625 1023.11950683594 1022.19641113281 1016.52923583984 1023.13299560547 1032.142578125 1021.51196289062 1015.16546630859 1020.40130615234 1024.84020996094 1023.77081298828 1035.33813476562 1022.84814453125 1027.32019042969 1044.1669921875 1047.93725585938 1041.91809082031 1044.1015625 1046.3720703125 1050.47924804688 1059.64782714844 1064.85803222656 1074.07568359375 1078.26171875 1091.54528808594 1100.39001464844
966.360412597656 970.989685058594 964.367492675781 968.190246582031 968.499938964844 969.999816894531 969.886108398438 973.577941894531 971.2880859375 975.544982910156 969.770385742188 968.216491699219 974.786437988281 979.361083984375 973.712707519531 980.595397949219 983.952758789062 982.442138671875 972.750183105469 980.814392089844 977.454284667969 982.212036132812 984.4658203125 982.904296875 980.283142089844 987.477905273438 979.483215332031 973.061584472656 976.02197265625 972.893127441406 979.199645996094 986.690856933594 990.049133300781 994.719787597656 992.877014160156 982.973693847656 979.46044921875 979.277526855469 983.347778320312 982.602661132812 985.978454589844 993.610717773438 1001.65338134766 998.918090820312 990.274169921875 990.234680175781 982.066711425781 985.322387695312 994.124816894531 987.399536132812 975.667724609375 975.601867675781 970.648986816406 973.429748535156 973.610595703125 977.405944824219 984.786560058594 983.154479980469 984.67529296875 987.065734863281 988.389526367188 986.998046875 983.328125 992.55517578125 991.274230957031 992.047790527344 980.109497070312 985.120178222656 980.072998046875 983.838256835938 977.097351074219 992.86962890625 1004.13366699219 996.359619140625 989.256896972656 994.082824707031 991.356201171875 993.042175292969 998.357543945312 992.170715332031 987.064025878906 991.390380859375 994.764282226562 1002.61450195312 998.083374023438 1004.81890869141 1003.81842041016 1009.47094726562 1006.34820556641 1005.24670410156 1010.09228515625 1009.67016601562 1008.67858886719 1008.66284179688 1004.32281494141 1004.39080810547 1004.833984375 998.527648925781 993.762512207031 996.63525390625 1004.07354736328 991.99658203125 993.7451171875 990.983154296875 999.607421875 1003.75305175781 1002.67987060547 994.408874511719 989.5390625 977.902038574219 975.495178222656 969.883972167969 960.340148925781 960.784545898438 967.603393554688 972.631042480469 979.458984375 981.15283203125 988.937561035156 991.427978515625 1006.76495361328 1009.92901611328 1013.23004150391 1022.19012451172 1031.44592285156 1022.57720947266 1031.28039550781 1019.91003417969 1019.34631347656 1015.86859130859 1012.06329345703 1015.36328125 1015.04357910156 1011.81713867188 1018.89569091797 1027.81689453125 1020.00317382812 1026.55041503906 1047.81079101562 1048.03747558594 1048.9462890625 1047.61206054688 1048.75317382812 1056.07861328125 1059.34814453125 1067.53759765625 1076.16979980469 1076.68627929688 1094.50317382812 1100.564453125
959.018493652344 964.738952636719 963.22119140625 959.774475097656 974.46044921875 974.989685058594 971.581298828125 977.154907226562 989.08349609375 975.716064453125 972.980712890625 970.679870605469 966.647705078125 975.334106445312 977.374389648438 980.507995605469 981.565795898438 977.067016601562 978.829223632812 975.135314941406 981.212646484375 981.670593261719 986.053466796875 977.863952636719 980.842346191406 976.176574707031 987.178955078125 979.161437988281 972.845825195312 977.962890625 985.985717773438 983.890075683594 989.137634277344 986.748962402344 989.466430664062 986.17333984375 980.498657226562 973.696899414062 988.247863769531 982.287414550781 978.312133789062 992.932250976562 987.446960449219 988.407836914062 979.65478515625 975.918518066406 980.825134277344 989.500122070312 985.142822265625 978.537475585938 973.285461425781 973.094055175781 977.482055664062 978.383850097656 976.338562011719 974.064270019531 979.748474121094 980.339172363281 980.1220703125 982.570129394531 981.99609375 982.552307128906 985.647705078125 988.434448242188 985.882446289062 980.919494628906 978.212951660156 983.38818359375 979.753173828125 980.789367675781 977.856201171875 996.291381835938 1005.04010009766 995.279663085938 988.068786621094 986.699279785156 987.65771484375 1000.67565917969 1004.52624511719 1001.25164794922 985.931762695312 996.814514160156 993.24609375 998.456115722656 1004.42041015625 1005.98205566406 1012.12249755859 1015.58459472656 1015.76495361328 1003.63708496094 999.995178222656 995.738464355469 1002.13854980469 1005.134765625 1008.21984863281 997.412475585938 1006.62579345703 1007.46234130859 1000.74853515625 997.599243164062 1002.6640625 994.531188964844 994.1484375 998.018371582031 995.04150390625 994.06396484375 994.114318847656 997.2119140625 992.671752929688 985.997253417969 982.736328125 988.347106933594 973.429565429688 970.676025390625 981.584045410156 981.622741699219 986.054138183594 994.144470214844 986.098571777344 992.435119628906 997.593627929688 1006.1787109375 1011.00933837891 1013.17803955078 1024.75280761719 1021.40850830078 1029.13049316406 1021.87048339844 1024.32556152344 1018.40258789062 1017.95922851562 1015.16204833984 1008.12231445312 1015.72436523438 1016.35479736328 1017.59484863281 1021.99334716797 1028.60412597656 1038.28747558594 1043.005859375 1047.15295410156 1044.73071289062 1044.86389160156 1059.75732421875 1061.74450683594 1063.11181640625 1071.58764648438 1078.10510253906 1095.57019042969 1108.76306152344
951.688354492188 958.965881347656 960.29248046875 961.009582519531 968.875854492188 972.330993652344 976.274536132812 978.236633300781 987.538879394531 981.753173828125 976.750305175781 963.094116210938 967.907470703125 973.0068359375 983.665222167969 981.197692871094 981.377075195312 976.758666992188 970.815551757812 970.671020507812 977.101440429688 983.225219726562 984.83935546875 982.890991210938 985.106384277344 975.587890625 984.509155273438 975.157104492188 978.512084960938 978.247741699219 983.002197265625 979.358825683594 978.475524902344 984.460083007812 984.967529296875 986.65478515625 978.294555664062 985.100341796875 976.97314453125 971.361389160156 978.149108886719 992.5634765625 982.346435546875 982.194580078125 980.815368652344 982.141662597656 987.345031738281 986.16845703125 987.350646972656 983.611694335938 979.44970703125 977.029541015625 977.521057128906 978.684631347656 980.191162109375 978.20947265625 978.457946777344 976.777282714844 975.443176269531 972.70849609375 969.896667480469 977.281494140625 980.77685546875 988.21142578125 981.427734375 983.719482421875 974.949768066406 974.050842285156 982.084899902344 979.585632324219 976.100646972656 992.97998046875 994.670471191406 992.598022460938 992.404541015625 991.337768554688 1000.82495117188 1011.75512695312 1008.51605224609 1002.52545166016 994.344116210938 990.286315917969 1002.65240478516 1001.83978271484 1007.30621337891 1003.76574707031 1003.49566650391 1005.31860351562 1006.43518066406 997.353637695312 1003.31304931641 1003.01385498047 1001.44769287109 1003.29754638672 1010.55139160156 1003.95373535156 996.954467773438 998.4296875 1000.4658203125 1001.21234130859 995.976867675781 992.383178710938 983.489990234375 995.66455078125 992.2880859375 989.951904296875 985.938598632812 995.729370117188 994.153076171875 993.327331542969 987.613830566406 992.210632324219 988.333190917969 989.728332519531 986.523254394531 985.379943847656 981.9765625 996.969299316406 1000.17272949219 997.348449707031 1008.39318847656 1013.00476074219 1008.02331542969 1010.38995361328 1009.48449707031 1011.39770507812 1015.83392333984 1024.6904296875 1021.74871826172 1020.95495605469 1011.79156494141 1026.77758789062 1011.20910644531 1012.07495117188 1018.9599609375 1024.93237304688 1028.46105957031 1024.15808105469 1036.58093261719 1051.302734375 1036.37573242188 1050.54809570312 1054.46728515625 1061.15283203125 1053.830078125 1058.3525390625 1075.25036621094 1084.6455078125 1100.41186523438 1109.68859863281
951.455383300781 956.470520019531 960.709594726562 965.545776367188 968.237182617188 970.167297363281 973.36865234375 977.970825195312 975.688720703125 980.559936523438 979.681030273438 962.619689941406 967.276489257812 971.8193359375 978.12158203125 981.446655273438 976.334533691406 974.514953613281 964.4443359375 969.368896484375 977.2099609375 976.690002441406 976.811767578125 978.460998535156 977.826293945312 983.2216796875 981.950805664062 977.246154785156 984.094482421875 983.817260742188 981.094177246094 976.143310546875 978.809814453125 978.119873046875 982.4326171875 979.109985351562 979.320617675781 978.677612304688 981.250854492188 972.233520507812 972.6083984375 984.652954101562 982.042846679688 987.995910644531 982.248840332031 977.107238769531 977.5517578125 977.020935058594 979.289367675781 973.316345214844 972.693908691406 981.710510253906 979.569458007812 976.643310546875 973.451599121094 979.234008789062 975.302978515625 978.146118164062 971.356811523438 965.790161132812 974.596984863281 980.874572753906 983.850402832031 978.053894042969 979.198608398438 978.542541503906 979.329162597656 977.896667480469 976.073547363281 977.599548339844 977.152587890625 981.015075683594 992.053344726562 994.585998535156 995.286010742188 997.475708007812 1002.15893554688 1008.83905029297 1001.76538085938 994.037170410156 997.305908203125 993.002014160156 1005.56658935547 1010.66436767578 1004.19317626953 1000.6416015625 994.610534667969 992.422912597656 996.716735839844 996.8876953125 997.908264160156 994.425537109375 1000.10424804688 1006.06915283203 1001.05279541016 1000.15808105469 999.955200195312 994.659240722656 999.336547851562 990.728515625 987.051940917969 987.457092285156 988.531860351562 991.189453125 992.327270507812 992.57177734375 993.494567871094 995.327941894531 993.2255859375 993.514099121094 982.941589355469 991.162475585938 996.208862304688 995.776000976562 988.800354003906 996.575744628906 1000.27844238281 996.532653808594 999.897888183594 1005.32556152344 1009.74841308594 1010.04107666016 1005.15795898438 1011.02111816406 1007.68151855469 998.890869140625 998.533630371094 1018.06793212891 1015.94708251953 1013.6708984375 1015.94323730469 1023.95874023438 1017.90313720703 1020.06555175781 1021.80285644531 1030.74987792969 1028.68591308594 1027.79968261719 1040.65979003906 1046.1171875 1058.61120605469 1058.814453125 1064.93811035156 1070.75329589844 1067.84545898438 1075.51000976562 1092.41259765625 1093.26416015625 1110.96301269531 1116.7626953125
956.907592773438 966.532409667969 967.263977050781 965.944091796875 974.042541503906 966.173767089844 972.335083007812 970.513610839844 967.40771484375 975.049987792969 976.2685546875 968.590209960938 966.437255859375 970.011779785156 974.161010742188 983.835083007812 971.113037109375 972.7265625 973.693054199219 975.296142578125 977.241027832031 978.413391113281 976.351928710938 967.981506347656 970.992553710938 984.144592285156 983.392333984375 985.829956054688 982.508728027344 980.525817871094 978.25244140625 974.712524414062 977.9453125 984.293884277344 979.227478027344 985.550903320312 986.198913574219 983.660278320312 982.09619140625 972.157409667969 973.111145019531 980.015808105469 983.592224121094 990.161437988281 994.118225097656 985.040954589844 980.071899414062 968.309875488281 971.528930664062 974.607788085938 972.187438964844 976.610168457031 979.5234375 971.661987304688 963.74267578125 977.195922851562 970.507568359375 969.56982421875 973.421752929688 977.13671875 973.617004394531 984.880615234375 971.221984863281 982.566345214844 982.709228515625 976.692321777344 978.8173828125 970.496459960938 973.955139160156 981.837524414062 976.342041015625 978.677307128906 976.200866699219 981.573059082031 988.783264160156 993.555480957031 1002.18621826172 1006.94641113281 999.70068359375 998.222595214844 988.767395019531 995.516967773438 1007.54754638672 1014.00689697266 1011.82861328125 996.5556640625 996.77294921875 992.264709472656 995.209289550781 1002.53723144531 993.846740722656 990.41455078125 1005.71368408203 999.442504882812 997.474670410156 1001.86950683594 1001.65051269531 996.687438964844 994.82080078125 995.156555175781 990.8349609375 986.520446777344 991.182312011719 991.745239257812 991.976745605469 998.987670898438 991.886901855469 996.026916503906 987.730163574219 990.622314453125 987.725952148438 990.85400390625 999.471252441406 1001.82604980469 1001.25518798828 1008.24200439453 1010.49346923828 1003.57025146484 1002.49554443359 1008.45184326172 1003.30688476562 1001.37457275391 1005.75408935547 1001.51641845703 1005.67065429688 997.056335449219 1007.14526367188 1009.31304931641 1012.8154296875 1013.95196533203 1004.55157470703 1017.33825683594 1017.33074951172 1020.33337402344 1019.62994384766 1035.39428710938 1031.63671875 1036.6083984375 1042.32189941406 1058.54565429688 1063.71936035156 1074.07360839844 1071.91003417969 1079.6103515625 1088.904296875 1092.2724609375 1092.54919433594 1100.57971191406 1106.60620117188 1110.58752441406
958.98779296875 967.857482910156 966.098693847656 975.717956542969 974.485412597656 975.25634765625 969.234375 964.272766113281 968.014770507812 974.781616210938 971.939086914062 962.284301757812 958.288391113281 966.19140625 977.763427734375 986.652709960938 972.894470214844 980.128845214844 976.273681640625 979.034240722656 988.273315429688 975.30810546875 978.739929199219 972.02001953125 974.534851074219 973.6337890625 979.047790527344 978.370727539062 980.452514648438 980.798645019531 976.361145019531 973.6337890625 971.597717285156 979.499633789062 977.903503417969 989.457824707031 979.533813476562 973.661804199219 977.788635253906 975.07470703125 967.748901367188 974.31640625 984.612548828125 990.5751953125 987.871032714844 985.092834472656 976.560791015625 969.761657714844 963.499633789062 972.249938964844 974.113708496094 987.291870117188 992.949523925781 981.907653808594 973.926391601562 974.622192382812 969.279846191406 972.435791015625 974.434020996094 979.590270996094 978.825866699219 976.242614746094 984.561096191406 978.298645019531 975.643005371094 965.266052246094 974.011291503906 975.981872558594 977.735107421875 979.217895507812 973.576843261719 973.89501953125 969.862121582031 978.388916015625 984.380554199219 984.409362792969 987.389953613281 993.601318359375 1002.82287597656 995.645568847656 990.262939453125 989.099853515625 1000.79058837891 1000.79870605469 1010.61749267578 1002.90893554688 1001.27038574219 1004.74743652344 997.181396484375 995.565002441406 996.43212890625 995.017395019531 1003.375 1006.36694335938 1001.51379394531 1004.92761230469 995.005798339844 995.466186523438 994.293395996094 992.663391113281 986.805541992188 993.256469726562 994.917053222656 991.510437011719 990.510070800781 986.387756347656 991.650695800781 1002.26818847656 991.606872558594 1003.81323242188 998.355895996094 999.94775390625 999.14990234375 1003.72253417969 998.169677734375 1000.4521484375 1003.59442138672 1007.45080566406 1004.85333251953 1004.30908203125 994.525268554688 995.658813476562 1007.23162841797 1005.77947998047 1002.04943847656 997.904479980469 1002.40057373047 1014.09020996094 1011.30731201172 1009.15386962891 1004.26098632812 1016.74572753906 1021.32629394531 1026.86938476562 1032.52380371094 1031.28088378906 1036.51672363281 1041.50476074219 1059.92260742188 1064.70251464844 1076.13061523438 1076.09143066406 1081.20861816406 1088.58227539062 1099.96508789062 1105.86791992188 1098.03869628906 1100.88659667969 1110.49084472656 1116.15710449219
969.628967285156 979.318664550781 975.496765136719 972.108764648438 969.059020996094 967.248474121094 961.154663085938 960.427185058594 960.342712402344 974.825988769531 974.785888671875 964.570251464844 966.278869628906 975.770385742188 971.842651367188 975.122375488281 988.246826171875 977.543640136719 972.650146484375 982.154296875 982.292724609375 973.0419921875 972.349975585938 966.685546875 979.371826171875 971.1953125 977.017761230469 975.220031738281 975.498352050781 978.826843261719 984.293212890625 987.134765625 974.866333007812 974.452453613281 982.228088378906 978.857360839844 975.939819335938 974.5859375 964.434875488281 960.6396484375 970.081665039062 971.124389648438 971.279541015625 972.340148925781 981.108215332031 974.7197265625 970.003967285156 967.615661621094 978.040100097656 974.476501464844 984.036437988281 984.805908203125 983.186706542969 978.437377929688 973.559875488281 968.537658691406 974.013427734375 971.080810546875 975.876647949219 973.314636230469 977.784790039062 977.769226074219 980.997802734375 985.954284667969 972.975158691406 963.521423339844 967.263732910156 975.212585449219 974.133728027344 980.042663574219 972.21875 970.5869140625 970.642211914062 977.035766601562 981.768249511719 980.083312988281 984.897644042969 990.195617675781 990.078918457031 982.371826171875 977.203002929688 996.799743652344 995.936401367188 1000.61645507812 1000.93237304688 1000.93048095703 999.310607910156 993.594482421875 995.611877441406 988.975769042969 988.882141113281 996.78564453125 993.933044433594 1000.07867431641 1000.65301513672 994.253356933594 996.334533691406 992.323913574219 991.4990234375 990.284606933594 996.355224609375 1001.06237792969 995.094787597656 987.494506835938 986.09033203125 986.327209472656 984.174377441406 991.566223144531 995.06787109375 996.15234375 998.496765136719 994.178649902344 1002.80572509766 1003.4931640625 999.440979003906 997.61181640625 1002.62951660156 995.197387695312 999.804260253906 992.501708984375 989.724365234375 992.556823730469 1004.63116455078 1005.47015380859 1001.62908935547 1003.54205322266 1011.04241943359 1015.36047363281 1011.64019775391 1009.37030029297 1006.44464111328 1020.80053710938 1029.40185546875 1028.94091796875 1034.68603515625 1034.07592773438 1040.10412597656 1042.29174804688 1059.60974121094 1071.33642578125 1080.06982421875 1091.69067382812 1087.64807128906 1103.06018066406 1115.51843261719 1122.19580078125 1113.81481933594 1117.35192871094 1120.94885253906 1120.43823242188
971.862121582031 963.733703613281 971.576049804688 971.530578613281 966.616271972656 967.989685058594 975.646789550781 970.657897949219 970.219848632812 962.747924804688 971.480346679688 976.3955078125 974.080871582031 970.238037109375 971.369445800781 967.53564453125 970.627807617188 974.780578613281 978.4345703125 982.822692871094 972.689147949219 974.514221191406 975.073181152344 971.914489746094 969.479614257812 976.423522949219 980.296691894531 980.925476074219 976.904052734375 986.197082519531 985.114379882812 988.64794921875 985.312133789062 978.208557128906 979.533203125 978.8037109375 978.832885742188 971.285766601562 966.20703125 960.296752929688 968.400512695312 967.685913085938 961.853942871094 962.272521972656 978.22412109375 978.701721191406 971.468078613281 972.944580078125 984.054870605469 974.731018066406 981.9130859375 983.840270996094 975.361633300781 964.567626953125 963.877563476562 969.096740722656 970.919311523438 977.109680175781 978.400634765625 975.3291015625 975.925170898438 975.296997070312 975.396362304688 983.183959960938 978.668579101562 974.282531738281 973.081420898438 979.638793945312 982.159606933594 975.558898925781 976.706237792969 972.032165527344 975.160949707031 968.934326171875 980.880798339844 977.469543457031 985.90673828125 988.497985839844 990.345764160156 983.282897949219 983.225769042969 986.604736328125 984.776489257812 982.226379394531 988.986328125 988.658081054688 994.256896972656 991.103698730469 981.678466796875 984.850158691406 990.339599609375 990.973754882812 998.733215332031 999.12109375 998.135559082031 991.276550292969 990.39208984375 985.5185546875 983.106140136719 991.13330078125 987.707702636719 990.999694824219 996.047790527344 987.08740234375 989.181030273438 992.385803222656 989.90283203125 983.702819824219 985.731628417969 984.900756835938 994.405578613281 995.731201171875 993.052185058594 995.662109375 998.070495605469 997.302734375 999.38330078125 995.908264160156 990.667541503906 990.924499511719 984.8828125 991.904479980469 995.617248535156 999.941467285156 1005.96490478516 1010.74487304688 1011.05377197266 1021.95330810547 1022.96752929688 1012.43444824219 1019.97967529297 1024.00646972656 1031.84228515625 1049.11169433594 1043.78649902344 1048.48571777344 1046.8701171875 1047.90637207031 1059.91589355469 1077.05603027344 1083.7490234375 1090.66223144531 1099.88562011719 1113.14453125 1126.09289550781 1127.14404296875 1125.05395507812 1129.06872558594 1133.17321777344 1126.25354003906
971.641540527344 968.880615234375 968.554748535156 969.981079101562 968.971069335938 971.855895996094 975.238342285156 973.091125488281 974.560607910156 980.335266113281 978.370422363281 972.073486328125 966.087219238281 970.0244140625 975.053955078125 973.629821777344 979.137817382812 984.194580078125 979.286010742188 972.19384765625 973.332458496094 972.148498535156 980.785278320312 972.512145996094 974.186340332031 970.378051757812 979.332580566406 986.447021484375 988.057983398438 985.935241699219 985.675415039062 978.293884277344 980.010314941406 973.262451171875 970.293395996094 974.634460449219 973.341552734375 976.639587402344 974.455261230469 966.393310546875 970.789184570312 959.56884765625 965.925659179688 967.214416503906 973.027770996094 969.330505371094 971.447570800781 977.290893554688 977.92919921875 976.141052246094 974.998229980469 973.77490234375 974.866088867188 967.18408203125 970.213806152344 973.546020507812 967.258850097656 973.026123046875 982.538024902344 982.979797363281 975.953674316406 976.445983886719 971.669799804688 976.228637695312 978.087646484375 975.608215332031 965.338684082031 975.841247558594 977.827331542969 976.054870605469 972.2314453125 971.747192382812 975.19873046875 965.757080078125 977.182739257812 975.197814941406 980.611694335938 986.101501464844 986.103454589844 981.1025390625 979.643859863281 977.743835449219 983.999084472656 985.018676757812 992.418151855469 988.688842773438 983.095336914062 994.193664550781 993.148620605469 983.6904296875 986.424011230469 991.052062988281 994.59912109375 994.925354003906 990.787292480469 993.333374023438 985.502319335938 988.857238769531 981.683837890625 985.427062988281 981.543151855469 984.261474609375 988.064453125 987.748352050781 989.300476074219 990.548278808594 985.237976074219 978.019409179688 984.879760742188 976.598449707031 983.081726074219 983.795532226562 985.709716796875 989.134704589844 989.880981445312 1004.01184082031 1003.45611572266 993.376098632812 995.076293945312 992.029479980469 991.157836914062 997.457885742188 996.869567871094 997.157409667969 1002.57458496094 1003.69555664062 1012.95654296875 1024.3115234375 1024.25183105469 1032.30603027344 1030.90075683594 1027.54760742188 1044.99792480469 1044.19396972656 1054.1572265625 1050.39294433594 1051.1787109375 1056.65051269531 1070.43371582031 1073.42553710938 1072.37939453125 1090.61779785156 1100.255859375 1111.83312988281 1117.98498535156 1145.01159667969 1139.41149902344 1142.05480957031 1142.01599121094 1130.82751464844
965.05419921875 967.245422363281 963.099426269531 960.248107910156 965.429260253906 967.770263671875 967.931091308594 958.674621582031 972.649536132812 978.978881835938 973.278442382812 970.51953125 966.784851074219 959.843688964844 980.677612304688 985.100219726562 982.653503417969 980.837585449219 976.618957519531 972.458251953125 978.817260742188 974.5498046875 970.090637207031 962.801330566406 966.303100585938 971.156921386719 970.079284667969 973.735656738281 974.313293457031 979.675720214844 988.516540527344 977.334228515625 983.196044921875 982.945434570312 974.523620605469 980.415832519531 983.986755371094 983.69189453125 972.954040527344 972.183837890625 966.873229980469 959.363037109375 967.409362792969 968.791259765625 966.954284667969 972.336547851562 967.653625488281 984.887329101562 979.346862792969 970.220825195312 974.274719238281 968.209655761719 975.124206542969 974.199340820312 967.465454101562 970.098327636719 972.217041015625 978.504455566406 980.040588378906 979.856689453125 986.145568847656 975.802429199219 982.187255859375 978.260314941406 979.042297363281 968.883422851562 969.71826171875 969.548950195312 971.317504882812 975.530700683594 977.019348144531 977.728698730469 970.181518554688 962.151672363281 965.520629882812 966.052978515625 976.043579101562 978.582214355469 984.726623535156 977.099731445312 981.353698730469 977.744934082031 974.885009765625 984.775329589844 987.589233398438 984.690246582031 982.474304199219 992.621337890625 988.548645019531 983.28759765625 983.531860351562 982.514221191406 980.0341796875 983.3037109375 985.843872070312 988.745300292969 988.856506347656 992.905700683594 985.921691894531 985.090209960938 981.690795898438 985.454345703125 980.744018554688 984.105285644531 981.032043457031 984.814392089844 980.673828125 974.735900878906 980.16162109375 970.883605957031 980.676025390625 973.331848144531 982.27685546875 988.319763183594 988.922790527344 989.280700683594 998.885803222656 1005.27722167969 997.254699707031 994.842895507812 991.253112792969 986.50732421875 996.837524414062 995.490478515625 1006.89001464844 1006.30603027344 1014.16204833984 1020.33166503906 1025.10412597656 1027.57568359375 1043.58178710938 1036.89270019531 1046.34045410156 1048.95422363281 1052.56945800781 1050.73754882812 1058.63500976562 1061.98107910156 1064.515625 1076.53161621094 1081.68615722656 1101.66674804688 1105.06115722656 1105.57446289062 1119.14880371094 1132.40869140625 1144.23474121094 1137.62475585938 1149.82885742188 1153.08520507812
946.295593261719 959.418701171875 963.649597167969 947.862121582031 948.267272949219 951.556030273438 955.151916503906 957.114440917969 963.544067382812 979.041748046875 980.725769042969 963.486877441406 959.546875 959.387451171875 971.121826171875 975.266906738281 981.402221679688 977.348693847656 978.197448730469 977.523376464844 971.796752929688 970.460815429688 959.923950195312 962.408142089844 962.545959472656 968.410217285156 968.753356933594 974.950378417969 970.955261230469 982.4169921875 984.157836914062 974.5009765625 979.838012695312 976.352905273438 974.927612304688 981.677368164062 989.124145507812 981.066467285156 974.232177734375 971.911987304688 973.175354003906 960.948059082031 962.537719726562 961.81005859375 965.263061523438 970.606506347656 969.266845703125 979.710754394531 973.335815429688 970.413818359375 973.954040527344 968.480895996094 963.189636230469 967.638977050781 965.964660644531 968.980346679688 966.656433105469 976.2041015625 980.243469238281 976.474853515625 977.253295898438 984.148742675781 981.912719726562 984.531494140625 972.710693359375 969.755249023438 975.969299316406 964.270141601562 962.132446289062 970.248657226562 974.540771484375 973.624084472656 968.645751953125 966.984924316406 964.362854003906 969.808349609375 965.395263671875 976.105834960938 985.767456054688 982.681396484375 974.900939941406 966.439453125 969.896423339844 976.047241210938 982.612548828125 981.339660644531 982.958190917969 985.589294433594 985.16845703125 984.134216308594 977.475219726562 982.848449707031 986.164184570312 977.978515625 982.110900878906 982.681274414062 984.517150878906 991.378234863281 988.057189941406 991.759399414062 982.620483398438 984.17431640625 975.930908203125 987.766967773438 981.492858886719 978.406433105469 988.333862304688 979.077697753906 982.490051269531 984.918273925781 973.207214355469 985.979797363281 987.591613769531 988.268920898438 992.501037597656 991.653076171875 997.407592773438 1007.23675537109 998.92333984375 988.240295410156 988.03125 990.683715820312 999.140075683594 1002.30889892578 1001.41064453125 1014.33331298828 1025.80151367188 1036.73034667969 1040.65795898438 1038.40258789062 1036.70739746094 1047.00341796875 1049.87658691406 1048.31042480469 1056.85632324219 1057.41271972656 1063.94165039062 1060.53393554688 1069.39599609375 1081.13012695312 1090.96911621094 1100.11413574219 1110.61682128906 1116.43933105469 1130.0498046875 1132.06787109375 1146.39465332031 1157.30395507812 1158.69384765625 1160.189453125
