NCOLS 150
NROWS 37
XLLCORNER 7394249
YLLCORNER 4842269
CELLSIZE 30
NODATA_VALUE -9999
961.640258789062 948.510559082031 952.926208496094 957.814392089844 969.936767578125 975.087341308594 977.472045898438 969.456604003906 975.771240234375 978.69091796875 980.135375976562 978.306030273438 975.282897949219 976.9248046875 976.418395996094 977.38818359375 979.043212890625 971.66796875 967.844177246094 964.526000976562 952.307556152344 960.397399902344 961.627136230469 969.878723144531 964.319580078125 953.994323730469 959.91845703125 957.638305664062 964.582824707031 964.961181640625 960.352172851562 954.719299316406 958.381042480469 955.186828613281 955.376525878906 967.999572753906 966.651672363281 964.790222167969 956.448913574219 960.591796875 960.479187011719 962.409484863281 960.428527832031 957.608032226562 963.263671875 957.632873535156 963.385009765625 959.701843261719 960.406433105469 961.098693847656 954.270080566406 954.670959472656 951.078735351562 952.997314453125 950.488891601562 960.013549804688 962.33740234375 969.603637695312 957.642761230469 953.981079101562 957.879150390625 957.491577148438 958.614013671875 954.821594238281 957.578857421875 955.868591308594 948.549621582031 957.248229980469 963.361511230469 959.023071289062 961.609741210938 960.487854003906 957.357238769531 959.480041503906 961.506103515625 959.190246582031 955.024353027344 951.785888671875 967.66748046875 958.782470703125 957.663146972656 960.40869140625 961.022216796875 957.141845703125 959.672302246094 960.059631347656 965.929992675781 973.493225097656 973.402526855469 970.337829589844 978.129699707031 967.810852050781 968.608764648438 972.08935546875 976.145141601562 978.578125 972.371765136719 970.733032226562 976.506225585938 976.291320800781 978.805847167969 972.884521484375 970.483154296875 970.40869140625 974.064147949219 973.861145019531 977.872985839844 976.861389160156 984.913391113281 976.149230957031 977.924560546875 982.218200683594 991.004211425781 986.405944824219 995.289794921875 997.469482421875 995.803405761719 1002.12451171875 1006.49304199219 998.60302734375 997.206726074219 1007.29840087891 1010.46588134766 1018.29364013672 1030.59899902344 1038.26818847656 1038.60607910156 1033.89428710938 1037.42639160156 1039.57019042969 1047.41674804688 1061.22729492188 1071.62390136719 1079.29772949219 1079.37768554688 1081.73681640625 1085.64318847656 1092.03857421875 1096.63452148438 1091.583984375 1088.77172851562 1078.35998535156 1087.95129394531 1086.32702636719 1091.77734375 1085.83081054688 1080.92907714844 1089.57275390625 1092.31677246094 1104.11486816406
965.577697753906 962.734741210938 962.636474609375 962.141357421875 965.7060546875 965.66455078125 970.485717773438 977.09326171875 978.39892578125 972.1064453125 974.507751464844 971.084716796875 973.143676757812 977.587646484375 976.981323242188 978.344116210938 973.4697265625 974.535339355469 967.60205078125 960.397644042969 957.239868164062 957.664123535156 958.840026855469 958.200134277344 961.214233398438 959.306457519531 960.92626953125 959.235961914062 953.364013671875 967.727783203125 959.096557617188 965.062622070312 951.748718261719 956.554504394531 959.119934082031 964.532470703125 969.021118164062 967.509338378906 957.617004394531 958.884399414062 953.049072265625 964.143005371094 960.666564941406 959.483215332031 958.04150390625 955.290771484375 963.087646484375 955.978149414062 953.675231933594 958.845642089844 950.724609375 949.905212402344 951.809448242188 939.256896972656 943.620483398438 949.138366699219 957.005737304688 962.925354003906 965.230651855469 960.396850585938 954.084716796875 954.249450683594 962.543518066406 961.908447265625 957.950073242188 953.450622558594 957.724243164062 959.282104492188 963.499755859375 967.763732910156 966.009033203125 956.600158691406 965.192932128906 960.461730957031 950.052062988281 953.739562988281 950.895751953125 948.005187988281 956.288269042969 961.772216796875 963.020141601562 955.34130859375 958.907958984375 958.922424316406 961.018127441406 964.919250488281 966.856628417969 970.646423339844 976.619018554688 977.218139648438 975.67822265625 975.161010742188 979.154418945312 973.6708984375 971.3837890625 969.104431152344 975.242004394531 981.116943359375 973.616638183594 975.993835449219 978.89453125 973.703430175781 970.847534179688 963.398010253906 968.145568847656 975.190979003906 979.814392089844 983.761657714844 978.674560546875 982.345825195312 981.704040527344 974.585388183594 990.299987792969 986.763244628906 985.950500488281 988.544799804688 996.047912597656 1003.51031494141 1010.27703857422 999.088256835938 1001.12756347656 1007.83148193359 1008.98211669922 1018.03894042969 1024.9013671875 1035.22265625 1032.69311523438 1028.27685546875 1031.34301757812 1039.69934082031 1049.64990234375 1056.73657226562 1059.21997070312 1067.55859375 1071.27014160156 1078.00512695312 1089.27026367188 1079.330078125 1086.74133300781 1081.76391601562 1081.56286621094 1083.33056640625 1081.42004394531 1083.96813964844 1075.09350585938 1077.42639160156 1068.279296875 1084.85778808594 1078.27514648438 1088.72583007812
963.723510742188 961.106689453125 963.826538085938 964.141845703125 967.128845214844 971.256896972656 970.645385742188 969.635498046875 968.362854003906 971.99072265625 969.095336914062 971.448974609375 968.448669433594 969.455627441406 971.899658203125 972.474182128906 963.28759765625 957.966613769531 965.9404296875 962.5693359375 960.90478515625 961.752258300781 961.3056640625 960.318359375 955.496154785156 958.357360839844 955.877258300781 953.700134277344 949.80859375 959.3671875 959.855590820312 954.967407226562 947.881652832031 958.546142578125 967.194580078125 967.360168457031 964.049743652344 959.247741699219 960.279235839844 966.678466796875 958.021789550781 964.366271972656 962.778259277344 962.611145019531 954.163940429688 955.676086425781 949.873657226562 958.486206054688 957.071228027344 955.3232421875 946.320678710938 957.130859375 957.436340332031 952.091369628906 955.259826660156 956.468811035156 962.324768066406 962.617431640625 966.7880859375 957.265075683594 953.823608398438 948.433288574219 958.366516113281 955.897766113281 952.580078125 951.066589355469 957.541870117188 949.696105957031 960.593933105469 964.828979492188 976.903137207031 959.631958007812 965.626708984375 962.082946777344 954.78857421875 957.365539550781 955.418273925781 953.658508300781 955.261352539062 963.843017578125 959.352966308594 957.325622558594 952.485778808594 956.103210449219 958.760498046875 955.971740722656 954.338439941406 969.220153808594 970.860107421875 966.222045898438 964.377868652344 971.366638183594 968.256103515625 966.219848632812 974.044860839844 974.851867675781 976.817504882812 980.513061523438 985.096008300781 979.357177734375 978.600219726562 973.908508300781 970.578918457031 981.764526367188 974.806884765625 977.6005859375 977.654174804688 977.551513671875 985.547729492188 988.191955566406 994.422729492188 987.322143554688 987.776794433594 988.506164550781 989.515502929688 984.874084472656 984.554931640625 992.602478027344 1003.05786132812 1000.99603271484 1003.31982421875 999.439392089844 1012.38238525391 1016.83825683594 1024.02124023438 1033.51550292969 1039.73425292969 1037.24035644531 1039.76342773438 1034.94396972656 1046.33813476562 1050.26245117188 1064.13842773438 1066.84411621094 1081.23742675781 1084.00720214844 1082.60900878906 1071.5458984375 1070.96105957031 1069.369140625 1066.232421875 1069.25158691406 1085.01733398438 1072.30358886719 1070.31384277344 1071.46948242188 1076.18383789062 1077.32580566406 1081.09899902344 1081.25927734375
955.765197753906 959.05322265625 970.87353515625 968.31396484375 974.556823730469 974.130126953125 970.421752929688 973.299682617188 976.327880859375 975.3095703125 967.651733398438 973.77490234375 974.910034179688 975.099975585938 973.004760742188 966.239562988281 965.480285644531 957.708129882812 970.273132324219 963.936706542969 953.785522460938 960.768432617188 958.467956542969 946.474548339844 952.881225585938 954.39208984375 955.166625976562 948.780822753906 959.360229492188 958.45751953125 953.485595703125 948.227661132812 948.347229003906 952.094909667969 956.3740234375 954.842590332031 962.086120605469 960.971801757812 966.479370117188 954.524475097656 957.52685546875 952.556884765625 958.317077636719 964.124145507812 961.259948730469 958.7919921875 958.302307128906 951.115539550781 954.141723632812 948.397033691406 955.172180175781 951.825988769531 959.588500976562 958.738098144531 958.809692382812 957.231689453125 953.044189453125 951.887817382812 952.514953613281 949.948181152344 954.657836914062 953.625610351562 952.752319335938 965.499633789062 952.52880859375 954.377563476562 961.353271484375 956.331604003906 952.664672851562 965.771423339844 972.739990234375 962.096496582031 957.964538574219 958.925170898438 963.455810546875 962.933715820312 964.840270996094 962.413024902344 962.582397460938 961.126647949219 961.360961914062 959.041687011719 954.114929199219 959.513427734375 950.389404296875 958.956481933594 966.953491210938 967.8896484375 974.006530761719 969.283203125 966.23876953125 962.946655273438 960.362060546875 968.105651855469 971.415161132812 971.007751464844 981.911193847656 983.195983886719 984.67626953125 982.293518066406 976.224426269531 973.679504394531 980.711791992188 982.129638671875 984.190124511719 986.691955566406 978.879760742188 983.006408691406 986.85693359375 990.605163574219 993.248779296875 983.830078125 988.298828125 990.104431152344 992.116271972656 989.570373535156 995.162414550781 988.838684082031 990.770568847656 1003.58740234375 1004.95684814453 1004.63806152344 1013.08251953125 1019.23889160156 1025.09899902344 1036.17175292969 1043.04943847656 1038.84545898438 1037.400390625 1040.19494628906 1043.17517089844 1054.76538085938 1072.91015625 1072.41235351562 1077.83715820312 1087.89074707031 1082.025390625 1069.69860839844 1062.92590332031 1064.65966796875 1057.46044921875 1056.96740722656 1057.64599609375 1065.04541015625 1061.49853515625 1066.03930664062 1071.34460449219 1069.75671386719 1077.74682617188 1079.74047851562
957.904174804688 954.55908203125 963.695495605469 970.666564941406 969.843322753906 976.844360351562 970.018310546875 966.77783203125 974.20703125 967.81494140625 975.59814453125 971.3896484375 978.140258789062 978.05126953125 963.890380859375 966.515380859375 971.138366699219 962.822937011719 961.307312011719 956.203186035156 948.98828125 942.497924804688 950.168640136719 948.120971679688 955.589111328125 950.075378417969 950.573913574219 952.64697265625 952.994873046875 948.972778320312 953.107788085938 958.805541992188 952.277709960938 942.223815917969 949.367370605469 957.618896484375 955.446105957031 953.304016113281 959.204406738281 950.833740234375 949.713928222656 957.647827148438 957.304443359375 960.245666503906 959.50732421875 955.117553710938 949.792419433594 951.086486816406 952.579650878906 950.04638671875 959.597961425781 967.622436523438 962.800537109375 968.220947265625 958.616394042969 961.119201660156 948.5830078125 957.4560546875 955.278381347656 956.174194335938 955.174377441406 958.672424316406 956.321105957031 958.797912597656 954.213195800781 960.666076660156 962.008117675781 952.738220214844 956.603698730469 967.734985351562 968.976806640625 957.39892578125 955.700561523438 960.814331054688 962.179931640625 964.068115234375 967.186279296875 970.521667480469 963.831970214844 962.212707519531 972.627075195312 964.551452636719 958.233154296875 958.04248046875 959.814880371094 963.4462890625 974.153686523438 973.728210449219 973.285766601562 969.080078125 963.372741699219 974.711669921875 960.945129394531 965.756958007812 976.413940429688 974.292846679688 976.579528808594 983.837524414062 981.7060546875 977.595947265625 973.419677734375 987.498840332031 986.121276855469 986.971069335938 983.561706542969 984.804016113281 988.493103027344 992.856140136719 996.738708496094 1000.27124023438 997.319702148438 988.87939453125 989.864196777344 987.148376464844 988.46875 991.175659179688 986.378967285156 984.098449707031 986.205993652344 995.28662109375 997.603149414062 1007.31774902344 1018.76171875 1014.51806640625 1027.90161132812 1038.62182617188 1034.22351074219 1034.54895019531 1034.05871582031 1038.17541503906 1051.55102539062 1060.69091796875 1069.34069824219 1065.17895507812 1078.89184570312 1079.02575683594 1076.26000976562 1063.74133300781 1057.74645996094 1049.15100097656 1045.84692382812 1048.4150390625 1043.80810546875 1056.11193847656 1056.95434570312 1058.57861328125 1066.96130371094 1063.63391113281 1064.42895507812 1070.74951171875
960.625549316406 959.416381835938 964.857482910156 966.532836914062 962.61865234375 973.976440429688 970.641357421875 975.114868164062 977.557983398438 966.928039550781 964.334899902344 961.0947265625 969.929870605469 969.380798339844 963.5380859375 965.087768554688 971.147766113281 961.010375976562 958.831420898438 951.771789550781 945.330078125 936.674255371094 945.767517089844 951.163208007812 944.446228027344 951.003112792969 948.148681640625 950.91162109375 943.460693359375 940.838256835938 940.298950195312 949.082397460938 943.842529296875 950.154479980469 945.244812011719 952.592712402344 952.029846191406 953.802917480469 951.181884765625 950.034423828125 948.147155761719 953.38525390625 955.361572265625 956.0927734375 951.09619140625 951.837707519531 944.257263183594 943.531494140625 949.026306152344 959.507690429688 955.826293945312 960.789611816406 959.7197265625 964.634521484375 964.433349609375 955.167541503906 951.717956542969 954.945922851562 960.122192382812 958.823669433594 957.241577148438 960.613708496094 960.61474609375 958.53173828125 957.953247070312 959.898986816406 965.6484375 967.362365722656 964.235595703125 967.399780273438 972.031372070312 967.441711425781 963.048950195312 957.940795898438 950.881469726562 961.081359863281 968.559814453125 968.273803710938 963.698669433594 960.213745117188 962.039978027344 964.479675292969 964.567504882812 966.094482421875 961.495727539062 965.661804199219 968.139953613281 965.171569824219 977.450866699219 974.387084960938 967.664733886719 967.221984863281 969.242126464844 970.307434082031 969.9716796875 975.073120117188 971.8291015625 974.368530273438 978.583923339844 979.03271484375 983.214782714844 981.014282226562 986.673278808594 989.068786621094 990.004150390625 992.552124023438 992.397888183594 991.643493652344 996.537353515625 994.421020507812 998.24560546875 995.264465332031 992.827758789062 995.79248046875 995.809936523438 988.767639160156 978.811096191406 978.493286132812 985.499755859375 984.586181640625 1002.54516601562 1006.71667480469 1012.41784667969 1025.70141601562 1035.22253417969 1039.95678710938 1040.708984375 1036.27392578125 1033.11401367188 1045.21569824219 1052.93762207031 1046.9453125 1053.78125 1067.02502441406 1075.5927734375 1071.99938964844 1061.24194335938 1053.30456542969 1040.22680664062 1044.09167480469 1041.37353515625 1037.42321777344 1036.99438476562 1039.24462890625 1050.27856445312 1049.0166015625 1053.53173828125 1059.34704589844 1059.93078613281 1060.67712402344
968.924133300781 961.274291992188 964.479248046875 960.563842773438 965.166259765625 974.241149902344 973.2841796875 981.050842285156 967.920471191406 979.131286621094 966.241882324219 960.3291015625 966.321533203125 964.019592285156 960.9345703125 960.531372070312 960.234558105469 960.188842773438 961.018676757812 961.202575683594 953.906982421875 937.511169433594 940.684753417969 948.655395507812 947.144714355469 950.329284667969 953.272277832031 955.381530761719 945.059692382812 946.285095214844 945.7998046875 949.188171386719 948.713684082031 951.366088867188 945.898864746094 953.580261230469 955.5615234375 947.323852539062 945.914733886719 951.714599609375 955.40087890625 947.202270507812 955.232666015625 952.928283691406 953.81494140625 950.908020019531 961.920654296875 955.977600097656 958.498168945312 954.244873046875 953.226013183594 961.783935546875 953.066955566406 959.315185546875 956.589294433594 952.910278320312 952.570678710938 953.938903808594 952.992553710938 967.942993164062 966.970886230469 960.877136230469 965.218872070312 950.557067871094 961.231323242188 957.130493164062 958.060302734375 973.054931640625 963.635314941406 966.559631347656 966.294372558594 969.052185058594 963.512756347656 965.122985839844 960.2109375 960.29541015625 963.773803710938 966.268310546875 964.853698730469 957.908142089844 968.034912109375 966.866760253906 975.237060546875 967.963562011719 968.300476074219 972.832275390625 970.665771484375 972.018737792969 964.182434082031 969.431335449219 971.636535644531 969.96240234375 963.07568359375 973.052917480469 976.387268066406 970.85888671875 973.366271972656 981.398559570312 980.629760742188 988.38134765625 979.548583984375 979.296142578125 985.033996582031 986.280944824219 994.496520996094 994.443359375 993.077270507812 995.416381835938 998.605834960938 1006.87084960938 996.206176757812 995.324035644531 995.492919921875 991.83447265625 988.977844238281 996.191589355469 994.90185546875 982.614990234375 989.521728515625 988.234252929688 992.945251464844 997.930114746094 1008.16033935547 1027.01391601562 1031.3916015625 1031.09436035156 1028.02099609375 1026.32165527344 1028.46813964844 1033.18725585938 1050.0849609375 1045.0322265625 1043.60620117188 1052.93078613281 1059.84655761719 1054.01989746094 1064.4892578125 1052.13452148438 1046.28881835938 1042.90283203125 1040.34521484375 1035.73059082031 1032.56628417969 1034.06677246094 1041.7431640625 1047.224609375 1052.74267578125 1048.35791015625 1058.21618652344 1052.73413085938
971.627807617188 963.26416015625 964.68798828125 961.476867675781 958.885437011719 964.82373046875 969.694458007812 968.677307128906 973.371643066406 976.772338867188 972.556579589844 956.5634765625 962.218811035156 965.496398925781 959.099792480469 949.428039550781 953.934204101562 955.651489257812 961.080688476562 955.197998046875 949.363342285156 936.979858398438 939.446105957031 944.048828125 948.287780761719 945.13232421875 955.435607910156 954.063415527344 947.132629394531 950.845336914062 948.638000488281 947.864868164062 952.136291503906 943.323120117188 946.719116210938 957.250427246094 950.326721191406 950.837036132812 943.801818847656 953.149597167969 960.271911621094 952.236022949219 951.5830078125 957.474975585938 957.856384277344 953.25439453125 955.702026367188 962.920227050781 962.502075195312 960.515625 959.473266601562 962.596557617188 962.729614257812 956.424682617188 954.5625 954.032348632812 959.665466308594 962.62158203125 963.166809082031 964.754821777344 966.4306640625 965.4775390625 964.67822265625 956.0234375 962.53271484375 951.94091796875 967.800720214844 968.624816894531 959.016784667969 967.177124023438 972.501586914062 970.985961914062 969.990783691406 973.210388183594 967.632446289062 970.524047851562 970.086303710938 968.205017089844 965.916381835938 972.021850585938 980.504638671875 976.963684082031 975.969543457031 975.597717285156 968.371276855469 969.868713378906 963.635070800781 962.501708984375 964.353515625 968.307250976562 970.766967773438 967.785949707031 972.278503417969 967.89111328125 974.266662597656 970.006713867188 978.104187011719 984.662414550781 981.547302246094 977.792114257812 980.369995117188 980.491333007812 986.881408691406 991.190368652344 985.97607421875 995.480041503906 1001.97534179688 1010.20587158203 1009.56011962891 1006.08087158203 1004.42175292969 998.400939941406 990.059936523438 1007.35028076172 1001.43078613281 994.977233886719 999.221435546875 991.995788574219 992.612548828125 999.842895507812 1006.15344238281 1013.77020263672 1013.05419921875 1014.90679931641 1028.84057617188 1025.23461914062 1025.55786132812 1027.79443359375 1032.49536132812 1035.90283203125 1041.0966796875 1036.37145996094 1033.22937011719 1044.84631347656 1044.78625488281 1041.20422363281 1050.66613769531 1052.33666992188 1052.83288574219 1040.57287597656 1037.63061523438 1042.98034667969 1047.45043945312 1044.79968261719 1044.29797363281 1049.37634277344 1043.01208496094 1041.21850585938 1049.23815917969 1050.11767578125
967.682983398438 959.184875488281 951.919250488281 956.636169433594 959.615966796875 967.807556152344 967.921752929688 968.273071289062 972.439819335938 965.815002441406 960.86669921875 954.829040527344 959.038391113281 957.941345214844 954.955078125 950.15380859375 952.014099121094 950.092163085938 952.623413085938 950.819519042969 936.340148925781 940.559997558594 943.385803222656 939.34228515625 942.6669921875 940.831970214844 951.635192871094 951.833435058594 946.636962890625 947.202209472656 948.855407714844 944.449951171875 948.237487792969 948.536254882812 950.079956054688 948.729125976562 946.466064453125 951.692749023438 946.321716308594 950.257019042969 957.9228515625 949.912841796875 952.007934570312 945.07373046875 942.624206542969 956.721130371094 969.945373535156 965.913879394531 965.02197265625 953.941589355469 962.164672851562 957.736511230469 962.787719726562 955.314758300781 959.97509765625 960.926391601562 966.145080566406 965.009338378906 963.725402832031 971.590454101562 967.763549804688 962.369506835938 956.639404296875 954.8916015625 957.292541503906 953.309020996094 961.426147460938 953.433532714844 958.016479492188 967.1005859375 976.187622070312 974.141967773438 979.268005371094 974.031188964844 969.611877441406 974.07470703125 977.810791015625 971.89794921875 972.450866699219 976.203308105469 972.949768066406 972.008666992188 977.561706542969 968.737915039062 975.586730957031 971.163513183594 973.597900390625 976.380004882812 965.351745605469 966.595336914062 968.562805175781 967.899841308594 968.972534179688 973.035278320312 970.898193359375 972.355895996094 974.269470214844 987.56982421875 987.064392089844 981.525939941406 977.212585449219 983.4296875 984.852233886719 986.479736328125 991.485168457031 1001.67431640625 1014.12438964844 1017.03179931641 1013.59216308594 1008.69287109375 1006.05084228516 995.017517089844 1002.02349853516 1006.08520507812 1003.61932373047 994.576232910156 999.296447753906 1001.25946044922 1003.86584472656 1002.88464355469 1021.10394287109 1015.28656005859 1011.37866210938 1019.14764404297 1028.71838378906 1031.03479003906 1026.79064941406 1022.97723388672 1023.65179443359 1023.56585693359 1029.8203125 1033.70263671875 1033.45275878906 1035.64880371094 1040.00158691406 1044.40124511719 1047.73608398438 1041.63903808594 1041.00646972656 1040.55004882812 1041.13098144531 1042.56079101562 1041.31079101562 1039.88720703125 1044.56506347656 1036.88464355469 1034.64733886719 1021.72015380859 1029.04382324219 1043.72204589844
956.138732910156 953.196960449219 953.404418945312 956.733764648438 956.547180175781 967.555541992188 969.856628417969 966.868469238281 963.568359375 950.804870605469 945.756225585938 946.131225585938 945.516723632812 946.083190917969 949.38818359375 948.710388183594 950.04248046875 956.723876953125 955.047302246094 945.535339355469 944.215576171875 941.868286132812 941.165283203125 934.018493652344 939.349975585938 942.175048828125 947.249755859375 950.052490234375 954.905151367188 938.994384765625 933.542907714844 936.822937011719 945.499450683594 945.609008789062 951.447326660156 957.399963378906 952.881652832031 948.98388671875 938.863403320312 947.527709960938 946.777221679688 951.224182128906 954.17578125 938.007202148438 949.811218261719 958.008605957031 957.419738769531 957.129577636719 952.15185546875 946.812561035156 967.656982421875 961.238952636719 958.814514160156 955.804992675781 961.092468261719 970.795471191406 979.079895019531 975.450439453125 976.029357910156 972.893798828125 975.030090332031 968.025390625 962.139831542969 957.673889160156 955.819946289062 959.590393066406 962.646118164062 958.800476074219 959.248229980469 970.139709472656 971.15966796875 974.995971679688 971.786865234375 969.108215332031 972.651428222656 971.903991699219 977.9765625 970.181640625 967.248107910156 970.066284179688 977.247497558594 975.520690917969 976.820922851562 968.308532714844 978.6875 980.103393554688 974.384765625 974.49072265625 975.164611816406 968.095458984375 963.363037109375 968.753662109375 965.806091308594 969.840637207031 973.683410644531 978.356079101562 983.096984863281 981.524230957031 984.589050292969 989.14794921875 983.37744140625 984.591674804688 980.223083496094 985.287841796875 1005.37243652344 1006.13232421875 1012.21514892578 1011.99072265625 1014.45294189453 1009.35626220703 1001.81372070312 995.946716308594 999.021057128906 1004.04956054688 998.735229492188 1001.1064453125 1010.16876220703 1020.326171875 1020.72503662109 1021.91461181641 1022.20758056641 1024.51281738281 1025.19213867188 1023.67303466797 1019.26239013672 1023.68511962891 1019.43200683594 1015.58312988281 1013.46319580078 1021.18298339844 1032.08764648438 1032.60241699219 1016.48065185547 1025.89587402344 1029.93603515625 1031.02868652344 1030.73974609375 1037.07067871094 1036.58361816406 1047.69982910156 1043.98022460938 1043.20861816406 1036.86096191406 1041.1318359375 1044.49377441406 1035.28820800781 1025.93408203125 1017.71557617188 1031.15600585938 1032.73254394531
952.386169433594 951.148559570312 952.547546386719 953.815612792969 955.528564453125 962.198303222656 965.406494140625 973.86865234375 956.80029296875 947.798706054688 936.663146972656 941.971435546875 938.857727050781 945.513977050781 946.220031738281 944.358215332031 947.006896972656 943.044982910156 952.368469238281 948.906188964844 946.640930175781 944.761108398438 937.4775390625 937.37109375 943.35595703125 942.424377441406 948.799560546875 939.950988769531 944.276062011719 936.026062011719 938.312927246094 934.067565917969 937.966125488281 939.844665527344 949.945678710938 955.456420898438 958.686279296875 951.901123046875 950.5224609375 954.099060058594 961.0498046875 957.420349121094 945.195007324219 954.037719726562 947.736267089844 947.361389160156 949.685180664062 956.555419921875 957.061340332031 963.28662109375 963.323608398438 968.231384277344 967.909484863281 958.710571289062 970.531799316406 968.923400878906 974.4580078125 975.601806640625 965.114868164062 970.410339355469 975.107849121094 966.682983398438 965.984375 969.81494140625 960.85791015625 951.739501953125 950.371948242188 965.166748046875 967.185852050781 972.688659667969 981.288635253906 970.425170898438 970.121276855469 969.934997558594 969.639587402344 969.749633789062 979.741333007812 973.191101074219 967.827758789062 971.677124023438 975.373352050781 981.272888183594 976.871459960938 983.809936523438 976.345886230469 971.475646972656 979.315185546875 984.290344238281 979.379577636719 972.084106445312 979.447387695312 975.74560546875 965.053344726562 967.868225097656 969.441101074219 974.351623535156 979.116882324219 986.049072265625 984.206481933594 983.398071289062 983.041870117188 979.44677734375 982.762939453125 999.627258300781 1005.24273681641 1006.11309814453 1008.28155517578 1004.04150390625 1010.15783691406 1011.08013916016 1004.61419677734 1005.72052001953 1000.71685791016 998.101257324219 998.883972167969 1015.74658203125 1011.78375244141 1019.89874267578 1023.45159912109 1028.85729980469 1033.22668457031 1030.96154785156 1031.7177734375 1026.72924804688 1021.04528808594 1025.54223632812 1026.31091308594 1016.99401855469 1012.51690673828 1023.47515869141 1027.80517578125 1032.54870605469 1028.04077148438 1024.9619140625 1028.00354003906 1034.31286621094 1030.22607421875 1028.34350585938 1032.25415039062 1036.81787109375 1041.12158203125 1030.12060546875 1033.68713378906 1030.46923828125 1037.57739257812 1021.90539550781 1024.77770996094 1013.92547607422 1024.15222167969 1035.60363769531
947.218566894531 948.227355957031 950.793029785156 952.03271484375 952.831787109375 955.499816894531 963.813720703125 958.934448242188 950.103271484375 939.136962890625 938.389526367188 942.674621582031 936.289001464844 948.07861328125 944.677978515625 936.366760253906 942.234924316406 949.745056152344 945.379821777344 947.732849121094 940.975769042969 943.562255859375 940.203186035156 945.242858886719 951.981506347656 946.039123535156 949.759887695312 949.794189453125 951.929748535156 938.603088378906 940.065185546875 945.738037109375 938.342834472656 946.774353027344 951.684936523438 945.8642578125 953.03076171875 954.141906738281 956.787963867188 957.153686523438 960.720458984375 956.752502441406 949.914733886719 952.958618164062 954.366760253906 953.591674804688 953.344055175781 962.346557617188 960.606018066406 967.08154296875 966.59912109375 971.250610351562 977.693481445312 963.973815917969 971.072082519531 971.475280761719 969.065795898438 970.17724609375 970.928649902344 971.665649414062 978.099975585938 968.516723632812 960.419372558594 960.111999511719 958.748901367188 952.250183105469 955.60791015625 957.720886230469 974.996215820312 969.1875 971.930786132812 973.226806640625 969.114074707031 970.896240234375 970.408386230469 973.126831054688 973.924682617188 969.344360351562 976.730834960938 975.699340820312 977.765686035156 974.852844238281 970.828735351562 984.341674804688 977.089477539062 981.149536132812 980.739074707031 978.563171386719 986.615417480469 981.532592773438 975.886962890625 977.62109375 971.407165527344 972.654174804688 961.221252441406 981.782531738281 990.013244628906 987.678161621094 995.06201171875 993.328247070312 980.770263671875 983.635192871094 984.437805175781 1003.826171875 1004.95819091797 1012.41717529297 1009.72015380859 1010.37908935547 1009.83129882812 1007.99371337891 1008.49169921875 1012.27160644531 1005.07556152344 996.754699707031 1011.59692382812 1022.84906005859 1029.20593261719 1034.81750488281 1037.53283691406 1033.24694824219 1035.27270507812 1032.52038574219 1027.85632324219 1026.30322265625 1027.89721679688 1017.63330078125 1026.734375 1027.30541992188 1025.40734863281 1021.119140625 1029.91088867188 1042.23327636719 1041.43835449219 1040.6572265625 1030.93835449219 1032.35864257812 1026.85168457031 1023.77014160156 1026.12805175781 1027.17248535156 1031.88073730469 1034.57470703125 1030.31970214844 1029.26831054688 1027.48962402344 1023.32379150391 1014.11773681641 1018.50848388672 1020.41558837891 1026.36706542969
949.662170410156 949.028076171875 951.461486816406 957.154663085938 949.379699707031 957.239196777344 951.688171386719 952.3994140625 944.215393066406 941.015808105469 944.358581542969 946.960571289062 943.950378417969 940.010925292969 943.110107421875 948.469482421875 946.061828613281 938.463256835938 945.637512207031 944.037170410156 938.191284179688 936.194885253906 947.080017089844 949.085327148438 948.541137695312 946.080505371094 947.344360351562 947.605773925781 949.970581054688 940.895141601562 945.599243164062 946.389404296875 951.127380371094 948.65625 953.077453613281 946.370849609375 950.796569824219 947.661010742188 960.176513671875 969.61669921875 957.130310058594 960.330139160156 955.968505859375 957.409973144531 950.397705078125 949.260131835938 955.768371582031 963.674377441406 972.259643554688 974.643676757812 969.598510742188 976.365051269531 983.227478027344 972.347473144531 972.418884277344 965.348449707031 969.628112792969 963.151916503906 972.125915527344 973.900268554688 980.921691894531 966.384460449219 962.172241210938 962.937133789062 959.904418945312 958.281188964844 952.659545898438 961.186767578125 966.03759765625 965.137451171875 969.073913574219 980.730651855469 973.822814941406 968.852661132812 976.419372558594 981.462463378906 973.308166503906 969.094848632812 967.694213867188 975.140930175781 972.952209472656 974.115966796875 975.285827636719 981.268249511719 979.863952636719 984.719360351562 983.878051757812 980.23974609375 980.151062011719 980.227111816406 964.868041992188 970.848754882812 971.547668457031 977.872863769531 974.253845214844 979.554016113281 989.824645996094 985.97119140625 992.359313964844 989.481140136719 982.732116699219 989.356262207031 998.276916503906 1009.01898193359 1009.34552001953 1011.38903808594 1004.82867431641 1002.66326904297 1007.21850585938 1010.28924560547 1010.00701904297 1008.76306152344 1011.13806152344 1014.70233154297 1017.32751464844 1027.68017578125 1033.29931640625 1026.47253417969 1034.8388671875 1039.21667480469 1037.50134277344 1033.98828125 1031.36840820312 1028.12841796875 1034.88500976562 1031.58996582031 1033.99938964844 1037.07885742188 1033.54052734375 1026.93469238281 1030.18188476562 1041.966796875 1047.31005859375 1047.48486328125 1033.02258300781 1033.10559082031 1024.11279296875 1019.35144042969 1027.09228515625 1031.03698730469 1027.80236816406 1019.44476318359 1014.32855224609 1019.75482177734 1020.96520996094 1014.50402832031 1016.43341064453 1011.07507324219 1021.09436035156 1017.52496337891
953.957458496094 953.360900878906 945.569641113281 949.73486328125 951.890441894531 958.606262207031 954.168762207031 949.41162109375 950.095031738281 936.763854980469 935.474182128906 951.631896972656 947.8125 946.139038085938 956.5205078125 951.0126953125 949.084533691406 945.954467773438 943.986938476562 951.010437011719 952.086303710938 952.260192871094 956.134033203125 956.537536621094 956.88623046875 952.136596679688 959.610595703125 953.066711425781 951.981567382812 951.71923828125 955.816162109375 949.334228515625 957.255493164062 959.49072265625 949.915405273438 950.723022460938 967.23681640625 962.678161621094 960.340454101562 959.721862792969 956.576538085938 956.447326660156 957.558166503906 954.250915527344 954.720886230469 953.615173339844 969.927978515625 970.082824707031 976.253051757812 974.298522949219 970.045471191406 979.616882324219 983.648254394531 978.11376953125 989.645202636719 979.565307617188 981.950256347656 977.581420898438 976.272521972656 968.251770019531 973.030883789062 964.736450195312 963.232849121094 954.221130371094 965.250854492188 961.168701171875 959.378356933594 967.767883300781 963.848815917969 964.547241210938 971.221740722656 972.58837890625 978.3310546875 978.155822753906 986.5791015625 979.303588867188 970.825256347656 967.45068359375 963.756713867188 971.852844238281 969.037231445312 974.944885253906 968.473571777344 976.804321289062 983.275024414062 975.534240722656 981.352722167969 980.366821289062 977.77587890625 980.238708496094 976.28955078125 972.254211425781 979.675720214844 984.450134277344 982.254150390625 984.806335449219 991.557739257812 984.751403808594 985.779418945312 987.589538574219 994.286376953125 1001.11547851562 999.495727539062 1003.32263183594 1003.91119384766 999.662780761719 998.80029296875 1003.78118896484 1009.02386474609 1006.97186279297 1017.33520507812 1017.70135498047 1014.34729003906 1021.07464599609 1028.17309570312 1031.09411621094 1025.28344726562 1030.50842285156 1037.21740722656 1036.12451171875 1042.13037109375 1036.4951171875 1037.69262695312 1033.59875488281 1036.35070800781 1035.63171386719 1026.48022460938 1028.20324707031 1030.61279296875 1026.87719726562 1032.05090332031 1034.12487792969 1039.00988769531 1049.66149902344 1033.72924804688 1031.91589355469 1031.93249511719 1015.8369140625 1022.2880859375 1025.87829589844 1023.42279052734 1015.28845214844 1008.43298339844 1009.41326904297 1015.68560791016 1011.35028076172 1009.35211181641 1004.02282714844 1012.38775634766 1023.02319335938
957.118347167969 954.854553222656 948.993774414062 951.618835449219 953.282409667969 957.397644042969 951.396789550781 949.331970214844 942.307983398438 934.574096679688 947.320129394531 955.834777832031 949.973815917969 955.240478515625 960.530639648438 961.294860839844 961.035827636719 950.934448242188 953.266845703125 955.286682128906 950.522216796875 939.71728515625 949.931091308594 966.060668945312 956.493530273438 957.823425292969 957.198059082031 965.89453125 961.077087402344 957.587280273438 957.192260742188 951.42138671875 956.869445800781 953.68017578125 958.134826660156 966.753540039062 963.28759765625 967.980346679688 964.222839355469 956.406066894531 959.602783203125 962.381408691406 963.098327636719 967.025146484375 962.81787109375 963.771301269531 962.713195800781 966.541442871094 972.786499023438 973.921020507812 967.255615234375 977.253784179688 978.904357910156 984.802917480469 983.874145507812 980.845275878906 979.498413085938 983.386108398438 984.583862304688 965.142761230469 970.850341796875 970.674255371094 964.997985839844 961.325927734375 970.0556640625 966.466735839844 966.758361816406 971.9306640625 963.439697265625 959.528625488281 970.82373046875 975.657409667969 985.25341796875 985.655151367188 984.3408203125 977.919006347656 978.416015625 975.898498535156 974.695556640625 969.924865722656 972.650512695312 964.528686523438 967.277404785156 979.405090332031 990.317504882812 984.418334960938 989.478088378906 985.492492675781 971.129150390625 972.486511230469 975.462585449219 977.497436523438 981.584228515625 978.197998046875 985.778503417969 977.398071289062 982.605224609375 990.411315917969 985.724426269531 991.212463378906 992.136169433594 1003.36096191406 1001.81170654297 1003.88079833984 998.621704101562 996.665161132812 998.122985839844 1003.85882568359 1012.80065917969 1007.74578857422 1006.89202880859 1009.75042724609 1015.93365478516 1025.55749511719 1022.00134277344 1034.78466796875 1034.95166015625 1036.46643066406 1035.25512695312 1038.37512207031 1042.92602539062 1044.99719238281 1048.11022949219 1034.57727050781 1034.60302734375 1033.86364746094 1020.58563232422 1025.19348144531 1021.06060791016 1028.447265625 1029.27575683594 1029.80480957031 1031.4609375 1034.76538085938 1038.37585449219 1033.91943359375 1025.34729003906 1019.70159912109 1026.11779785156 1016.25915527344 1013.7978515625 1007.12225341797 1005.89807128906 1009.47924804688 1011.97619628906 1006.79162597656 1006.53045654297 1002.82788085938 1004.14678955078 1019.56842041016
955.742370605469 957.384582519531 948.322875976562 944.250427246094 943.123718261719 941.492736816406 946.51123046875 939.60888671875 930.337646484375 937.742126464844 947.636047363281 953.973693847656 959.865844726562 963.740356445312 964.745910644531 968.13818359375 958.933715820312 957.520446777344 967.503967285156 961.126770019531 953.074401855469 953.471618652344 958.472412109375 962.251525878906 953.531677246094 963.058715820312 962.606384277344 967.901306152344 964.61669921875 962.359191894531 959.082275390625 947.836486816406 956.268981933594 958.000854492188 955.834411621094 957.787170410156 961.191040039062 964.030944824219 967.026306152344 960.32421875 967.733276367188 979.665649414062 970.696594238281 967.676147460938 971.642456054688 962.7001953125 971.854309082031 973.423034667969 978.373657226562 983.964477539062 978.038757324219 977.200073242188 975.046142578125 980.584045410156 979.619506835938 981.999633789062 984.829528808594 988.820251464844 972.63916015625 968.037109375 968.247802734375 971.477661132812 966.543701171875 962.583312988281 963.951171875 971.585876464844 971.183044433594 971.739929199219 977.646728515625 970.128662109375 971.438232421875 980.357666015625 975.207641601562 982.949157714844 988.623657226562 986.760009765625 984.540100097656 972.983642578125 973.333740234375 979.566040039062 976.191833496094 969.254577636719 972.057861328125 978.318908691406 987.356323242188 990.38037109375 981.056579589844 984.373168945312 977.028198242188 973.292114257812 984.120666503906 980.449279785156 985.554016113281 975.601257324219 989.180969238281 986.370483398438 983.522827148438 998.579528808594 989.768127441406 1001.83465576172 991.781860351562 1005.00512695312 997.269226074219 1005.98846435547 1006.06268310547 997.235290527344 1004.6259765625 1011.93762207031 1011.35791015625 1001.03179931641 1011.18621826172 1006.20104980469 1011.11901855469 1022.25463867188 1023.65435791016 1031.10192871094 1037.60729980469 1035.67919921875 1031.59448242188 1039.98022460938 1042.8955078125 1048.82385253906 1041.38256835938 1042.33276367188 1036.82092285156 1030.63562011719 1023.76696777344 1018.12152099609 1015.42932128906 1014.33709716797 1017.92889404297 1014.49322509766 1022.48284912109 1036.62121582031 1022.75268554688 1028.90600585938 1024.71105957031 1026.25427246094 1020.1953125 1000.66595458984 998.768615722656 1009.85681152344 1011.29425048828 1011.77301025391 1006.41473388672 1007.23870849609 999.593444824219 1000.16204833984 1000.5068359375 1005.48095703125
952.192626953125 946.610534667969 946.194702148438 951.489135742188 939.471923828125 940.373046875 944.653686523438 932.817138671875 935.412231445312 936.429443359375 950.638305664062 953.869079589844 970.170104980469 972.656860351562 982.622131347656 971.402587890625 970.089294433594 967.243408203125 972.843811035156 968.215942382812 960.379943847656 964.073913574219 965.320983886719 961.467346191406 968.121032714844 960.924133300781 960.462097167969 961.446228027344 963.210632324219 958.633728027344 946.642639160156 953.990112304688 963.965148925781 962.195129394531 959.729370117188 963.429016113281 969.038635253906 966.703125 974.518432617188 974.761413574219 985.9765625 983.568603515625 974.799377441406 977.646606445312 975.196105957031 979.05224609375 983.022216796875 990.612060546875 983.940185546875 989.800415039062 990.360473632812 981.542602539062 984.699829101562 982.485168457031 981.342651367188 990.804626464844 986.983642578125 987.482727050781 978.698547363281 972.887451171875 974.048706054688 969.441345214844 977.947509765625 971.583435058594 965.426696777344 974.582702636719 972.881713867188 979.622497558594 976.623901367188 978.591430664062 975.648132324219 973.049743652344 973.378173828125 985.723937988281 989.213684082031 982.942932128906 983.587829589844 976.143493652344 978.80908203125 977.47509765625 973.26513671875 976.564819335938 973.275512695312 980.860290527344 994.843017578125 988.831970214844 991.8564453125 984.968688964844 985.424682617188 973.094055175781 980.322998046875 975.685302734375 984.726501464844 983.483947753906 987.2998046875 984.135498046875 989.2939453125 995.343994140625 1001.23571777344 992.86865234375 996.269897460938 999.578979492188 996.755126953125 1001.44616699219 996.390563964844 998.482482910156 999.776794433594 1008.43273925781 1010.6455078125 1017.93737792969 1011.89874267578 1010.47131347656 1015.80151367188 1027.97668457031 1022.91375732422 1026.69848632812 1027.76892089844 1029.99499511719 1037.78173828125 1038.91223144531 1046.23986816406 1042.1533203125 1038.13293457031 1040.4697265625 1031.32263183594 1026.51818847656 1022.13629150391 1012.92834472656 1014.63073730469 1017.63415527344 1021.80053710938 1018.60589599609 1020.81549072266 1022.61724853516 1023.91394042969 1032.77612304688 1027.28295898438 1028.47961425781 1013.71997070312 1002.77716064453 1003.50372314453 997.284729003906 1003.18035888672 1011.734375 1000.28234863281 994.226379394531 995.819641113281 996.525451660156 1005.29266357422 994.166381835938
950.361755371094 952.832824707031 949.552368164062 943.435302734375 937.595397949219 938.615234375 936.79541015625 937.110229492188 943.551513671875 939.084228515625 957.376159667969 963.080810546875 973.736328125 983.202819824219 984.706909179688 983.129089355469 983.990966796875 984.435974121094 982.9521484375 978.858947753906 975.837585449219 967.35009765625 964.986450195312 971.5126953125 964.786926269531 972.699890136719 959.657104492188 958.139221191406 962.850341796875 951.660522460938 948.236083984375 948.724243164062 963.021240234375 966.486083984375 972.567932128906 981.022827148438 979.553833007812 981.128662109375 986.177062988281 982.570983886719 987.10302734375 984.211791992188 974.173828125 977.854553222656 984.293151855469 982.028076171875 979.702453613281 996.293823242188 999.099182128906 993.073913574219 994.920104980469 992.591247558594 988.287780761719 987.003479003906 987.78125 990.80859375 986.209228515625 975.036804199219 979.301452636719 966.561462402344 972.327270507812 964.406311035156 962.213806152344 963.810729980469 964.390869140625 970.786254882812 974.71044921875 979.478698730469 979.154602050781 979.904968261719 969.792663574219 975.827209472656 983.499206542969 983.176696777344 983.426513671875 973.439514160156 979.948303222656 980.144958496094 981.082458496094 966.955932617188 974.046081542969 976.12060546875 987.271240234375 990.796875 993.057922363281 997.922668457031 999.989074707031 995.639038085938 979.528259277344 980.517883300781 971.481201171875 980.298706054688 988.701965332031 989.247985839844 989.762451171875 991.034240722656 993.51416015625 1001.95465087891 994.275024414062 998.533386230469 995.859436035156 994.304321289062 993.327026367188 992.271850585938 1001.10809326172 994.242370605469 995.562072753906 999.609680175781 1008.23529052734 1019.10656738281 1016.99945068359 1011.35083007812 1022.47717285156 1026.95788574219 1028.13122558594 1028.56811523438 1032.27551269531 1040.38610839844 1039.10180664062 1045.47802734375 1050.15942382812 1052.99755859375 1044.66735839844 1040.22619628906 1035.11474609375 1027.22473144531 1014.068359375 1010.47357177734 1013.54724121094 1018.06945800781 1020.42535400391 1020.53448486328 1023.30236816406 1026.626953125 1030.13037109375 1027.41650390625 1028.79516601562 1028.44128417969 1019.24047851562 1007.89904785156 998.700622558594 993.46875 988.613464355469 996.336303710938 997.272277832031 998.661865234375 997.194274902344 1000.76531982422 1007.59490966797 998.871887207031
945.089538574219 941.995483398438 941.432922363281 931.733215332031 930.264709472656 931.878479003906 937.925109863281 933.435180664062 945.824645996094 947.381713867188 953.003479003906 965.159545898438 973.315490722656 984.775634765625 985.390502929688 982.955810546875 988.548645019531 987.8505859375 982.802856445312 980.177978515625 979.760681152344 962.624328613281 962.656677246094 974.129455566406 974.803039550781 977.516845703125 968.859008789062 969.084411621094 965.712829589844 958.144775390625 949.221984863281 949.52685546875 964.647399902344 967.987365722656 975.220031738281 977.989624023438 987.409423828125 987.703979492188 983.792236328125 982.453857421875 983.918823242188 982.511474609375 987.671020507812 976.389343261719 983.427490234375 991.251953125 996.072692871094 1001.70568847656 1006.30285644531 1005.14898681641 1004.20782470703 1000.20104980469 989.685974121094 982.310546875 984.926452636719 993.258117675781 985.810974121094 981.266723632812 980.09521484375 977.353820800781 974.363159179688 961.555053710938 968.457824707031 969.916564941406 981.213256835938 979.50244140625 990.556701660156 984.385192871094 981.855773925781 985.700805664062 984.703002929688 994.367980957031 992.091796875 987.538635253906 991.335632324219 981.172912597656 982.8056640625 990.783752441406 986.299133300781 979.775146484375 972.547546386719 979.117553710938 986.1123046875 990.559204101562 995.234191894531 990.745849609375 990.784057617188 997.751770019531 984.205749511719 977.753540039062 973.456481933594 980.706665039062 983.551025390625 985.383666992188 992.693298339844 989.752380371094 990.655212402344 991.135620117188 999.106872558594 993.146728515625 992.889770507812 1000.525390625 991.462341308594 994.338989257812 999.437316894531 1000.64337158203 1005.00158691406 1009.26007080078 1019.79626464844 1019.91094970703 1026.25927734375 1023.65698242188 1030.24047851562 1032.18151855469 1035.46691894531 1028.07751464844 1028.72058105469 1038.19812011719 1038.86999511719 1047.54956054688 1047.32214355469 1050.85388183594 1052.05456542969 1039.81774902344 1028.36047363281 1026.22729492188 1018.45245361328 1015.18005371094 1007.32458496094 1003.64678955078 1008.98785400391 1019.05969238281 1024.02111816406 1026.17028808594 1030.55163574219 1034.79260253906 1028.109375 1024.25048828125 1011.32196044922 997.557373046875 995.533142089844 991.947631835938 994.857238769531 988.106750488281 991.822631835938 996.779418945312 998.437194824219 999.042114257812 992.520629882812 994.992065429688
941.471740722656 939.085021972656 934.221740722656 929.902770996094 926.509155273438 930.597778320312 933.238098144531 935.781555175781 943.306945800781 951.339111328125 962.137817382812 971.236022949219 977.301391601562 983.364318847656 987.683715820312 991.252807617188 979.649291992188 990.367980957031 984.222412109375 977.184204101562 976.808837890625 973.137329101562 972.425842285156 973.336975097656 972.281982421875 975.703308105469 974.906311035156 978.478637695312 972.952087402344 964.780700683594 964.144897460938 961.963623046875 969.148193359375 974.744384765625 980.078796386719 985.531066894531 981.018859863281 981.611022949219 983.807495117188 973.83544921875 984.905822753906 979.665283203125 990.205139160156 984.490600585938 986.685974121094 992.786926269531 995.642700195312 1003.91168212891 1006.84130859375 1015.53662109375 1004.40240478516 1004.25537109375 992.772399902344 986.104614257812 986.947204589844 996.148315429688 981.91162109375 978.656372070312 971.737548828125 976.637817382812 979.151977539062 970.857849121094 978.197204589844 974.141357421875 976.120544433594 985.193542480469 982.199584960938 983.691040039062 984.082336425781 981.396789550781 990.490783691406 985.126220703125 988.614501953125 995.014221191406 995.131042480469 993.611450195312 992.748718261719 978.380310058594 990.795043945312 982.686096191406 979.982299804688 984.140563964844 986.809265136719 988.035461425781 995.6435546875 990.526550292969 985.912902832031 988.4150390625 978.782958984375 974.942626953125 976.110473632812 981.864624023438 990.591064453125 994.784973144531 987.781433105469 992.545043945312 997.320861816406 986.779968261719 999.196166992188 993.939270019531 989.055786132812 995.401184082031 1000.72723388672 994.618713378906 999.474792480469 1004.30908203125 1001.35241699219 1012.65130615234 1014.68499755859 1023.15576171875 1026.75610351562 1028.27648925781 1032.04248046875 1032.22485351562 1037.47314453125 1032.80810546875 1030.44970703125 1032.083984375 1026.98620605469 1036.67529296875 1041.49267578125 1047.447265625 1039.27258300781 1036.09326171875 1030.740234375 1019.98516845703 1024.99963378906 1015.87365722656 1004.01782226562 1007.64727783203 1013.69763183594 1022.13635253906 1019.67590332031 1015.67529296875 1026.1396484375 1030.56555175781 1024.6669921875 1013.91693115234 1017.98504638672 995.144958496094 994.121765136719 986.314453125 994.416381835938 994.760070800781 995.430908203125 993.713562011719 995.877685546875 990.950561523438 993.780334472656 999.978759765625
938.0107421875 941.259643554688 932.865234375 932.941040039062 931.486022949219 932.702514648438 938.983947753906 937.811889648438 940.908935546875 955.963439941406 968.290405273438 977.44970703125 971.329162597656 977.083557128906 985.310363769531 983.474365234375 983.663513183594 980.180480957031 986.478454589844 987.574584960938 981.290771484375 979.695007324219 970.320495605469 966.415161132812 969.647521972656 978.623229980469 971.333312988281 979.118896484375 973.599060058594 968.904235839844 974.406127929688 974.906066894531 975.529968261719 977.919189453125 983.053588867188 984.255249023438 986.651245117188 979.315795898438 978.994018554688 976.954345703125 991.034301757812 985.494506835938 993.928100585938 983.079040527344 981.317443847656 994.53759765625 1003.77319335938 1012.08605957031 1014.47644042969 1011.00067138672 1015.58068847656 1008.54620361328 997.717407226562 994.77001953125 993.861633300781 983.118835449219 975.497680664062 973.393859863281 978.616088867188 979.824462890625 975.363830566406 974.898864746094 966.031921386719 965.85986328125 980.215942382812 981.473388671875 983.1845703125 987.978820800781 982.634521484375 987.917419433594 985.61279296875 989.102661132812 988.416320800781 990.165222167969 996.524108886719 1001.73510742188 993.929321289062 987.643432617188 995.962158203125 989.413146972656 990.031860351562 998.430725097656 994.972106933594 999.703308105469 1004.79321289062 997.55322265625 983.653625488281 977.151550292969 980.07177734375 985.336547851562 983.152465820312 984.868896484375 984.255798339844 987.450622558594 987.5947265625 987.021545410156 1003.22930908203 1002.43817138672 1006.68200683594 1004.11975097656 999.515563964844 1000.57196044922 999.541870117188 1006.52593994141 1000.68725585938 1005.49572753906 1009.91448974609 1014.60296630859 1018.96026611328 1026.43579101562 1033.16625976562 1031.44201660156 1035.4306640625 1034.7763671875 1035.80810546875 1033.04077148438 1026.81896972656 1025.78063964844 1019.6884765625 1036.6171875 1034.71643066406 1038.52905273438 1021.06567382812 1028.09301757812 1022.12377929688 1016.73602294922 1017.58209228516 1005.23419189453 997.469665527344 1010.13012695312 1007.80023193359 1011.41784667969 1011.12530517578 1018.70733642578 1025.91943359375 1015.62707519531 1022.63140869141 1014.43115234375 1011.47924804688 1003.1572265625 1005.5595703125 993.172912597656 991.568298339844 990.491821289062 988.139953613281 992.95703125 988.744262695312 995.814208984375 1000.69262695312 1011.61791992188
935.803955078125 937.951416015625 934.588256835938 932.144104003906 930.159301757812 935.18896484375 944.984985351562 944.179870605469 953.651611328125 958.231384277344 972.002197265625 971.272399902344 971.79248046875 972.006591796875 975.112609863281 971.643615722656 979.027648925781 975.946716308594 979.324279785156 985.75830078125 986.813415527344 979.655151367188 974.964965820312 969.287902832031 972.199768066406 976.250244140625 982.106079101562 978.868957519531 971.768005371094 975.599243164062 985.360534667969 984.979064941406 977.13720703125 994.398193359375 986.886474609375 991.597473144531 981.753967285156 982.354736328125 979.764526367188 988.856994628906 987.380065917969 985.765319824219 998.769775390625 995.554382324219 994.36572265625 997.953186035156 1009.34210205078 1017.32440185547 1017.17163085938 1009.15386962891 1008.55322265625 1000.91674804688 1004.21087646484 1001.56091308594 994.054016113281 996.388000488281 982.571166992188 980.916809082031 984.876403808594 981.219360351562 981.238342285156 977.50732421875 973.675720214844 974.225036621094 982.12451171875 983.11474609375 979.779052734375 986.808349609375 982.006408691406 984.18701171875 994.850769042969 988.263427734375 992.407470703125 998.007507324219 1002.42974853516 997.696594238281 997.22900390625 998.726501464844 1000.90270996094 994.98583984375 996.164794921875 995.798278808594 1002.80499267578 1000.01043701172 1001.43298339844 1001.62823486328 993.368103027344 980.915466308594 992.997741699219 990.128112792969 982.908386230469 983.200439453125 975.547058105469 983.323791503906 984.679626464844 987.068786621094 998.743591308594 1000.14373779297 998.096618652344 998.786987304688 995.929016113281 998.363952636719 998.004272460938 998.973937988281 1008.84423828125 1005.77337646484 1007.43450927734 1012.80096435547 1017.81011962891 1028.130859375 1019.05462646484 1025.12109375 1033.74829101562 1038.50463867188 1040.58129882812 1039.32470703125 1036.70227050781 1025.97241210938 1018.00354003906 1018.81091308594 1032.27795410156 1024.64868164062 1020.57904052734 1022.14654541016 1031.05639648438 1019.66882324219 1012.65020751953 1008.69982910156 1000.76147460938 1007.04754638672 1002.92327880859 1005.7607421875 1006.74639892578 1017.54876708984 1012.82489013672 1018.92694091797 1011.16223144531 1006.49932861328 1000.25994873047 1005.92492675781 999.451538085938 986.224365234375 992.220642089844 998.4814453125 990.219177246094 977.975952148438 979.91162109375 1000.85003662109 1003.31585693359 1011.00756835938
942.549438476562 935.409484863281 941.211242675781 936.537231445312 937.265197753906 936.965148925781 935.247985839844 944.001159667969 954.8349609375 956.436462402344 970.001159667969 968.057434082031 970.390014648438 977.959289550781 988.031005859375 984.020385742188 981.35302734375 981.935363769531 984.982971191406 989.051879882812 987.70068359375 991.968811035156 985.397766113281 984.200439453125 971.665710449219 980.213562011719 978.438903808594 976.97705078125 974.913024902344 975.702331542969 990.559509277344 986.369384765625 984.181274414062 992.448852539062 984.330078125 989.953247070312 986.400268554688 985.688537597656 983.607727050781 990.729248046875 995.203002929688 995.100524902344 1008.47729492188 1007.38427734375 1002.12561035156 1006.90124511719 1015.83367919922 1017.80316162109 1017.994140625 1007.02252197266 1007.03173828125 1000.16705322266 988.185241699219 995.221801757812 989.980895996094 995.44384765625 989.965454101562 985.469970703125 980.522705078125 977.091064453125 981.588500976562 976.669677734375 971.67431640625 970.486572265625 977.218933105469 978.770751953125 971.665710449219 977.850524902344 978.636291503906 977.031127929688 990.803588867188 987.591247558594 989.223693847656 1003.15887451172 1001.22772216797 998.058837890625 996.531372070312 995.200744628906 991.719665527344 993.855529785156 994.014526367188 1007.02044677734 1005.12463378906 1002.39227294922 1000.78717041016 993.829040527344 996.64697265625 988.900207519531 988.667358398438 994.749694824219 986.565612792969 984.189392089844 982.209045410156 978.279113769531 986.822021484375 983.924621582031 995.475830078125 998.444702148438 1000.34588623047 1004.10223388672 1005.38580322266 1002.0029296875 1000.17462158203 1003.24475097656 1004.38018798828 1002.65454101562 1009.06066894531 1009.13470458984 1014.109375 1022.36071777344 1023.73229980469 1028.17016601562 1030.44897460938 1036.26416015625 1039.45068359375 1038.77819824219 1025.16528320312 1022.25012207031 1020.80798339844 1021.06732177734 1023.99237060547 1023.06646728516 1023.779296875 1024.80639648438 1027.91076660156 1016.49798583984 1019.22674560547 1014.27575683594 1001.65209960938 1007.62603759766 1003.58569335938 1003.68011474609 1004.05187988281 1015.01251220703 1015.08312988281 1010.76721191406 998.079895019531 1001.84271240234 992.869506835938 995.46630859375 997.800354003906 985.525024414062 984.366333007812 995.674987792969 996.371337890625 987.202331542969 978.131652832031 985.822204589844 995.45947265625 1001.85437011719
940.578918457031 943.960144042969 939.322570800781 929.575439453125 934.008483886719 933.664367675781 928.458435058594 933.885559082031 948.152893066406 962.912719726562 965.844360351562 968.435668945312 964.520385742188 971.346374511719 980.213562011719 981.245483398438 978.2919921875 976.729553222656 983.334533691406 986.325927734375 991.252868652344 994.057495117188 990.81005859375 991.656066894531 987.692504882812 980.736999511719 983.774353027344 983.544006347656 979.331726074219 975.041687011719 984.973571777344 990.640014648438 980.530822753906 983.257385253906 990.34033203125 995.232666015625 991.225280761719 980.092468261719 994.231567382812 1000.66662597656 1000.92974853516 1003.99151611328 1011.560546875 1008.4990234375 1010.23901367188 1015.92681884766 1017.43029785156 1018.79956054688 1017.68804931641 1016.39227294922 1012.16625976562 1000.90106201172 990.918273925781 982.178039550781 984.578430175781 983.182861328125 980.493713378906 975.031005859375 979.345153808594 974.134887695312 977.689453125 974.507202148438 974.243957519531 969.807250976562 978.443054199219 975.7265625 971.293701171875 979.346374511719 984.6748046875 976.817993164062 981.847778320312 995.246276855469 993.629943847656 996.20556640625 994.090087890625 998.076904296875 1011.24249267578 997.528869628906 1000.25927734375 994.592346191406 1000.70892333984 1009.16070556641 1004.41815185547 995.124633789062 998.3447265625 992.200805664062 986.985961914062 995.28564453125 998.191833496094 995.586120605469 987.366821289062 991.8544921875 990.880310058594 989.96044921875 995.067749023438 997.068420410156 991.14208984375 1000.74731445312 994.233276367188 1007.13592529297 1000.29467773438 1004.47839355469 1000.25079345703 1010.58807373047 1004.83929443359 1002.64038085938 1006.53833007812 1007.64733886719 1018.80133056641 1029.83764648438 1030.07739257812 1029.61560058594 1027.07495117188 1037.64538574219 1038.94775390625 1035.64074707031 1025.34716796875 1021.16467285156 1016.85620117188 1021.40264892578 1016.56787109375 1014.10534667969 1020.38641357422 1025.91528320312 1022.93524169922 1016.16381835938 1004.72259521484 1004.12542724609 994.458557128906 997.203308105469 994.741455078125 994.026306152344 1000.16394042969 1004.19085693359 1010.71618652344 1003.25433349609 1001.78643798828 1000.57843017578 990.370056152344 989.504577636719 989.808654785156 983.978210449219 980.537475585938 994.476623535156 992.476196289062 988.031066894531 977.316833496094 982.350646972656 992.208312988281 995.136840820312
944.508178710938 945.09033203125 941.405700683594 937.215576171875 935.075561523438 928.099609375 932.497680664062 938.271667480469 945.4560546875 960.53662109375 963.480834960938 961.110778808594 968.367797851562 965.575500488281 969.188354492188 977.080139160156 986.511169433594 970.258972167969 972.3408203125 976.99365234375 990.930297851562 994.857849121094 990.575500488281 992.144348144531 993.975219726562 985.198486328125 984.898315429688 984.315063476562 978.912719726562 971.227111816406 978.824096679688 989.53173828125 984.700866699219 985.942321777344 996.485229492188 991.689636230469 991.225830078125 982.036254882812 998.254699707031 998.584777832031 1005.34240722656 1008.97619628906 1012.99926757812 1008.02990722656 1015.52270507812 1020.60723876953 1015.3974609375 1011.47625732422 1018.16107177734 1014.08831787109 1008.57690429688 1010.77093505859 997.2880859375 998.445678710938 992.284912109375 989.6552734375 990.866271972656 987.245178222656 982.886840820312 972.493896484375 971.124389648438 981.167419433594 980.035888671875 979.118347167969 976.735046386719 972.872131347656 972.533935546875 972.524841308594 984.23974609375 975.616821289062 988.849426269531 983.805969238281 983.89892578125 985.045654296875 994.087097167969 996.8974609375 1002.02661132812 1001.80596923828 1005.18927001953 1008.63952636719 1007.13018798828 1011.90692138672 1002.10418701172 1001.83435058594 999.062866210938 990.936889648438 991.921081542969 995.70703125 996.023681640625 988.569458007812 991.409423828125 987.632934570312 987.150146484375 987.436828613281 996.342224121094 989.656433105469 1003.84729003906 1000.60571289062 1000.10565185547 1001.22186279297 1005.08093261719 1002.79284667969 1007.48712158203 1015.65447998047 1012.51110839844 1001.83728027344 1006.38977050781 1012.56127929688 1021.43859863281 1032.37158203125 1021.48040771484 1026.12182617188 1032.93200683594 1038.62475585938 1036.44555664062 1033.65307617188 1031.43566894531 1029.78454589844 1020.08203125 1016.29296875 1012.42041015625 998.049377441406 1014.84289550781 1019.05584716797 1018.369140625 1015.99108886719 1008.34405517578 1003.6376953125 996.9140625 998.223999023438 998.569030761719 995.555358886719 1000.56359863281 1009.26470947266 1007.13092041016 1004.71887207031 998.410888671875 1000.70452880859 992.793762207031 988.483215332031 991.185791015625 994.593627929688 989.057373046875 994.463562011719 988.533081054688 980.215270996094 978.358764648438 977.361755371094 981.629150390625 999.064025878906
947.895568847656 946.45166015625 938.432922363281 931.073303222656 930.884521484375 935.949096679688 942.134643554688 945.204162597656 957.935485839844 959.174682617188 957.135559082031 959.236633300781 964.537536621094 971.310546875 966.450317382812 971.220825195312 975.112487792969 973.465026855469 972.218444824219 980.776123046875 991.639099121094 988.989135742188 991.759826660156 991.459350585938 989.822937011719 979.821838378906 980.441528320312 984.778198242188 983.3720703125 985.281433105469 984.605895996094 976.576232910156 988.35791015625 984.021484375 985.365295410156 977.413146972656 984.266967773438 991.451049804688 998.272888183594 999.081359863281 998.073364257812 1005.54180908203 1018.06292724609 1011.16430664062 1016.7900390625 1005.99395751953 1004.17919921875 1004.56286621094 1016.03564453125 1013.36096191406 998.922607421875 1001.60583496094 997.307006835938 996.938110351562 997.72705078125 995.199340820312 996.469604492188 994.674560546875 983.481384277344 977.76171875 979.941650390625 981.086547851562 972.94091796875 985.086608886719 977.820068359375 978.313842773438 976.035766601562 978.249877929688 970.894165039062 989.531860351562 987.812316894531 984.284240722656 985.000244140625 993.981384277344 995.005493164062 1000.08221435547 1006.21398925781 1011.81829833984 1008.8701171875 1004.99005126953 1008.86358642578 1002.34771728516 1001.70574951172 1001.50158691406 999.473327636719 997.78271484375 996.351257324219 993.514831542969 994.134948730469 991.152404785156 996.349670410156 991.241821289062 989.344421386719 984.67236328125 997.963745117188 996.139343261719 1000.92999267578 997.515502929688 1003.58813476562 1007.56817626953 1009.04284667969 1011.64495849609 1007.96063232422 1009.62976074219 1008.05541992188 1002.63024902344 1011.38665771484 1015.65100097656 1019.13488769531 1023.23248291016 1025.62084960938 1026.72131347656 1021.85375976562 1037.25390625 1041.15502929688 1039.88745117188 1030.36413574219 1023.61553955078 1015.61303710938 1024.05895996094 1017.73162841797 1004.34692382812 1009.45349121094 1011.06872558594 1009.72125244141 1011.162109375 1007.88616943359 1001.81268310547 992.692321777344 995.328552246094 994.644165039062 990.881591796875 1001.2119140625 999.76220703125 1010.88348388672 1003.05364990234 1000.62768554688 997.743225097656 992.019348144531 991.601501464844 985.622619628906 984.912658691406 978.678771972656 987.477966308594 985.037780761719 983.528198242188 979.964050292969 980.434509277344 986.931213378906 995.48486328125
952.102722167969 942.88037109375 938.198852539062 938.050903320312 932.442016601562 938.919311523438 942.825256347656 943.406616210938 960.230834960938 962.045654296875 960.948608398438 968.629821777344 976.138122558594 973.057495117188 979.14306640625 978.148803710938 974.04443359375 977.874206542969 980.931030273438 977.090209960938 974.089294433594 983.926452636719 984.924621582031 991.270324707031 982.10546875 984.59765625 990.550415039062 982.267456054688 976.22802734375 982.680969238281 983.020141601562 987.334899902344 984.127136230469 983.478454589844 979.267211914062 986.329467773438 993.276123046875 995.641052246094 987.119079589844 985.383056640625 992.183837890625 1003.65832519531 1011.42620849609 1005.56811523438 1008.45831298828 1002.00628662109 996.005981445312 992.928833007812 1009.14227294922 1002.59289550781 993.35595703125 995.647827148438 993.962646484375 992.207336425781 1000.01293945312 992.968688964844 997.839172363281 1001.62414550781 991.432739257812 985.577087402344 986.732788085938 981.514465332031 978.380065917969 975.205322265625 983.820922851562 986.754211425781 987.334533691406 977.884765625 978.039428710938 977.646179199219 984.040893554688 982.992553710938 992.156982421875 1000.96423339844 998.640075683594 993.178405761719 1004.16473388672 1007.65991210938 1003.47845458984 1005.70513916016 1024.69580078125 1015.33471679688 1002.42144775391 1003.78503417969 1002.873046875 1009.52972412109 1004.19061279297 995.660766601562 991.423034667969 995.106506347656 1007.60687255859 996.827697753906 988.91943359375 988.052734375 994.397338867188 998.067504882812 997.865478515625 1000.28771972656 1005.95080566406 1000.04693603516 1005.92877197266 1002.95434570312 1004.53637695312 1004.56982421875 1007.08648681641 1011.52807617188 1011.55975341797 1018.93463134766 1017.05163574219 1027.49890136719 1027.552734375 1027.84094238281 1034.23217773438 1030.48205566406 1035.83898925781 1041.68432617188 1039.11267089844 1026.97033691406 1025.66943359375 1030.25439453125 1020.36041259766 1010.85717773438 1004.24639892578 999.831359863281 1007.62371826172 1003.75689697266 1010.15747070312 1000.36706542969 1007.01275634766 1003.12683105469 998.708740234375 996.476379394531 1000.978515625 1006.33856201172 1011.38873291016 1011.69964599609 998.5048828125 990.198913574219 998.453063964844 993.923706054688 984.056579589844 986.596069335938 980.852905273438 977.859191894531 983.218566894531 971.756713867188 976.405578613281 977.197937011719 985.402893066406 993.364379882812
957.382446289062 947.891052246094 939.819213867188 930.697692871094 935.51806640625 933.563232421875 939.530517578125 943.891845703125 955.221313476562 960.693176269531 968.633483886719 973.683654785156 974.392883300781 973.953796386719 979.387023925781 977.125793457031 976.129028320312 971.025146484375 974.033142089844 971.711669921875 973.867797851562 974.842895507812 979.741027832031 976.562927246094 986.306640625 986.327392578125 983.708068847656 981.441467285156 981.82568359375 977.799194335938 982.8955078125 985.98974609375 985.918518066406 989.992980957031 982.202819824219 982.715026855469 989.855346679688 989.369995117188 977.545104980469 984.960205078125 991.012878417969 1002.91058349609 997.016906738281 1004.56170654297 1009.51531982422 997.779968261719 988.570007324219 990.927917480469 998.982971191406 986.491271972656 986.598510742188 988.226440429688 983.294860839844 992.37255859375 1000.58648681641 988.877502441406 997.418884277344 999.589660644531 997.417846679688 990.856018066406 985.731262207031 985.074951171875 973.491821289062 974.2578125 982.055786132812 987.767761230469 978.909240722656 978.042297363281 976.601257324219 978.166687011719 979.798645019531 989.264892578125 988.82958984375 989.013854980469 997.124328613281 993.964904785156 995.062438964844 1002.99279785156 1002.74554443359 1015.29620361328 1016.91326904297 1015.81158447266 1012.80383300781 1011.27972412109 1009.72497558594 1006.64154052734 1000.07995605469 997.457458496094 989.562255859375 996.212707519531 1008.77905273438 1003.28125 1001.76593017578 990.924194335938 984.385986328125 991.7763671875 1000.57366943359 1000.19140625 999.624145507812 1004.58032226562 1003.03350830078 1007.55395507812 998.472961425781 1005.84820556641 1006.46246337891 1014.64489746094 1008.58660888672 1013.47790527344 1025.26281738281 1033.34350585938 1040.48095703125 1042.18176269531 1042.3984375 1041.90673828125 1039.07177734375 1047.23999023438 1039.89916992188 1040.44079589844 1040.1171875 1037.37268066406 1029.04113769531 1015.72302246094 998.562072753906 993.87060546875 988.674072265625 991.312744140625 997.926574707031 998.043151855469 1001.62103271484 1005.62652587891 995.663635253906 990.842102050781 1005.41925048828 1004.94281005859 998.572998046875 1003.32501220703 999.718444824219 997.448120117188 995.6181640625 989.652221679688 988.414916992188 973.940673828125 968.834228515625 969.534362792969 980.194091796875 976.16748046875 979.867004394531 985.720886230469 985.914855957031 983.840515136719
954.368469238281 942.493896484375 951.84375 943.441833496094 940.189147949219 934.611022949219 939.57763671875 948.236145019531 954.915710449219 957.476928710938 964.375610351562 968.859558105469 967.494018554688 965.3056640625 969.424499511719 966.548156738281 966.012145996094 964.024475097656 966.197082519531 973.785339355469 971.920593261719 979.304870605469 990.019104003906 978.21435546875 985.972351074219 984.011901855469 977.915222167969 973.130676269531 969.9658203125 977.769226074219 976.876342773438 982.02978515625 984.854125976562 982.610290527344 974.526916503906 981.168212890625 983.765869140625 986.269836425781 985.332885742188 978.69091796875 993.777954101562 988.576354980469 996.172912597656 1006.77270507812 1002.39703369141 997.928344726562 983.653503417969 989.554504394531 989.6396484375 987.113342285156 996.966857910156 990.821105957031 990.557067871094 993.688415527344 988.072265625 997.143798828125 996.719177246094 990.2236328125 992.158325195312 985.873168945312 987.880981445312 985.738037109375 982.744323730469 984.139587402344 976.520446777344 978.200500488281 978.154357910156 979.321350097656 984.580139160156 975.901062011719 982.465393066406 987.287414550781 980.281433105469 986.23291015625 992.618896484375 996.490844726562 993.103393554688 1001.73052978516 1002.22235107422 1006.63232421875 1008.37420654297 1014.71008300781 1011.89312744141 1010.72277832031 1012.79913330078 1002.24896240234 1001.61657714844 994.529907226562 989.9091796875 1003.32867431641 997.592651367188 1001.00244140625 995.494689941406 987.041625976562 992.446533203125 1004.12561035156 995.995178222656 1002.16107177734 1003.021484375 1004.40350341797 1005.11645507812 1004.66198730469 998.666015625 1005.35528564453 1009.97338867188 1021.29888916016 1014.51574707031 1021.58795166016 1026.76086425781 1029.17895507812 1051.79028320312 1056.60559082031 1054.82250976562 1045.84509277344 1046.03588867188 1047.16125488281 1049.21350097656 1056.02819824219 1051.69921875 1051.44396972656 1046.44665527344 1022.77056884766 1001.15057373047 998.665466308594 984.398620605469 987.079345703125 987.226440429688 989.960510253906 992.419677734375 999.471984863281 991.260131835938 990.305786132812 997.062255859375 995.450988769531 992.514465332031 994.884643554688 995.264831542969 996.049194335938 990.197631835938 985.551452636719 984.13720703125 970.106567382812 970.178527832031 971.626831054688 973.402770996094 983.564636230469 977.319396972656 978.504638671875 985.773376464844 983.618225097656
953.311645507812 948.338623046875 948.955078125 944.958129882812 939.010192871094 941.816284179688 937.883850097656 946.27587890625 948.667846679688 957.197631835938 952.26318359375 961.716430664062 956.755432128906 960.886535644531 964.832702636719 963.833557128906 965.421752929688 960.577697753906 966.801818847656 969.420837402344 971.119079589844 965.1123046875 959.988708496094 969.348937988281 973.969055175781 971.667663574219 969.065124511719 963.22509765625 973.210693359375 973.548461914062 962.589416503906 985.804321289062 983.410522460938 986.576049804688 981.264404296875 988.210571289062 983.296142578125 978.576904296875 979.532958984375 982.57666015625 997.579467773438 998.223510742188 993.975891113281 996.685241699219 994.574523925781 985.784118652344 983.822875976562 981.537231445312 987.162414550781 992.94873046875 998.638977050781 994.745971679688 999.578918457031 1003.10180664062 998.717468261719 995.384643554688 991.414306640625 987.457092285156 989.650939941406 989.78173828125 988.178649902344 985.063049316406 983.099731445312 983.398193359375 979.145324707031 980.312622070312 976.428833007812 975.459167480469 980.549560546875 988.327575683594 994.008544921875 988.808715820312 984.9013671875 986.121154785156 989.511596679688 991.001770019531 1000.88366699219 997.518127441406 994.013610839844 1004.13983154297 1008.58642578125 1014.11291503906 1011.84790039062 1015.46069335938 1015.98376464844 1002.37524414062 1002.74475097656 995.521179199219 992.998657226562 993.557922363281 996.8876953125 994.376586914062 997.438415527344 992.993530273438 994.917358398438 1004.93072509766 999.312744140625 999.848266601562 1000.86755371094 1007.38958740234 1005.01495361328 1008.13806152344 1003.23565673828 1006.51495361328 1014.95715332031 1019.67205810547 1018.19873046875 1028.10778808594 1032.00427246094 1035.05908203125 1050.61926269531 1060.18786621094 1057.40100097656 1064.56762695312 1058.1494140625 1057.61474609375 1051.95385742188 1054.2529296875 1058.10363769531 1056.39135742188 1047.43212890625 1022.20642089844 1009.08673095703 1001.54742431641 998.239624023438 980.096984863281 983.6005859375 984.642883300781 988.521057128906 987.965698242188 991.261657714844 993.122619628906 1000.55731201172 1000.21282958984 998.034545898438 996.985046386719 995.893310546875 998.571594238281 988.108154296875 980.5146484375 976.845153808594 975.609741210938 965.833251953125 968.517761230469 977.153991699219 971.229614257812 967.784606933594 981.970275878906 976.412231445312 971.263671875
960.411437988281 949.155334472656 948.307373046875 948.564636230469 939.041748046875 935.954223632812 943.235229492188 947.256103515625 946.026550292969 949.05078125 947.595397949219 943.750732421875 946.557800292969 949.745544433594 952.413269042969 957.747375488281 961.074340820312 957.370178222656 962.232727050781 956.475952148438 959.225524902344 958.748962402344 959.655334472656 965.967102050781 960.803466796875 953.967956542969 957.642883300781 957.351257324219 969.351684570312 962.561828613281 971.800354003906 983.461486816406 984.512878417969 987.09716796875 989.933776855469 985.840698242188 979.641418457031 981.272399902344 981.259582519531 983.504943847656 993.121948242188 996.700134277344 991.942810058594 995.927429199219 988.033996582031 982.391052246094 982.751770019531 984.544250488281 984.879455566406 981.647766113281 988.912719726562 990.752014160156 997.710510253906 998.873352050781 1001.27740478516 1002.07824707031 995.521850585938 993.522888183594 983.486877441406 989.178344726562 988.876953125 980.171508789062 982.57666015625 987.641479492188 982.30859375 987.704650878906 989.623107910156 985.6083984375 980.080200195312 988.251525878906 998.512756347656 991.200317382812 987.589904785156 985.220336914062 993.417236328125 986.700134277344 998.810363769531 997.835388183594 995.467590332031 998.470764160156 993.461242675781 999.104187011719 1003.91180419922 1014.74029541016 1005.45056152344 998.984619140625 1002.75793457031 997.111389160156 996.631042480469 1001.61627197266 995.970458984375 992.331237792969 994.112365722656 1000.49816894531 996.042236328125 1002.90393066406 1000.62658691406 1002.833984375 1006.91284179688 1011.45562744141 1002.61657714844 1011.77954101562 1003.60687255859 1003.59234619141 1001.16607666016 1015.4912109375 1018.353515625 1023.63629150391 1034.7939453125 1043.212890625 1052.21264648438 1062.85375976562 1067.19506835938 1070.88989257812 1061.97839355469 1052.02416992188 1048.68786621094 1052.58020019531 1059.44262695312 1057.77514648438 1045.30749511719 1026.18493652344 1010.08471679688 998.560119628906 992.592834472656 981.860778808594 976.059326171875 982.653930664062 985.251892089844 981.884338378906 988.521362304688 993.923645019531 987.468566894531 996.579956054688 995.283874511719 988.963989257812 993.699340820312 996.833251953125 983.038696289062 978.398010253906 977.8046875 976.255737304688 972.825561523438 968.415832519531 972.469421386719 973.034301757812 965.677734375 976.723266601562 985.755920410156 976.772888183594
968.096069335938 957.01123046875 955.695373535156 964.417541503906 949.550842285156 942.630126953125 948.936950683594 946.323974609375 937.194458007812 935.01123046875 934.267700195312 930.296447753906 943.756225585938 942.879760742188 946.084411621094 947.708190917969 960.004455566406 960.507080078125 960.027770996094 968.034484863281 960.845825195312 953.911315917969 951.00927734375 956.151550292969 959.086486816406 955.868225097656 950.040893554688 951.3017578125 951.809753417969 949.91748046875 974.412353515625 976.698303222656 978.909423828125 980.25048828125 981.847045898438 980.630554199219 979.185241699219 978.164489746094 982.200927734375 979.624328613281 989.173461914062 987.842956542969 989.564025878906 990.623962402344 994.4912109375 990.474548339844 993.595520019531 985.91650390625 982.892028808594 982.653564453125 988.453186035156 998.51123046875 994.64599609375 1002.59875488281 1000.134765625 995.792663574219 1001.41784667969 992.996887207031 986.718933105469 990.618041992188 988.434692382812 982.142944335938 987.1015625 987.364379882812 990.609313964844 990.685546875 986.950073242188 985.379943847656 983.4150390625 987.270202636719 991.135986328125 989.797912597656 993.38916015625 992.117736816406 992.114074707031 991.361022949219 989.419250488281 987.765869140625 989.009704589844 994.515563964844 996.815246582031 997.157165527344 998.751037597656 1000.83825683594 1000.43841552734 1001.04010009766 999.574645996094 1000.91961669922 1002.88598632812 999.751831054688 1003.28521728516 996.541687011719 999.774291992188 995.057556152344 1001.89624023438 1006.87243652344 1004.0087890625 1009.25952148438 1008.31976318359 1008.14807128906 1007.91949462891 1013.26110839844 1013.72613525391 1013.90045166016 1008.81243896484 1015.5654296875 1018.25140380859 1029.53588867188 1037.03405761719 1052.43225097656 1054.38403320312 1059.20825195312 1067.00439453125 1072.73486328125 1061.92138671875 1048.9501953125 1050.54235839844 1051.93139648438 1048.01904296875 1046.45861816406 1043.86791992188 1030.98547363281 1012.69213867188 1011.28430175781 993.004577636719 989.885498046875 986.072265625 983.716125488281 983.505493164062 978.732666015625 984.249633789062 988.13232421875 987.747619628906 989.982299804688 998.221313476562 991.406188964844 992.127197265625 987.579650878906 974.878967285156 970.383239746094 980.231323242188 975.025939941406 977.582580566406 972.402526855469 969.124206542969 973.5673828125 981.475524902344 978.860290527344 977.492858886719 971.281066894531
966.996459960938 970.066467285156 966.634094238281 970.218322753906 957.215515136719 951.129455566406 951.877258300781 943.076110839844 931.229919433594 928.736083984375 928.177612304688 936.71826171875 937.474182128906 946.074462890625 938.3076171875 946.591430664062 949.675720214844 956.306457519531 962.719116210938 959.508911132812 967.01513671875 953.156555175781 947.355346679688 954.557556152344 959.6396484375 954.837707519531 959.9130859375 958.227966308594 963.947082519531 959.566345214844 952.386840820312 966.970458984375 968.295837402344 970.269226074219 974.136657714844 976.982604980469 973.2041015625 976.505615234375 974.840454101562 974.905578613281 989.137573242188 990.072509765625 986.8056640625 991.032409667969 995.748779296875 995.270385742188 993.561279296875 990.933776855469 976.360229492188 983.768859863281 996.82958984375 1001.56353759766 997.659729003906 1002.75079345703 997.598937988281 991.711975097656 989.324462890625 999.024597167969 999.504577636719 992.125366210938 985.568054199219 980.916564941406 987.620178222656 998.81591796875 991.51611328125 988.711547851562 984.207946777344 989.215759277344 986.354797363281 996.324096679688 992.463073730469 998.626831054688 995.53271484375 996.024291992188 996.285705566406 994.879638671875 985.009216308594 990.650451660156 989.247985839844 995.435119628906 988.341979980469 998.7919921875 1008.974609375 998.160400390625 1000.64172363281 1005.38714599609 1009.41333007812 1008.45678710938 1009.92993164062 1012.75262451172 997.978515625 1000.40521240234 995.778869628906 999.658813476562 1004.6689453125 1008.76794433594 1011.66613769531 1004.75775146484 1012.59857177734 1011.24975585938 1011.75866699219 1011.01068115234 1019.78051757812 1013.45062255859 1015.85009765625 1019.72998046875 1025.39343261719 1035.27770996094 1044.14331054688 1045.82263183594 1057.4794921875 1064.92541503906 1065.24389648438 1069.89428710938 1066.12145996094 1055.52111816406 1062.931640625 1056.58618164062 1063.1748046875 1059.66711425781 1046.71716308594 1027.60144042969 1017.68493652344 1011.51000976562 1005.55975341797 995.101806640625 990.930541992188 985.665771484375 985.660705566406 988.865844726562 978.427795410156 987.375122070312 981.511840820312 977.494995117188 986.472717285156 983.218688964844 991.386657714844 977.147094726562 971.213928222656 969.143798828125 979.938415527344 979.718872070312 981.581420898438 976.011474609375 971.715881347656 975.313293457031 982.1240234375 978.294677734375 974.298583984375 971.382568359375
962.04638671875 958.267944335938 963.162353515625 964.99853515625 972.051879882812 960.084655761719 957.484008789062 943.813842773438 940.377197265625 932.590393066406 937.101684570312 937.097229003906 937.309997558594 936.807678222656 942.752746582031 950.316101074219 944.304504394531 956.452880859375 963.206420898438 961.751281738281 961.684265136719 957.15869140625 957.446960449219 963.982543945312 960.832092285156 969.130004882812 965.142272949219 964.214538574219 960.257385253906 963.725524902344 962.874755859375 965.529357910156 970.272277832031 962.238525390625 977.633911132812 976.898742675781 976.534606933594 965.470275878906 971.079040527344 972.247497558594 982.745849609375 988.514526367188 985.597778320312 984.891052246094 988.268493652344 992.386413574219 990.583862304688 1000.64727783203 986.68505859375 988.784790039062 992.569213867188 1003.46295166016 999.669799804688 992.304077148438 998.769958496094 997.374145507812 999.03564453125 996.243103027344 994.556762695312 992.499450683594 991.1083984375 982.726867675781 990.730407714844 995.046203613281 988.195922851562 995.513671875 987.942077636719 992.265991210938 994.034545898438 997.458618164062 996.666320800781 992.469177246094 992.906311035156 986.743225097656 992.16015625 995.226928710938 981.682922363281 990.677612304688 985.795654296875 993.755004882812 995.347351074219 1005.50366210938 1008.49932861328 998.363464355469 1009.87213134766 1011.21411132812 1014.16003417969 1015.02770996094 1007.47845458984 1008.23004150391 1004.59075927734 1001.34906005859 1001.11254882812 994.829650878906 997.017150878906 1002.92236328125 1005.63916015625 1011.712890625 1015.76330566406 1018.02947998047 1020.25134277344 1015.40240478516 1019.0068359375 1023.03363037109 1020.25244140625 1031.12683105469 1031.93371582031 1034.33984375 1037.80517578125 1054.17150878906 1066.42504882812 1065.85278320312 1064.53601074219 1063.86889648438 1063.53063964844 1065.642578125 1068.71606445312 1066.59216308594 1057.53234863281 1049.375 1041.96350097656 1036.03991699219 1028.99755859375 1012.59362792969 1011.49298095703 1009.69714355469 991.487670898438 995.935852050781 985.526245117188 982.336853027344 982.859069824219 978.808715820312 984.403076171875 987.498229980469 981.760375976562 984.248657226562 976.979248046875 974.789123535156 965.514221191406 966.113159179688 967.708740234375 978.514831542969 983.83935546875 977.281433105469 972.712158203125 972.548156738281 967.762390136719 965.756225585938 971.028930664062 976.698181152344
968.197631835938 961.051147460938 962.906494140625 965.640380859375 963.401916503906 959.465698242188 947.349243164062 937.648193359375 935.272644042969 938.290832519531 950.227905273438 945.334045410156 941.461364746094 951.708618164062 951.163940429688 945.494445800781 960.349914550781 963.884765625 961.867126464844 961.476196289062 956.231689453125 956.871520996094 960.203735351562 962.021423339844 969.845581054688 969.684204101562 960.258239746094 956.861389160156 966.470886230469 966.09375 962.860229492188 960.718627929688 961.347229003906 967.197082519531 968.688659667969 968.726440429688 966.909912109375 960.218322753906 967.688659667969 970.772827148438 979.759033203125 989.810241699219 973.522888183594 978.049011230469 986.574401855469 987.24609375 991.416076660156 1004.04656982422 998.682800292969 988.091491699219 985.335693359375 997.469848632812 1004.10174560547 1003.63909912109 1004.56109619141 1001.58569335938 1004.50445556641 1004.20306396484 999.656677246094 991.5185546875 994.439147949219 997.897277832031 998.115844726562 1001.49206542969 997.593444824219 1000.92681884766 1000.98315429688 996.975769042969 992.847412109375 999.372802734375 995.279602050781 994.173278808594 992.189697265625 991.60400390625 993.068786621094 985.498718261719 987.724914550781 997.333190917969 993.499938964844 994.188598632812 990.896728515625 993.237915039062 997.466125488281 996.509948730469 999.468933105469 1018.32708740234 1011.75958251953 1015.27429199219 1013.23577880859 1000.90338134766 1003.43914794922 998.63525390625 996.493896484375 995.328125 1000.77111816406 1007.09222412109 1013.34625244141 1007.56341552734 1018.55004882812 1015.08679199219 1029.546875 1025.42663574219 1025.31335449219 1020.712890625 1020.595703125 1024.67138671875 1036.12255859375 1040.48474121094 1037.96484375 1048.583984375 1054.6416015625 1056.07836914062 1063.69812011719 1066.81481933594 1059.47033691406 1064.14086914062 1061.58129882812 1061.21752929688 1057.92785644531 1049.70056152344 1043.71276855469 1041.60388183594 1025.64013671875 1021.49096679688 1011.71209716797 1006.46075439453 997.610107421875 992.933654785156 982.143127441406 987.955871582031 982.319946289062 977.916625976562 986.338439941406 987.988342285156 985.396728515625 977.785766601562 965.28173828125 967.16650390625 965.766906738281 971.06689453125 967.424438476562 975.128234863281 972.393005371094 976.022155761719 977.543273925781 971.670227050781 973.690246582031 973.446960449219 971.437927246094 984.627197265625
954.37060546875 959.427490234375 961.160217285156 962.5478515625 956.938781738281 948.35302734375 946.67578125 943.087219238281 938.858459472656 944.287292480469 945.112426757812 942.675903320312 952.817504882812 954.113342285156 953.746826171875 954.657653808594 966.802429199219 965.151123046875 973.608520507812 953.187866210938 959.66552734375 961.13916015625 961.843505859375 960.375 964.101684570312 960.787353515625 958.540344238281 968.071594238281 968.012390136719 969.1171875 974.864379882812 968.32421875 968.156005859375 965.716552734375 967.183959960938 970.980407714844 967.382629394531 965.767517089844 963.474365234375 970.723327636719 978.882385253906 972.535583496094 975.168273925781 978.958251953125 974.032531738281 983.377014160156 989.293762207031 987.596252441406 979.05078125 979.873962402344 988.657592773438 998.567810058594 998.955383300781 1010.10699462891 1011.45965576172 1005.52551269531 1007.94067382812 1008.20733642578 1003.99768066406 1002.33978271484 993.854736328125 1007.13916015625 1001.75201416016 1003.12310791016 992.606811523438 998.833251953125 999.457092285156 991.207641601562 997.039916992188 994.712707519531 995.840759277344 990.481262207031 986.553283691406 990.1650390625 991.310119628906 991.353393554688 989.950073242188 1004.56591796875 1000.79510498047 991.6376953125 986.121887207031 988.44482421875 998.663635253906 996.780151367188 998.047302246094 1009.11364746094 1010.16656494141 1008.47351074219 1017.3974609375 1010.14538574219 1006.73736572266 1007.00042724609 1002.97003173828 1000.01879882812 999.652038574219 999.475158691406 1000.45910644531 1007.11578369141 1015.26025390625 1020.42547607422 1030.86279296875 1024.02941894531 1026.76354980469 1018.48803710938 1021.89642333984 1020.90313720703 1036.83178710938 1034.87036132812 1036.53479003906 1047.85949707031 1049.12243652344 1054.57849121094 1054.14660644531 1060.57629394531 1048.6923828125 1058.44567871094 1068.87329101562 1061.86499023438 1053.64965820312 1056.78662109375 1050.73669433594 1044.94421386719 1027.62268066406 1026.07653808594 1020.51544189453 1002.24530029297 994.9169921875 993.127258300781 981.179016113281 979.264831542969 976.454772949219 976.479370117188 980.921447753906 982.501831054688 980.315490722656 982.421081542969 967.658935546875 966.858825683594 966.991577148438 960.757507324219 957.028076171875 964.596496582031 967.42578125 972.634399414062 979.475769042969 973.592956542969 982.591247558594 982.972106933594 978.247619628906 972.742492675781
967.408325195312 964.506103515625 960.596313476562 958.953552246094 958.60107421875 952.816101074219 947.90966796875 950.40625 947.318725585938 953.673034667969 950.226867675781 950.672241210938 954.377014160156 960.450317382812 960.596496582031 971.884582519531 979.7529296875 976.029907226562 979.899353027344 974.451477050781 970.847106933594 971.24560546875 972.871948242188 963.095581054688 962.908813476562 961.867492675781 960.748168945312 963.501342773438 971.394165039062 975.847534179688 969.091003417969 968.448181152344 975.623229980469 969.8974609375 968.389282226562 967.548278808594 967.578491210938 971.482482910156 965.424621582031 971.503234863281 981.652587890625 978.703796386719 966.984130859375 969.450927734375 970.637145996094 972.568115234375 982.064208984375 981.915466308594 976.154541015625 978.737976074219 989.651672363281 999.419189453125 1002.33758544922 1010.36322021484 1015.35607910156 1009.36016845703 1008.36358642578 1012.61059570312 1016.30902099609 1015.88201904297 998.325805664062 1009.44512939453 1012.81915283203 1009.64849853516 997.131591796875 999.237487792969 1003.12860107422 999.16552734375 995.670776367188 991.698547363281 988.316284179688 989.726196289062 986.004211425781 991.808532714844 991.000854492188 994.615600585938 998.483581542969 1005.57934570312 995.600219726562 991.740539550781 986.209228515625 987.763366699219 996.945495605469 997.149230957031 999.851379394531 1006.89404296875 1008.16760253906 1001.4833984375 1006.51068115234 1018.62689208984 1010.56921386719 1016.70031738281 1006.75109863281 993.863647460938 1005.43292236328 1008.22515869141 1009.43133544922 1008.17913818359 1024.33166503906 1025.0185546875 1024.96618652344 1015.68243408203 1022.35260009766 1021.10437011719 1021.47790527344 1029.27429199219 1029.7080078125 1030.21948242188 1023.38500976562 1038.33825683594 1043.44360351562 1048.25988769531 1056.20739746094 1054.54846191406 1054.73486328125 1055.1494140625 1053.18176269531 1063.875 1049.81359863281 1051.93774414062 1046.38537597656 1045.595703125 1034.19934082031 1028.81909179688 1026.40454101562 1014.0390625 1011.98486328125 1000.99542236328 987.937622070312 986.147583007812 975.062255859375 973.783752441406 975.472290039062 979.097106933594 984.078369140625 978.88818359375 981.963623046875 969.10693359375 959.5478515625 961.415893554688 961.43310546875 963.342651367188 963.867126464844 965.006958007812 968.578674316406 978.235107421875 976.632263183594 984.454772949219 977.935668945312 966.923156738281
