NCOLS 150
NROWS 37
XLLCORNER 7394249
YLLCORNER 4843619
CELLSIZE 30
NODATA_VALUE -9999
1002.50891113281 999.180053710938 1001.92926025391 987.470764160156 989.940856933594 996.824951171875 1002.12866210938 991.185485839844 997.1416015625 997.600219726562 991.3056640625 988.811950683594 981.803588867188 985.128723144531 992.713073730469 994.497619628906 1004.65289306641 1017.39660644531 1017.76287841797 1011.67938232422 1012.02252197266 1015.87805175781 1016.72467041016 1017.95709228516 1013.25671386719 1011.86645507812 1011.71820068359 1006.740234375 1002.59973144531 999.450012207031 1008.06060791016 1015.75134277344 1017.08325195312 1013.81695556641 1018.05572509766 1024.29260253906 1028.49450683594 1031.50402832031 1029.90893554688 1024.8408203125 1016.47094726562 1017.18792724609 1012.96917724609 1020.41027832031 1008.66320800781 1006.89337158203 998.925109863281 993.192993164062 1001.68426513672 1002.82318115234 1009.83862304688 1011.23834228516 1009.05926513672 1002.75451660156 1013.77984619141 1013.90576171875 1015.41650390625 1013.78332519531 1002.41467285156 994.848999023438 988.457336425781 976.707946777344 983.016540527344 982.31982421875 971.854064941406 963.876708984375 961.259765625 958.03955078125 950.601379394531 955.926208496094 960.289855957031 965.398498535156 977.018798828125 974.340698242188 986.924865722656 1002.95550537109 1010.63513183594 1022.70538330078 1029.85131835938 1027.26574707031 1032.21765136719 1036.69604492188 1018.11505126953 1019.23333740234 1013.63525390625 1004.115234375 994.539733886719 975.4755859375 965.154174804688 945.925842285156 935.558654785156 931.168823242188 936.619323730469 929.598083496094 926.904663085938 929.345703125 919.711181640625 910.050476074219 915.938354492188 920.673400878906 920.418334960938 918.935546875 910.735107421875 904.483947753906 913.910522460938 929.038024902344 928.589477539062 923.415283203125 921.075439453125 902.797180175781 905.940551757812 914.074340820312 912.825988769531 916.106567382812 917.641296386719 908.538696289062 905.434143066406 916.861633300781 913.363708496094 905.449890136719 922.5771484375 926.34912109375 939.550048828125 948.215698242188 959.3017578125 973.569091796875 976.390930175781 985.368713378906 988.201232910156 985.871459960938 990.036560058594 1002.33441162109 1022.92614746094 1031.72448730469 1044.43981933594 1056.12927246094 1071.82775878906 1084.8251953125 1100.81274414062 1120.4248046875 1130.19848632812 1137.45751953125 1144.64794921875 1134.70068359375 1138.57177734375 1119.8056640625 1128.22216796875 1133.01818847656 1125.01428222656 1110.27075195312
997.736145019531 991.790649414062 992.199340820312 987.676025390625 986.214233398438 992.279907226562 997.964477539062 1000.04290771484 997.82763671875 996.891174316406 994.960327148438 992.069519042969 986.11328125 988.451782226562 993.877624511719 999.095336914062 1005.61151123047 1009.37829589844 1004.72839355469 996.313415527344 1003.24890136719 1011.65386962891 1009.46997070312 1008.14691162109 1002.65655517578 1007.97229003906 1009.34716796875 1000.81207275391 997.478393554688 1001.02093505859 1010.85699462891 1021.61572265625 1022.08843994141 1021.68243408203 1019.35333251953 1027.36535644531 1035.64453125 1033.87622070312 1030.47607421875 1022.16394042969 1016.00506591797 1014.88848876953 1004.04992675781 1013.66473388672 1013.84167480469 1013.43359375 1003.87231445312 1002.29376220703 1004.37414550781 1007.78295898438 1015.12316894531 1012.23712158203 1008.92999267578 1002.46783447266 1009.78515625 1014.544921875 1018.19390869141 1016.86145019531 1005.70941162109 1006.18963623047 995.331970214844 992.558837890625 1001.06518554688 989.061401367188 985.578369140625 976.875610351562 972.048522949219 973.872375488281 962.563598632812 959.368408203125 964.810974121094 972.144348144531 977.845458984375 996.841369628906 1000.59002685547 1005.74505615234 1011.94091796875 1022.93792724609 1035.72192382812 1030.32043457031 1033.13989257812 1029.005859375 1026.14294433594 1023.79150390625 1019.13391113281 1012.34051513672 992.847473144531 976.483032226562 967.033752441406 956.176696777344 941.659912109375 941.424072265625 938.904052734375 930.239135742188 922.94091796875 926.426330566406 923.04443359375 913.036193847656 915.550354003906 927.641235351562 927.322998046875 918.842224121094 921.38818359375 921.381652832031 927.975463867188 930.970764160156 924.534362792969 930.145080566406 926.519836425781 917.672668457031 908.227966308594 911.118103027344 926.55419921875 925.859497070312 917.8330078125 905.426208496094 907.181518554688 921.541015625 916.484069824219 913.245910644531 921.74365234375 931.207397460938 945.938781738281 954.262145996094 969.599243164062 987.262634277344 989.4326171875 992.732727050781 989.672729492188 991.600219726562 998.50390625 1007.62170410156 1028.13684082031 1036.47351074219 1040.21447753906 1047.89978027344 1072.83447265625 1083.41284179688 1101.71350097656 1112.3486328125 1119.85266113281 1134.29040527344 1137.21459960938 1127.05798339844 1125.2412109375 1130.29357910156 1134.27062988281 1129.27770996094 1125.71179199219 1112.0693359375
995.850280761719 991.724182128906 995.826904296875 981.271240234375 982.840698242188 989.035461425781 993.425537109375 999.220153808594 994.433532714844 984.154296875 986.869079589844 984.925598144531 979.659851074219 977.877563476562 992.78759765625 997.091674804688 997.391723632812 1000.97607421875 998.515563964844 997.695617675781 996.844116210938 1007.67608642578 1005.04046630859 1002.96588134766 1002.88342285156 996.761962890625 1002.04901123047 997.263488769531 999.956176757812 999.951416015625 1012.75573730469 1027.55737304688 1023.14349365234 1022.25073242188 1025.12927246094 1025.65026855469 1029.28955078125 1032.43872070312 1023.95294189453 1011.31048583984 1009.12298583984 1012.56988525391 1011.35363769531 1011.03533935547 1011.26257324219 1014.2744140625 1006.70294189453 1008.59057617188 1009.95550537109 1015.12121582031 1017.55194091797 1011.26824951172 1010.92785644531 1009.3212890625 1003.91821289062 1008.85559082031 1012.28985595703 1009.32250976562 1006.08831787109 1008.84118652344 1007.77142333984 1012.97326660156 1004.94177246094 1003.72113037109 993.050415039062 989.209411621094 984.627075195312 976.444396972656 977.67822265625 972.462951660156 976.666870117188 977.783874511719 987.463562011719 996.448486328125 1005.25555419922 1013.35314941406 1021.13403320312 1022.67297363281 1040.935546875 1027.82580566406 1024.28698730469 1026.2392578125 1021.06506347656 1021.87951660156 1016.72601318359 1008.66693115234 989.896057128906 982.063354492188 978.327514648438 961.596008300781 949.275817871094 941.277221679688 946.440795898438 926.134582519531 923.008239746094 922.87890625 930.66552734375 932.031127929688 929.72802734375 936.770874023438 933.16064453125 936.987915039062 933.977905273438 927.366882324219 933.388366699219 929.267395019531 935.746276855469 939.913757324219 936.789855957031 923.805297851562 916.377868652344 923.018798828125 930.624145507812 922.408386230469 911.927978515625 908.205322265625 904.473388671875 913.389526367188 923.818176269531 926.605285644531 924.755493164062 935.419494628906 952.877014160156 964.598754882812 986.946655273438 989.714782714844 996.68603515625 1002.42437744141 1002.60015869141 1003.78204345703 1011.78411865234 1016.76904296875 1026.75805664062 1031.236328125 1040.28686523438 1054.80639648438 1065.00073242188 1085.24572753906 1102.01550292969 1114.19091796875 1109.1142578125 1119.56274414062 1125.08996582031 1128.60070800781 1122.73559570312 1130.169921875 1127.02490234375 1119.12451171875 1118.86657714844 1114.02209472656
982.387329101562 985.393371582031 986.760009765625 985.420227050781 983.545837402344 983.932800292969 987.927062988281 997.804626464844 991.843505859375 995.040649414062 989.122436523438 979.241333007812 977.168701171875 978.464294433594 991.421142578125 993.686462402344 993.966064453125 996.841857910156 999.514282226562 994.308166503906 998.605529785156 997.7431640625 1003.72607421875 996.290283203125 986.898803710938 998.072937011719 998.250244140625 994.999877929688 999.044067382812 1007.41485595703 1015.78747558594 1030.44970703125 1036.3427734375 1034.02783203125 1023.77484130859 1028.60705566406 1030.72253417969 1033.0400390625 1018.97528076172 1018.0390625 1007.50238037109 1004.37164306641 1009.43841552734 1006.38336181641 1016.72302246094 1021.45538330078 1018.00262451172 1011.30950927734 1008.83605957031 1009.50970458984 1006.62438964844 1013.78558349609 1005.14630126953 1003.96081542969 1000.10559082031 998.086853027344 1009.07830810547 1013.27825927734 1008.95684814453 1014.46343994141 1019.7880859375 1021.64752197266 1024.36791992188 1005.15167236328 999.457824707031 1000.6689453125 992.895385742188 984.338012695312 986.103149414062 986.435791015625 982.62158203125 989.542907714844 1003.50616455078 1006.07476806641 1011.95727539062 1018.71624755859 1029.4140625 1032.04711914062 1028.69104003906 1028.31298828125 1030.49682617188 1020.51397705078 1017.16900634766 1014.49542236328 1014.56018066406 1000.83380126953 989.835693359375 982.950378417969 978.035339355469 958.906372070312 951.231994628906 945.321716308594 942.0302734375 925.579956054688 924.302307128906 932.09716796875 936.033935546875 939.143859863281 942.742065429688 948.391174316406 945.029602050781 945.370849609375 944.174682617188 934.33740234375 941.4248046875 944.228515625 946.634460449219 946.924072265625 946.10595703125 936.573425292969 928.79541015625 935.113708496094 935.967529296875 924.435180664062 910.952941894531 907.9560546875 901.008178710938 912.19189453125 925.755004882812 936.43896484375 931.971801757812 942.042358398438 959.442138671875 967.4677734375 987.495422363281 990.368530273438 997.942749023438 999.789367675781 1007.34906005859 1022.07232666016 1017.07800292969 1022.19445800781 1027.255859375 1039.66333007812 1045.44189453125 1055.53857421875 1073.00476074219 1081.37133789062 1096.85107421875 1108.83569335938 1111.15454101562 1119.8876953125 1120.08337402344 1128.30810546875 1123.10791015625 1126.89733886719 1120.65954589844 1121.57861328125 1117.423828125 1115.26208496094
976.840698242188 987.089660644531 990.703186035156 988.621337890625 986.768371582031 991.811340332031 988.374206542969 996.644226074219 983.704833984375 978.264526367188 983.370788574219 980.806884765625 976.216613769531 985.171997070312 989.636291503906 994.30419921875 1000.38977050781 992.89111328125 993.495239257812 1000.62097167969 995.336547851562 993.966674804688 995.329223632812 993.424926757812 982.112121582031 989.141296386719 998.249572753906 996.824951171875 1008.71990966797 1013.28063964844 1021.19464111328 1035.30859375 1034.5234375 1037.34411621094 1035.26184082031 1033.43103027344 1029.3193359375 1030.93225097656 1026.89123535156 1028.20434570312 1034.44299316406 1019.84698486328 1010.11407470703 1015.9130859375 1014.93951416016 1020.49957275391 1020.77764892578 1022.88342285156 1014.53076171875 1013.14270019531 1010.43341064453 1005.24768066406 1000.06280517578 1006.45361328125 1005.90118408203 1006.63793945312 1011.36865234375 1012.71392822266 1014.07763671875 1012.41754150391 1015.86047363281 1020.61602783203 1025.06457519531 1011.77191162109 1002.87408447266 1010.01947021484 1003.13641357422 994.95947265625 996.242736816406 988.920776367188 993.564147949219 990.795104980469 1005.70977783203 1006.58697509766 1017.37164306641 1027.955078125 1030.556640625 1030.09741210938 1031.84533691406 1029.67651367188 1028.13000488281 1018.72113037109 1019.80523681641 1019.02294921875 1015.50561523438 1007.33050537109 992.190124511719 986.463073730469 974.624755859375 964.706237792969 950.127624511719 942.515625 930.798095703125 935.963623046875 936.185852050781 939.335815429688 944.729064941406 949.034851074219 954.544555664062 948.486755371094 949.486389160156 955.265686035156 951.962341308594 954.021606445312 947.948303222656 953.299926757812 953.825317382812 957.513305664062 948.962280273438 944.978637695312 947.348449707031 943.711608886719 930.178344726562 921.935668945312 905.150939941406 905.452575683594 899.110229492188 907.272155761719 922.840209960938 941.641174316406 947.050170898438 951.547668457031 963.560729980469 976.060974121094 986.950378417969 991.21630859375 997.407897949219 1001.05444335938 1014.78283691406 1018.37225341797 1022.34857177734 1031.26318359375 1035.13403320312 1038.27355957031 1037.27563476562 1053.25903320312 1079.08435058594 1082.63488769531 1084.78955078125 1088.76159667969 1098.30407714844 1104.17797851562 1105.35656738281 1109.04797363281 1118.30419921875 1122.58288574219 1120.66552734375 1120.86083984375 1120.36450195312 1113.13830566406
980.109130859375 983.528686523438 986.865051269531 981.108581542969 976.934143066406 993.819152832031 990.658508300781 991.424072265625 985.867431640625 980.401794433594 981.927062988281 980.347717285156 977.211242675781 987.338623046875 983.607116699219 996.768005371094 1002.61358642578 998.975341796875 985.854248046875 990.329711914062 999.286926269531 997.220703125 988.088623046875 980.836547851562 988.156127929688 994.704956054688 998.177978515625 1001.94104003906 1006.03985595703 1009.22583007812 1021.24377441406 1022.03118896484 1031.38159179688 1033.30078125 1045.89306640625 1041.22094726562 1030.67260742188 1042.73669433594 1037.63366699219 1044.03662109375 1039.80712890625 1032.15747070312 1019.33734130859 1018.21820068359 1024.31616210938 1024.8955078125 1028.37780761719 1023.69476318359 1015.42504882812 1016.11584472656 1009.2109375 1016.04443359375 1009.08843994141 1010.46838378906 1014.43841552734 1006.35614013672 1009.34692382812 1010.10357666016 1015.14904785156 1019.81988525391 1021.38677978516 1022.79071044922 1029.40710449219 1024.17590332031 1009.10870361328 1003.11883544922 1006.41656494141 1014.50366210938 1015.53625488281 1000.78582763672 990.897888183594 996.52978515625 1007.07452392578 1008.29058837891 1023.02386474609 1027.39135742188 1027.21875 1029.65100097656 1036.36279296875 1029.77172851562 1021.11846923828 1019.46636962891 1014.77087402344 1020.28302001953 1016.23797607422 1015.95574951172 997.832214355469 988.688598632812 970.396484375 959.163024902344 945.786682128906 942.51123046875 937.9580078125 944.302124023438 949.247192382812 951.322326660156 952.863464355469 957.593566894531 962.180541992188 953.456359863281 961.38232421875 961.9345703125 956.776672363281 961.610656738281 962.942199707031 957.018432617188 961.499084472656 962.042785644531 964.799133300781 962.212890625 957.325927734375 944.043762207031 935.151916503906 920.240234375 905.664733886719 913.770446777344 912.172546386719 914.409912109375 918.44482421875 928.599914550781 948.07373046875 953.000793457031 968.186767578125 973.376220703125 981.8955078125 1000.47399902344 998.984558105469 1011.98931884766 1013.78155517578 1026.8056640625 1027.32067871094 1037.54223632812 1046.52563476562 1045.11218261719 1044.97204589844 1054.93273925781 1070.31677246094 1084.72497558594 1081.45178222656 1087.79736328125 1092.81628417969 1107.03332519531 1099.25830078125 1099.22509765625 1102.10534667969 1111.4541015625 1124.14050292969 1116.44738769531 1118.95373535156 1115.92822265625
985.911254882812 985.691101074219 986.54345703125 983.657897949219 976.42041015625 976.787658691406 981.773986816406 987.53076171875 986.34033203125 973.895812988281 972.955017089844 967.297729492188 978.428100585938 985.882873535156 985.031860351562 999.179931640625 994.682800292969 991.454528808594 987.015075683594 993.605895996094 994.450744628906 992.770629882812 993.041687011719 994.032409667969 998.438598632812 997.752868652344 1003.34625244141 1004.6416015625 1013.78570556641 1021.8134765625 1024.21533203125 1022.52087402344 1034.77282714844 1038.61401367188 1046.30395507812 1047.97644042969 1039.76733398438 1035.2001953125 1037.43090820312 1048.26306152344 1047.48132324219 1029.71813964844 1026.18798828125 1023.79876708984 1027.7373046875 1033.42639160156 1024.36572265625 1025.23254394531 1035.85241699219 1025.94372558594 1015.80523681641 1017.61907958984 1012.02740478516 1004.26678466797 1005.13818359375 1010.47937011719 1004.36456298828 1007.45031738281 1017.31433105469 1018.24859619141 1024.62390136719 1026.29064941406 1035.01477050781 1027.8232421875 1026.11267089844 1014.79333496094 1016.38110351562 1023.30560302734 1019.06176757812 1012.53625488281 1005.82263183594 1008.31555175781 1015.9755859375 1021.36993408203 1019.25915527344 1020.43835449219 1010.46325683594 1020.02368164062 1033.17932128906 1033.88037109375 1031.28735351562 1024.69519042969 1024.43774414062 1021.40063476562 1021.63525390625 1010.84063720703 998.712097167969 985.819152832031 973.977172851562 962.124328613281 953.372741699219 935.614074707031 935.816223144531 948.921752929688 950.662109375 953.788391113281 957.815368652344 967.898193359375 972.015441894531 965.963928222656 974.307495117188 964.668395996094 967.10400390625 975.168273925781 975.000305175781 969.354919433594 978.984741210938 974.920166015625 975.291748046875 964.155029296875 960.238220214844 948.220825195312 932.538024902344 920.474670410156 914.332214355469 909.814575195312 910.755493164062 910.753845214844 921.576477050781 929.345703125 943.280151367188 960.062744140625 972.693725585938 970.139343261719 991.024963378906 1000.9951171875 1007.63330078125 1014.20660400391 1019.50762939453 1021.46203613281 1028.91235351562 1030.74487304688 1046.75598144531 1049.46984863281 1050.45874023438 1056.83349609375 1067.78198242188 1089.11730957031 1086.78076171875 1091.00341796875 1095.13439941406 1107.93408203125 1095.73034667969 1098.66857910156 1103.31372070312 1103.55590820312 1116.64306640625 1112.32287597656 1116.86279296875 1116.29260253906
978.213928222656 978.082153320312 977.432067871094 973.989807128906 974.91796875 978.941528320312 989.089599609375 986.619506835938 990.515197753906 981.530334472656 979.573303222656 969.077270507812 974.897155761719 981.184875488281 977.063659667969 985.513427734375 981.572021484375 986.414611816406 986.150756835938 981.978942871094 984.741271972656 988.386169433594 991.957946777344 994.31298828125 991.39794921875 997.417236328125 1006.21459960938 1011.56005859375 1018.68908691406 1019.59185791016 1026.74621582031 1031.73815917969 1035.08056640625 1041.79443359375 1039.46215820312 1045.38342285156 1039.75646972656 1034.51599121094 1043.57421875 1046.82958984375 1039.22094726562 1034.93994140625 1035.04602050781 1030.99926757812 1026.10681152344 1021.80078125 1026.30615234375 1032.14294433594 1024.90441894531 1013.36151123047 1005.73175048828 1004.22113037109 1001.611328125 998.900817871094 1003.66357421875 1004.52990722656 1004.61511230469 1014.11828613281 1013.59100341797 1023.71118164062 1026.45239257812 1030.38891601562 1032.58984375 1022.57318115234 1022.20239257812 1030.73547363281 1019.7626953125 1021.55993652344 1020.64996337891 1021.09033203125 1015.63861083984 1008.24621582031 1008.32080078125 1017.47326660156 1024.06079101562 1016.4375 1007.29016113281 1014.58679199219 1020.26556396484 1028.35827636719 1024.24841308594 1016.19201660156 1025.14416503906 1030.10766601562 1030.64807128906 1013.58111572266 985.132934570312 980.494018554688 966.272338867188 966.759948730469 962.797485351562 944.664367675781 953.662719726562 950.576416015625 957.718444824219 962.31689453125 963.604553222656 972.492492675781 970.065734863281 974.621765136719 975.769287109375 975.916259765625 974.442016601562 981.722290039062 972.837585449219 978.627685546875 981.857543945312 980.601318359375 973.477233886719 973.553894042969 956.325439453125 955.73876953125 936.111755371094 921.456970214844 921.749816894531 910.731811523438 904.862487792969 911.216674804688 921.784973144531 927.620910644531 944.264343261719 956.74365234375 978.029724121094 986.176635742188 993.708251953125 1006.43890380859 1019.76599121094 1019.47619628906 1010.97265625 1019.31964111328 1030.00207519531 1033.93823242188 1045.50366210938 1050.25317382812 1051.47180175781 1051.13671875 1065.52783203125 1072.0107421875 1079.15698242188 1090.04638671875 1090.62890625 1101.88293457031 1103.58532714844 1105.0009765625 1105.11376953125 1105.82360839844 1108.97668457031 1115.12475585938 1111.68811035156 1101.72973632812
972.658203125 975.534057617188 971.883483886719 975.565551757812 973.578002929688 977.992797851562 979.669006347656 984.324096679688 987.438171386719 978.431213378906 977.750549316406 975.250549316406 979.283386230469 965.646240234375 963.171447753906 975.471496582031 978.300903320312 981.11767578125 974.116821289062 972.681762695312 985.359619140625 989.520935058594 991.453735351562 991.203430175781 994.586853027344 998.944458007812 1004.51092529297 1015.07940673828 1017.25079345703 1021.85455322266 1028.45202636719 1021.22668457031 1031.05383300781 1039.84777832031 1044.67919921875 1045.39111328125 1049.08850097656 1039.79772949219 1046.13134765625 1039.8134765625 1044.47143554688 1042.02319335938 1040.11059570312 1039.64404296875 1029.71411132812 1027.05969238281 1017.52569580078 1024.56994628906 1014.75537109375 1005.99664306641 999.482971191406 996.968872070312 1000.82049560547 1003.25079345703 1009.83251953125 1004.88977050781 1008.32727050781 1013.66961669922 1009.76153564453 1022.99163818359 1021.22595214844 1027.72827148438 1026.10144042969 1025.93432617188 1032.8203125 1022.04791259766 1018.17993164062 1023.65930175781 1034.49841308594 1027.26538085938 1018.72631835938 1005.25598144531 1015.81237792969 1023.56848144531 1022.91326904297 1018.93933105469 1013.74591064453 1021.00360107422 1019.17071533203 1016.7060546875 1014.75427246094 1016.052734375 1020.31768798828 1018.35046386719 1013.15411376953 1013.96350097656 992.111450195312 975.461059570312 974.102966308594 966.696716308594 967.845275878906 960.667541503906 957.602905273438 955.046081542969 965.443969726562 972.539184570312 973.578125 980.79541015625 979.557678222656 984.554016113281 983.548522949219 988.472778320312 980.208312988281 982.711242675781 990.359375 977.744262695312 985.666442871094 979.070190429688 978.753723144531 972.578125 972.09521484375 959.2470703125 945.791564941406 930.7451171875 925.371276855469 917.279968261719 910.458312988281 917.302795410156 922.626281738281 936.51513671875 950.097473144531 957.652282714844 977.464965820312 978.072448730469 994.213989257812 1009.54351806641 1012.46722412109 1014.54998779297 1009.76275634766 1013.53204345703 1029.41735839844 1041.9765625 1052.08654785156 1057.08557128906 1048.90112304688 1058.88549804688 1074.88684082031 1079.78405761719 1074.16857910156 1079.93884277344 1078.95324707031 1096.45910644531 1106.40319824219 1099.07019042969 1104.19494628906 1099.38781738281 1102.74694824219 1109.87170410156 1113.42907714844 1113.77770996094
969.522155761719 969.981323242188 968.986572265625 970.297058105469 968.895935058594 967.227600097656 982.0478515625 979.395568847656 979.890686035156 976.542724609375 975.232360839844 967.194091796875 969.342529296875 958.399169921875 958.411071777344 970.625244140625 974.703918457031 979.023193359375 975.091796875 961.310668945312 973.959899902344 979.722778320312 986.882446289062 991.602661132812 1003.93432617188 998.457885742188 1007.02465820312 1016.78112792969 1024.66198730469 1026.67492675781 1022.92193603516 1022.55004882812 1028.80065917969 1040.63342285156 1043.76049804688 1044.00524902344 1047.3076171875 1047.85314941406 1050.8173828125 1050.505859375 1035.48962402344 1037.9228515625 1037.42724609375 1032.82141113281 1036.16650390625 1028.00061035156 1014.26849365234 1021.60992431641 1013.66125488281 1011.54077148438 1005.48748779297 993.419738769531 1003.01214599609 1007.16271972656 1002.59991455078 1000.77465820312 1008.32208251953 1015.7119140625 1013.87603759766 1031.14428710938 1015.31665039062 1018.24615478516 1016.42858886719 1023.63818359375 1029.82263183594 1023.10894775391 1025.53881835938 1029.5673828125 1031.15063476562 1023.58685302734 1031.96984863281 1026.93579101562 1018.00909423828 1013.46997070312 1016.67102050781 1015.28594970703 1021.64245605469 1012.88214111328 1014.41589355469 1017.54254150391 1015.16998291016 1017.53527832031 1016.82415771484 1014.04998779297 1016.08764648438 1006.39782714844 997.89599609375 989.25634765625 981.784606933594 975.152954101562 972.762451171875 968.219848632812 976.409423828125 971.880187988281 980.031616210938 986.571655273438 997.961853027344 995.637939453125 1001.07965087891 999.191345214844 1002.03472900391 999.955017089844 991.85302734375 979.243591308594 981.920166015625 984.319091796875 980.781433105469 967.382141113281 967.695556640625 976.930053710938 959.382751464844 952.575073242188 950.038879394531 935.179992675781 929.251647949219 917.60888671875 923.567199707031 916.07861328125 924.294677734375 934.669921875 952.219848632812 966.073791503906 984.106689453125 988.441345214844 1000.1064453125 998.667846679688 1002.11883544922 1013.01623535156 1007.66235351562 1013.1689453125 1025.65734863281 1038.166015625 1050.03234863281 1044.31872558594 1051.12866210938 1061.26538085938 1079.75366210938 1076.12414550781 1069.7802734375 1077.37817382812 1076.54577636719 1087.11401367188 1103.80249023438 1113.96520996094 1111.486328125 1104.45056152344 1109.1708984375 1110.38122558594 1104.29223632812 1104.75793457031
966.040588378906 966.032897949219 961.302917480469 965.839599609375 961.6455078125 961.065246582031 966.565795898438 972.689025878906 968.781982421875 972.452087402344 968.6142578125 966.798828125 962.839904785156 948.485107421875 954.916198730469 962.309936523438 967.573059082031 964.924682617188 960.015014648438 960.954467773438 969.689147949219 980.961181640625 995.712951660156 1003.79223632812 997.985046386719 1007.85888671875 1010.25463867188 1013.32305908203 1023.96478271484 1019.50958251953 1023.46807861328 1016.28503417969 1014.49713134766 1025.39892578125 1028.55249023438 1042.99768066406 1040.21362304688 1039.8798828125 1044.01123046875 1036.58203125 1042.48425292969 1042.83154296875 1043.24426269531 1036.5283203125 1027.10412597656 1011.37371826172 1011.83294677734 1015.72222900391 1015.08880615234 1012.79510498047 1001.21716308594 1000.55773925781 1002.56341552734 1012.42224121094 1011.0341796875 1012.55041503906 1007.87048339844 1004.26196289062 1010.42602539062 1008.38366699219 1008.75024414062 1007.26287841797 1010.88446044922 1015.10125732422 1021.71423339844 1026.392578125 1031.14685058594 1031.90759277344 1028.1806640625 1029.87512207031 1030.97778320312 1025.36791992188 1018.73425292969 1008.60699462891 1007.29138183594 1008.34613037109 1013.31372070312 1014.08618164062 1016.42858886719 1018.24981689453 1017.53070068359 1010.17999267578 1012.48156738281 1017.70697021484 1007.51531982422 1007.32983398438 995.759338378906 988.445251464844 988.956970214844 984.078002929688 983.948181152344 982.062805175781 982.565368652344 988.96728515625 995.842651367188 1002.17254638672 1004.32177734375 1001.07385253906 1005.48645019531 1006.17169189453 1002.51977539062 1004.58996582031 993.89697265625 989.108154296875 980.690551757812 979.564514160156 981.049438476562 970.328796386719 976.262512207031 979.348022460938 965.174987792969 951.872863769531 948.527282714844 940.460327148438 938.543212890625 930.540100097656 930.876281738281 929.760009765625 933.592651367188 946.154479980469 950.385437011719 959.92333984375 982.184936523438 987.1240234375 993.163818359375 999.836975097656 1000.15173339844 1014.18725585938 1015.67852783203 1019.59814453125 1037.20556640625 1042.392578125 1048.17065429688 1051.6669921875 1047.96081542969 1061.65588378906 1067.64575195312 1074.22827148438 1070.138671875 1072.55871582031 1075.26062011719 1083.3271484375 1096.75427246094 1110.73681640625 1106.58679199219 1103.37316894531 1102.333984375 1102.04187011719 1101.16333007812 1102.13171386719
962.736938476562 958.988464355469 958.370178222656 955.946716308594 955.357116699219 949.667724609375 951.007629394531 959.253967285156 964.0029296875 966.427001953125 967.282165527344 958.593383789062 956.767333984375 956.699279785156 958.726623535156 961.986206054688 969.73876953125 961.044616699219 956.456665039062 959.654296875 970.528076171875 970.209899902344 980.954895019531 988.554504394531 993.150512695312 994.299011230469 1006.79876708984 1007.52758789062 1011.69848632812 1012.60198974609 1009.99822998047 1005.72790527344 1011.28717041016 1019.83154296875 1027.07055664062 1026.52404785156 1025.06066894531 1035.30432128906 1030.22119140625 1038.33996582031 1038.82336425781 1038.51586914062 1038.38427734375 1021.66955566406 1016.07263183594 1008.95013427734 1008.59338378906 1013.09655761719 1008.36389160156 1007.57641601562 996.017395019531 997.468383789062 1003.15869140625 1017.66705322266 1012.63177490234 1011.18560791016 996.408203125 998.588745117188 998.810241699219 1002.08392333984 995.879577636719 994.19970703125 1007.11834716797 1011.05120849609 1020.91369628906 1021.49298095703 1028.32385253906 1024.15649414062 1029.47204589844 1025.81665039062 1026.28332519531 1017.14691162109 1014.52459716797 1010.34802246094 1011.00952148438 1008.09826660156 1016.169921875 1015.78240966797 1017.74493408203 1010.48760986328 1008.84338378906 1008.51928710938 1020.70782470703 1011.46075439453 1007.29028320312 1008.34912109375 1000.30731201172 998.75927734375 990.422241210938 995.454345703125 994.783996582031 999.4716796875 1002.64141845703 1005.87872314453 1006.26239013672 1009.29235839844 1009.59497070312 1011.82757568359 1011.13409423828 1001.37341308594 1008.02478027344 1008.93139648438 991.078735351562 990.317138671875 982.711303710938 981.904174804688 982.918579101562 975.585693359375 977.765197753906 979.407104492188 961.903625488281 955.709350585938 948.174133300781 939.029724121094 938.727905273438 938.831726074219 931.987976074219 937.856628417969 947.288696289062 948.482116699219 959.693786621094 968.116027832031 983.125610351562 992.864990234375 997.045654296875 1006.05926513672 1007.07965087891 1016.45306396484 1019.3330078125 1019.16302490234 1032.76220703125 1041.92895507812 1044.78955078125 1046.39624023438 1055.71728515625 1047.63635253906 1060.87976074219 1078.14501953125 1077.68872070312 1074.05480957031 1075.75476074219 1076.27209472656 1084.50280761719 1094.12377929688 1101.23522949219 1099.93383789062 1107.89526367188 1099.43579101562 1092.01782226562 1092.17529296875
962.014221191406 960.339233398438 955.953735351562 956.216125488281 951.1865234375 946.638793945312 957.845947265625 958.452331542969 952.807678222656 950.46533203125 965.267578125 953.695556640625 950.2958984375 952.2900390625 966.066955566406 968.019775390625 971.164489746094 960.842529296875 957.545227050781 963.641418457031 963.551818847656 969.989318847656 979.569152832031 980.553894042969 987.778564453125 996.41064453125 998.605224609375 1004.73474121094 1011.96026611328 1005.47796630859 1005.13012695312 1012.02606201172 1011.34344482422 1007.49420166016 1011.94567871094 1016.97290039062 1021.45031738281 1027.61157226562 1036.82397460938 1036.44421386719 1036.94250488281 1036.85144042969 1024.25915527344 1019.04956054688 1008.36267089844 998.051147460938 1007.76977539062 1009.34857177734 1011.10552978516 1005.04333496094 1003.55877685547 1004.52709960938 1008.35888671875 1013.33819580078 1014.70751953125 1011.90570068359 1003.43365478516 996.419616699219 991.611389160156 997.794860839844 994.911804199219 993.659606933594 996.597778320312 1007.68725585938 1023.07525634766 1025.27575683594 1032.32885742188 1025.41467285156 1038.46044921875 1023.00262451172 1022.74249267578 1019.00006103516 1014.62017822266 1015.88269042969 1011.35485839844 1010.45086669922 1015.90942382812 1014.25695800781 1014.03143310547 1000.64221191406 1003.798828125 1002.70758056641 1006.09704589844 1006.01995849609 1006.35333251953 1009.47711181641 1004.1865234375 1007.33538818359 999.021850585938 1006.26129150391 996.848815917969 1003.17211914062 1009.32446289062 1007.68725585938 1016.82501220703 1013.62835693359 1011.35485839844 1019.58349609375 1013.04168701172 1004.85064697266 1014.27471923828 1014.41583251953 995.150817871094 991.29833984375 990.394714355469 990.574523925781 981.970947265625 974.447875976562 974.448791503906 976.907043457031 967.946838378906 952.790222167969 949.466186523438 945.142944335938 944.007080078125 935.342529296875 941.069702148438 947.7783203125 957.366027832031 963.918884277344 961.231628417969 976.210083007812 986.776733398438 995.015747070312 1000.03851318359 998.364013671875 1005.73211669922 1016.99322509766 1015.67742919922 1020.78668212891 1031.03942871094 1041.11535644531 1042.18664550781 1049.1298828125 1052.560546875 1054.91906738281 1061.57800292969 1067.63720703125 1073.00952148438 1067.56958007812 1074.5400390625 1073.76843261719 1076.96166992188 1093.43933105469 1091.74670410156 1094.39379882812 1103.05444335938 1097.26721191406 1084.62976074219 1096.66943359375
956.137634277344 953.065734863281 958.950622558594 954.983947753906 950.592651367188 942.999694824219 952.452270507812 955.353881835938 941.575012207031 955.703186035156 956.40283203125 953.312561035156 948.574340820312 955.195617675781 957.271667480469 958.970764160156 963.156555175781 965.031066894531 966.1396484375 969.8291015625 971.951416015625 978.170349121094 969.802917480469 981.914916992188 985.906860351562 996.276489257812 1001.39642333984 1004.1865234375 1004.61395263672 1005.49975585938 1006.67535400391 1010.64477539062 1012.8564453125 1014.63214111328 1010.50921630859 1021.03698730469 1029.2314453125 1022.56134033203 1026.09497070312 1035.01843261719 1032.28625488281 1021.7021484375 1013.61749267578 1005.58630371094 1005.97357177734 1005.29504394531 1004.23510742188 1006.85394287109 1004.60729980469 1001.80334472656 996.503601074219 1002.48315429688 1000.30444335938 1014.46240234375 1018.60321044922 1007.32629394531 998.308715820312 996.142883300781 996.836181640625 996.19970703125 989.008911132812 990.308227539062 1003.48229980469 1011.44616699219 1011.82220458984 1017.99145507812 1024.33874511719 1021.33489990234 1025.43762207031 1019.13946533203 1018.66619873047 1010.24536132812 1004.92370605469 1012.32153320312 1012.38262939453 1009.26312255859 1005.18933105469 1010.05316162109 1012.82958984375 997.53173828125 1002.35217285156 999.455139160156 996.986083984375 1006.79840087891 1010.99230957031 1008.21716308594 1009.57995605469 1007.98345947266 999.431823730469 1004.48693847656 1009.5703125 1009.30249023438 1012.94757080078 1013.12237548828 1025.50646972656 1031.03161621094 1024.40368652344 1019.03851318359 1012.88342285156 1006.02288818359 1014.55133056641 1014.47509765625 1004.33770751953 1001.03735351562 995.587524414062 995.301147460938 984.548889160156 984.519165039062 975.936767578125 977.843322753906 958.078247070312 953.76025390625 943.123413085938 942.451232910156 939.109313964844 942.656677246094 949.781555175781 957.051635742188 955.839965820312 967.636352539062 969.221618652344 980.517761230469 1000.16101074219 1002.33850097656 994.737243652344 998.52490234375 1015.22473144531 1025.53430175781 1027.77941894531 1029.02551269531 1033.50915527344 1045.65661621094 1050.22448730469 1051.90478515625 1056.49096679688 1058.65100097656 1051.23266601562 1065.78503417969 1063.82495117188 1063.29992675781 1057.29748535156 1071.44995117188 1082.68469238281 1088.35363769531 1095.66223144531 1099.9951171875 1104.00769042969 1096.52722167969 1097.10412597656 1099.41284179688
959.409973144531 953.055480957031 951.265197753906 947.530822753906 953.162475585938 957.994018554688 947.861328125 945.57373046875 951.867004394531 953.435180664062 957.847534179688 955.540466308594 953.038940429688 961.235168457031 958.193176269531 956.192138671875 967.732543945312 970.20361328125 974.630310058594 976.545776367188 967.394958496094 977.114501953125 979.581604003906 985.105590820312 990.359008789062 994.632263183594 1000.57165527344 996.384338378906 999.675415039062 996.334106445312 995.113891601562 1010.42077636719 1023.47045898438 1013.29821777344 1007.25860595703 1016.20611572266 1023.529296875 1024.70373535156 1020.88482666016 1026.50891113281 1017.76611328125 1017.78082275391 1013.46875 1018.10437011719 1008.72900390625 1006.86553955078 1003.23394775391 1001.82580566406 1002.11804199219 998.396301269531 1000.11883544922 997.211364746094 1003.45025634766 996.732604980469 1006.7119140625 1007.63830566406 1014.23193359375 1005.23150634766 1002.01202392578 996.602844238281 1002.11779785156 992.915222167969 999.372863769531 1013.42602539062 1022.15942382812 1020.45770263672 1019.34381103516 1019.87628173828 1018.47009277344 1018.06805419922 1013.92779541016 1017.46740722656 1012.04235839844 1004.03814697266 1006.09130859375 1007.32012939453 1002.76104736328 1003.06140136719 1005.22821044922 991.611694335938 992.559997558594 995.623718261719 994.086791992188 1000.30224609375 1007.87658691406 1009.7607421875 1010.61676025391 1012.98864746094 1008.51428222656 1011.65075683594 1015.07727050781 1022.36999511719 1021.37219238281 1029.39196777344 1027.34240722656 1035.13513183594 1035.46716308594 1025.29321289062 1021.37145996094 1006.93505859375 1004.43865966797 1001.04632568359 1004.7333984375 1003.94738769531 1002.27008056641 997.337158203125 995.138732910156 986.830322265625 982.238220214844 971.159118652344 960.484741210938 954.931640625 944.689392089844 932.703247070312 939.628295898438 936.295043945312 945.981872558594 957.849792480469 965.991882324219 971.717041015625 991.863220214844 987.906311035156 999.372131347656 1010.83911132812 1008.82073974609 1016.203125 1023.89965820312 1031.40869140625 1032.40893554688 1037.24157714844 1045.15441894531 1048.85388183594 1053.1240234375 1055.64904785156 1053.79638671875 1054.90930175781 1054.82348632812 1066.8623046875 1060.95678710938 1064.35217285156 1070.85559082031 1075.70141601562 1084.93286132812 1084.32568359375 1090.13903808594 1095.74780273438 1100.34033203125 1107.18872070312 1111.18444824219 1106.57275390625
951.519287109375 949.789794921875 941.508361816406 945.688049316406 949.71728515625 960.230163574219 957.825988769531 957.076171875 961.927856445312 962.7412109375 957.971984863281 958.775268554688 954.058776855469 959.629577636719 967.629150390625 963.281372070312 963.843872070312 970.824279785156 979.07373046875 976.579345703125 985.446838378906 985.91845703125 980.72998046875 986.735290527344 987.531677246094 990.63916015625 996.494445800781 995.639038085938 992.551391601562 993.849853515625 995.65283203125 1009.81958007812 1020.04547119141 1019.7109375 1017.68774414062 1012.84039306641 1013.26531982422 1015.14306640625 1012.02655029297 1018.99566650391 1013.89251708984 1017.97277832031 1012.17883300781 1016.68780517578 1013.08087158203 1016.87921142578 1010.97613525391 1012.16833496094 998.624084472656 992.359008789062 997.81982421875 987.214904785156 990.616394042969 997.378295898438 1001.18286132812 1003.89593505859 1002.28015136719 1007.32751464844 1004.11505126953 1008.75677490234 1008.67626953125 1000.92028808594 1004.26849365234 1014.62268066406 1015.86956787109 1014.72253417969 1020.05035400391 1014.68951416016 1014.00988769531 1009.69671630859 1008.15643310547 1008.54443359375 999.601501464844 1002.51428222656 1005.36175537109 1000.49053955078 994.468322753906 991.819763183594 989.916687011719 987.561401367188 998.160705566406 1000.44409179688 1003.77233886719 998.207885742188 1009.73651123047 1008.70599365234 1016.07073974609 1011.30615234375 1017.25476074219 1015.8125 1022.44232177734 1014.38269042969 1026.64453125 1028.28796386719 1032.29406738281 1037.4853515625 1039.357421875 1025.23974609375 1014.17523193359 1006.04229736328 1005.07434082031 1008.74816894531 1008.12445068359 1001.36236572266 1011.49926757812 1010.14093017578 1009.83874511719 1001.27160644531 989.579833984375 970.710693359375 967.5205078125 953.068054199219 955.322021484375 950.25341796875 943.47314453125 942.70068359375 947.390563964844 955.471069335938 974.67529296875 991.762084960938 988.890319824219 1000.44000244141 1008.77258300781 1008.99127197266 1023.26812744141 1030.27392578125 1028.76025390625 1029.52587890625 1032.43762207031 1034.68908691406 1045.3701171875 1050.84008789062 1050.84289550781 1062.16516113281 1057.48669433594 1058.07531738281 1051.42980957031 1058.14880371094 1050.86791992188 1060.43298339844 1067.41357421875 1076.13464355469 1081.5185546875 1089.56298828125 1096.54174804688 1093.0751953125 1100.1787109375 1107.27197265625 1109.72741699219 1103.00720214844
949.722351074219 959.783142089844 953.376770019531 955.310424804688 959.348388671875 962.15185546875 963.719360351562 965.984252929688 971.61474609375 973.314819335938 967.790161132812 963.520812988281 960.428833007812 962.521789550781 964.748657226562 970.838439941406 961.664794921875 970.355590820312 977.418640136719 979.204772949219 990.962219238281 992.94287109375 983.39111328125 983.70947265625 983.872009277344 983.201965332031 989.955749511719 991.671691894531 992.836547851562 998.021667480469 1000.10150146484 1002.01647949219 1004.9765625 1006.81506347656 1015.06628417969 1007.58459472656 1009.81066894531 1005.64672851562 1007.73547363281 1007.41149902344 1004.21954345703 1013.91436767578 1013.47454833984 1014.26257324219 1019.23742675781 1012.92993164062 1011.90930175781 1004.99212646484 1001.73626708984 995.688354492188 995.045776367188 992.462524414062 993.934509277344 996.023864746094 993.242126464844 1000.01397705078 1005.44909667969 1004.55364990234 1002.31616210938 1007.09014892578 1009.11688232422 1009.66101074219 1007.80133056641 1014.26196289062 1005.74768066406 1005.39562988281 1011.25738525391 1014.01446533203 1015.6015625 1012.74609375 1004.7109375 998.07177734375 989.862609863281 996.697387695312 1005.77722167969 1003.74664306641 996.710876464844 976.30126953125 978.122436523438 983.7392578125 994.891662597656 1001.18200683594 1003.20074462891 1007.12677001953 1008.42498779297 1010.05401611328 1010.54510498047 1009.85394287109 1019.13000488281 1018.61163330078 1014.98852539062 1029.01123046875 1032.98461914062 1036.86376953125 1044.060546875 1042.64733886719 1038.55383300781 1026.49133300781 1019.28424072266 1010.67694091797 1010.05236816406 1013.5556640625 1001.48571777344 1003.09484863281 1005.66613769531 1003.26226806641 1012.48547363281 1001.79254150391 1001.02117919922 981.321105957031 969.895629882812 956.107971191406 953.838623046875 946.916748046875 946.080322265625 940.177307128906 946.521362304688 964.897338867188 979.472412109375 995.36279296875 1002.06970214844 1008.92486572266 1015.15551757812 1013.57116699219 1022.31317138672 1034.767578125 1030.29809570312 1032.56005859375 1032.73901367188 1028.31079101562 1032.36120605469 1044.94982910156 1049.90417480469 1060.15600585938 1057.54077148438 1054.37768554688 1041.28479003906 1046.27709960938 1052.87573242188 1059.84155273438 1073.1650390625 1079.72155761719 1083.72607421875 1093.16076660156 1081.64636230469 1090.91931152344 1095.01782226562 1094.09069824219 1106.2177734375 1108.51647949219
950.184265136719 963.333129882812 961.689086914062 959.299072265625 964.943969726562 962.322387695312 960.843811035156 961.351867675781 966.558410644531 967.700622558594 974.013061523438 978.266845703125 971.410339355469 968.839233398438 965.954895019531 973.364807128906 969.185302734375 973.810546875 971.501037597656 987.018127441406 988.108642578125 994.46533203125 994.155517578125 986.66162109375 982.767395019531 990.697265625 987.419189453125 994.368896484375 1003.03900146484 991.691284179688 996.439331054688 993.493957519531 1004.40502929688 1008.56256103516 1007.81427001953 1009.63946533203 1006.45257568359 999.930725097656 999.28271484375 999.945556640625 993.880004882812 999.77099609375 1009.32604980469 1012.06579589844 1011.09509277344 1012.20849609375 1011.61145019531 1001.02935791016 1000.26940917969 985.993957519531 983.869018554688 979.241149902344 982.087646484375 989.851257324219 997.110900878906 994.765075683594 994.394958496094 1004.19915771484 1003.9892578125 1007.46484375 1017.71343994141 1014.85876464844 1007.18475341797 1013.92340087891 1002.47882080078 992.005615234375 1003.77709960938 1008.09051513672 1011.09973144531 1008.33276367188 1001.37457275391 995.765991210938 991.167175292969 996.976928710938 999.882080078125 1003.21276855469 1001.11303710938 978.898010253906 983.41796875 976.233947753906 994.471984863281 1000.25799560547 1001.1533203125 1009.66650390625 1007.00695800781 1008.64508056641 1007.31365966797 999.314208984375 1017.99230957031 1020.91656494141 1022.84686279297 1026.73803710938 1033.15148925781 1034.68566894531 1043.22436523438 1044.03601074219 1035.25537109375 1020.88470458984 1017.45007324219 1013.18615722656 1017.25219726562 1009.31610107422 1012.34875488281 1006.13446044922 1007.20495605469 1007.27886962891 1010.51147460938 1007.787109375 1000.62060546875 989.309326171875 974.676330566406 962.862121582031 954.469116210938 952.095825195312 949.374694824219 952.361877441406 951.92138671875 959.437683105469 979.878173828125 991.885192871094 1001.58013916016 1007.35015869141 1014.07269287109 1024.54760742188 1028.34973144531 1028.48205566406 1022.51062011719 1028.93579101562 1030.34716796875 1032.35278320312 1032.41381835938 1040.0966796875 1045.12182617188 1042.61804199219 1045.38122558594 1036.86206054688 1026.45886230469 1042.95239257812 1047.31665039062 1056.01232910156 1067.52026367188 1076.09606933594 1077.02258300781 1092.943359375 1086.5966796875 1094.35046386719 1102.75891113281 1105.14526367188 1104.46911621094 1107.81604003906
955.563354492188 966.239440917969 962.788330078125 958.151428222656 960.726806640625 951.886108398438 952.44140625 959.830932617188 966.009826660156 964.824340820312 977.002746582031 973.399597167969 986.467651367188 974.128112792969 975.300903320312 982.723449707031 976.4658203125 974.532348632812 983.421142578125 985.28466796875 983.388977050781 984.410766601562 997.037536621094 994.837219238281 995.402893066406 986.847290039062 987.840698242188 993.165405273438 992.309997558594 996.6044921875 990.076110839844 996.781311035156 995.996337890625 1001.84857177734 1000.75024414062 1002.33746337891 993.9716796875 993.095153808594 998.3701171875 998.679138183594 997.242004394531 996.096435546875 999.271667480469 1002.25274658203 1002.392578125 992.915771484375 995.563354492188 994.953369140625 991.527221679688 981.26123046875 980.591979980469 975.800354003906 978.978088378906 986.65771484375 999.228942871094 997.740112304688 998.322692871094 1002.10070800781 1003.57305908203 1002.59222412109 1005.54718017578 1003.01977539062 1001.05505371094 1009.94946289062 1007.28509521484 1007.13726806641 1003.88201904297 1005.32568359375 1002.7060546875 1003.01544189453 1009.03869628906 998.270080566406 1000.21252441406 999.768798828125 1001.07659912109 1000.99621582031 994.151062011719 987.715576171875 978.607299804688 986.774597167969 994.273254394531 1005.02886962891 999.547119140625 1006.46789550781 1002.27606201172 1004.158203125 1001.01159667969 1007.11102294922 1006.38092041016 1014.50659179688 1015.82989501953 1024.83605957031 1030.193359375 1033.98754882812 1041.08361816406 1040.32202148438 1032.64440917969 1024.384765625 1019.44488525391 1014.35290527344 1016.60327148438 1008.89978027344 1013.57757568359 1008.86352539062 1010.6259765625 1007.88635253906 1006.58538818359 998.56982421875 998.248046875 982.6328125 963.920532226562 954.17138671875 957.714538574219 960.680358886719 953.669921875 948.881713867188 961.052978515625 966.143615722656 985.661376953125 999.092895507812 1008.71228027344 1015.07385253906 1021.38671875 1024.67358398438 1032.87524414062 1023.28741455078 1024.09423828125 1020.283203125 1031.70434570312 1029.22937011719 1030.89025878906 1039.79443359375 1040.51940917969 1036.89624023438 1038.18176269531 1030.5888671875 1034.68505859375 1044.23559570312 1048.537109375 1056.50769042969 1063.87451171875 1068.63159179688 1069.41943359375 1074.55029296875 1085.45922851562 1087.37268066406 1104.01306152344 1102.0966796875 1101.13781738281 1104.77722167969
955.90966796875 959.794067382812 960.300354003906 959.806884765625 958.911560058594 952.43212890625 954.249633789062 960.392456054688 962.556884765625 965.68408203125 973.709167480469 978.624267578125 983.56884765625 976.704895019531 979.60791015625 982.373657226562 974.681335449219 975.578491210938 984.267639160156 985.489990234375 986.68115234375 990.273742675781 980.3955078125 984.910888671875 983.979919433594 985.719909667969 985.913391113281 984.408508300781 988.373107910156 987.958801269531 990.268981933594 990.560668945312 998.487731933594 998.360168457031 994.745544433594 994.250732421875 989.148071289062 997.199829101562 993.047912597656 992.803894042969 993.803894042969 993.439514160156 990.052551269531 999.638427734375 999.092590332031 987.466491699219 994.643859863281 982.517639160156 983.140808105469 975.11572265625 973.497619628906 980.453186035156 981.675109863281 982.748474121094 986.630493164062 993.446411132812 989.904479980469 993.326110839844 991.218017578125 998.954406738281 992.509155273438 1001.97875976562 998.656677246094 1000.12756347656 998.120849609375 999.8583984375 1003.49670410156 1005.39099121094 1009.95080566406 1002.17651367188 1009.47827148438 1002.75354003906 998.664978027344 994.281311035156 989.788024902344 989.99755859375 995.435180664062 998.195068359375 994.043518066406 994.222351074219 995.515563964844 996.171447753906 1000.39611816406 1010.27465820312 1011.64642333984 1014.63012695312 1004.16137695312 1006.35784912109 1016.73950195312 1020.09655761719 1018.36962890625 1026.18041992188 1024.29663085938 1028.76489257812 1043.07836914062 1038.568359375 1032.3623046875 1029.69299316406 1016.78741455078 1012.15612792969 1014.0390625 1005.87927246094 1004.29339599609 1012.22418212891 1013.03491210938 1009.66571044922 1000.10662841797 1001.49243164062 993.757385253906 978.841247558594 963.278747558594 956.757385253906 948.818237304688 955.553833007812 950.539794921875 952.29541015625 967.577941894531 964.494750976562 980.669128417969 987.972595214844 1010.83068847656 1030.65246582031 1023.84735107422 1031.35217285156 1030.20275878906 1020.80072021484 1009.0927734375 1020.64788818359 1024.84582519531 1023.44805908203 1029.46936035156 1034.37133789062 1037.59582519531 1043.75537109375 1037.91564941406 1026.55151367188 1038.03112792969 1037.07543945312 1046.91613769531 1056.21020507812 1058.62475585938 1058.48205566406 1062.59411621094 1072.49865722656 1078.54919433594 1089.69079589844 1102.02392578125 1105.71655273438 1098.2001953125 1099.84240722656
963.202575683594 967.411499023438 963.682434082031 968.328247070312 965.163879394531 966.14453125 958.626037597656 952.787048339844 958.994140625 973.435913085938 979.440551757812 985.47265625 982.518249511719 983.032348632812 987.823120117188 981.650207519531 981.381591796875 977.094177246094 976.483520507812 981.037170410156 982.902099609375 986.507141113281 983.24755859375 990.081359863281 979.529541015625 978.849487304688 984.842041015625 978.724609375 986.221862792969 987.948059082031 991.127258300781 985.566162109375 994.577514648438 995.372375488281 993.94091796875 990.188781738281 995.861877441406 988.658874511719 994.804870605469 996.225830078125 985.819152832031 986.490661621094 983.552917480469 994.681762695312 998.905822753906 996.37646484375 997.349792480469 986.760314941406 980.85546875 968.606689453125 974.889038085938 977.385498046875 976.55859375 981.462036132812 979.909729003906 987.65625 989.622741699219 992.120178222656 994.525939941406 989.564025878906 990.264465332031 998.445251464844 992.472351074219 998.659362792969 1010.69665527344 1006.46612548828 1006.52740478516 1008.90344238281 1006.58001708984 1001.54467773438 1000.91851806641 1003.43658447266 996.8046875 1001.95788574219 1001.36029052734 993.017700195312 996.734008789062 1000.30395507812 996.756591796875 994.955078125 993.343994140625 995.365661621094 1000.79223632812 1002.70642089844 1012.19158935547 1008.66064453125 1004.05035400391 1013.19000244141 1014.68450927734 1025.20056152344 1021.76214599609 1017.84503173828 1020.77850341797 1024.12951660156 1029.2294921875 1033.3681640625 1033.47106933594 1031.24780273438 1026.42614746094 1026.18664550781 1012.40734863281 1009.07537841797 1006.25616455078 1009.39727783203 1007.50659179688 1009.59143066406 1003.22485351562 999.062683105469 986.859680175781 978.838195800781 961.718444824219 951.606384277344 946.610046386719 952.826538085938 947.494873046875 950.079772949219 955.188537597656 976.2353515625 988.370422363281 1000.91174316406 1014.13427734375 1015.6044921875 1025.86499023438 1027.24841308594 1021.64739990234 1018.73376464844 1016.28875732422 1030.81774902344 1026.55261230469 1025.6591796875 1030.64990234375 1035.66271972656 1037.42077636719 1042.17785644531 1043.22155761719 1033.21704101562 1035.708984375 1030.40881347656 1038.43725585938 1048.38708496094 1053.47058105469 1054.64416503906 1058.34533691406 1071.04602050781 1077.70288085938 1086.87365722656 1084.92907714844 1091.62438964844 1089.25268554688 1096.40344238281
958.227233886719 964.547607421875 963.347961425781 974.344299316406 970.287475585938 964.919616699219 960.525451660156 964.819519042969 965.915100097656 964.297790527344 978.192687988281 981.194641113281 984.984924316406 992.067932128906 985.323974609375 983.808898925781 980.293395996094 980.440063476562 969.710327148438 978.022338867188 979.07958984375 973.321594238281 975.382446289062 989.767333984375 985.704833984375 984.310668945312 984.936157226562 980.958679199219 981.684020996094 987.063232421875 988.290588378906 994.79296875 993.02001953125 992.062072753906 989.556213378906 989.922241210938 989.494201660156 986.711853027344 981.725158691406 980.270629882812 979.462707519531 983.1025390625 987.379577636719 988.98486328125 987.027221679688 990.240478515625 991.499816894531 986.79150390625 979.967163085938 975.129455566406 969.309020996094 974.405944824219 977.673767089844 978.812683105469 970.566833496094 973.399963378906 983.529479980469 987.717712402344 994.740356445312 986.043518066406 992.970703125 992.779907226562 992.34423828125 995.286315917969 1009.94982910156 998.871398925781 1001.58990478516 1000.51129150391 997.170471191406 1001.55670166016 997.257141113281 1002.12786865234 993.190124511719 996.425964355469 996.9345703125 985.691040039062 988.872680664062 994.658020019531 991.184753417969 1000.62719726562 1002.33648681641 1004.72418212891 998.800903320312 999.049621582031 1001.22833251953 999.046508789062 1005.14752197266 1007.62078857422 1015.47631835938 1025.79553222656 1012.60815429688 1011.392578125 1015.13812255859 1020.56982421875 1022.14794921875 1026.27075195312 1030.07360839844 1033.93762207031 1027.97277832031 1022.98400878906 1014.33148193359 1006.02850341797 1013.1923828125 1013.64855957031 1003.96606445312 1004.34515380859 1003.06878662109 1004.36218261719 990.261352539062 982.8388671875 963.499389648438 956.547668457031 950.348449707031 946.183349609375 951.561706542969 954.457824707031 961.790771484375 977.140380859375 989.181457519531 999.201477050781 1007.04553222656 1013.95483398438 1022.02301025391 1019.12835693359 1025.04528808594 1013.22692871094 1025.4873046875 1021.0390625 1023.21337890625 1027.00720214844 1024.77648925781 1029.5849609375 1032.95581054688 1035.65625 1032.25671386719 1032.25695800781 1031.13232421875 1028.52294921875 1039.70068359375 1041.91784667969 1050.10949707031 1047.19641113281 1049.15698242188 1062.3984375 1064.74792480469 1082.74255371094 1078.09765625 1082.65563964844 1094.86560058594 1096.27880859375
958.644836425781 961.8095703125 955.222351074219 967.305358886719 963.0703125 965.219055175781 962.840148925781 967.095642089844 973.247802734375 964.902648925781 980.333435058594 978.879943847656 976.89990234375 982.097229003906 983.880126953125 969.24951171875 973.715881347656 975.067504882812 976.992309570312 982.3505859375 983.100158691406 987.440063476562 990.572692871094 996.160949707031 993.91455078125 987.698120117188 984.570190429688 985.919738769531 978.528991699219 974.237182617188 981.2060546875 990.581176757812 995.652893066406 995.692260742188 989.236083984375 992.171875 994.802001953125 992.811706542969 983.858215332031 983.870849609375 983.238220214844 978.230407714844 983.951354980469 985.611999511719 990.072814941406 982.241149902344 984.374633789062 986.8876953125 977.051818847656 965.991333007812 981.198181152344 982.637512207031 983.265014648438 975.77490234375 966.626403808594 969.848937988281 974.947265625 985.488098144531 988.090576171875 983.186645507812 981.975524902344 988.787841796875 995.902282714844 995.468444824219 1002.33489990234 997.893432617188 996.422119140625 989.092468261719 996.236633300781 994.777587890625 993.345458984375 988.642639160156 993.035461425781 994.678344726562 996.50537109375 999.487060546875 991.657897949219 992.549560546875 991.959106445312 990.145141601562 995.544494628906 1008.99768066406 1005.1240234375 1000.91192626953 993.962524414062 1005.95983886719 1012.96881103516 1010.98364257812 1016.71472167969 1021.77349853516 1007.45324707031 1011.18188476562 1014.33050537109 1010.68115234375 1016.05297851562 1020.02270507812 1017.79852294922 1015.45196533203 1018.12133789062 1013.85479736328 1015.01037597656 1011.82250976562 1016.20770263672 1016.74096679688 1006.85906982422 1001.28179931641 1002.29650878906 1006.47338867188 992.533752441406 987.697509765625 977.010803222656 964.8857421875 959.008483886719 946.267700195312 953.690612792969 960.376342773438 964.281311035156 983.966979980469 989.48974609375 992.307556152344 991.581176757812 1008.53930664062 1008.06488037109 1013.72723388672 1020.74426269531 1022.10632324219 1024.45495605469 1020.45220947266 1026.94738769531 1034.45483398438 1031.99792480469 1027.06457519531 1026.24621582031 1033.19348144531 1021.51196289062 1026.34643554688 1023.17846679688 1022.32086181641 1039.00512695312 1042.42944335938 1051.40026855469 1053.95971679688 1052.39562988281 1055.71691894531 1063.17248535156 1064.19738769531 1079.716796875 1086.27746582031 1086.82849121094 1106.97741699219
957.507446289062 957.283874511719 960.394470214844 973.013366699219 967.471618652344 969.381530761719 962.815307617188 965.177490234375 973.216491699219 971.669921875 979.193420410156 980.491638183594 973.717590332031 978.592712402344 978.046997070312 965.464782714844 963.174499511719 971.3720703125 971.225158691406 979.692565917969 982.307800292969 986.242248535156 989.045776367188 994.148986816406 994.574462890625 983.93359375 980.4296875 985.68310546875 979.516052246094 983.212036132812 980.590942382812 990.330505371094 992.388671875 987.925964355469 981.386169433594 993.312438964844 984.262939453125 977.865661621094 978.974853515625 982.5830078125 979.822326660156 976.007568359375 984.044494628906 1000.0234375 990.341552734375 983.489929199219 983.774841308594 978.371520996094 978.626953125 976.519165039062 975.869506835938 983.197509765625 982.720764160156 975.315795898438 977.92041015625 971.590637207031 977.265014648438 976.784912109375 985.098937988281 985.904968261719 991.162353515625 983.412414550781 987.248168945312 992.453186035156 989.024291992188 981.752624511719 993.54541015625 994.791442871094 999.268859863281 994.372680664062 988.616455078125 985.80712890625 987.547485351562 995.6171875 993.514587402344 1002.75921630859 999.408630371094 994.129089355469 992.744689941406 983.784423828125 988.544860839844 1003.72790527344 1003.83905029297 1007.22406005859 1005.34185791016 1004.58038330078 1010.51330566406 1013.43725585938 1015.59448242188 1016.20300292969 1015.36383056641 1016.37445068359 1016.19195556641 1013.86541748047 1013.86846923828 1007.11383056641 1011.38055419922 1003.48345947266 1019.90380859375 1014.44213867188 1017.33178710938 1009.13000488281 1005.34161376953 1014.89166259766 1005.34942626953 1007.39996337891 1007.00354003906 1007.87292480469 1005.72503662109 989.558654785156 980.966918945312 968.911010742188 955.247314453125 961.308349609375 959.5595703125 956.236389160156 963.465087890625 979.872802734375 976.031921386719 978.304565429688 976.531860351562 992.4384765625 996.9375 1001.22290039062 1016.98791503906 1025.02062988281 1023.83129882812 1027.20837402344 1022.65551757812 1024.32153320312 1023.86315917969 1018.09655761719 1022.75500488281 1016.0634765625 1014.71990966797 1016.63726806641 1014.98364257812 1027.00769042969 1036.626953125 1046.4296875 1061.24230957031 1062.943359375 1054.83508300781 1062.53637695312 1057.65808105469 1068.93725585938 1070.94543457031 1079.69030761719 1083.82177734375 1098.88061523438
951.427917480469 953.754150390625 963.41650390625 974.186950683594 970.045593261719 973.482727050781 974.367736816406 978.270080566406 975.453857421875 979.01611328125 980.313842773438 979.652404785156 980.528015136719 979.174255371094 978.136901855469 970.689086914062 964.642822265625 971.888305664062 973.871337890625 983.428405761719 988.251831054688 987.289245605469 982.761291503906 982.670959472656 988.751403808594 984.689453125 975.501892089844 975.598083496094 972.901062011719 981.586608886719 988.306579589844 991.409606933594 982.8515625 968.813293457031 979.242065429688 988.986267089844 986.625366210938 969.082397460938 967.625854492188 973.117736816406 976.454345703125 977.729187011719 983.038879394531 992.566589355469 993.914001464844 991.231689453125 981.543579101562 974.894775390625 976.254455566406 981.564270019531 974.724548339844 980.838012695312 974.315551757812 978.209289550781 977.968688964844 972.107788085938 972.760498046875 980.5419921875 983.320007324219 983.320190429688 994.726989746094 984.212524414062 980.88330078125 987.723388671875 989.457092285156 977.803405761719 978.751770019531 991.232421875 995.5400390625 984.401428222656 989.426330566406 983.111267089844 989.866455078125 1000.21264648438 997.428344726562 997.256164550781 1004.97302246094 1000.54895019531 989.618957519531 981.759521484375 993.6318359375 1007.23767089844 1009.27484130859 1009.00109863281 1013.31323242188 1007.64038085938 1007.99890136719 1013.31060791016 1013.02886962891 1015.240234375 1017.19696044922 1009.54858398438 1008.07739257812 1012.52111816406 1002.23278808594 998.691284179688 996.661987304688 994.524841308594 1003.94665527344 1018.60015869141 1021.96844482422 1014.69818115234 1013.78509521484 1008.56628417969 1003.63525390625 1004.89263916016 1006.08288574219 1004.85339355469 1001.7314453125 981.9609375 980.567810058594 970.675476074219 966.275695800781 970.2958984375 964.180786132812 966.239685058594 974.787963867188 976.501159667969 983.057067871094 981.818969726562 979.769653320312 990.423461914062 996.630432128906 998.868041992188 1011.16168212891 1019.69586181641 1025.08825683594 1023.73315429688 1015.34448242188 1019.71734619141 1034.03088378906 1018.55828857422 1018.84332275391 1011.12048339844 1019.35369873047 1016.54516601562 1025.23095703125 1023.90600585938 1033.69287109375 1050.47692871094 1057.6435546875 1062.00512695312 1055.64477539062 1054.06384277344 1062.32824707031 1072.35583496094 1083.97863769531 1095.39672851562 1093.19897460938 1096.06762695312
951.103820800781 946.977783203125 961.193786621094 962.174072265625 972.835632324219 972.461486816406 976.075744628906 971.820129394531 978.639831542969 975.353759765625 976.382690429688 981.818603515625 976.413452148438 973.515319824219 980.366882324219 982.4169921875 972.597412109375 973.439147949219 975.746948242188 976.786987304688 985.191772460938 981.925476074219 976.842468261719 979.873840332031 981.531494140625 983.385498046875 974.897033691406 983.798278808594 984.988342285156 986.0888671875 990.298034667969 989.113220214844 979.96826171875 971.527954101562 965.381408691406 976.395202636719 977.947998046875 977.370178222656 974.079040527344 975.64208984375 977.230590820312 976.9169921875 982.693603515625 992.655029296875 998.954956054688 987.69970703125 984.44140625 981.34716796875 983.772644042969 975.140991210938 970.615234375 976.229187011719 981.839904785156 979.659118652344 986.132446289062 975.651123046875 969.057739257812 980.893249511719 981.157775878906 986.802734375 988.838989257812 979.087768554688 986.826538085938 990.150207519531 994.422607421875 995.675354003906 983.487731933594 976.943237304688 982.539489746094 981.22900390625 989.672668457031 986.469543457031 992.973449707031 991.61376953125 995.579162597656 997.172790527344 992.7373046875 994.037841796875 991.594299316406 991.165771484375 998.225341796875 1004.09075927734 1008.15075683594 1008.40496826172 1007.11254882812 1005.51159667969 1012.39971923828 1015.05633544922 1013.13623046875 1015.47741699219 1013.89770507812 1008.29968261719 1004.63195800781 1004.13818359375 998.644958496094 998.366516113281 991.388793945312 986.289428710938 991.619506835938 1007.53582763672 1011.07806396484 1005.91333007812 1004.00628662109 1002.88171386719 994.925415039062 1003.64758300781 1007.19873046875 1005.94763183594 993.441711425781 989.0458984375 979.032104492188 975.161865234375 972.117004394531 966.193664550781 973.324462890625 965.194152832031 978.680847167969 986.20654296875 984.13818359375 988.638000488281 994.889099121094 992.955810546875 1004.84088134766 1005.75848388672 1006.02264404297 1016.97229003906 1026.84985351562 1020.01745605469 1017.55187988281 1011.07391357422 1012.55249023438 1017.70819091797 1019.10369873047 1022.49853515625 1017.79229736328 1019.26873779297 1024.10021972656 1028.45910644531 1043.60607910156 1057.42419433594 1057.43017578125 1059.091796875 1059.91223144531 1059.69372558594 1074.97509765625 1084.19226074219 1096.3828125 1100.86108398438 1113.91149902344 1114.25415039062
948.886840820312 949.133728027344 965.503845214844 966.159118652344 965.1513671875 969.540771484375 969.018615722656 977.947937011719 967.523559570312 970.68115234375 980.776184082031 980.517944335938 975.042846679688 980.349426269531 982.558837890625 978.995361328125 982.221496582031 974.038818359375 980.158081054688 982.495483398438 983.980895996094 982.865478515625 975.115600585938 975.554260253906 973.527526855469 974.711975097656 983.203247070312 978.728942871094 985.453735351562 992.768737792969 991.171020507812 988.038452148438 983.799438476562 977.732543945312 974.094299316406 978.116638183594 978.243774414062 978.749694824219 973.575439453125 973.193542480469 979.652648925781 981.199584960938 983.952880859375 994.148986816406 1002.01861572266 995.269165039062 985.603942871094 991.449768066406 984.429565429688 987.1640625 971.124206542969 980.511657714844 975.827392578125 972.561645507812 978.67724609375 979.108642578125 985.114562988281 973.168212890625 976.893920898438 984.961547851562 985.050109863281 979.121948242188 985.435668945312 992.940246582031 992.288879394531 989.814392089844 990.006713867188 980.075866699219 979.2861328125 985.886596679688 979.448120117188 981.474792480469 989.198852539062 986.167175292969 989.0185546875 991.993774414062 991.492980957031 996.510437011719 994.736755371094 993.0849609375 998.633117675781 1006.35150146484 997.661865234375 998.98046875 990.905822753906 1000.23388671875 998.60888671875 1011.48681640625 1009.15637207031 1007.74621582031 1005.69219970703 1003.64440917969 998.688354492188 1013.02722167969 1009.07928466797 1002.8955078125 994.926574707031 989.300598144531 999.997009277344 1004.89813232422 998.685546875 995.996520996094 996.764953613281 987.650756835938 992.733276367188 997.943786621094 1008.87982177734 1005.22418212891 994.547546386719 989.860534667969 990.381408691406 984.729370117188 978.801940917969 982.446838378906 979.74169921875 979.18603515625 978.459167480469 983.16455078125 998.534118652344 998.151672363281 999.279846191406 1003.38238525391 1003.49328613281 1009.45013427734 1011.89776611328 1010.92102050781 1017.97229003906 1014.89068603516 1013.36151123047 1013.87860107422 1012.87194824219 1013.87603759766 1015.01019287109 1018.66528320312 1012.25262451172 1013.22985839844 1028.41052246094 1033.220703125 1039.74365234375 1048.60192871094 1054.70751953125 1062.07763671875 1074.30297851562 1083.68432617188 1091.95080566406 1097.42492675781 1103.77783203125 1116.14978027344 1121.10693359375 1122.40991210938
949.719665527344 951.423583984375 961.17822265625 963.750305175781 964.928405761719 964.343872070312 969.82958984375 973.880554199219 975.022888183594 975.774047851562 980.604431152344 985.762634277344 979.24609375 978.627502441406 976.251525878906 975.019592285156 974.870300292969 976.42822265625 978.562683105469 985.136657714844 978.363220214844 976.681762695312 971.112243652344 977.146301269531 968.710327148438 971.367980957031 979.244689941406 974.165954589844 990.319091796875 989.407775878906 989.770874023438 984.95703125 978.42529296875 975.895324707031 973.716491699219 979.636413574219 980.862915039062 984.828430175781 978.947509765625 971.272766113281 969.649963378906 976.044738769531 983.93359375 991.786926269531 997.434448242188 993.203552246094 990.790100097656 992.889892578125 982.566833496094 976.790649414062 968.342102050781 973.633605957031 971.434753417969 968.971923828125 970.479553222656 975.917541503906 973.128662109375 971.571350097656 971.986877441406 971.935852050781 984.656982421875 975.615905761719 981.4580078125 986.646911621094 996.821716308594 991.435119628906 989.453063964844 981.925354003906 981.19140625 976.046447753906 980.029602050781 975.802001953125 990.498840332031 980.386962890625 977.74169921875 984.991271972656 992.165344238281 994.905212402344 996.989807128906 995.691223144531 995.6533203125 1002.12261962891 995.543579101562 996.963500976562 1003.23699951172 992.781555175781 997.459350585938 1008.95880126953 1005.36547851562 1005.900390625 1002.76342773438 1000.79278564453 1000.60211181641 1004.67175292969 1012.62017822266 997.122863769531 992.332214355469 996.670227050781 996.289733886719 1006.10290527344 1003.166015625 996.012573242188 992.311950683594 991.081420898438 990.755310058594 994.48876953125 1001.45300292969 991.912963867188 990.6162109375 981.55126953125 990.376342773438 1002.43621826172 990.073120117188 996.582641601562 991.023376464844 984.139526367188 984.931701660156 987.212768554688 1002.32891845703 1001.13415527344 1000.77185058594 1002.1796875 1005.14447021484 1008.57672119141 1011.72100830078 1012.95928955078 1021.53558349609 1003.96417236328 1006.81579589844 1006.58135986328 1013.94494628906 1009.32647705078 1008.90924072266 1014.96899414062 1017.65661621094 1016.79931640625 1027.38635253906 1035.73559570312 1045.99523925781 1060.2978515625 1061.64929199219 1067.75756835938 1078.05944824219 1089.22375488281 1100.82299804688 1108.05908203125 1116.74084472656 1128.79321289062 1136.64636230469 1133.40612792969
953.418334960938 954.172729492188 959.455383300781 968.495361328125 974.777648925781 970.748168945312 967.349914550781 968.048583984375 970.635375976562 975.734802246094 977.156860351562 975.330993652344 973.170349121094 973.053833007812 971.240051269531 976.679138183594 979.789733886719 983.378784179688 984.322937011719 977.549377441406 977.693786621094 974.238647460938 974.117370605469 958.944091796875 957.662109375 963.599670410156 968.19873046875 971.875061035156 977.497863769531 987.274536132812 984.113525390625 980.3515625 970.852966308594 973.858947753906 974.635620117188 974.618713378906 975.464721679688 980.509155273438 981.8076171875 973.141174316406 973.696533203125 974.246765136719 981.928100585938 988.803039550781 983.787414550781 982.212219238281 977.599548339844 979.124206542969 978.617980957031 972.863464355469 977.021789550781 977.511840820312 963.061157226562 966.436950683594 966.61962890625 968.488708496094 974.277038574219 978.525756835938 968.432861328125 973.932983398438 975.526794433594 978.388305664062 976.401306152344 983.646362304688 986.070434570312 994.880859375 987.645263671875 986.803649902344 989.739379882812 984.405212402344 975.650024414062 976.16259765625 978.90185546875 986.127380371094 979.281799316406 976.641174316406 984.577697753906 992.356750488281 1000.85705566406 999.30224609375 1000.83947753906 991.047668457031 996.679504394531 1006.04663085938 1001.99328613281 1008.08679199219 1001.56341552734 998.412963867188 1007.08941650391 996.292724609375 995.238708496094 994.797058105469 1003.23034667969 1004.29724121094 999.466735839844 1000.66333007812 994.769409179688 995.989868164062 998.677856445312 997.213012695312 999.398132324219 990.797973632812 993.343811035156 990.027954101562 995.051696777344 1004.08129882812 1006.88934326172 994.210266113281 984.838439941406 989.842346191406 996.512573242188 1001.53424072266 1001.693359375 1002.37493896484 995.113037109375 988.84619140625 990.819641113281 994.422912597656 998.514465332031 992.88623046875 994.056762695312 1001.958984375 1001.46154785156 999.079406738281 1004.04583740234 1012.92095947266 1015.01049804688 1011.15057373047 1015.04064941406 999.415405273438 1005.78039550781 1010.21252441406 1019.62078857422 1018.99426269531 1029.69140625 1028.67211914062 1032.38623046875 1045.91687011719 1055.23352050781 1064.03564453125 1061.61840820312 1070.45458984375 1082.76599121094 1089.65686035156 1104.11633300781 1109.80517578125 1114.17016601562 1128.63781738281 1140.64379882812 1140.724609375
954.5380859375 956.845458984375 965.202026367188 969.473083496094 965.375305175781 975.393127441406 973.88427734375 976.507202148438 974.255798339844 967.664672851562 979.00732421875 973.447387695312 979.774780273438 966.400756835938 966.879333496094 977.120483398438 977.681518554688 975.003234863281 979.568420410156 979.308776855469 982.287353515625 978.728515625 973.185302734375 967.781066894531 969.689208984375 975.102355957031 975.210998535156 975.242919921875 973.418518066406 970.440246582031 979.216430664062 974.924499511719 979.932067871094 972.148071289062 981.957580566406 970.868103027344 978.324035644531 970.458618164062 969.628051757812 971.865966796875 966.144714355469 972.164855957031 971.768310546875 983.218200683594 982.901672363281 981.700500488281 968.95068359375 973.964111328125 980.316345214844 974.145629882812 970.445068359375 979.852783203125 980.243896484375 971.9912109375 959.672607421875 966.034729003906 963.825561523438 969.392333984375 970.987609863281 974.587097167969 974.639038085938 984.47802734375 988.887573242188 984.957275390625 981.565368652344 986.896667480469 990.638793945312 987.534484863281 987.030334472656 989.431823730469 982.973693847656 975.271057128906 973.438598632812 976.21240234375 978.968200683594 968.4970703125 975.085998535156 990.316345214844 995.169555664062 996.439270019531 1003.95367431641 997.687927246094 998.138366699219 998.772399902344 1001.11566162109 995.240844726562 992.915832519531 987.029663085938 994.912841796875 996.17529296875 988.884399414062 998.971374511719 1002.89978027344 995.158874511719 998.1640625 997.239624023438 987.352172851562 989.306823730469 994.079345703125 998.452880859375 996.696350097656 993.874938964844 992.519958496094 998.541320800781 990.87255859375 1009.80682373047 1008.43542480469 1004.92950439453 990.486511230469 997.492065429688 999.365783691406 1004.98901367188 999.359375 997.110290527344 1001.76928710938 1000.09545898438 995.869445800781 997.124084472656 1003.89306640625 992.432556152344 996.222900390625 1000.89019775391 995.198486328125 999.960754394531 1000.634765625 1012.70727539062 1008.431640625 1011.50256347656 1005.52453613281 1006.77227783203 1008.62976074219 1011.66589355469 1019.15844726562 1024.89282226562 1027.26782226562 1038.037109375 1044.93713378906 1050.82458496094 1063.31884765625 1069.95361328125 1066.3408203125 1080.37756347656 1089.76794433594 1098.27819824219 1117.99670410156 1122.94860839844 1131.57751464844 1134.06396484375 1139.59606933594 1143.57434082031
949.218627929688 944.205322265625 951.655517578125 966.695129394531 971.532897949219 971.38037109375 966.218627929688 975.675720214844 965.81982421875 969.970886230469 979.334045410156 969.447692871094 971.197143554688 960.635070800781 967.518188476562 972.973205566406 973.6611328125 977.377502441406 979.205383300781 980.106262207031 979.295776367188 977.767456054688 976.201232910156 975.878051757812 984.415222167969 978.48681640625 971.664794921875 967.501953125 975.565673828125 979.776000976562 971.677551269531 977.441772460938 984.667846679688 981.100524902344 982.169006347656 972.739013671875 984.153259277344 975.003479003906 972.966674804688 969.352722167969 960.338684082031 974.992309570312 972.981811523438 976.262573242188 975.259704589844 970.454772949219 970.469970703125 972.699157714844 986.746032714844 982.057983398438 985.243835449219 978.601196289062 978.045227050781 973.350036621094 969.359069824219 966.220581054688 966.903015136719 974.7607421875 959.595947265625 966.382751464844 979.567138671875 985.643676757812 992.360656738281 991.081665039062 981.197692871094 981.720764160156 987.325073242188 977.68896484375 986.553344726562 975.546997070312 975.910583496094 970.013610839844 973.395874023438 971.485229492188 970.191711425781 965.050537109375 971.823364257812 981.4482421875 987.339050292969 986.867858886719 1000.7646484375 995.212341308594 996.092346191406 985.718872070312 992.339660644531 991.267028808594 986.741394042969 990.242614746094 989.721740722656 993.115295410156 992.765991210938 994.76220703125 995.914489746094 997.551879882812 993.996826171875 983.701843261719 989.923034667969 994.419250488281 987.88916015625 993.703063964844 992.048278808594 988.526550292969 992.090637207031 992.912902832031 995.856201171875 997.972595214844 999.669616699219 991.770690917969 986.889038085938 993.714111328125 994.08544921875 999.543090820312 999.87890625 997.142578125 1002.26153564453 1001.08673095703 995.375671386719 992.06396484375 991.39111328125 987.440612792969 991.034851074219 1000.72143554688 1000.81896972656 998.167236328125 994.812561035156 999.338195800781 1015.19714355469 1009.3037109375 1012.12133789062 1009.96038818359 1025.1845703125 1026.80249023438 1030.82739257812 1026.90319824219 1029.78393554688 1041.00915527344 1047.15856933594 1055.94775390625 1063.64685058594 1067.35888671875 1081.86499023438 1086.16943359375 1101.59106445312 1112.05700683594 1120.67736816406 1133.08654785156 1142.45532226562 1145.19897460938 1139.73229980469 1144.64270019531
950.324401855469 942.784057617188 950.813842773438 954.960693359375 965.951965332031 962.835388183594 963.055297851562 964.884521484375 961.760498046875 963.556396484375 962.940856933594 968.19970703125 973.768737792969 965.19287109375 968.696899414062 969.673034667969 983.348449707031 982.383666992188 982.171875 978.631896972656 990.31591796875 979.829956054688 978.605651855469 973.907470703125 970.735290527344 974.307678222656 972.273010253906 976.34326171875 971.604248046875 977.654418945312 972.989196777344 973.800415039062 982.251037597656 987.984191894531 982.359802246094 978.714965820312 978.324462890625 976.829528808594 974.512023925781 969.288940429688 958.746765136719 961.671203613281 970.229064941406 975.762023925781 967.58251953125 972.967407226562 971.211486816406 977.809997558594 981.842163085938 977.05224609375 992.327758789062 987.920715332031 980.744262695312 972.565368652344 968.579772949219 969.017333984375 965.100769042969 963.500793457031 964.703002929688 957.744995117188 968.156005859375 981.013000488281 983.917419433594 985.347229003906 980.621215820312 992.503295898438 999.672485351562 996.439025878906 993.327453613281 985.557373046875 974.632263183594 970.749389648438 971.483337402344 965.615112304688 968.247924804688 961.9013671875 968.464416503906 977.770629882812 979.59765625 986.817932128906 993.459350585938 978.001647949219 983.817565917969 989.082580566406 994.210510253906 993.447998046875 988.491027832031 995.577209472656 984.729736328125 985.679382324219 985.093994140625 986.16650390625 982.488708496094 992.803649902344 996.807373046875 984.342041015625 990.162414550781 989.491821289062 983.399536132812 987.603210449219 986.422058105469 985.192993164062 982.729614257812 979.376525878906 981.890625 991.941772460938 992.149475097656 986.732543945312 982.018920898438 987.363647460938 986.738098144531 996.625610351562 995.469055175781 994.595275878906 1002.09326171875 1001.43615722656 996.700866699219 994.270446777344 986.442932128906 991.127685546875 986.699829101562 986.664978027344 996.04052734375 998.015258789062 990.257202148438 997.965637207031 1012.17547607422 1013.24291992188 1018.0615234375 1019.8837890625 1031.16125488281 1041.07629394531 1031.18493652344 1034.05615234375 1034.48107910156 1042.53527832031 1051.52807617188 1052.26928710938 1069.55578613281 1078.46350097656 1091.94458007812 1091.19140625 1101.42272949219 1109.75610351562 1124.19091796875 1133.63403320312 1151.81689453125 1146.55346679688 1152.96325683594 1152.74987792969
941.362731933594 948.087768554688 947.570190429688 953.301086425781 954.96630859375 959.9775390625 953.923095703125 963.187377929688 957.180725097656 959.964538574219 965.397338867188 968.703125 974.9169921875 977.83544921875 969.978149414062 973.176879882812 978.509582519531 980.786804199219 979.628723144531 978.171997070312 983.5546875 982.833923339844 968.133239746094 969.469360351562 972.258666992188 972.282775878906 972.447998046875 963.152160644531 969.217346191406 974.374450683594 979.046081542969 977.943359375 980.525939941406 985.820861816406 980.310485839844 985.159057617188 980.545349121094 980.160278320312 968.908508300781 966.000122070312 965.543151855469 961.112426757812 963.861206054688 970.226013183594 974.225952148438 973.272094726562 974.794860839844 971.457275390625 977.05029296875 979.490905761719 982.998046875 982.41748046875 971.282653808594 966.184997558594 969.603576660156 971.392700195312 977.541198730469 969.122375488281 959.829284667969 959.721862792969 959.904663085938 965.658386230469 985.909240722656 983.749755859375 985.084411621094 993.051025390625 999.899963378906 997.24072265625 994.028991699219 982.555480957031 974.2265625 967.361083984375 965.367980957031 963.3955078125 960.324645996094 960.346252441406 967.799011230469 982.765380859375 979.656555175781 982.975891113281 986.477478027344 981.513549804688 980.726440429688 981.931396484375 986.529724121094 988.445129394531 997.245971679688 999.456298828125 983.152526855469 978.232055664062 994.518737792969 988.883544921875 985.085144042969 981.815002441406 980.527709960938 988.634704589844 986.379821777344 977.249267578125 985.337646484375 986.217102050781 980.987487792969 982.138244628906 988.325988769531 983.594299316406 979.360534667969 974.625061035156 985.854187011719 983.409118652344 982.138793945312 985.498168945312 980.38232421875 980.238708496094 986.968444824219 1000.17083740234 1001.48602294922 997.6171875 996.122985839844 994.037109375 986.011779785156 992.341430664062 988.780517578125 986.690063476562 1001.06787109375 999.343200683594 1002.74792480469 998.395202636719 1011.70281982422 1012.83471679688 1015.78540039062 1016.40399169922 1028.10998535156 1035.01647949219 1042.15795898438 1048.55065917969 1039.89929199219 1046.97448730469 1054.46887207031 1056.63623046875 1068.59448242188 1088.013671875 1089.71765136719 1094.95373535156 1103.13916015625 1103.50451660156 1124.45617675781 1142.4873046875 1149.87182617188 1144.3271484375 1149.23132324219 1161.22766113281
947.865234375 946.055786132812 949.13232421875 950.43408203125 963.963806152344 953.507629394531 961.857543945312 963.339050292969 961.60302734375 963.607421875 964.276977539062 975.690185546875 968.889831542969 969.747497558594 968.522216796875 973.171691894531 981.229614257812 975.888977050781 978.163391113281 980.042785644531 973.318664550781 978.827209472656 975.280822753906 973.436401367188 967.7099609375 966.731811523438 966.712768554688 969.554870605469 972.443603515625 979.914123535156 973.441467285156 977.761413574219 985.010437011719 988.734069824219 986.897277832031 981.108703613281 983.053283691406 972.254577636719 972.436218261719 975.967346191406 972.315612792969 969.663818359375 970.458679199219 969.414733886719 973.896484375 968.403503417969 977.747985839844 979.610107421875 977.75 972.940063476562 983.082397460938 972.343627929688 969.696899414062 967.028747558594 963.050537109375 970.304565429688 973.414245605469 966.052429199219 967.080322265625 967.4755859375 964.805847167969 967.601684570312 978.012634277344 970.333312988281 979.425476074219 986.510559082031 992.826477050781 987.549560546875 994.464965820312 993.627258300781 982.316223144531 973.725708007812 964.534423828125 970.883422851562 967.900939941406 960.435668945312 969.401428222656 972.527770996094 978.213623046875 982.982360839844 980.093505859375 981.425231933594 977.469177246094 978.987243652344 984.220703125 987.468322753906 987.650817871094 983.987426757812 988.700500488281 979.46533203125 992.119506835938 984.037292480469 990.983154296875 981.649353027344 986.347961425781 977.498413085938 979.224548339844 978.967163085938 984.595703125 982.010375976562 992.458984375 979.050231933594 977.58154296875 982.110961914062 984.35009765625 975.161804199219 974.406433105469 985.020080566406 985 983.520080566406 983.308166503906 981.76318359375 989.464111328125 987.208190917969 990.314025878906 997.638366699219 997.770141601562 998.552856445312 982.756286621094 987.428649902344 991.470703125 998.914794921875 1004.54504394531 997.056091308594 1005.69213867188 997.045288085938 1008.10260009766 1014.28442382812 1022.35626220703 1020.94567871094 1021.14672851562 1035.24951171875 1038.95520019531 1051.66186523438 1039.93835449219 1060.45959472656 1064.2958984375 1070.19836425781 1077.87182617188 1087.30139160156 1093.42663574219 1106.5048828125 1111.39013671875 1114.51672363281 1132.58325195312 1137.306640625 1150.93115234375 1151.73815917969 1154.46203613281 1164.87768554688
942.752014160156 943.515014648438 947.670104980469 953.073608398438 954.84326171875 952.362548828125 962.336730957031 970.241760253906 969.817260742188 966.203674316406 975.234130859375 968.321166992188 969.616394042969 967.098999023438 964.062622070312 962.090698242188 980.413818359375 981.865173339844 976.394287109375 984.124938964844 980.080627441406 989.086303710938 976.037292480469 964.2548828125 967.409301757812 969.817565917969 962.715026855469 962.746032714844 974.140991210938 975.292846679688 975.575134277344 971.514587402344 981.318054199219 986.033630371094 989.330261230469 983.984191894531 979.254333496094 975.690551757812 977.845275878906 972.182983398438 979.18603515625 975.589477539062 971.001708984375 968.130249023438 967.848022460938 969.188537597656 978.426696777344 972.463989257812 980.502807617188 985.193725585938 982.2255859375 966.922546386719 969.7001953125 967.134399414062 969.095764160156 969.201354980469 968.593811035156 970.912048339844 964.474060058594 979.070556640625 979.300476074219 974.065185546875 984.525268554688 977.262390136719 980.442138671875 979.352478027344 988.330322265625 990.63037109375 985.937805175781 985.567932128906 982.210205078125 980.018249511719 975.182739257812 968.779602050781 963.957458496094 968.074157714844 970.679931640625 975.584777832031 979.263305664062 973.416564941406 973.614624023438 966.151794433594 968.283447265625 981.26513671875 990.855529785156 985.172119140625 985.326171875 980.673461914062 980.835083007812 969.6767578125 985.091979980469 983.543579101562 992.6484375 987.131103515625 984.203491210938 979.419921875 977.230224609375 984.395751953125 984.154052734375 986.231384277344 994.304260253906 979.237731933594 980.457397460938 981.521301269531 970.448059082031 979.006408691406 984.199890136719 984.563415527344 994.574829101562 977.824829101562 987.785766601562 985.286315917969 1000.31671142578 989.432006835938 991.857666015625 996.591247558594 999.652770996094 999.001342773438 999.004089355469 991.155700683594 990.516418457031 999.112976074219 1001.69866943359 1007.88189697266 1007.37371826172 1005.75366210938 1007.55609130859 1016.37939453125 1016.54119873047 1017.07855224609 1026.92736816406 1032.0234375 1044.90942382812 1057.25512695312 1061.49401855469 1059.9052734375 1075.89501953125 1086.70495605469 1095.54370117188 1089.01892089844 1106.07849121094 1117.13500976562 1124.34069824219 1128.11303710938 1138.60083007812 1152.80871582031 1158.65502929688 1160.75720214844 1159.20092773438 1170.24328613281
948.507141113281 946.098999023438 949.866271972656 954.848327636719 955.723754882812 958.727661132812 970.913940429688 971.903503417969 974.415588378906 970.368530273438 972.065795898438 970.7158203125 965.561340332031 965.892150878906 969.957275390625 965.728515625 979.660888671875 985.285095214844 977.739624023438 980.830078125 976.221069335938 973.681335449219 978.295532226562 962.973937988281 971.576721191406 965.970153808594 960.270141601562 960.50146484375 977.377502441406 983.559387207031 976.276184082031 982.153991699219 977.818786621094 980.897827148438 985.982604980469 982.669067382812 982.346618652344 976.574157714844 977.61865234375 975.189636230469 978.574951171875 981.69580078125 977.528869628906 975.166137695312 967.239501953125 971.183044433594 977.058166503906 980.598205566406 982.041259765625 974.146301269531 973.442321777344 970.093322753906 966.913269042969 970.36962890625 972.023559570312 972.919860839844 971.734375 972.307861328125 974.403503417969 974.246643066406 972.833251953125 980.509399414062 982.14794921875 984.182800292969 979.229919433594 979.0244140625 984.092468261719 989.899658203125 985.69580078125 985.077392578125 984.720947265625 970.979125976562 971.381958007812 965.657409667969 965.166137695312 968.598022460938 971.968139648438 968.567993164062 973.219055175781 966.205627441406 974.50341796875 980.720520019531 970.245361328125 974.884582519531 972.201293945312 983.800598144531 980.215026855469 980.45361328125 980.205017089844 966.121398925781 969.042419433594 971.593688964844 986.11181640625 992.910583496094 981.170715332031 978.161254882812 976.682189941406 975.039794921875 982.680236816406 983.693359375 984.106323242188 983.638366699219 987.837219238281 983.347839355469 987.095397949219 982.733459472656 989.739624023438 990.451110839844 992.726684570312 993.658447265625 989.356567382812 991.28271484375 995.816223144531 999.802856445312 1008.14996337891 999.498901367188 1001.20782470703 1007.27960205078 1012.86773681641 996.091918945312 987.099243164062 994.619812011719 998.066833496094 1003.02655029297 1000.28051757812 1005.04595947266 1007.00305175781 1012.9736328125 1013.388671875 1019.89685058594 1028.55798339844 1028.09033203125 1043.80822753906 1059.40173339844 1070.00915527344 1070.2255859375 1078.671875 1094.93225097656 1101.59497070312 1098.64587402344 1111.35803222656 1121.31396484375 1137.48046875 1144.53674316406 1147.84191894531 1156.39318847656 1165.2333984375 1171.71044921875 1165.71557617188 1171.21118164062
948.163330078125 944.443786621094 951.981994628906 961.567260742188 955.191528320312 963.752258300781 964.969299316406 967.262756347656 971.415893554688 963.242553710938 974.92333984375 968.95654296875 970.6220703125 959.370422363281 966.693481445312 964.37109375 977.767028808594 983.1015625 975.450256347656 969.284790039062 973.541564941406 977.6826171875 965.702697753906 965.175537109375 970.981506347656 970.190979003906 968.89453125 967.673522949219 976.240844726562 978.440246582031 980.467407226562 978.469299316406 980.50048828125 978.43505859375 976.553283691406 978.995239257812 979.602172851562 977.772583007812 984.293273925781 971.231689453125 975.225036621094 984.124450683594 972.2119140625 970.617980957031 974.526794433594 978.751525878906 982.551208496094 981.552917480469 981.856140136719 971.286560058594 972.937133789062 965.869079589844 966.259704589844 977.800415039062 976.389099121094 973.455932617188 978.060729980469 978.03759765625 972.928894042969 975.448608398438 972.712341308594 979.561889648438 984.210021972656 978.749816894531 977.355346679688 971.746337890625 975.615295410156 984.333312988281 992.059631347656 987.30908203125 980.792785644531 977.744873046875 972.652221679688 978.91796875 972.199523925781 973.984008789062 977.066467285156 969.801391601562 966.915222167969 972.674011230469 975.131652832031 974.235595703125 971.849182128906 968.514526367188 968.578002929688 972.898742675781 979.766906738281 972.895751953125 975.64697265625 958.851013183594 965.650390625 978.728820800781 981.06640625 982.61865234375 974.823425292969 977.017456054688 979.013793945312 985.431823730469 984.956665039062 984.935546875 991.404663085938 994.758178710938 988.728881835938 981.024291992188 984.40185546875 993.221923828125 993.5810546875 988.471435546875 988.05615234375 993.668640136719 995.685607910156 995.776733398438 993.671020507812 1004.54565429688 1005.62109375 1000.9541015625 1014.24267578125 1012.53051757812 1012.62359619141 1002.64166259766 998.018798828125 1008.44573974609 1003.40643310547 1007.69232177734 1008.39819335938 1007.54809570312 1004.96936035156 1015.22198486328 1022.91522216797 1027.81384277344 1030.59753417969 1035.55102539062 1053.263671875 1062.37756347656 1073.38232421875 1080.44506835938 1078.81396484375 1091.49816894531 1098.88427734375 1105.90246582031 1115.33825683594 1122.71496582031 1131.38708496094 1138.42553710938 1138.28662109375 1156.00952148438 1166.5029296875 1170.2255859375 1172.82946777344 1168.45703125
