NCOLS 150
NROWS 37
XLLCORNER 7394249
YLLCORNER 4843889
CELLSIZE 30
NODATA_VALUE -9999
1001.05163574219 1007.689453125 1005.82696533203 1007.77917480469 1008.63330078125 1010.45562744141 1019.72064208984 1022.32269287109 1020.66021728516 1014.12646484375 1004.88452148438 1012.94812011719 1014.44635009766 1008.87023925781 1008.63604736328 1004.68499755859 1002.07025146484 1011.71929931641 1018.91027832031 1020.76123046875 1030.78588867188 1039.04260253906 1044.98498535156 1044.40930175781 1037.18176269531 1026.89025878906 1029.12060546875 1036.25378417969 1035.66821289062 1026.72473144531 1029.94543457031 1030.57946777344 1038.92028808594 1035.76574707031 1038.92333984375 1039.19738769531 1038.34216308594 1037.04565429688 1036.99340820312 1022.46313476562 1017.72454833984 1017.22052001953 1015.28948974609 1006.81408691406 1003.62896728516 1007.04858398438 1000.9794921875 975.388854980469 969.589294433594 964.180603027344 961.56591796875 964.10498046875 961.428039550781 958.262939453125 948.289611816406 946.008239746094 942.706970214844 942.803466796875 936.493774414062 935.566223144531 940.489929199219 934.334350585938 921.252990722656 913.064880371094 905.057312011719 906.973449707031 907.885009765625 907.709167480469 908.263671875 908.224731445312 909.540161132812 928.438537597656 930.558410644531 938.848022460938 950.701782226562 952.090576171875 969.755737304688 962.560668945312 965.57275390625 973.368103027344 980.035766601562 977.233520507812 969.351867675781 961.588623046875 959.606811523438 954.484436035156 949.052795410156 940.559020996094 943.499694824219 939.807495117188 937.149353027344 922.07861328125 921.012390136719 919.118286132812 910.429016113281 900.844665527344 894.312377929688 886.687194824219 891.066711425781 889.60546875 874.750549316406 863.767517089844 856.825012207031 858.717346191406 858.754028320312 852.2021484375 854.080993652344 853.625061035156 865.759582519531 885.685119628906 888.027770996094 892.918273925781 892.266479492188 893.958801269531 885.742431640625 891.065063476562 907.207702636719 920.712707519531 921.222290039062 923.243469238281 926.054992675781 927.515502929688 940.982421875 946.405517578125 946.962585449219 949.629943847656 950.396362304688 966.752807617188 978.801635742188 975.409545898438 986.86181640625 993.509094238281 997.430419921875 1019.42846679688 1031.61950683594 1041.12658691406 1049.95239257812 1053.27514648438 1066.97973632812 1078.4560546875 1073.13317871094 1067.00244140625 1070.62353515625 1075.97375488281 1066.91821289062 1056.09143066406 1037.04968261719 1031.97338867188 1036.26513671875 1040.06237792969
1010.65393066406 1006.84252929688 1003.27075195312 1004.48785400391 1001.814453125 999.731201171875 1005.26684570312 1018.22979736328 1016.18969726562 1017.15478515625 1009.60241699219 1003.82061767578 1009.86273193359 1009.98016357422 1010.64581298828 1012.72979736328 1004.06787109375 1010.10668945312 1017.90850830078 1029.76037597656 1032.7099609375 1034.58740234375 1045.73364257812 1044.84655761719 1031.93432617188 1035.59350585938 1037.08117675781 1035.07946777344 1032.89733886719 1034.62768554688 1033.21801757812 1030.06713867188 1041.6669921875 1038.70068359375 1035.16918945312 1035.54113769531 1027.58020019531 1021.63140869141 1020.19763183594 1024.40197753906 1027.36328125 1015.16119384766 1011.75469970703 1011.38690185547 1005.69604492188 1006.36566162109 1007.32598876953 997.912658691406 984.387817382812 980.47998046875 964.519409179688 960.732177734375 954.189392089844 952.232727050781 946.274108886719 945.879089355469 939.264221191406 946.84033203125 943.898620605469 946.998840332031 942.830688476562 939.370971679688 930.447570800781 918.3408203125 912.899108886719 909.222717285156 905.479614257812 903.27880859375 911.275329589844 915.757141113281 918.551086425781 926.113403320312 933.316284179688 944.108337402344 950.429016113281 962.38818359375 970.539489746094 972.925598144531 969.651428222656 979.222290039062 982.66748046875 980.736877441406 978.044555664062 976.612976074219 962.915954589844 959.788635253906 954.825378417969 944.81982421875 935.182861328125 938.268005371094 926.182189941406 927.924072265625 914.563354492188 904.683959960938 903.933776855469 901.990295410156 896.469970703125 898.475463867188 887.801086425781 891.252380371094 877.739318847656 868.227722167969 860.151916503906 855.605590820312 859.186950683594 851.666198730469 860.197631835938 866.80859375 876.112487792969 889.961730957031 882.382995605469 893.956115722656 898.385620117188 894.043212890625 894.599548339844 907.793518066406 915.202941894531 920.186218261719 925.095947265625 929.3037109375 926.640686035156 935.722473144531 938.237243652344 951.306030273438 949.671203613281 951.599792480469 959.474243164062 971.42626953125 976.397399902344 982.546875 983.500122070312 995.884155273438 1010.77368164062 1022.83947753906 1024.54052734375 1041.73767089844 1058.34606933594 1063.28857421875 1076.23901367188 1083.83642578125 1078.40112304688 1073.16088867188 1069.42724609375 1076.36267089844 1073.49670410156 1060.08898925781 1044.71936035156 1043.76843261719 1041.31494140625 1045.16271972656
1009.54034423828 993.844787597656 994.650939941406 993.312255859375 990.695129394531 1005.34423828125 1008.05865478516 1021.45062255859 1016.99835205078 1016.65515136719 1011.35137939453 1004.61822509766 1000.94165039062 1005.93188476562 1006.40875244141 1014.22509765625 1012.72485351562 1013.7939453125 1024.00891113281 1030.62915039062 1031.10595703125 1040.69799804688 1038.38903808594 1040.11962890625 1033.94116210938 1027.10607910156 1023.8994140625 1019.77520751953 1026.03466796875 1036.71716308594 1035.92211914062 1028.69299316406 1031.84143066406 1033.84484863281 1034.44140625 1023.38525390625 1022.33862304688 1021.22442626953 1028.39819335938 1023.13934326172 1026.53430175781 1011.1171875 1019.54095458984 1017.98016357422 1010.70269775391 1008.31311035156 1006.64025878906 1000.01184082031 986.564758300781 964.773742675781 963.511779785156 963.577819824219 955.103759765625 955.156311035156 944.965393066406 942.974731445312 946.902526855469 944.839721679688 951.350646972656 947.690673828125 943.235046386719 934.978698730469 934.149108886719 926.882019042969 916.289611816406 912.100280761719 908.626098632812 911.396911621094 920.357849121094 923.533996582031 922.669616699219 931.750427246094 948.674194335938 947.703491210938 951.795104980469 957.318359375 970.946960449219 972.719848632812 978.770629882812 987.935668945312 990.872497558594 988.592407226562 989.975830078125 985.054443359375 976.920776367188 962.387817382812 950.852416992188 945.99951171875 938.076843261719 934.028991699219 938.300903320312 935.627685546875 921.036254882812 914.973083496094 907.632507324219 902.970458984375 900.432495117188 890.2587890625 886.424133300781 883.559875488281 872.758239746094 866.380310058594 865.098327636719 854.0048828125 856.606628417969 847.998046875 857.044677734375 862.862915039062 872.951477050781 882.310791015625 888.5654296875 891.401245117188 887.662170410156 892.361572265625 894.615051269531 907.236999511719 910.868347167969 923.751586914062 923.238830566406 921.326232910156 930.396057128906 932.746337890625 937.309692382812 952.925170898438 965.32080078125 963.196838378906 960.401550292969 956.271606445312 968.139831542969 985.644165039062 992.746520996094 998.8671875 1008.14129638672 1018.63110351562 1029.22985839844 1042.34521484375 1057.92712402344 1075.66320800781 1078.298828125 1090.74975585938 1087.17858886719 1081.33166503906 1088.00744628906 1084.56323242188 1089.40051269531 1076.25769042969 1065.99951171875 1051.25671386719 1047.23425292969 1039.97033691406
1001.02380371094 997.366577148438 1003.67163085938 992.522766113281 992.9560546875 997.2509765625 1012.32427978516 1012.74127197266 1010.87506103516 1007.576171875 1006.16876220703 1010.09875488281 1004.52563476562 1003.06768798828 1009.4541015625 1010.03094482422 1017.11633300781 1018.62872314453 1027.71618652344 1036.6298828125 1040.98107910156 1036.05224609375 1043.75549316406 1032.76452636719 1024.43957519531 1020.47686767578 1021.17614746094 1017.56408691406 1021.40258789062 1013.5517578125 1029.50854492188 1026.72009277344 1030.96630859375 1028.140625 1026.97985839844 1021.33972167969 1015.92883300781 1018.74530029297 1015.94958496094 1020.26800537109 1030.29162597656 1018.30633544922 1006.29266357422 1006.73706054688 1004.06414794922 1005.37377929688 1008.05584716797 991.629333496094 981.968627929688 975.494262695312 968.853698730469 971.067321777344 962.244018554688 966.013671875 956.02587890625 949.714172363281 944.960632324219 942.463012695312 951.611755371094 949.251281738281 944.494140625 944.277099609375 935.235168457031 928.058959960938 923.826965332031 906.478820800781 908.307556152344 918.588439941406 928.600524902344 927.820190429688 927.136474609375 932.845520019531 949.500671386719 956.442199707031 950.797973632812 965.028991699219 972.920227050781 979.058532714844 987.297973632812 993.155334472656 999.732116699219 996.974548339844 996.233154296875 984.402770996094 987.850708007812 970.146545410156 963.86279296875 952.617919921875 939.906311035156 943.401184082031 936.735473632812 933.162414550781 927.298583984375 912.968627929688 906.978332519531 906.611572265625 898.8515625 890.21484375 889.918273925781 886.002197265625 885.154113769531 877.727355957031 865.24658203125 855.974182128906 858.755065917969 864.048767089844 866.647888183594 874.876281738281 879.490295410156 881.800964355469 883.422180175781 889.073120117188 887.089660644531 891.7568359375 894.520385742188 894.531921386719 896.350341796875 911.124084472656 915.839782714844 925.376525878906 931.193725585938 933.844177246094 937.612731933594 953.780090332031 968.936218261719 960.855041503906 962.557250976562 967.634460449219 973.837646484375 981.994384765625 990.270385742188 1002.89337158203 1012.61059570312 1014.70318603516 1028.26696777344 1050.15966796875 1074.29528808594 1083.0029296875 1084.26708984375 1089.16430664062 1090.27416992188 1097.25891113281 1104.66906738281 1112.75610351562 1093.25891113281 1089.31958007812 1075.14392089844 1061.64697265625 1045.09826660156 1041.05981445312
996.137451171875 1000.26385498047 1000.66857910156 997.962890625 997.723999023438 1017.25524902344 1012.39288330078 1002.42260742188 1003.86627197266 1008.05499267578 1007.232421875 1003.69073486328 999.115173339844 1001.82537841797 1003.63397216797 1009.15966796875 1014.46917724609 1020.76275634766 1032.25512695312 1037.30798339844 1044.02233886719 1034.19763183594 1040.00671386719 1039.94116210938 1026.81579589844 1024.33703613281 1012.92297363281 1015.58221435547 1020.66790771484 1020.23309326172 1030.31225585938 1026.40441894531 1035.37475585938 1027.48693847656 1025.3203125 1015.94622802734 1016.07916259766 1011.98199462891 1016.01226806641 1020.11383056641 1026.43420410156 1017.15026855469 1010.42193603516 1001.82592773438 1010.1806640625 997.897705078125 1006.9130859375 990.768127441406 988.24755859375 974.527465820312 973.280212402344 976.040161132812 971.285034179688 972.30908203125 958.626525878906 957.361145019531 952.10595703125 947.906799316406 949.481506347656 944.12060546875 949.888244628906 950.814514160156 935.827087402344 928.572814941406 930.062316894531 920.374694824219 922.538146972656 921.184753417969 932.539001464844 930.730285644531 936.906066894531 936.191528320312 952.660827636719 958.070617675781 960.66796875 962.958923339844 971.290893554688 993.610595703125 994.242065429688 1001.68865966797 1011.94219970703 1010.06567382812 1009.60748291016 995.521301269531 992.051025390625 990.972961425781 968.83251953125 962.601867675781 956.724853515625 944.934387207031 930.722290039062 924.177429199219 922.710815429688 917.433959960938 912.356689453125 900.136108398438 894.510375976562 896.559936523438 888.033325195312 897.214233398438 886.762023925781 884.857299804688 877.804260253906 865.985900878906 872.225708007812 878.761047363281 875.971496582031 872.841491699219 880.611206054688 882.552307128906 890.215637207031 880.110168457031 887.280883789062 888.544799804688 893.804931640625 900.377258300781 906.83154296875 913.848083496094 916.983703613281 919.489807128906 921.137573242188 933.981994628906 937.06689453125 945.874816894531 949.190979003906 964.568420410156 962.982666015625 959.735046386719 969.770324707031 985.646301269531 988.976379394531 992.659362792969 1008.44128417969 1025.53942871094 1037.41748046875 1049.00732421875 1074.13305664062 1080.00256347656 1090.0244140625 1092.96691894531 1095.4130859375 1106.40161132812 1114.35510253906 1110.65686035156 1109.64331054688 1092.36962890625 1091.27966308594 1080.81762695312 1055.3251953125 1050.10339355469
984.007507324219 985.774169921875 997.488952636719 1004.89129638672 1007.20129394531 1011.60626220703 1003.92095947266 1011.91052246094 1007.25378417969 1009.44976806641 1005.67755126953 998.63037109375 1001.61419677734 1001.98266601562 1011.66534423828 1012.19775390625 1017.52362060547 1022.59478759766 1027.00708007812 1039.40563964844 1041.01647949219 1046.48681640625 1035.17932128906 1029.76391601562 1035.26916503906 1023.96929931641 1021.58337402344 1012.11041259766 1004.77386474609 1010.6796875 1015.55950927734 1025.22729492188 1031.03674316406 1032.90771484375 1027.41577148438 1022.27587890625 1024.35034179688 1014.69934082031 1016.50842285156 1025.83642578125 1026.23059082031 1027.08337402344 1016.9423828125 1014.93902587891 1009.24761962891 995.845642089844 1008.74462890625 997.726135253906 990.384765625 984.99755859375 983.388671875 983.362731933594 973.2861328125 972.914123535156 965.121459960938 961.365600585938 953.054138183594 957.789794921875 965.557678222656 966.16259765625 961.96533203125 945.85546875 942.984436035156 939.900817871094 928.571105957031 928.8466796875 921.842041015625 928.701232910156 939.683898925781 940.161254882812 942.578491210938 956.158630371094 956.740539550781 958.370849609375 963.077087402344 968.948425292969 981.529663085938 990.777404785156 1001.60363769531 1006.22436523438 1013.45635986328 1011.13287353516 1010.92053222656 1012.52703857422 997.601196289062 989.846130371094 973.140869140625 961.680236816406 950.115173339844 937.453247070312 928.053649902344 920.361572265625 918.593627929688 912.942749023438 907.61474609375 901.683776855469 893.591247558594 887.0205078125 894.2822265625 900.327819824219 895.754760742188 888.769165039062 879.387268066406 870.913208007812 873.325500488281 873.133178710938 885.321716308594 888.47900390625 887.659118652344 890.638427734375 888.727233886719 873.147338867188 877.179260253906 889.323120117188 900.090454101562 901.635681152344 902.113525390625 908.374450683594 924.855041503906 924.541198730469 924.811340332031 933.992309570312 935.332580566406 942.775939941406 945.437072753906 942.710205078125 951.370788574219 950.877807617188 968.874145507812 986.339111328125 990.949584960938 989.699401855469 1008.67889404297 1032.93872070312 1043.00634765625 1057.36767578125 1070.35717773438 1077.44287109375 1088.08801269531 1104.13012695312 1103.29956054688 1105.70385742188 1117.25341796875 1116.57299804688 1115.97448730469 1108.10534667969 1098.845703125 1097.14086914062 1080.72241210938 1068.14721679688
979.271179199219 987.418701171875 996.334289550781 998.391357421875 1003.22338867188 1006.67864990234 1013.35888671875 1012.83715820312 1012.10235595703 1001.93005371094 1007.46868896484 998.091735839844 1006.72589111328 1004.71905517578 1011.43597412109 1017.75622558594 1020.94439697266 1018.57861328125 1026.34985351562 1032.59606933594 1031.30346679688 1037.20556640625 1026.77172851562 1027.94445800781 1035.35949707031 1025.94555664062 1017.55444335938 1010.44525146484 1006.69635009766 1013.744140625 1019.42742919922 1021.72998046875 1021.95166015625 1028.91625976562 1031.75756835938 1022.04162597656 1019.41345214844 1019.66888427734 1019.06280517578 1018.42523193359 1019.45306396484 1023.40551757812 1016.28216552734 1012.38818359375 1007.59204101562 1004.99426269531 1002.86450195312 996.750366210938 997.914367675781 993.652526855469 992.632385253906 987.20556640625 983.612487792969 975.925170898438 978.066162109375 975.748352050781 971.430541992188 977.28759765625 981.892211914062 982.156616210938 964.173156738281 952.902282714844 945.505126953125 949.7841796875 947.251159667969 946.018371582031 941.688049316406 940.266906738281 946.4267578125 950.125244140625 955.423034667969 958.044677734375 964.971557617188 959.463500976562 959.841735839844 975.630065917969 982.946472167969 1001.48742675781 1002.03991699219 1007.29809570312 1005.94384765625 1006.33416748047 1010.16857910156 998.52783203125 990.588195800781 978.965637207031 973.705200195312 953.561706542969 948.636901855469 932.497985839844 929.286560058594 917.050598144531 927.466674804688 920.819946289062 921.264465332031 913.107116699219 897.847106933594 895.206176757812 896.243957519531 909.73779296875 911.653381347656 903.3916015625 888.09228515625 880.964050292969 877.486877441406 885.800659179688 880.677062988281 888.060119628906 894.938049316406 887.044677734375 885.425537109375 883.083251953125 886.770690917969 898.682312011719 898.891357421875 907.825622558594 909.574340820312 913.578308105469 931.258605957031 933.906677246094 929.88720703125 941.472290039062 941.450744628906 933.840881347656 946.253784179688 953.68212890625 961.460510253906 967.387939453125 972.636352539062 986.19970703125 995.641662597656 1000.35485839844 1004.27416992188 1028.26354980469 1041.2529296875 1063.73962402344 1067.240234375 1074.02465820312 1093.14685058594 1106.14221191406 1113.07275390625 1117.65124511719 1129.48388671875 1125.69311523438 1125.18664550781 1119.66613769531 1111.32275390625 1106.60693359375 1091.28881835938 1075.28149414062
976.528869628906 990.349365234375 990.855102539062 999.093872070312 993.280700683594 1005.71893310547 1013.18676757812 1011.04931640625 1009.42749023438 1001.73474121094 1002.90771484375 1003.35772705078 1004.67114257812 1008.59100341797 1006.22125244141 1014.98876953125 1011.69525146484 1022.91290283203 1017.62835693359 1022.99102783203 1030.06823730469 1027.52111816406 1025.68603515625 1026.38244628906 1022.10437011719 1022.57659912109 1012.22351074219 1009.69079589844 1002.80499267578 1012.45971679688 1014.76629638672 1016.58679199219 1021.64501953125 1022.35131835938 1028.75915527344 1023.41662597656 1018.33850097656 1023.45068359375 1030.52209472656 1020.62066650391 1020.30816650391 1020.77655029297 1011.43634033203 1012.49493408203 1004.48309326172 1003.59747314453 1003.90515136719 999.679870605469 1008.80364990234 1004.74761962891 999.193359375 992.600219726562 987.294189453125 995.525695800781 981.422546386719 990.434204101562 991.78125 991.49072265625 986.738891601562 982.166931152344 979.405883789062 966.018371582031 962.778381347656 956.578186035156 957.579162597656 958.669799804688 952.361877441406 949.091674804688 950.471984863281 960.356262207031 958.843200683594 961.447143554688 964.537109375 966.265747070312 974.296203613281 984.888610839844 993.271667480469 1007.26000976562 1009.54864501953 1021.49700927734 1010.18469238281 1015.50402832031 1006.78283691406 999.844360351562 989.423400878906 985.506225585938 966.274169921875 951.826843261719 934.3466796875 929.790161132812 933.852172851562 923.430480957031 924.130126953125 927.169799804688 917.5908203125 906.169372558594 908.486022949219 911.428405761719 917.621765136719 922.857116699219 923.800170898438 914.091430664062 891.755981445312 883.343872070312 884.813110351562 888.48388671875 885.380737304688 885.105590820312 893.785095214844 896.385986328125 889.798706054688 894.999389648438 889.288635253906 890.7880859375 895.0126953125 897.884948730469 910.416931152344 918.886596679688 932.784790039062 937.66943359375 942.158813476562 952.867370605469 946.297241210938 940.90380859375 943.805114746094 953.406311035156 959.844604492188 968.978454589844 975.491088867188 984.158264160156 994.730773925781 994.528198242188 1004.669921875 1025.02941894531 1040.83410644531 1056.93054199219 1068.19177246094 1086.78369140625 1099.90600585938 1108.99230957031 1116.53930664062 1132.34130859375 1134.802734375 1138.48913574219 1138.23754882812 1130.40417480469 1118.20275878906 1113.6142578125 1111.23449707031 1097.82592773438
987.004272460938 985.224243164062 990.380065917969 998.464233398438 1000.98675537109 1014.75164794922 1012.94860839844 1009.77996826172 1007.80554199219 995.290710449219 1000.87786865234 999.172119140625 1001.03210449219 1008.94525146484 1003.19165039062 1013.53070068359 1009.25067138672 1017.23132324219 1014.06524658203 1021.03186035156 1017.37048339844 1022.45080566406 1027.40832519531 1012.60754394531 1021.61798095703 1017.11157226562 1005.30908203125 1007.86987304688 1003.88385009766 1008.15191650391 1007.40490722656 1013.71533203125 1014.93493652344 1019.50756835938 1019.8447265625 1025.2294921875 1018.42230224609 1023.0556640625 1028.24194335938 1016.60815429688 1024.73010253906 1025.34143066406 1011.88464355469 1015.30609130859 1011.23608398438 1009.5283203125 1010.39837646484 996.768127441406 1009.93280029297 1002.84448242188 998.554321289062 1000.97027587891 1000.26696777344 992.214965820312 998.745788574219 995.350158691406 1003.82196044922 1008.83081054688 993.921203613281 985.4404296875 983.947692871094 981.738098144531 966.415222167969 964.833557128906 964.652099609375 961.536865234375 955.850891113281 960.050903320312 956.941101074219 962.70556640625 966.243896484375 967.301452636719 965.640563964844 970.444702148438 980.637878417969 994.99365234375 1008.98150634766 1015.08050537109 1028.20068359375 1026.662109375 1020.78845214844 1019.08776855469 1008.18371582031 1007.14501953125 995.099975585938 983.340698242188 961.2119140625 945.846252441406 937.008728027344 925.363586425781 938.058776855469 930.755187988281 922.2216796875 918.674072265625 913.44921875 916.75732421875 915.012084960938 922.8525390625 921.099975585938 921.017639160156 919.729797363281 912.240478515625 901.717895507812 889.341552734375 889.397399902344 895.747314453125 902.804260253906 903.056213378906 896.542541503906 893.4169921875 894.369812011719 900.609313964844 894.226379394531 902.956115722656 901.989196777344 908.108642578125 908.7744140625 913.973022460938 928.15576171875 936.455322265625 950.310852050781 939.13427734375 944.13916015625 947.413269042969 950.750366210938 964.386962890625 967.021179199219 978.292846679688 982.618896484375 986.188842773438 996.605590820312 1004.54870605469 1014.18463134766 1033.89331054688 1042.09973144531 1061.9482421875 1071.92053222656 1087.5615234375 1101.73266601562 1109.12072753906 1127.07250976562 1125.51306152344 1132.70153808594 1146.30285644531 1147.1142578125 1143.10375976562 1132.90441894531 1124.61193847656 1116.40966796875 1104.68920898438
983.170471191406 981.593627929688 989.630187988281 992.404724121094 999.462768554688 1007.95062255859 1006.90258789062 1008.11047363281 1005.40161132812 991.296203613281 991.233947753906 993.979370117188 998.606567382812 1002.41369628906 1006.47332763672 1000.07940673828 1003.17376708984 1005.05487060547 1011.35986328125 1015.2080078125 1015.91235351562 1015.06872558594 1019.99853515625 1016.87432861328 1010.08166503906 1003.78314208984 1005.54840087891 1002.52661132812 1003.53033447266 1010.72253417969 1010.39294433594 1009.93902587891 1011.10186767578 1017.84783935547 1018.26831054688 1012.18786621094 1013.42901611328 1018.86297607422 1012.48321533203 1009.12463378906 1020.08142089844 1013.12463378906 1018.49719238281 1010.90252685547 1011.40374755859 1014.68280029297 1004.99835205078 1003.552734375 1005.44934082031 1005.66845703125 1002.23266601562 1000.93865966797 1004.2353515625 994.454772949219 994.79345703125 997.562683105469 997.179992675781 998.94482421875 1003.34362792969 998.28076171875 985.553894042969 979.740295410156 978.089233398438 984.640258789062 972.3203125 974.265197753906 976.557495117188 968.72509765625 960.814880371094 966.666076660156 975.781188964844 979.470581054688 982.345275878906 990.024291992188 998.68896484375 1003.30145263672 1010.86236572266 1021.34356689453 1035.91186523438 1023.87646484375 1019.08349609375 1019.76611328125 1004.33660888672 999.387756347656 984.8896484375 976.138305664062 965.190612792969 952.776123046875 941.833984375 935.905029296875 943.196228027344 936.09130859375 930.42431640625 922.851867675781 923.272521972656 915.928771972656 917.905395507812 926.623962402344 920.272766113281 919.735290527344 921.851806640625 913.931762695312 911.075378417969 897.508911132812 905.463012695312 905.725219726562 904.276306152344 909.63232421875 904.523986816406 898.845031738281 895.122924804688 896.598022460938 909.116394042969 913.306518554688 910.206665039062 913.306091308594 915.324157714844 915.8115234375 921.713439941406 928.7314453125 940.461486816406 947.458129882812 945.319152832031 949.606567382812 959.400939941406 968.221984863281 971.645629882812 982.257141113281 985.418701171875 998.236328125 1008.96362304688 1018.16607666016 1029.65515136719 1035.10498046875 1041.47692871094 1062.86853027344 1076.59094238281 1089.18334960938 1092.08325195312 1112.46496582031 1117.30944824219 1122.28381347656 1133.17785644531 1141.12158203125 1151.79333496094 1153.05749511719 1141.05334472656 1137.40222167969 1120.05017089844 1110.35717773438
989.377868652344 978.961486816406 979.621154785156 978.168151855469 986.48583984375 1000.03314208984 1004.99542236328 990.852294921875 993.235046386719 989.653381347656 993.306579589844 986.371398925781 989.1748046875 994.98876953125 990.194763183594 1000.12866210938 994.901245117188 998.637634277344 1003.97821044922 1012.25750732422 1016.2509765625 1009.43341064453 1016.25274658203 1016.21844482422 1007.44250488281 1007.46398925781 1011.68310546875 1002.91375732422 1010.99926757812 999.233032226562 1002.10046386719 1008.25469970703 1018.68115234375 1019.80053710938 1013.38714599609 1013.34173583984 1021.41381835938 1022.28692626953 1011.87866210938 1004.51867675781 1017.17907714844 1013.15417480469 1019.66442871094 1009.81793212891 1012.40765380859 1012.76477050781 1007.08355712891 1004.5859375 1007.62261962891 1002.74975585938 1001.18530273438 1005.88494873047 1009.91033935547 998.7265625 998.433044433594 1005.00427246094 1000.90234375 1009.28729248047 1004.98278808594 1001.75085449219 992.960327148438 985.872924804688 995.023742675781 999.064086914062 988.214233398438 986.193908691406 986.957458496094 978.181457519531 971.595703125 976.328125 976.902160644531 988.471313476562 983.096252441406 998.070434570312 998.048156738281 999.671020507812 1011.38409423828 1020.86279296875 1027.93786621094 1031.66528320312 1014.81713867188 1017.64758300781 1013.25183105469 997.495788574219 980.743347167969 977.700988769531 971.599243164062 960.5732421875 950.048400878906 946.290832519531 946.219299316406 933.641845703125 932.778137207031 931.330139160156 919.633422851562 920.712951660156 920.373229980469 921.335144042969 924.637573242188 923.233825683594 914.3916015625 921.437316894531 918.365112304688 917.952697753906 915.911560058594 915.488037109375 923.139038085938 932.305419921875 917.969177246094 910.7587890625 905.702209472656 906.644226074219 920.964477539062 928.025085449219 919.020629882812 918.701232910156 913.952026367188 918.381652832031 918.39501953125 933.08154296875 939.06591796875 951.420227050781 954.140625 954.4697265625 961.000366210938 972.150146484375 973.693969726562 981.688293457031 988.782409667969 994.963928222656 1006.52410888672 1011.64190673828 1027.96630859375 1049.21069335938 1054.4541015625 1069.47534179688 1072.80004882812 1081.98388671875 1084.85510253906 1100.01672363281 1111.35717773438 1114.89636230469 1124.77514648438 1140.06396484375 1147.11584472656 1153.05078125 1146.02368164062 1142.66320800781 1125.68591308594 1111.32653808594
990.339965820312 990.031677246094 982.6015625 973.64306640625 981.816223144531 993.320434570312 995.093322753906 990.59228515625 986.678527832031 990.346069335938 988.005859375 994.1435546875 987.150939941406 994.009338378906 988.186584472656 993.868469238281 993.276062011719 1003.49859619141 1003.74176025391 1012.71173095703 1010.60144042969 1004.24798583984 1008.28729248047 1010.45922851562 1005.91766357422 1000.52490234375 1001.421875 999.268859863281 1009.84075927734 1004.90576171875 1006.11755371094 1010.91351318359 1019.78051757812 1019.79833984375 1022.51049804688 1025.640625 1029.07116699219 1021.548828125 1013.54827880859 1006.21600341797 1014.45947265625 1014.34484863281 1021.41387939453 1014.29217529297 1009.74084472656 1014.39373779297 1008.46032714844 1007.875 1016.62573242188 1007.57629394531 1001.13397216797 1008.73315429688 1015.38775634766 1004.33044433594 1006.94567871094 1003.68444824219 1009.15118408203 1011.95452880859 1013.10961914062 1006.49688720703 1000.99554443359 1004.38763427734 1007.64398193359 1004.56915283203 992.335876464844 993.645629882812 982.779541015625 979.544555664062 972.459777832031 977.003234863281 984.623291015625 988.915710449219 995.09326171875 999.049499511719 1008.10174560547 1005.1708984375 1022.10662841797 1027.04309082031 1031.181640625 1032.04235839844 1025.47863769531 1016.14111328125 1014.17077636719 999.45849609375 981.860534667969 971.950134277344 981.388671875 968.4560546875 956.115234375 948.829284667969 944.609680175781 937.280395507812 933.771301269531 926.819519042969 922.239013671875 921.282958984375 930.511108398438 929.528747558594 932.720642089844 932.073059082031 933.533020019531 922.174743652344 926.568115234375 930.706848144531 927.10009765625 931.259521484375 933.91357421875 939.137451171875 930.047912597656 920.75244140625 911.204956054688 920.864685058594 926.795654296875 932.214050292969 924.039489746094 919.848754882812 915.322814941406 917.721252441406 922.536865234375 933.770812988281 945.087524414062 952.042785644531 959.082275390625 962.970092773438 959.372253417969 964.603637695312 976.117736816406 985.272338867188 993.6708984375 993.983337402344 1013.48199462891 1017.73480224609 1036.49584960938 1051.78845214844 1061.68823242188 1058.81079101562 1067.12280273438 1069.68505859375 1075.28698730469 1089.47375488281 1107.37707519531 1118.05822753906 1130.18017578125 1139.49340820312 1139.08264160156 1133.45129394531 1139.59020996094 1128.80480957031 1120.82116699219 1107.78796386719
993.834106445312 994.820739746094 986.261291503906 981.363525390625 984.71484375 992.963745117188 995.858337402344 992.530822753906 991.501037597656 984.928649902344 986.032165527344 987.003479003906 983.147583007812 985.494567871094 983.567810058594 993.334167480469 996.320495605469 998.596618652344 996.71435546875 1000.74908447266 1007.81188964844 1001.57928466797 1000.95544433594 998.936218261719 998.69677734375 993.287353515625 1002.31457519531 1004.796875 1002.86614990234 1007.88671875 1010.51092529297 1006.32598876953 1008.91534423828 1009.83166503906 1023.88018798828 1027.12890625 1029.32409667969 1025.56213378906 1026.40344238281 1022.51934814453 1020.24871826172 1022.18371582031 1017.67651367188 1015.69696044922 1014.83453369141 1010.55828857422 1016.13037109375 1017.08978271484 1015.595703125 1010.69805908203 1007.74621582031 997.936706542969 1014.04510498047 1011.24206542969 1012.72277832031 1010.11322021484 1015.89849853516 1012.00708007812 1014.84191894531 1008.56097412109 1012.21368408203 1011.88250732422 1009.47869873047 1015.33050537109 1002.34027099609 992.327880859375 992.449279785156 986.895629882812 981.168640136719 987.552062988281 981.899230957031 982.692199707031 1000.17138671875 1007.92626953125 1014.07983398438 1019.48974609375 1032.54638671875 1030.9873046875 1029.67883300781 1033.00708007812 1022.44500732422 1018.28338623047 1011.14831542969 1003.26257324219 987.704528808594 981.278442382812 984.446716308594 981.248107910156 965.964477539062 958.220458984375 944.976135253906 938.656921386719 934.292663574219 938.416381835938 937.931945800781 933.02978515625 934.943481445312 934.119140625 941.912780761719 935.5703125 929.155029296875 930.673828125 935.904052734375 933.12841796875 941.639221191406 947.630432128906 944.168151855469 950.244384765625 938.827880859375 932.916320800781 933.70849609375 932.5009765625 934.939453125 934.541381835938 919.582641601562 913.324951171875 914.428405761719 913.032348632812 921.842407226562 947.016235351562 947.186767578125 954.374816894531 959.554321289062 969.960754394531 957.899719238281 959.077392578125 979.585815429688 993.537536621094 1000.77612304688 1002.79742431641 1018.81707763672 1029.32348632812 1040.06518554688 1049.16052246094 1066.34423828125 1060.82299804688 1055.03125 1063.73864746094 1067.04663085938 1087.50671386719 1096.84460449219 1118.15014648438 1129.94860839844 1127.69555664062 1129.56066894531 1132.24560546875 1130.56750488281 1129.69897460938 1124.71801757812 1104.96008300781
987.095825195312 989.237976074219 985.214599609375 982.755126953125 984.990234375 995.88525390625 1005.17584228516 995.057189941406 988.559326171875 981.929138183594 984.910705566406 983.022644042969 977.249145507812 987.517456054688 986.4140625 998.543273925781 998.918823242188 997.495056152344 995.272155761719 987.76611328125 995.630615234375 996.584838867188 995.330444335938 992.972106933594 986.144714355469 988.171752929688 990.389953613281 1000.67572021484 999.252685546875 1002.27606201172 1003.85797119141 1010.26165771484 1006.40240478516 1015.74932861328 1026.81823730469 1030.70141601562 1036.32092285156 1037.06750488281 1034.31359863281 1031.85681152344 1027.015625 1019.35778808594 1021.27105712891 1024.04956054688 1022.74914550781 1016.24896240234 1019.50421142578 1019.80157470703 1014.25506591797 1009.58435058594 1016.13946533203 1011.40570068359 1014.72937011719 1015.29479980469 1019.13714599609 1014.98571777344 1017.6748046875 1016.91918945312 1015.91192626953 1015.76940917969 1018.07250976562 1013.24786376953 1013.73889160156 1009.32971191406 1008.75012207031 998.957946777344 995.153198242188 994.641906738281 990.299194335938 993.938110351562 987.5126953125 986.456115722656 999.491455078125 1015.04864501953 1018.75732421875 1022.63793945312 1033.68347167969 1027.37145996094 1026.95495605469 1029.8359375 1027.55358886719 1025.73571777344 1018.80169677734 1013.72381591797 998.669555664062 989.414611816406 981.999694824219 981.578857421875 970.163635253906 959.566955566406 948.255493164062 944.582580566406 943.300354003906 944.77099609375 948.779479980469 939.485778808594 940.777587890625 953.991943359375 957.106201171875 954.489013671875 944.59326171875 943.420532226562 945.00146484375 950.789306640625 951.697692871094 954.755615234375 949.113525390625 950.705444335938 954.687194824219 953.104736328125 951.535827636719 947.116088867188 947.814758300781 938.30322265625 924.70068359375 919.203735351562 907.159484863281 910.842956542969 929.336730957031 940.491088867188 944.3544921875 950.216125488281 963.161499023438 970.104736328125 959.992004394531 975.460632324219 985.299743652344 1001.74322509766 1005.59582519531 1011.72149658203 1027.11560058594 1032.8544921875 1042.06274414062 1058.81030273438 1058.40502929688 1068.59741210938 1065.48425292969 1056.3203125 1068.88671875 1090.24328613281 1094.35327148438 1109.21130371094 1119.53649902344 1121.28723144531 1126.84448242188 1126.638671875 1128.8896484375 1134.29943847656 1123.03918457031 1112.70324707031
986.564514160156 991.846557617188 983.820739746094 980.4990234375 982.473327636719 994.874328613281 996.045471191406 992.595336914062 982.728393554688 981.132934570312 979.498596191406 975.062683105469 972.471069335938 979.9365234375 987.453125 1001.8359375 998.73876953125 997.703308105469 997.879028320312 990.018981933594 986.150756835938 995.108581542969 1001.43560791016 987.750732421875 984.608703613281 986.495666503906 994.977294921875 1005.21856689453 1005.79235839844 1001.56164550781 1009.93627929688 1009.56243896484 1004.654296875 1015.77618408203 1030.17626953125 1031.23010253906 1042.81225585938 1039.20959472656 1040.12292480469 1041.74255371094 1035.44763183594 1031.04565429688 1027.68408203125 1034.8095703125 1032.18762207031 1025.53784179688 1022.04693603516 1024.76623535156 1019.85736083984 1008.36962890625 1015.24194335938 1012.12145996094 1012.35198974609 1020.01782226562 1016.15490722656 1017.63732910156 1022.84820556641 1019.00268554688 1020.36309814453 1021.92846679688 1022.87683105469 1019.65570068359 1020.30999755859 1016.09747314453 1020.14044189453 1015.35546875 999.693298339844 993.215881347656 987.467956542969 989.144775390625 991.303039550781 993.662536621094 1013.46990966797 1020.06304931641 1018.67254638672 1028.03063964844 1022.83856201172 1021.87481689453 1019.40435791016 1024.19262695312 1028.06530761719 1028.61511230469 1029.00646972656 1016.87567138672 1001.80322265625 989.167724609375 984.950378417969 981.820251464844 975.851013183594 961.579223632812 946.990905761719 939.121032714844 945.855346679688 952.195678710938 956.513122558594 961.878601074219 966.397827148438 969.083984375 967.876220703125 970.264526367188 966.404052734375 961.808349609375 960.358459472656 956.03125 949.238342285156 957.359008789062 952.4287109375 966.480102539062 967.124755859375 963.781982421875 968.623413085938 962.797729492188 953.0322265625 941.187927246094 929.37890625 926.306579589844 917.261169433594 919.917175292969 934.342956542969 946.821166992188 949.591247558594 956.11083984375 969.729309082031 969.224975585938 972.295654296875 979.334594726562 991.835205078125 1002.41680908203 1018.20166015625 1019.82165527344 1020.76788330078 1036.23596191406 1039.77307128906 1049.33898925781 1062.58520507812 1066.17272949219 1059.6650390625 1065.22863769531 1079.12158203125 1093.43395996094 1094.69470214844 1102.77282714844 1105.48034667969 1117.47888183594 1120.41516113281 1111.76416015625 1114.0751953125 1110.82287597656 1111.85278320312 1112.63830566406
984.661071777344 987.949035644531 984.962707519531 991.22607421875 986.244323730469 996.3935546875 991.326538085938 985.957946777344 981.381408691406 972.207397460938 976.095153808594 976.777709960938 969.74853515625 968.565490722656 980.217651367188 982.602661132812 991.086669921875 991.677185058594 987.502624511719 983.816711425781 986.48876953125 987.9794921875 991.171264648438 990.251037597656 987.676025390625 993.073303222656 989.51708984375 998.231994628906 995.73828125 1009.24798583984 1015.31610107422 1011.53912353516 1004.47796630859 1023.09997558594 1023.74566650391 1028.73364257812 1037.771484375 1041.11242675781 1039.81506347656 1046.47387695312 1037.10046386719 1032.70227050781 1037.3876953125 1032.14953613281 1030.18395996094 1025.88110351562 1034.71203613281 1026.61315917969 1025.20568847656 1014.31768798828 1018.0791015625 1021.22021484375 1014.45300292969 1019.40234375 1018.09350585938 1012.12738037109 1013.8818359375 1020.81335449219 1022.26452636719 1023.73803710938 1019.66937255859 1023.25457763672 1025.42431640625 1022.57641601562 1020.60205078125 1017.08325195312 1007.86407470703 995.510681152344 1001.32165527344 1001.24914550781 1000.41442871094 998.969665527344 1019.36297607422 1016.27252197266 1021.80920410156 1028.95581054688 1029.11328125 1026.98693847656 1023.07995605469 1019.44091796875 1031.42834472656 1027.71154785156 1034.03442382812 1024.51843261719 1010.65063476562 997.289978027344 991.445617675781 981.552978515625 976.868408203125 964.306823730469 943.783508300781 942.838012695312 953.06201171875 960.159851074219 963.425903320312 965.808654785156 964.728637695312 966.863586425781 969.455871582031 969.903442382812 974.036071777344 973.464965820312 973.930480957031 967.262023925781 964.016784667969 967.980346679688 970.773071289062 974.255920410156 976.953186035156 976.162170410156 976.572875976562 963.273864746094 956.836669921875 938.621032714844 934.072692871094 925.244018554688 924.3486328125 930.774841308594 933.9306640625 951.741088867188 956.539611816406 961.20947265625 970.295593261719 976.135437011719 983.064025878906 986.012268066406 1004.19482421875 1012.39099121094 1036.51550292969 1026.92810058594 1028.3330078125 1041.18505859375 1043.58679199219 1046.53393554688 1060.00463867188 1066.82678222656 1066.81628417969 1069.88757324219 1079.24768066406 1086.16467285156 1095.37072753906 1101.85192871094 1103.48559570312 1107.17260742188 1102.45983886719 1097.5947265625 1113.73254394531 1111.11010742188 1112.4931640625 1100.70202636719
985.982421875 987.154724121094 989.958129882812 992.549194335938 987.610412597656 990.648803710938 981.095092773438 996.54052734375 987.697143554688 985.926452636719 978.274963378906 971.725219726562 970.923522949219 972.193298339844 965.396423339844 981.1796875 982.027221679688 982.833251953125 979.823486328125 978.458435058594 977.766784667969 995.362121582031 991.407104492188 995.774658203125 997.801330566406 988.1015625 990.929382324219 999.095520019531 1002.54736328125 1016.0322265625 1019.96087646484 1026.73669433594 1016.43060302734 1023.74639892578 1015.97387695312 1013.25042724609 1024.8896484375 1028.7451171875 1039.12939453125 1038.01147460938 1036.37316894531 1036.18200683594 1033.29895019531 1026.11755371094 1028.32727050781 1025.70190429688 1031.41528320312 1025.69348144531 1024.27185058594 1026.39233398438 1018.00384521484 1014.34631347656 1010.81146240234 1012.32891845703 1013.09356689453 1021.17175292969 1019.3720703125 1015.65185546875 1022.42620849609 1025.05822753906 1023.46575927734 1019.64788818359 1025.13549804688 1029.64794921875 1032.23620605469 1021.82373046875 1006.92529296875 999.1435546875 1009.06280517578 1009.05401611328 1003.58258056641 1006.28277587891 1011.24822998047 1018.63793945312 1015.89288330078 1024.16296386719 1029.49572753906 1026.95446777344 1028.85852050781 1025.02856445312 1028.12805175781 1038.94921875 1027.81555175781 1023.69000244141 1012.02667236328 1002.49957275391 995.147827148438 983.782287597656 980.950927734375 968.387084960938 953.781372070312 961.924377441406 963.304748535156 964.619934082031 966.601257324219 970.141723632812 976.3798828125 974.356689453125 980.021667480469 977.52197265625 971.955078125 977.598388671875 975.234130859375 975.438415527344 975.67431640625 969.822204589844 971.867858886719 971.05810546875 980.5068359375 975.774719238281 978.980529785156 972.210327148438 957.435546875 936.578063964844 933.5849609375 926.310302734375 930.601501464844 934.893615722656 944.961364746094 957.801696777344 955.025024414062 958.79443359375 970.685852050781 989.571716308594 984.853698730469 990.856018066406 1000.13409423828 1015.83166503906 1033.52844238281 1035.36401367188 1025.64733886719 1042.32934570312 1039.50634765625 1049.6044921875 1055.08825683594 1062.83483886719 1066.4296875 1075.71496582031 1075.93286132812 1083.65100097656 1096.41625976562 1101.15466308594 1093.40576171875 1096.60498046875 1096.580078125 1101.4521484375 1100.71789550781 1110.75036621094 1112.43359375 1110.27587890625
976.786987304688 979.71923828125 985.017578125 985.700073242188 987.671325683594 982.825378417969 982.105895996094 991.147827148438 988.8955078125 984.918395996094 984.843627929688 978.606079101562 970.568542480469 973.718872070312 971.337829589844 980.744384765625 983.148803710938 974.285095214844 973.307189941406 970.060913085938 974.133361816406 988.679443359375 989.3232421875 994.21875 990.412231445312 991.627014160156 989.426635742188 1003.06488037109 1008.4267578125 1016.27478027344 1018.62249755859 1023.51092529297 1023.78717041016 1017.06146240234 1015.47601318359 1020.11340332031 1024.54833984375 1024.49499511719 1034.81811523438 1036.71228027344 1039.47436523438 1046.21826171875 1040.72045898438 1030.80700683594 1032.60266113281 1022.52508544922 1027.23278808594 1023.84283447266 1016.44525146484 1002.29193115234 1002.62591552734 1004.62396240234 1006.07727050781 1007.24780273438 1008.95190429688 1011.68682861328 1008.03161621094 1018.10040283203 1016.43780517578 1014.83935546875 1017.14666748047 1023.10565185547 1027.82299804688 1031.32360839844 1040.43420410156 1029.90856933594 1018.62231445312 1020.36676025391 1013.86730957031 1015.95367431641 1011.40356445312 1016.24206542969 1019.21087646484 1030.43176269531 1029.17822265625 1031.78894042969 1025.70922851562 1027.79406738281 1027.23620605469 1026.51574707031 1021.29675292969 1023.67523193359 1021.03363037109 1015.93408203125 1015.8076171875 1000.45971679688 997.836975097656 988.584838867188 988.225708007812 979.067016601562 963.645141601562 975.462341308594 976.305419921875 985.1142578125 981.519714355469 980.74658203125 986.179321289062 975.927978515625 979.154846191406 979.333740234375 974.840881347656 972.762573242188 976.9296875 987.062194824219 981.964782714844 982.467529296875 982.815795898438 966.310302734375 968.832153320312 976.203125 967.532531738281 967.221008300781 962.872741699219 954.760986328125 939.732604980469 938.349670410156 937.765380859375 931.731018066406 938.035522460938 946.186828613281 950.303100585938 955.157531738281 973.086791992188 994.171203613281 998.211364746094 1004.55352783203 1003.01867675781 1011.45520019531 1029.57922363281 1035.89965820312 1029.7734375 1042.80615234375 1050.1279296875 1049.00439453125 1055.00659179688 1059.65942382812 1066.51379394531 1071.15222167969 1073.67407226562 1083.38317871094 1093.62377929688 1095.66345214844 1101.0927734375 1093.73620605469 1102.5185546875 1102.68212890625 1105.90258789062 1108.49938964844 1115.55224609375 1110.43969726562
971.610229492188 977.12255859375 973.646667480469 981.0771484375 976.259582519531 972.048767089844 978.216735839844 982.473327636719 982.9404296875 985.334533691406 989.47314453125 977.076599121094 968.488464355469 969.4423828125 966.01708984375 971.368286132812 971.754089355469 963.962585449219 968.090270996094 959.796936035156 968.267700195312 984.967407226562 994.376159667969 999.252380371094 997.648498535156 997.712890625 988.01904296875 1008.83001708984 1013.19525146484 1012.73883056641 1012.60882568359 1024.40454101562 1027.65380859375 1019.48913574219 1020.01153564453 1017.57495117188 1014.03259277344 1018.81567382812 1028.64538574219 1035.10485839844 1037.43969726562 1037.19873046875 1047.93371582031 1038.68542480469 1039.13439941406 1039.46130371094 1032.34899902344 1012.17797851562 1017.86431884766 1005.10546875 1004.671875 1005.33233642578 1006.57336425781 1000.04772949219 1007.40606689453 1015.52069091797 1012.91040039062 1020.30810546875 1019.99591064453 1016.06890869141 1017.67028808594 1021.20166015625 1029.39587402344 1030.806640625 1031.54235839844 1026.05383300781 1030.63305664062 1022.11114501953 1019.95098876953 1024.26440429688 1019.55010986328 1021.6201171875 1029.06567382812 1026.92407226562 1028.90368652344 1029.73669433594 1026.45520019531 1030.31970214844 1028.63806152344 1025.48999023438 1024.11865234375 1029.10083007812 1018.94506835938 1013.5791015625 1015.98028564453 1009.6572265625 1012.21234130859 997.369018554688 990.039611816406 981.205383300781 976.426452636719 979.686950683594 978.631591796875 993.445617675781 990.297790527344 984.518127441406 984.860107421875 987.525390625 991.908264160156 986.284790039062 990.005249023438 983.378051757812 984.098999023438 991.273986816406 994.068786621094 990.811218261719 981.28125 968.248962402344 967.814025878906 969.911010742188 962.965637207031 962.331176757812 953.519958496094 955.064453125 938.934143066406 942.363342285156 936.819702148438 937.132446289062 938.421508789062 939.048217773438 947.310974121094 957.0341796875 977.068176269531 997.498962402344 999.254272460938 1007.58374023438 1010.58770751953 1023.34802246094 1030.09655761719 1031.86462402344 1039.38330078125 1051.67358398438 1040.3115234375 1050.84423828125 1061.22387695312 1062.51086425781 1064.08776855469 1063.80993652344 1066.49694824219 1075.97387695312 1084.91943359375 1093.86218261719 1094.30505371094 1106.87915039062 1107.99890136719 1103.935546875 1104.40173339844 1111.18469238281 1112.69262695312 1112.728515625
971.646057128906 963.355102539062 967.519348144531 964.150634765625 970.387817382812 970.806213378906 975.050170898438 967.828125 971.2314453125 975.492431640625 972.439086914062 971.253967285156 967.872863769531 961.089111328125 955.820617675781 966.8876953125 968.392333984375 951.212890625 957.801086425781 957.744079589844 957.836547851562 962.144836425781 982.254943847656 989.107666015625 1007.53491210938 1001.54742431641 1004.95935058594 1007.12841796875 1016.60192871094 1009.21484375 1012.94842529297 1023.41583251953 1031.44702148438 1028.53576660156 1025.46630859375 1022.45434570312 1016.70581054688 1018.02770996094 1020.12823486328 1028.96691894531 1031.44519042969 1033.16943359375 1032.87805175781 1036.80908203125 1032.52844238281 1027.98864746094 1024.65393066406 1009.51428222656 1005.57885742188 1003.63751220703 1011.37866210938 1007.56237792969 998.969360351562 998.568115234375 995.755859375 1014.00561523438 1015.58221435547 1021.29412841797 1023.32250976562 1023.31091308594 1028.08325195312 1025.01599121094 1020.67797851562 1025.81127929688 1026.53308105469 1022.83935546875 1025.17309570312 1030.67492675781 1031.87561035156 1027.54504394531 1023.45477294922 1020.13226318359 1018.74639892578 1022.64587402344 1024.29711914062 1026.67150878906 1029.15417480469 1037.2900390625 1027.59826660156 1018.30615234375 1026.15002441406 1020.88226318359 1012.61151123047 1008.48767089844 1013.56811523438 1017.91827392578 1009.94689941406 999.042297363281 994.214721679688 989.788513183594 979.470886230469 981.605285644531 981.689086914062 994.009887695312 995.939208984375 997.461608886719 990.463928222656 993.298828125 986.628540039062 986.27099609375 993.150756835938 987.416137695312 981.242736816406 1001.654296875 990.486938476562 993.100708007812 980.590881347656 971.604431152344 970.993408203125 973.741638183594 958.543640136719 955.026000976562 953.095764160156 940.993530273438 940.118408203125 933.210876464844 938.264343261719 935.627502441406 938.134765625 935.680236816406 943.994445800781 968.819641113281 984.189025878906 991.997741699219 1008.35388183594 1018.67010498047 1015.26086425781 1028.49401855469 1033.07348632812 1025.11389160156 1041.56518554688 1044.0380859375 1044.59692382812 1050.90148925781 1068.99426269531 1064.18969726562 1056.53735351562 1060.78503417969 1068.25048828125 1074.87255859375 1078.0205078125 1085.90112304688 1091.986328125 1095.17333984375 1097.63598632812 1106.05981445312 1101.26879882812 1109.29809570312 1110.13757324219 1105.96704101562
973.091125488281 964.640258789062 956.03515625 963.116882324219 960.376281738281 968.802734375 961.687133789062 966.1044921875 969.330688476562 958.89453125 960.772705078125 960.180114746094 960.768005371094 950.891052246094 951.734130859375 955.029052734375 951.134643554688 950.913452148438 958.590087890625 951.163879394531 954.017150878906 965.5810546875 983.80859375 994.372680664062 1007.29351806641 1002.45635986328 1011.21673583984 1002.43499755859 1008.48211669922 1011.71301269531 1020.69409179688 1019.66668701172 1018.259765625 1018.31329345703 1019.76763916016 1022.93475341797 1022.06158447266 1016.81640625 1014.82788085938 1015.16876220703 1020.02111816406 1025.2138671875 1029.69030761719 1030.87426757812 1029.87475585938 1021.69409179688 1009.73876953125 1005.17816162109 1002.74084472656 1006.02221679688 1005.55316162109 999.773193359375 992.334716796875 994.496887207031 1000.77252197266 1005.33276367188 1010.09167480469 1021.3408203125 1028.17260742188 1028.81945800781 1031.37817382812 1025.44982910156 1024.82189941406 1022.11993408203 1029.59167480469 1031.69506835938 1027.30310058594 1032.95739746094 1028.13623046875 1029.78381347656 1027.26293945312 1023.24914550781 1017.32067871094 1017.16772460938 1026.62182617188 1028.40173339844 1032.6220703125 1028.55151367188 1019.88195800781 1017.06756591797 1024.03088378906 1029.03405761719 1018.50854492188 1011.20825195312 1019.44873046875 1022.11413574219 1012.24676513672 1012.96520996094 1003.39385986328 995.643005371094 979.169311523438 987.819213867188 993.844909667969 997.494079589844 1000.53179931641 1002.98712158203 996.67724609375 990.678405761719 987.927490234375 985.375915527344 981.307495117188 983.197021484375 987.764587402344 994.900756835938 996.133483886719 991.943176269531 990.024963378906 970.568481445312 971.092651367188 968.924865722656 969.185424804688 954.859436035156 943.820739746094 946.805053710938 940.301513671875 929.136657714844 933.183532714844 945.528625488281 942.897827148438 948.003356933594 956.468078613281 968.815124511719 984.712158203125 988.529663085938 1001.79656982422 1017.14697265625 1022.89208984375 1027.95202636719 1031.03967285156 1034.16235351562 1040.40686035156 1049.60827636719 1052.18786621094 1065.49499511719 1059.69213867188 1063.57385253906 1057.21142578125 1060.52600097656 1060.197265625 1068.455078125 1070.62927246094 1077.8623046875 1084.09826660156 1091.66674804688 1098.1416015625 1099.38891601562 1104.4912109375 1107.35595703125 1100.01953125 1102.79748535156
965.452453613281 973.041870117188 958.976867675781 959.813781738281 952.345336914062 953.008483886719 951.670288085938 962.477783203125 964.622375488281 954.931579589844 953.342895507812 954.305541992188 947.597351074219 955.073913574219 953.166625976562 951.362060546875 955.359680175781 945.5859375 942.96923828125 955.698547363281 968.351806640625 976.58837890625 984.810791015625 995.820739746094 1000.51739501953 1000.51037597656 1012.49609375 1015.38977050781 1009.80657958984 1016.97094726562 1019.50677490234 1021.98272705078 1018.63720703125 1013.89019775391 1018.33331298828 1022.17639160156 1018.30145263672 1012.72027587891 1012.48278808594 1018.55548095703 1013.23211669922 1024.8271484375 1023.11688232422 1022.64544677734 1024.87158203125 1016.85455322266 1006.12091064453 1006.38348388672 1008.20465087891 1000.45886230469 997.661254882812 1000.75866699219 1007.18420410156 996.882934570312 996.651000976562 1003.21081542969 1015.47875976562 1020.45367431641 1024.8203125 1021.98754882812 1033.23461914062 1022.10900878906 1026.93774414062 1025.19787597656 1030.58154296875 1035.85852050781 1030.5703125 1025.56176757812 1025.95349121094 1029.236328125 1021.63677978516 1014.14215087891 1017.22937011719 1016.33416748047 1013.48486328125 1020.26934814453 1025.96423339844 1015.87774658203 1017.93371582031 1019.48455810547 1012.50091552734 1014.03759765625 1013.43487548828 1008.25067138672 1018.84985351562 1015.13153076172 1008.64794921875 1009.86474609375 1011.76147460938 1005.72930908203 1000.51977539062 1002.93273925781 1005.82641601562 1008.48712158203 1012.96520996094 1017.78942871094 1007.91284179688 1006.81140136719 999.244262695312 996.238830566406 1000.89758300781 1001.84326171875 997.944274902344 997.397155761719 994.81201171875 989.684936523438 987.326354980469 974.488952636719 972.637023925781 967.610656738281 961.147583007812 959.4755859375 949.410278320312 945.219909667969 946.217041015625 933.693054199219 940.120544433594 940.149536132812 950.76708984375 962.396423339844 957.362976074219 963.652221679688 977.207763671875 987.157470703125 1007.70043945312 1018.74005126953 1025.13830566406 1035.60388183594 1031.302734375 1036.24328613281 1038.29760742188 1050.17468261719 1054.96960449219 1060.2841796875 1061.86633300781 1050.38000488281 1048.48754882812 1054.09033203125 1058.07824707031 1064.20373535156 1069.66271972656 1076.04052734375 1080.92797851562 1079.99047851562 1087.42846679688 1093.27136230469 1102.33337402344 1102.21179199219 1111.73400878906 1106.138671875
960.376403808594 969.360778808594 954.22119140625 945.315307617188 941.153259277344 941.904052734375 947.791259765625 955.183410644531 959.74658203125 960.162109375 954.251892089844 952.832946777344 956.012939453125 957.164184570312 954.097778320312 948.226745605469 948.371643066406 946.578063964844 953.828369140625 966.341247558594 970.379211425781 975.437377929688 987.906921386719 997.113952636719 992.409790039062 998.755920410156 1010.48687744141 1010.06311035156 1014.29809570312 1011.89343261719 1012.68133544922 1016.97943115234 1017.63433837891 1015.05450439453 1015.30810546875 1010.23132324219 1022.53277587891 1014.15344238281 1009.74981689453 1008.29565429688 1016.35906982422 1021.07122802734 1023.40295410156 1018.77655029297 1021.54608154297 1007.94982910156 1006.58392333984 1008.92340087891 1003.34143066406 995.216674804688 994.084350585938 988.385192871094 993.519226074219 994.958862304688 992.469665527344 1004.08435058594 1009.77484130859 1017.3525390625 1024.29077148438 1025.46032714844 1028.16662597656 1020.76422119141 1022.79144287109 1031.19970703125 1026.30688476562 1031.32177734375 1028.78149414062 1021.44085693359 1019.91473388672 1019.01068115234 1018.26605224609 1013.99505615234 1014.68316650391 1018.31811523438 1009.03045654297 1010.78289794922 1015.85028076172 1016.38653564453 1010.85980224609 1008.50067138672 1011.99395751953 1014.50042724609 1008.04400634766 1008.63977050781 1010.2978515625 1010.11987304688 1005.30676269531 1006.11383056641 1010.40075683594 1007.95220947266 1017.29986572266 1015.6005859375 1014.85278320312 1017.60369873047 1027.66235351562 1025.50231933594 1028.02600097656 1020.70080566406 1015.08740234375 1007.11761474609 1002.73065185547 999.628356933594 995.006530761719 980.653137207031 997.058410644531 988.232116699219 990.937133789062 991.577392578125 984.535888671875 975.717102050781 967.762939453125 948.565124511719 956.56005859375 953.994323730469 962.139221191406 947.527465820312 945.478088378906 952.125 958.254272460938 973.414489746094 974.960632324219 971.796264648438 971.937133789062 993.348327636719 1015.31256103516 1020.30535888672 1029.84899902344 1045.04162597656 1029.08532714844 1039.14208984375 1041.30712890625 1043.44604492188 1044.10144042969 1061.86511230469 1062.9853515625 1054.15783691406 1046.10388183594 1053.54711914062 1062.1064453125 1058.349609375 1064.59912109375 1069.28649902344 1081.26123046875 1085.63098144531 1086.16223144531 1087.3125 1092.59289550781 1096.45825195312 1105.68664550781 1100.96704101562
953.768432617188 960.091003417969 950.683532714844 940.4638671875 936.327087402344 936.478454589844 943.773132324219 956.171325683594 940.937927246094 949.766845703125 963.299438476562 954.758117675781 952.309020996094 964.160705566406 966.7177734375 956.627624511719 948.57861328125 954.142700195312 951.674194335938 968.497741699219 976.1884765625 976.866333007812 981.177673339844 998.216674804688 990.388122558594 997.861083984375 1005.02703857422 1007.18267822266 1009.076171875 1010.22076416016 1010.43432617188 1009.31127929688 1004.94262695312 1009.19036865234 1004.19989013672 1012.10278320312 1010.53564453125 1013.19647216797 1009.65307617188 1013.20709228516 1015.86968994141 1020.36688232422 1021.01892089844 1016.71142578125 1015.93109130859 1008.06677246094 1000.46118164062 1003.62939453125 1006.17199707031 997.910400390625 991.325073242188 983.845336914062 995.038635253906 992.662475585938 994.1005859375 994.549011230469 1006.51739501953 1011.81823730469 1016.6875 1010.30407714844 1020.60552978516 1018.84259033203 1026.58825683594 1029.56066894531 1028.33044433594 1020.63421630859 1022.78466796875 1022.68963623047 1020.39672851562 1020.85632324219 1017.86383056641 1013.85760498047 1012.56195068359 1013.35046386719 1007.22692871094 1008.60491943359 1003.17657470703 1005.11608886719 1005.29718017578 1001.01495361328 1002.63269042969 1012.80352783203 1012.23553466797 1011.669921875 1012.43225097656 1007.46643066406 1008.87524414062 1006.2314453125 1008.99243164062 1008.17724609375 1004.86706542969 1014.34381103516 1021.51910400391 1014.15979003906 1022.68896484375 1029.21704101562 1030.611328125 1027.01489257812 1016.10015869141 1012.54058837891 1009.34997558594 1009.80450439453 1004.10595703125 995.669555664062 1005.48571777344 1000.78961181641 1003.86584472656 990.782836914062 982.045471191406 983.532653808594 971.199096679688 963.107177734375 957.967956542969 953.23388671875 958.698913574219 958.756042480469 951.134643554688 954.990295410156 967.35009765625 979.026306152344 976.94921875 984.695556640625 986.820495605469 1001.46044921875 1017.88153076172 1029.07287597656 1038.20922851562 1037.58276367188 1042.728515625 1050.56713867188 1040.72131347656 1052.49182128906 1044.82336425781 1055.80285644531 1065.32189941406 1052.69616699219 1056.65893554688 1049.31335449219 1051.45349121094 1052.64807128906 1059.63427734375 1061.31066894531 1075.15612792969 1077.41174316406 1079.01599121094 1080.51708984375 1082.10144042969 1087.45581054688 1093.88989257812 1107.97009277344
945.089477539062 950.7841796875 945.768859863281 943.301391601562 935.959594726562 933.057495117188 950.707946777344 950.827941894531 943.9072265625 953.684265136719 965.131408691406 964.130065917969 960.401916503906 962.191040039062 958.824584960938 955.665832519531 951.954040527344 953.71484375 957.316162109375 960.222351074219 967.174194335938 963.069946289062 980.059753417969 986.412780761719 985.355590820312 995.144287109375 993.885498046875 998.984741210938 1001.34759521484 1010.19018554688 1009.28485107422 1010.97796630859 1008.38989257812 994.678588867188 991.426818847656 1001.40783691406 1000.75469970703 1010.38958740234 1008.35009765625 1011.50952148438 1013.79986572266 1013.54089355469 1011.40692138672 1007.34155273438 1020.00048828125 997.559509277344 1004.58056640625 997.089294433594 992.356811523438 994.946350097656 996.069030761719 991.386657714844 985.805969238281 990.1962890625 995.820678710938 993.672180175781 1003.8896484375 1003.49981689453 1014.73541259766 1006.35620117188 1012.13702392578 1018.87023925781 1019.93756103516 1013.62994384766 1015.77130126953 1010.70922851562 1015.38098144531 1017.63427734375 1024.80786132812 1020.88189697266 1012.89410400391 1003.49853515625 996.732604980469 1000.25311279297 1000.29742431641 1002.46887207031 997.930480957031 1006.31781005859 1001.49816894531 999.933288574219 1000.28326416016 1002.44311523438 1002.98858642578 1011.53503417969 1018.30718994141 1013.34838867188 1005.31994628906 1009.19482421875 1017.56713867188 1020.06964111328 1014.70574951172 1013.47406005859 1019.70971679688 1019.92175292969 1020.46240234375 1031.19592285156 1037.96752929688 1026.48657226562 1015.64880371094 1009.23583984375 1003.89953613281 1006.03265380859 1005.49407958984 1002.96411132812 1007.85406494141 1007.48516845703 1012.85235595703 997.4453125 988.666931152344 976.547424316406 976.692565917969 966.657653808594 959.392211914062 956.937927246094 955.422058105469 962.289672851562 966.228454589844 971.10009765625 982.5048828125 995.874267578125 996.828186035156 995.354248046875 993.845947265625 1004.90679931641 1020.02313232422 1036.18420410156 1040.89660644531 1036.39001464844 1043.18530273438 1044.86975097656 1047.48449707031 1046.57434082031 1051.17626953125 1047.82409667969 1042.53857421875 1040.52722167969 1058.90148925781 1055.11315917969 1050.71887207031 1056.55310058594 1058.27526855469 1060.51428222656 1065.89758300781 1070.33874511719 1071.48498535156 1069.60241699219 1078.55834960938 1087.86865234375 1101.25903320312 1102.34448242188
941.015747070312 952.691955566406 939.122436523438 944.478271484375 937.684753417969 941.833251953125 948.868957519531 948.775390625 955.717590332031 949.93896484375 962.369323730469 965.493835449219 962.575073242188 953.518127441406 955.026123046875 956.928283691406 955.901916503906 960.98095703125 961.287170410156 965.593139648438 964.055480957031 967.064270019531 968.773254394531 971.70458984375 976.423400878906 993.595153808594 991.931457519531 995.356872558594 984.164306640625 989.608093261719 1004.10052490234 1004.08917236328 1004.00988769531 993.084838867188 999.081848144531 993.638427734375 1006.39611816406 1002.82177734375 1005.39392089844 1001.01635742188 1009.17828369141 1006.45831298828 1007.31042480469 1011.83319091797 1011.43170166016 1004.37548828125 993.807373046875 993.328491210938 993.011962890625 991.49072265625 992.207641601562 984.795715332031 984.688659667969 985.101745605469 989.777282714844 993.649047851562 995.863647460938 996.208374023438 1008.06243896484 1002.17395019531 1008.04681396484 1007.83636474609 1006.80725097656 1011.47216796875 1011.48498535156 1013.44049072266 1014.55236816406 1014.47265625 1010.23913574219 1012.03924560547 1008.44921875 1006.20922851562 994.207580566406 991.637512207031 998.450561523438 999.762512207031 994.114990234375 1000.501953125 1002.82061767578 991.795776367188 998.6220703125 1001.70532226562 1001.71130371094 1004.80267333984 1008.01098632812 1010.939453125 1013.89660644531 1010.01470947266 1012.31170654297 1016.00671386719 1006.75128173828 1010.52709960938 1005.02545166016 1017.15295410156 1026.16931152344 1022.76806640625 1028.21203613281 1022.80560302734 1024.35278320312 1008.40759277344 1008.94848632812 1005.46917724609 1001.00909423828 1006.39447021484 1007.51422119141 1007.80987548828 1007.36065673828 994.728759765625 989.826965332031 984.70166015625 971.264465332031 964.930541992188 958.414855957031 946.663330078125 947.153076171875 955.392944335938 962.610534667969 972.806030273438 984.710876464844 989.724975585938 992.560546875 994.060791015625 1004.89758300781 1017.96643066406 1032.98742675781 1039.95959472656 1053.93798828125 1043.55615234375 1040.85546875 1056.18957519531 1048.30700683594 1043.75061035156 1044.51428222656 1034.88427734375 1042.28210449219 1041.14538574219 1044.24096679688 1048.29345703125 1038.67907714844 1048.5224609375 1056.40576171875 1059.45288085938 1062.17895507812 1071.42016601562 1061.03662109375 1068.27905273438 1074.13256835938 1084.80493164062 1100.19201660156 1110.29296875
941.09716796875 951.517639160156 947.6279296875 947.953491210938 948.258239746094 946.08984375 949.719055175781 959.845886230469 956.349731445312 955.128479003906 968.668273925781 974.289428710938 957.106323242188 957.24169921875 964.000793457031 963.3212890625 964.467407226562 965.005859375 970.552429199219 963.70458984375 966.727661132812 970.443786621094 969.747680664062 972.727722167969 974.896728515625 985.133850097656 992.678527832031 995.64013671875 990.622131347656 989.549987792969 987.370544433594 995.412658691406 995.108703613281 993.327087402344 999.308410644531 1004.26531982422 1002.68151855469 999.16943359375 1002.2275390625 1001.34661865234 1002.20635986328 1009.36016845703 1006.10913085938 1013.68188476562 1007.67584228516 998.984191894531 990.271057128906 990.1630859375 988.069458007812 987.223083496094 984.722229003906 977.79833984375 978.025573730469 981.333923339844 988.842834472656 993.831115722656 990.723754882812 995.007568359375 995.049072265625 997.883544921875 999.112182617188 1003.87707519531 1005.39959716797 1006.09820556641 1010.57861328125 1013.36108398438 1010.40118408203 1008.97760009766 1008.9267578125 1002.13909912109 1006.86212158203 1012.05181884766 1003.67645263672 999.131469726562 993.998718261719 994.890808105469 1001.08093261719 1002.44366455078 999.740417480469 996.097839355469 991.605651855469 989.543273925781 991.514587402344 989.053894042969 1000.28118896484 1010.21685791016 1018.34497070312 1018.65301513672 1011.81848144531 1021.20709228516 1013.42614746094 1005.32629394531 1002.44140625 1010.05822753906 1013.2763671875 1013.21752929688 1022.79888916016 1028.65502929688 1022.59265136719 1021.62701416016 1018.18939208984 1012.95794677734 1005.76635742188 1002.42468261719 1001.94281005859 1008.76159667969 1003.06286621094 996.172302246094 991.377014160156 981.9716796875 966.4453125 964.732238769531 949.383972167969 942.456298828125 937.052307128906 953.618041992188 961.768188476562 973.400756835938 990.011901855469 995.551147460938 997.994079589844 1002.58551025391 1011.78759765625 1020.58612060547 1023.63891601562 1036.26245117188 1039.02502441406 1038.11267089844 1045.91528320312 1050.06921386719 1047.72888183594 1041.23828125 1043.25708007812 1042.26220703125 1037.47802734375 1041.75 1040.94104003906 1041.40515136719 1049.58557128906 1046.31604003906 1053.43444824219 1059.5498046875 1067.32434082031 1067.75073242188 1068.49951171875 1069.41137695312 1072.58581542969 1081.869140625 1093.49328613281 1112.73193359375
947.150512695312 955.216003417969 949.974060058594 951.136291503906 947.825073242188 943.107482910156 958.390808105469 963.294372558594 958.284912109375 963.10791015625 971.392700195312 978.254577636719 979.489807128906 976.5888671875 970.113525390625 972.361572265625 967.876281738281 968.883178710938 971.434204101562 970.348266601562 975.832885742188 982.386352539062 979.639465332031 974.697448730469 969.489501953125 981.817993164062 987.705871582031 991.543823242188 986.031616210938 994.390075683594 995.537902832031 997.630187988281 996.235717773438 989.517883300781 996.587768554688 1002.19573974609 994.293884277344 994.598999023438 988.340148925781 990.209167480469 997.617492675781 1003.95306396484 1010.90753173828 1015.07818603516 1005.10626220703 1003.50244140625 996.143249511719 989.154968261719 985.674011230469 988.228820800781 983.472534179688 973.564025878906 975.675048828125 985.427429199219 989.007141113281 993.39599609375 992.661743164062 986.831115722656 995.504821777344 1000.6689453125 1001.86218261719 1001.14367675781 1009.17016601562 1015.90985107422 1008.89410400391 1003.70104980469 1001.87731933594 1001.91082763672 1006.13104248047 1005.17932128906 1005.51019287109 1010.03375244141 1014.63665771484 1003.79431152344 997.155334472656 999.96337890625 992.619262695312 997.807800292969 995.977416992188 992.126831054688 988.388427734375 992.214782714844 989.898193359375 991.901245117188 999.28173828125 1013.68505859375 1013.67932128906 1013.75958251953 1020.81408691406 1020.64874267578 1023.90051269531 1010.15002441406 1003.99554443359 1013.99304199219 1010.14904785156 1014.28845214844 1018.35992431641 1019.71136474609 1017.68823242188 1014.04663085938 1009.09191894531 1013.07061767578 1002.55285644531 999.688842773438 997.655395507812 1005.87951660156 1004.52514648438 995.573852539062 990.468688964844 981.4404296875 965.858337402344 959.957702636719 946.301330566406 940.762756347656 941.921997070312 949.296875 962.586853027344 972.184631347656 984.289733886719 1000.38525390625 1006.5791015625 1013.52252197266 1022.37493896484 1019.43048095703 1030.36779785156 1031.5830078125 1034.43542480469 1044.98974609375 1052.51513671875 1054.69909667969 1051.60546875 1043.83642578125 1043.83264160156 1043.46105957031 1040.98107910156 1043.53039550781 1041.60021972656 1038.76293945312 1040.89770507812 1044.56274414062 1061.017578125 1063.09411621094 1065.29040527344 1066.72082519531 1063.20458984375 1057.92883300781 1065.73815917969 1076.57336425781 1090.50415039062 1108.58630371094
953.641235351562 953.671936035156 953.479187011719 946.918090820312 955.403015136719 953.749755859375 966.955688476562 964.865905761719 952.831726074219 962.843017578125 956.374816894531 972.774353027344 974.239868164062 981.302856445312 975.663024902344 971.825378417969 963.560302734375 977.179931640625 979.298095703125 984.731384277344 979.507873535156 983.319030761719 982.230529785156 978.400634765625 976.3330078125 983.16650390625 986.195739746094 994.374633789062 994.401428222656 982.86083984375 987.523010253906 993.893432617188 996.085998535156 993.582153320312 993.23388671875 995.961791992188 988.773071289062 987.491333007812 995.387878417969 979.749145507812 978.539428710938 993.208190917969 1006.54388427734 1002.24224853516 1000.81793212891 1000.33831787109 984.066345214844 985.576538085938 984.749267578125 979.309997558594 969.255432128906 962.588134765625 974.268676757812 990.452209472656 996.228820800781 990.932189941406 984.797790527344 985.856018066406 997.799133300781 998.579772949219 1000.03991699219 1003.92755126953 1002.64221191406 1009.03698730469 1015.97540283203 1006.18054199219 998.818237304688 997.523254394531 1009.80987548828 1004.40075683594 1001.98101806641 1006.70446777344 1002.15637207031 1001.63311767578 999.139953613281 1001.08197021484 1000.27880859375 1002.05236816406 994.7109375 990.903747558594 992.034912109375 992.921630859375 994.527526855469 999.455871582031 1001.22576904297 1016.58514404297 1014.51885986328 1019.84143066406 1019.12042236328 1012.11700439453 1018.09075927734 1019.41619873047 1011.68151855469 1016.33813476562 1010.58746337891 1014.11804199219 1015.59326171875 1028.49938964844 1022.87994384766 1017.03991699219 1017.36383056641 1017.73480224609 1010.99572753906 995.505187988281 994.751953125 1006.18505859375 1002.70843505859 998.034240722656 993.980895996094 980.860168457031 972.15087890625 955.911804199219 946.501831054688 940.833557128906 947.68408203125 946.8798828125 959.4658203125 969.207641601562 976.898803710938 1000.61334228516 1006.44366455078 1015.97583007812 1025.93298339844 1029.56945800781 1037.88073730469 1032.86840820312 1040.58923339844 1046.41223144531 1054.68298339844 1055.05981445312 1053.60095214844 1049.52368164062 1046.07836914062 1047.04260253906 1045.52075195312 1038.88049316406 1033.123046875 1037.84753417969 1038.05505371094 1049.62194824219 1051.60546875 1059.93054199219 1060.02185058594 1064.05029296875 1057.10485839844 1062.87097167969 1074.13720703125 1077.68395996094 1089.73083496094 1105.37292480469
955.525268554688 958.088439941406 961.809448242188 963.088439941406 958.690246582031 957.968078613281 963.158386230469 964.466247558594 967.460266113281 969.516906738281 969.202087402344 979.137329101562 970.378234863281 966.381591796875 968.693359375 963.619812011719 968.618225097656 969.508056640625 974.1650390625 977.328186035156 977.226379394531 983.763610839844 976.700561523438 979.896301269531 977.58935546875 980.386962890625 991.546142578125 995.717102050781 996.26513671875 984.795593261719 987.763244628906 985.248046875 983.650024414062 989.744567871094 994.994079589844 1003.75744628906 994.106201171875 989.196411132812 984.065856933594 975.795837402344 978.158508300781 990.348693847656 993.335144042969 989.391723632812 994.226501464844 992.775451660156 986.472534179688 990.163696289062 985.160705566406 972.290954589844 964.36376953125 962.633728027344 972.690063476562 968.698669433594 987.591125488281 987.845825195312 986.69580078125 991.285339355469 983.063903808594 986.412536621094 992.970275878906 995.925476074219 995.807983398438 1001.74310302734 1008.94537353516 1004.66918945312 995.791748046875 1003.31683349609 1003.44232177734 1011.48626708984 1002.87725830078 1001.99987792969 1002.86529541016 1005.53100585938 1003.6630859375 1001.94378662109 998.814636230469 1004.92669677734 990.376892089844 986.092529296875 993.402038574219 995.420166015625 992.034057617188 997.468383789062 1014.13330078125 1011.96630859375 1012.83959960938 1012.26831054688 1007.71081542969 1006.49169921875 1012.69549560547 1011.49560546875 1028.0703125 1017.84039306641 1015.05847167969 1017.67828369141 1015.38403320312 1021.72155761719 1022.39025878906 1009.85125732422 1011.04150390625 1012.22570800781 1012.20397949219 1003.84234619141 1002.57861328125 1006.57019042969 1007.68395996094 1008.51507568359 1003.56512451172 990.828918457031 977.366271972656 963.40869140625 950.761108398438 936.522033691406 939.299011230469 946.537841796875 956.991455078125 970.516479492188 974.516845703125 997.335388183594 1011.02880859375 1016.82989501953 1027.98742675781 1027.86987304688 1021.92059326172 1026.83740234375 1034.07055664062 1043.6630859375 1045.10485839844 1051.43615722656 1057.05053710938 1042.52819824219 1041.78161621094 1042.60803222656 1034.17346191406 1034.61962890625 1034.02587890625 1036.25231933594 1043.65258789062 1054.3623046875 1053.53857421875 1063.72082519531 1063.08654785156 1069.97717285156 1064.95007324219 1069.24938964844 1071.80773925781 1080.90991210938 1092.56982421875 1095.92126464844
964.836669921875 958.433471679688 956.446228027344 962.181762695312 968.456970214844 967.3798828125 961.712951660156 967.670043945312 964.598754882812 971.567504882812 977.852294921875 974.345397949219 970.506408691406 970.648620605469 972.679443359375 979.723327636719 980.700317382812 978.276489257812 976.980102539062 975.507934570312 984.462036132812 974.729309082031 975.877807617188 975.200500488281 980.280883789062 980.844482421875 993.079833984375 992.746887207031 989.511657714844 983.652587890625 988.334228515625 984.559143066406 985.688537597656 979.066467285156 992.685180664062 998.793212890625 994.20361328125 987.73388671875 989.138732910156 982.91015625 977.541564941406 988.029479980469 993.7001953125 987.738098144531 988.654846191406 990.099975585938 982.129211425781 980.517150878906 977.697326660156 971.905700683594 972.6435546875 963.911682128906 967.765747070312 967.104064941406 981.500854492188 984.889465332031 984.506652832031 996.78564453125 995.645690917969 994.213195800781 995.068603515625 999.501586914062 999.336486816406 997.378845214844 998.764587402344 998.676574707031 1002.14672851562 1005.92425537109 1004.15509033203 1001.92657470703 1006.42816162109 1003.953125 998.486328125 1005.57067871094 1001.62640380859 994.520568847656 986.873229980469 983.26171875 996.455749511719 990.306579589844 989.46142578125 992.5751953125 995.69873046875 1010.68041992188 1015.35424804688 1011.21051025391 1005.80450439453 1007.06066894531 1003.45080566406 1006.14849853516 1007.56719970703 1014.69012451172 1021.65496826172 1022.65063476562 1017.81683349609 1019.72924804688 1023.95184326172 1021.16857910156 1006.40545654297 1004.85223388672 1008.88977050781 1015.55725097656 1008.33532714844 1003.56146240234 1001.25500488281 1009.044921875 1002.83837890625 1000.38909912109 1003.93304443359 984.785278320312 976.447631835938 964.056396484375 942.674865722656 948.521728515625 949.526489257812 956.525573730469 961.603942871094 972.443542480469 980.413696289062 993.896911621094 1005.04107666016 1012.90600585938 1018.70648193359 1025.39379882812 1020.35076904297 1025.35290527344 1032.25732421875 1033.06335449219 1045.05834960938 1039.26391601562 1039.51208496094 1037.65637207031 1034.64123535156 1028.93432617188 1026.07861328125 1030.19665527344 1025.91711425781 1028.04699707031 1041.69152832031 1049.99597167969 1062.01904296875 1059.70568847656 1068.70385742188 1070.10949707031 1081.36791992188 1085.25524902344 1082.40490722656 1091.16784667969 1097.11218261719 1095.75268554688
955.393737792969 954.950988769531 960.4765625 963.317260742188 968.919982910156 970.104858398438 968.3212890625 963.557006835938 966.366271972656 972.161254882812 979.769897460938 977.458190917969 976.252136230469 971.810607910156 971.450012207031 968.3583984375 979.442810058594 981.235534667969 985.573791503906 983.498779296875 985.616455078125 982.700805664062 988.663146972656 973.404052734375 977.053833007812 984.451416015625 992.499328613281 994.430053710938 980.067138671875 974.514282226562 987.063842773438 986.484802246094 987.219543457031 982.570556640625 991.390075683594 990.269104003906 983.124206542969 989.513854980469 992.540222167969 983.984741210938 983.591064453125 980.329284667969 975.319702148438 980.087219238281 987.109497070312 989.588500976562 989.72607421875 988.238525390625 980.641906738281 980.577941894531 976.845092773438 979.84912109375 976.141052246094 978.682312011719 991.251281738281 988.17724609375 982.250915527344 994.907836914062 995.402954101562 987.340454101562 989.69775390625 990.051940917969 992.438781738281 994.270629882812 995.339294433594 984.037536621094 988.544494628906 995.498291015625 1000.35852050781 1003.18701171875 999.138610839844 990.91015625 991.455749511719 990.301025390625 990.938232421875 984.988525390625 990.162231445312 979.699584960938 981.613830566406 980.558532714844 990.087585449219 993.112365722656 997.888427734375 999.824035644531 1010.8447265625 1005.57165527344 997.842651367188 1000.23626708984 992.415405273438 1005.92523193359 1017.79931640625 1012.24945068359 1023.48809814453 1019.25518798828 1019.50091552734 1018.19506835938 1021.96197509766 1015.01470947266 1008.06396484375 1007.14819335938 1010.81005859375 1006.14331054688 1004.73388671875 998.474792480469 1006.5771484375 1015.13629150391 1007.55603027344 997.409484863281 995.766845703125 989.289001464844 977.408325195312 970.316284179688 956.883117675781 947.1181640625 952.393981933594 957.022888183594 970.825866699219 974.426330566406 990.893371582031 995.754577636719 1000.78466796875 1009.09729003906 1005.71911621094 1010.10394287109 1016.22491455078 1021.69781494141 1024.43884277344 1029.49682617188 1030.57604980469 1038.04418945312 1036.98852539062 1028.61987304688 1019.70257568359 1017.33465576172 1024.08215332031 1025.34484863281 1036.27746582031 1029.00708007812 1045.66796875 1055.28332519531 1065.95153808594 1063.23742675781 1073.35083007812 1075.09289550781 1081.08386230469 1089.82727050781 1085.43908691406 1095.87390136719 1103.52270507812 1101.48095703125
955.103088378906 945.742919921875 957.290588378906 965.257690429688 968.38623046875 969.187866210938 975.977844238281 973.759399414062 972.440246582031 971.213562011719 969.634704589844 978.109130859375 974.572631835938 977.152099609375 973.847717285156 968.92431640625 980.35986328125 984.738403320312 991.940795898438 992.836608886719 990.519104003906 991.144653320312 972.433288574219 979.165588378906 985.94677734375 987.835266113281 994.942199707031 985.917602539062 993.365295410156 986.865112304688 973.144653320312 981.744873046875 982.943420410156 969.036193847656 976.121032714844 985.075805664062 980.474426269531 979.29248046875 982.12255859375 978.325744628906 975.719177246094 975.007995605469 970.694458007812 979.659484863281 984.984436035156 989.694702148438 984.583984375 990.396667480469 987.299621582031 978.124877929688 978.700012207031 979.532653808594 984.933349609375 981.47119140625 996.278747558594 991.433288574219 991.028381347656 996.878173828125 998.73876953125 988.176208496094 987.755615234375 992.115600585938 991.490051269531 998.778930664062 995.445129394531 992.814025878906 992.383666992188 999.359191894531 996.962890625 990.699523925781 989.90673828125 986.968811035156 989.175964355469 982.959899902344 977.473205566406 981.567504882812 974.802001953125 970.340454101562 970.075317382812 983.2236328125 984.287353515625 982.922180175781 989.767883300781 996.3271484375 1002.41662597656 1005.47473144531 1000.43585205078 1004.24938964844 998.101135253906 1006.93792724609 1015.8349609375 1015.01153564453 1021.52117919922 1017.13049316406 1017.00122070312 1007.92242431641 1013.67272949219 1002.30151367188 1000.64221191406 1001.16058349609 1000.46459960938 1009.22802734375 1003.87249755859 995.999572753906 1008.67022705078 1009.35931396484 1001.38134765625 998.796997070312 993.922241210938 988.340148925781 976.7236328125 973.890930175781 961.837341308594 949.686340332031 945.895874023438 954.742980957031 960.910949707031 979.715026855469 989.666564941406 993.18212890625 997.634765625 1001.712890625 1001.50152587891 1004.56652832031 1006.33508300781 1017.68432617188 1014.55133056641 1020.50250244141 1028.27258300781 1024.38635253906 1023.65557861328 1024.23181152344 1004.74554443359 1013.89166259766 1016.19110107422 1022.71606445312 1021.4775390625 1025.38623046875 1037.70788574219 1058.68701171875 1067.85974121094 1065.41809082031 1072.10034179688 1072.78076171875 1083.24816894531 1081.20544433594 1091.62231445312 1096.90466308594 1101.66394042969 1106.20678710938
955.831665039062 954.654174804688 955.334594726562 957.939514160156 963.114624023438 970.480285644531 976.250854492188 976.765258789062 979.186462402344 976.514953613281 976.690673828125 975.403381347656 976.492309570312 982.436889648438 986.471557617188 971.575622558594 972.057189941406 974.577331542969 982.704040527344 992.195678710938 988.046752929688 989.314758300781 982.108093261719 986.277526855469 991.577697753906 981.559936523438 984.412231445312 987.210510253906 991.098083496094 989.222534179688 986.853515625 982.382019042969 976.67578125 974.183349609375 981.920227050781 976.837768554688 974.494873046875 971.838317871094 977.139404296875 973.325866699219 972.895446777344 970.872375488281 972.236450195312 981.298522949219 989.75048828125 991.049743652344 987.985473632812 992.510314941406 986.157043457031 983.935913085938 980.015930175781 977.072509765625 984.802490234375 987.602966308594 991.412475585938 999.689392089844 992.9140625 997.363098144531 993.95703125 988.424865722656 990.943603515625 994.201599121094 992.618530273438 988.330627441406 986.506896972656 994.369506835938 985.167236328125 991.923156738281 989.660888671875 983.606628417969 973.555236816406 975.561218261719 976.697204589844 976.496398925781 981.885009765625 971.17578125 973.86474609375 974.158569335938 973.29541015625 981.416381835938 989.184204101562 990.434814453125 993.35205078125 1010.54461669922 1006.36944580078 998.965637207031 991.979553222656 1001.03082275391 1005.77087402344 1003.2373046875 1011.87310791016 1012.27856445312 1016.33929443359 1010.02136230469 1004.81201171875 1006.94323730469 1008.22192382812 997.264099121094 998.123352050781 1007.11724853516 1004.29553222656 1011.791015625 1005.52014160156 1008.26312255859 1000.36688232422 1007.45367431641 1001.52600097656 997.876708984375 998.000610351562 987.809326171875 985.402160644531 984.142395019531 972.264343261719 962.53076171875 964.135864257812 967.744262695312 962.9306640625 981.329956054688 981.935852050781 988.782287597656 1000.89331054688 997.898681640625 1003.1884765625 1002.80432128906 1001.94226074219 1018.154296875 1010.51892089844 1014.04180908203 1011.23315429688 1017.00415039062 1018.63739013672 1020.51177978516 1010.77545166016 1015.06463623047 1012.00183105469 1019.68005371094 1011.67242431641 1030.21118164062 1040.21215820312 1059.02502441406 1054.31750488281 1062.63525390625 1070.19274902344 1075.99157714844 1081.81774902344 1084.42517089844 1097.77673339844 1098.59118652344 1102.7236328125 1103.25537109375
952.660888671875 960.457397460938 960.211975097656 953.704223632812 956.938049316406 963.876831054688 974.760925292969 985.129455566406 981.39453125 978.087158203125 975.280334472656 971.124206542969 979.550231933594 976.144470214844 974.407287597656 977.523559570312 967.719116210938 965.222473144531 980.864868164062 991.318298339844 989.0048828125 986.617126464844 992.056762695312 987.689208984375 981.215515136719 976.792663574219 978.446166992188 983.728271484375 986.363708496094 985.2998046875 996.50439453125 992.555541992188 979.231079101562 980.48779296875 976.945373535156 984.138977050781 977.584045410156 971.440124511719 973.432312011719 970.245849609375 975.954895019531 977.117248535156 982.523071289062 986.248840332031 986.740966796875 986.519714355469 985.354370117188 987.01953125 984.669250488281 976.366027832031 979.979797363281 976.782348632812 976.788513183594 977.993347167969 985.152099609375 996.482421875 997.486938476562 996.581665039062 990.41943359375 992.810852050781 991.383117675781 992.790649414062 1001.55621337891 991.095275878906 988.685729980469 990.575988769531 994.2353515625 994.751342773438 991.834838867188 975.160766601562 966.906616210938 960.750244140625 974.5107421875 969.632934570312 977.408142089844 976.297241210938 973.791564941406 969.270690917969 977.7490234375 976.195007324219 992.405944824219 993.926452636719 1002.60614013672 1001.08276367188 1011.25109863281 993.532653808594 1000.69940185547 1000.39453125 1004.29467773438 1000.09185791016 1011.45208740234 1019.54229736328 1009.66534423828 1009.28051757812 1006.05535888672 1010.33605957031 1007.12036132812 997.175720214844 987.332824707031 1002.25317382812 991.270874023438 1004.23724365234 997.381591796875 999.840148925781 994.354125976562 1000.90338134766 996.0634765625 995.377807617188 994.443908691406 989.672424316406 986.463684082031 990.323547363281 989.767944335938 974.704223632812 973.667053222656 975.057983398438 971.686645507812 974.446960449219 990.716857910156 982.765869140625 988.213745117188 988.380126953125 990.093200683594 1002.95837402344 1003.97436523438 1008.01470947266 1003.11505126953 997.901916503906 1001.80859375 1010.37084960938 1017.62268066406 1016.14514160156 1014.68640136719 1013.97222900391 1019.13360595703 1014.53424072266 1019.24731445312 1026.34228515625 1039.78857421875 1055.25598144531 1065.65673828125 1061.59826660156 1066.67126464844 1076.29919433594 1079.79650878906 1084.64477539062 1107.32629394531 1108.07739257812 1107.59753417969 1109.26403808594
954.32861328125 953.397033691406 961.42919921875 958.462524414062 960.293579101562 967.977111816406 970.344177246094 978.253356933594 981.299987792969 975.830993652344 970.544921875 964.338073730469 973.606018066406 978.508239746094 975.450317382812 976.595397949219 967.75 968.263000488281 973.631286621094 982.535339355469 975.089416503906 981.564819335938 987.051635742188 991.734741210938 978.177124023438 974.101135253906 972.531127929688 974.079833984375 983.781860351562 981.7109375 988.526184082031 985.650268554688 977.028686523438 986.028686523438 983.326110839844 986.739074707031 984.779052734375 974.307739257812 967.350646972656 969.437805175781 976.813842773438 985.977355957031 983.878540039062 984.330627441406 983.334533691406 985.350891113281 988.744323730469 987.494567871094 983.022277832031 971.62158203125 970.878173828125 971.789611816406 970.400939941406 974.752380371094 979.429931640625 978.503479003906 988.8603515625 985.932373046875 990.602233886719 992.814819335938 999.170471191406 996.633972167969 999.283386230469 994.789794921875 983.5107421875 981.342346191406 991.392028808594 994.188415527344 984.683715820312 977.078491210938 963.868530273438 961.869384765625 964.594970703125 963.752807617188 982.529479980469 975.0263671875 975.396911621094 976.585998535156 982.501525878906 977.091186523438 988.959777832031 993.670715332031 996.750549316406 999.600952148438 998.760375976562 991.981018066406 996.029968261719 991.397888183594 995.997680664062 999.595886230469 1014.38598632812 1009.03387451172 1009.68627929688 1010.84143066406 998.110168457031 1008.27990722656 1006.08972167969 1000.47058105469 989.343200683594 984.968444824219 989.510314941406 999.047302246094 996.4150390625 989.586791992188 996.041076660156 997.881591796875 1001.80718994141 999.866577148438 996.927001953125 992.465576171875 999.143371582031 1001.5947265625 993.65234375 978.759155273438 981.386779785156 981.192138671875 984.319885253906 992.100952148438 988.657104492188 992.969604492188 985.645812988281 985.770324707031 988.2685546875 992.051147460938 998.64501953125 1000.66802978516 1004.82769775391 1003.86926269531 1005.38537597656 1008.78356933594 1016.27880859375 1025.87890625 1015.025390625 1008.29052734375 1015.04870605469 1016.68817138672 1015.90972900391 1031.28393554688 1044.34924316406 1055.81579589844 1067.57641601562 1073.06896972656 1071.68481445312 1078.24267578125 1087.97985839844 1096.54553222656 1104.83264160156 1112.19689941406 1111.43041992188 1116.37353515625
949.055847167969 959.67138671875 956.089721679688 956.894714355469 954.673217773438 964.545776367188 967.9970703125 973.017822265625 974.070007324219 981.136901855469 965.879455566406 962.101684570312 969.383117675781 977.103210449219 966.692321777344 970.600219726562 967.240600585938 968.420776367188 969.474670410156 980.417663574219 974.763488769531 980.110046386719 990.651306152344 992.872009277344 992.428405761719 983.82568359375 975.836547851562 972.406188964844 968.8955078125 978.315124511719 977.320556640625 976.717407226562 985.977478027344 980.580078125 983.695617675781 977.585083007812 981.739685058594 982.402160644531 973.986694335938 976.878295898438 981.511779785156 982.206420898438 984.041198730469 984.400085449219 981.852844238281 983.942016601562 990.784057617188 987.263732910156 976.499816894531 970.960388183594 976.369812011719 971.372802734375 966.017028808594 978.707214355469 970.949157714844 979.113525390625 978.426940917969 975.406188964844 986.942565917969 989.5458984375 1001.64514160156 1002.03466796875 1003.00714111328 997.191528320312 990.757263183594 982.930297851562 999.923034667969 987.941589355469 968.332885742188 974.390747070312 968.104858398438 966.974792480469 977.7001953125 977.428100585938 974.1865234375 969.997619628906 973.994384765625 977.197692871094 995.389953613281 979.368286132812 989.605224609375 996.215270996094 996.125122070312 999.291381835938 993.866882324219 991.927062988281 997.609191894531 991.201232910156 992.352416992188 1003.78747558594 1004.51586914062 1005.015625 1004.873046875 1006.28143310547 990.187316894531 990.025024414062 996.186584472656 1001.19714355469 1000.09490966797 998.756958007812 998.708435058594 995.887512207031 1000.57543945312 993.678161621094 996.326293945312 997.647277832031 1000.03802490234 996.013061523438 992.815673828125 991.818725585938 996.860961914062 999.073303222656 998.658874511719 987.971008300781 988.089965820312 991.068786621094 985.279541015625 993.528869628906 992.606384277344 997.59912109375 998.161193847656 989.118591308594 991.587280273438 988.444885253906 994.523986816406 1000.59240722656 1002.16461181641 997.86181640625 1009.13562011719 1011.93237304688 1011.96459960938 1017.28527832031 1020.48229980469 1017.95465087891 1012.29364013672 1019.62249755859 1022.68823242188 1029.56262207031 1044.41577148438 1060.42834472656 1069.02612304688 1068.81457519531 1079.67407226562 1086.24951171875 1083.34558105469 1090.880859375 1099.85778808594 1111.5009765625 1114.51171875 1122.26025390625
