NCOLS 150
NROWS 37
XLLCORNER 7394249
YLLCORNER 4842359
CELLSIZE 30
NODATA_VALUE -9999
965.171081542969 968.345642089844 963.797790527344 972.162658691406 969.283325195312 960.482055664062 978.146362304688 975.105712890625 969.589599609375 979.235046386719 981.054992675781 970.397277832031 973.272644042969 984.770629882812 972.8310546875 970.927307128906 972.15283203125 973.038208007812 975.850708007812 963.3994140625 966.008056640625 957.274963378906 959.43798828125 959.282043457031 959.6376953125 960.578552246094 955.887512207031 960.3935546875 968.414184570312 969.419677734375 966.225891113281 974.064086914062 970.364624023438 968.177490234375 960.663208007812 960.894958496094 963.449401855469 963.307495117188 959.318115234375 957.138793945312 959.950012207031 967.165832519531 964.006530761719 971.751037597656 967.592834472656 963.982727050781 971.029602050781 971.889892578125 975.590393066406 971.146301269531 978.0869140625 970.482849121094 964.343566894531 957.858764648438 963.360412597656 955.89599609375 962.856018066406 968.873352050781 962.679138183594 964.644592285156 960.055541992188 948.54296875 952.791931152344 950.062316894531 954.529602050781 957.786071777344 965.815246582031 954.411315917969 965.744873046875 968.835754394531 962.701843261719 965.933715820312 967.686340332031 972.513793945312 967.781066894531 967.838745117188 964.864074707031 964.353271484375 962.132141113281 969.770629882812 972.434631347656 976.079162597656 972.115234375 969.654724121094 969.871032714844 972.923950195312 965.624450683594 971.414794921875 966.261657714844 972.026428222656 973.294372558594 969.261535644531 969.375610351562 976.973388671875 979.9755859375 976.994079589844 978.671813964844 972.955688476562 972.037414550781 971.133239746094 976.090148925781 976.1064453125 968.567749023438 970.131713867188 983.704528808594 976.162963867188 975.306762695312 982.733215332031 989.870544433594 993.240173339844 985.687255859375 1000.31420898438 1008.44665527344 1010.28997802734 1005.34381103516 1005.44390869141 1006.77160644531 1003.87933349609 1015.73675537109 1013.95935058594 1018.96728515625 1016.33972167969 1016.89929199219 1019.78179931641 1031.98303222656 1025.46252441406 1033.08618164062 1033.482421875 1035.47790527344 1040.22814941406 1046.3056640625 1054.32934570312 1065.53149414062 1078.4638671875 1088.70617675781 1085.91381835938 1084.5 1091.44372558594 1099.62109375 1101.07983398438 1101.85229492188 1109.58435058594 1114.96435546875 1116.09802246094 1111.48608398438 1109.58837890625 1105.88500976562 1100.234375 1100.15490722656 1096.85168457031
962.55517578125 965.860534667969 970.597045898438 972.532531738281 974.93701171875 969.254272460938 971.910888671875 978.442626953125 970.064331054688 966.579711914062 979.373779296875 979.504577636719 975.558898925781 976.271057128906 980.835327148438 978.742492675781 975.251892089844 969.783020019531 963.986145019531 967.959533691406 970.469116210938 957.479675292969 963.992614746094 962.2763671875 954.96533203125 963.568359375 958.450073242188 957.617797851562 965.887512207031 969.176086425781 968.744262695312 968.926208496094 970.156127929688 964.339904785156 957.754089355469 959.354064941406 959.391235351562 953.935485839844 963.720703125 959.609924316406 965.517761230469 966.451416015625 969.90380859375 974.494995117188 968.081665039062 963.437255859375 969.141906738281 971.938537597656 971.199340820312 974.487609863281 970.245422363281 968.503356933594 966.026306152344 961.575256347656 960.932983398438 963.891540527344 964.258056640625 953.036315917969 959.50537109375 960.738159179688 961.699584960938 956.216491699219 952.09375 949.195617675781 967.522094726562 960.717041015625 954.641540527344 955.547241210938 963.610473632812 959.226684570312 960.870544433594 961.029968261719 959.074096679688 968.848266601562 969.135192871094 963.443176269531 962.58154296875 959.620727539062 959.563232421875 965.96923828125 973.098876953125 966.783386230469 974.71240234375 968.8466796875 974.208801269531 968.019165039062 962.509704589844 964.881896972656 964.060974121094 975.129211425781 975.988891601562 968.533569335938 971.945495605469 969.297485351562 974.05517578125 975.869384765625 972.391784667969 974.389221191406 970.734191894531 971.281921386719 973.407775878906 967.404174804688 964.310974121094 959.471862792969 975.823913574219 976.648620605469 980.590881347656 969.373291015625 973.385925292969 988.421752929688 1004.02569580078 1004.82354736328 1007.72955322266 1002.18835449219 1007.49102783203 1003.32006835938 1005.39276123047 1003.02154541016 1004.61962890625 1021.63598632812 1021.3583984375 1014.89514160156 1021.19873046875 1024.56872558594 1029.91101074219 1033.95166015625 1031.20227050781 1032.35498046875 1039.60021972656 1037.29931640625 1034.52661132812 1041.77697753906 1056.88952636719 1064.63989257812 1083.03796386719 1090.50671386719 1093.51977539062 1093.87365722656 1100.98168945312 1100.04028320312 1100.88586425781 1105.39904785156 1116.85974121094 1119.88305664062 1104.19543457031 1101.50915527344 1096.43615722656 1093.13684082031 1093.08984375 1085.5009765625
957.537048339844 958.25830078125 962.883117675781 964.696533203125 973.876037597656 975.607238769531 981.250427246094 976.840087890625 968.154235839844 968.235473632812 968.888977050781 976.314392089844 979.149780273438 977.185913085938 981.416870117188 976.875854492188 969.02099609375 965.261108398438 973.984313964844 965.694946289062 966.345642089844 961.771179199219 965.68017578125 968.235595703125 966.833862304688 961.544372558594 964.375183105469 968.056762695312 965.353698730469 962.704895019531 972.153442382812 965.064453125 962.387268066406 965.486877441406 972.2109375 961.286010742188 967.796508789062 965.75732421875 953.882019042969 953.555725097656 953.446166992188 965.731079101562 964.253356933594 966.1396484375 962.48828125 960.330383300781 967.596374511719 972.84765625 977.370422363281 978.727905273438 972.872436523438 972.154174804688 959.21875 959.076354980469 951.636413574219 965.646911621094 951.118041992188 960.471496582031 954.716430664062 962.702758789062 963.92529296875 961.342407226562 962.422119140625 959.873107910156 961.6396484375 957.629516601562 956.303588867188 956.989440917969 955.36328125 958.526916503906 962.779846191406 959.504699707031 953.526794433594 962.007629394531 964.687622070312 963.771057128906 968.576599121094 961.19287109375 968.026062011719 960.586547851562 961.982604980469 960.328491210938 967.847534179688 965.884887695312 969.485961914062 971.644958496094 972.961608886719 965.602844238281 968.39794921875 973.956848144531 967.693481445312 964.260375976562 967.842102050781 968.596923828125 965.363586425781 974.811462402344 971.737487792969 976.788513183594 972.637817382812 970.584777832031 975.434143066406 966.85791015625 963.648620605469 962.08251953125 968.64111328125 966.652038574219 977.056457519531 973.968322753906 980.970520019531 987.601623535156 993.108215332031 997.268615722656 993.711486816406 997.557678222656 993.688415527344 996.425476074219 1003.96990966797 1003.86730957031 1014.92492675781 1020.9912109375 1018.19506835938 1021.66876220703 1019.42626953125 1022.57495117188 1029.25231933594 1030.26623535156 1031.61486816406 1033.94787597656 1040.48559570312 1040.32763671875 1043.83483886719 1047.0400390625 1053.72192382812 1069.70983886719 1076.94323730469 1088.53576660156 1086.43811035156 1087.8876953125 1092.9833984375 1085.63806152344 1093.896484375 1097.67822265625 1094.77624511719 1110.11303710938 1108.43444824219 1105.49670410156 1087.22082519531 1086.99072265625 1078.78149414062 1077.474609375
962.212097167969 961.986694335938 964.676025390625 967.2529296875 973.189025878906 986.081420898438 982.635070800781 982.151794433594 976.454040527344 965.430969238281 962.315246582031 965.503784179688 971.104309082031 981.94091796875 976.45263671875 971.58935546875 971.248107910156 962.87353515625 971.032897949219 964.145080566406 962.689880371094 955.634399414062 968.230712890625 966.333312988281 961.008728027344 962.809204101562 959.065856933594 962.824157714844 969.400817871094 964.489501953125 966.916015625 959.944702148438 965.211059570312 963.70166015625 965.967346191406 967.711791992188 964.293884277344 961.780334472656 960.748107910156 958.211669921875 952.167297363281 959.155944824219 953.231567382812 963.30126953125 963.657531738281 965.748229980469 967.673095703125 972.261169433594 978.60791015625 972.570556640625 980.414978027344 976.902282714844 958.31298828125 951.492126464844 942.955749511719 948.007446289062 955.381286621094 946.614807128906 948.487426757812 955.644348144531 969.043395996094 957.027282714844 959.169067382812 955.146545410156 956.284973144531 959.270324707031 962.885925292969 962.446105957031 968.759094238281 961.350463867188 955.738220214844 960.970642089844 957.811584472656 957.239196777344 959.309020996094 960.085144042969 966.337951660156 961.914978027344 962.516540527344 958.111450195312 953.211730957031 967.813354492188 966.249450683594 963.966186523438 965.932983398438 972.118591308594 973.374572753906 969.010803222656 977.600463867188 971.787841796875 970.088928222656 967.36376953125 969.098083496094 968.116577148438 969.410217285156 973.621032714844 973.58203125 977.374755859375 977.735412597656 974.241882324219 974.65478515625 969.516845703125 970.245666503906 967.875610351562 972.201782226562 970.23095703125 977.945556640625 972.611755371094 981.767211914062 985.445373535156 985.064880371094 993.460510253906 985.261901855469 992.245361328125 993.630432128906 988.450622558594 1008.97192382812 1009.48205566406 1014.64642333984 1019.96667480469 1024.77404785156 1019.35101318359 1016.80706787109 1022.73687744141 1024.72473144531 1022.76733398438 1023.16094970703 1028.70727539062 1034.79992675781 1038.55444335938 1054.48791503906 1055.84716796875 1068.99243164062 1080.35998535156 1092.59509277344 1092.07995605469 1090.66186523438 1087.77087402344 1082.10949707031 1083.0537109375 1088.763671875 1096.77075195312 1098.56713867188 1100.78466796875 1094.58044433594 1093.74963378906 1086.42211914062 1085.10339355469 1076.66333007812 1071.40246582031
954.366516113281 963.279235839844 962.583068847656 973.354797363281 983.322082519531 981.829833984375 974.760070800781 974.955383300781 981.115478515625 973.649780273438 962.567810058594 958.952880859375 968.445739746094 972.159484863281 967.924072265625 974.776306152344 970.63720703125 975.161254882812 964.438720703125 961.887268066406 961.095520019531 956.108093261719 955.386901855469 962.884948730469 964.289672851562 956.930847167969 962.439636230469 969.456176757812 959.043823242188 955.437194824219 960.230163574219 958.115051269531 963.329345703125 963.392700195312 965.512878417969 963.110595703125 972.978088378906 962.432861328125 960.566040039062 949.451904296875 956.13134765625 958.955200195312 951.722778320312 950.650756835938 963.283447265625 968.9853515625 960.044189453125 971.332763671875 969.482727050781 973.462036132812 973.255859375 970.368774414062 961.515991210938 949.146850585938 951.68896484375 945.908447265625 948.48974609375 948.003601074219 952.51025390625 956.464782714844 955.164245605469 956.921691894531 953.233642578125 955.375122070312 954.73095703125 952.962036132812 950.189880371094 953.6552734375 967.440673828125 965.268249511719 961.366821289062 950.635620117188 954.750061035156 948.577026367188 957.034301757812 960.214538574219 958.663269042969 957.675476074219 955.591918945312 951.303344726562 954.851013183594 962.715454101562 966.349609375 967.0439453125 975.746154785156 965.817077636719 972.108520507812 967.508117675781 974.055419921875 970.968627929688 969.635375976562 965.297973632812 962.746032714844 967.451538085938 958.535888671875 968.373046875 971.074890136719 977.349304199219 979.54541015625 974.345031738281 976.98291015625 969.144226074219 969.937866210938 968.090637207031 970.26806640625 977.729370117188 985.552551269531 979.780822753906 983.248962402344 985.305969238281 998.396484375 996.604431152344 984.953857421875 988.119506835938 990.046447753906 991.533264160156 1005.96130371094 1011.0185546875 1016.01177978516 1008.79376220703 1017.17346191406 1013.00549316406 1012.26684570312 1024.5419921875 1020.63549804688 1026.62561035156 1029.80688476562 1021.57580566406 1036.19091796875 1046.90246582031 1055.03356933594 1065.68347167969 1071.6826171875 1073.23620605469 1085.53735351562 1098.83459472656 1092.44055175781 1085.32043457031 1082.40734863281 1072.08947753906 1081.76123046875 1086.56591796875 1082.19030761719 1089.880859375 1086.43176269531 1084.03894042969 1079.59948730469 1084.33923339844 1071.13305664062 1079.24047851562
963.481567382812 957.965881347656 957.615844726562 971.364440917969 977.425109863281 974.227600097656 968.766052246094 971.200561523438 974.744567871094 965.741455078125 953.063232421875 953.559204101562 969.043762207031 979.12744140625 975.306762695312 974.050720214844 976.984924316406 973.573364257812 972.580810546875 973.226928710938 974.13232421875 959.301147460938 952.989135742188 961.402038574219 964.126586914062 955.028747558594 963.614501953125 960.201782226562 950.758483886719 950.643859863281 947.576110839844 950.131652832031 958.804565429688 963.320068359375 960.415222167969 972.254455566406 968.543090820312 955.403991699219 953.030822753906 952.806213378906 964.109558105469 971.684020996094 959.778442382812 961.698669433594 959.261901855469 964.196166992188 956.489013671875 960.075866699219 960.631652832031 965.767395019531 962.000427246094 967.891723632812 962.995483398438 953.770874023438 954.772033691406 953.89306640625 961.756042480469 956.924499511719 954.977233886719 960.00634765625 953.758117675781 956.781127929688 955.958679199219 949.394348144531 957.346923828125 956.623352050781 944.954345703125 953.9755859375 960.704162597656 975.365173339844 970.532165527344 966.087890625 952.562072753906 954.323791503906 949.689086914062 951.711975097656 953.852844238281 957.134826660156 968.467102050781 960.795471191406 960.759460449219 963.565124511719 970.661315917969 979.585205078125 973.980102539062 973.782409667969 970.764587402344 973.056579589844 973.154602050781 978.8603515625 975.625671386719 966.145202636719 979.378601074219 981.407775878906 973.811401367188 980.771179199219 984.009582519531 980.15185546875 979.119873046875 974.645324707031 976.324829101562 973.708923339844 981.33642578125 974.583862304688 984.447448730469 986.672302246094 989.054809570312 984.046203613281 986.910827636719 990.793518066406 1000.10388183594 987.316284179688 987.439880371094 992.764709472656 991.259521484375 997.184143066406 1003.68218994141 1004.21185302734 1001.08129882812 1010.57592773438 1009.48052978516 1007.623046875 1004.78576660156 1021.35461425781 1030.71728515625 1026.625 1029.95068359375 1029.66125488281 1044.14428710938 1047.71447753906 1046.60510253906 1054.95275878906 1064.50830078125 1069.404296875 1076.64892578125 1083.98010253906 1090.73950195312 1077.57849121094 1083.68359375 1065.80529785156 1069.83374023438 1075.5595703125 1069.09826660156 1070.76379394531 1063.64514160156 1061.40173339844 1069.291015625 1066.88195800781 1068.1826171875 1076.26904296875
965.8720703125 967.655334472656 965.796447753906 967.611633300781 977.29443359375 969.737976074219 970.593505859375 975.141662597656 961.06201171875 952.266174316406 947.788879394531 953.794311523438 966.833374023438 983.629577636719 975.539855957031 978.14697265625 972.261169433594 966.348876953125 967.61669921875 962.530456542969 958.64599609375 960.572998046875 951.357727050781 948.74560546875 962.093566894531 955.112854003906 951.700439453125 954.278198242188 943.992797851562 944.907958984375 950.37109375 952.370178222656 956.917236328125 961.1630859375 962.689392089844 965.563415527344 954.64697265625 956.533569335938 953.373046875 958.948852539062 961.795715332031 968.620178222656 961.988464355469 955.77294921875 960.951965332031 951.897705078125 957.077453613281 954.484497070312 953.542358398438 954.611083984375 961.7578125 961.181884765625 953.095825195312 956.183288574219 954.015014648438 961.236022949219 956.034118652344 961.967468261719 961.461853027344 960.134887695312 955.835388183594 963.669250488281 962.572082519531 953.028503417969 955.751586914062 955.886413574219 960.256713867188 954.306945800781 968.157653808594 966.241882324219 973.2734375 974.0634765625 958.100891113281 959.955200195312 948.564147949219 958.988159179688 965.609191894531 957.500854492188 958.565551757812 956.004821777344 967.536560058594 969.719665527344 973.496643066406 970.327392578125 970.798706054688 977.746826171875 970.304077148438 964.908203125 980.498779296875 985.899475097656 978.894592285156 977.359252929688 978.1005859375 978.104187011719 981.40185546875 975.877136230469 974.370361328125 981.335754394531 976.673461914062 981.847045898438 983.194274902344 984.001831054688 984.240417480469 974.955444335938 984.321594238281 986.741333007812 986.01318359375 986.424560546875 986.740600585938 988.141479492188 992.509582519531 991.581359863281 995.671081542969 988.303588867188 995.903381347656 994.287048339844 1002.32189941406 1013.36248779297 1011.5673828125 1012.75378417969 1004.59002685547 1009.18933105469 1010.22894287109 1017.71026611328 1018.46459960938 1023.25793457031 1033.45812988281 1041.59631347656 1045.13403320312 1047.74951171875 1047.05859375 1053.65051269531 1046.94189453125 1057.64013671875 1064.30810546875 1074.40710449219 1083.80236816406 1070.81274414062 1070.88244628906 1071.00756835938 1059.03967285156 1052.88549804688 1044.8876953125 1055.32666015625 1054.24890136719 1050.05249023438 1049.88830566406 1056.52978515625 1058.29833984375 1066.40563964844
965.56201171875 961.256042480469 967.248596191406 964.74169921875 969.040588378906 970.016784667969 963.819030761719 966.700866699219 968.49267578125 954.87353515625 954.247924804688 964.417602539062 969.922729492188 973.820190429688 974.8623046875 976.503662109375 965.01171875 961.960205078125 961.879211425781 946.938232421875 959.90771484375 960.366821289062 953.869018554688 951.804077148438 956.669494628906 953.903747558594 951.639770507812 950.658813476562 948.996398925781 951.830688476562 953.275146484375 955.00634765625 952.771057128906 961.528381347656 954.456359863281 954.425720214844 960.089111328125 955.246459960938 954.792724609375 949.400390625 957.390502929688 957.930358886719 955.273132324219 961.779602050781 956.845703125 951.099853515625 952.544860839844 950.65771484375 950.789001464844 955.547241210938 959.019409179688 964.573425292969 950.621643066406 949.102966308594 957.354248046875 952.91845703125 959.199462890625 956.772705078125 969.869812011719 965.299194335938 962.086486816406 965.109436035156 963.92724609375 956.986389160156 955.515319824219 959.242614746094 959.094177246094 949.459106445312 960.249755859375 963.224975585938 964.928344726562 970.950988769531 961.372741699219 965.403137207031 957.424438476562 962.288269042969 963.039672851562 956.814758300781 956.172058105469 961.291015625 972.015991210938 973.416748046875 968.010803222656 965.487609863281 967.666809082031 971.601745605469 969.777526855469 969.463317871094 986.140686035156 986.715026855469 979.794616699219 976.08984375 979.458312988281 980.038940429688 977.738647460938 975.766784667969 978.937622070312 982.521301269531 979.554870605469 976.653564453125 979.287780761719 983.658752441406 978.695251464844 980.636047363281 986.617736816406 991.100219726562 982.189025878906 982.810119628906 984.507873535156 998.239807128906 994.408874511719 981.86474609375 994.076171875 996.139282226562 996.648986816406 996.302856445312 1001.08447265625 1011.3447265625 1015.92694091797 1010.38415527344 1009.09204101562 1005.8251953125 1002.13189697266 1006.76397705078 1013.552734375 1017.39501953125 1030.10632324219 1038.50939941406 1047.22570800781 1047.974609375 1045.30603027344 1049.44982910156 1046.2353515625 1046.08801269531 1053.87487792969 1061.59802246094 1068.72412109375 1056.96057128906 1059.14587402344 1057.48168945312 1051.46545410156 1030.30139160156 1031.39892578125 1039.16918945312 1037.79675292969 1038.63830566406 1047.76232910156 1057.65637207031 1060.94360351562 1065.91149902344
958.235900878906 963.251708984375 967.933349609375 967.212097167969 969.070617675781 982.616638183594 973.515563964844 974.571899414062 971.509643554688 968.30419921875 964.963562011719 964.044128417969 957.014465332031 962.936889648438 974.891845703125 972.57421875 969.483215332031 959.07958984375 950.013366699219 947.293212890625 943.262756347656 945.058654785156 947.984802246094 951.1611328125 949.436096191406 950.203796386719 953.539428710938 946.259643554688 955.290222167969 956.979919433594 955.466064453125 963.062744140625 957.125244140625 956.53076171875 959.524475097656 954.200317382812 953.976623535156 945.944091796875 941.476257324219 943.114929199219 950.784912109375 946.254760742188 951.847412109375 957.477478027344 953.960815429688 957.520141601562 952.134155273438 952.407958984375 943.954833984375 946.918762207031 946.078918457031 948.926818847656 944.5595703125 950.739624023438 959.957458496094 952.980590820312 954.880065917969 952.564880371094 958.154357910156 966.898010253906 968.869262695312 964.133056640625 963.5869140625 963.934509277344 954.462219238281 956.048767089844 961.243041992188 963.344970703125 966.73779296875 973.107727050781 969.481628417969 967.157897949219 963.687072753906 968.98193359375 965.878234863281 966.038635253906 959.843994140625 963.916076660156 965.208557128906 969.571166992188 975.810974121094 969.209594726562 970.587036132812 970.432922363281 970.150756835938 969.874389648438 970.712646484375 975.972900390625 986.597900390625 986.679626464844 984.274353027344 975.722839355469 970.033142089844 970.573791503906 967.913330078125 973.352416992188 971.718994140625 983.87353515625 985.030883789062 979.973205566406 986.725341796875 983.8271484375 981.068969726562 988.338806152344 985.999694824219 987.044189453125 990.797973632812 987.409729003906 985.977172851562 996.855712890625 990.466857910156 987.640075683594 990.6611328125 1001.75714111328 1002.46838378906 1001.04248046875 1006.20361328125 1007.15551757812 1012.14459228516 1009.76397705078 1005.92828369141 1006.76928710938 1002.1943359375 1005.447265625 1017.29260253906 1022.37060546875 1022.27593994141 1034.48681640625 1038.85034179688 1037.75317382812 1037.42333984375 1041.28039550781 1045.61926269531 1055.38159179688 1049.26123046875 1049.80944824219 1058.14428710938 1049.88146972656 1049.28576660156 1051.3955078125 1037.34008789062 1029.53735351562 1028.25256347656 1031.94909667969 1022.19134521484 1031.65246582031 1044.43627929688 1050.40710449219 1061.94909667969 1059.98510742188
960.387268066406 952.376098632812 958.925476074219 965.84521484375 960.258056640625 967.998291015625 973.616821289062 972.190490722656 970.968505859375 970.2744140625 968.565124511719 958.203857421875 957.763549804688 964.377685546875 962.70361328125 968.871643066406 968.534851074219 958.946228027344 950.272338867188 948.573547363281 942.645568847656 940.151184082031 944.301574707031 946.395385742188 950.159790039062 950.567016601562 950.574768066406 943.254699707031 955.486999511719 957.229309082031 959.679260253906 957.960632324219 951.828369140625 946.997863769531 949.051513671875 947.409362792969 949.649475097656 942.062744140625 944.249206542969 946.305480957031 957.292663574219 947.9453125 951.060607910156 943.304992675781 954.376525878906 956.23974609375 951.796447753906 952.9619140625 944.651062011719 952.315185546875 954.205078125 955.204956054688 957.027954101562 955.960021972656 951.532531738281 953.723449707031 957.935852050781 958.998352050781 965.097351074219 962.85009765625 962.421752929688 965.222351074219 963.979125976562 963.473205566406 962.113708496094 955.668701171875 962.483459472656 965.047790527344 964.058837890625 961.827819824219 970.52734375 964.804382324219 962.152465820312 967.153198242188 965.614990234375 961.299987792969 969.14697265625 965.390930175781 968.687072753906 969.72216796875 978.544677734375 973.854553222656 970.096618652344 974.369384765625 972.032043457031 974.047790527344 967.939208984375 970.636901855469 983.970275878906 983.122436523438 984.110412597656 974.488098144531 966.555541992188 967.373229980469 975.611022949219 970.545166015625 974.682006835938 978.263977050781 992.001342773438 985.0078125 977.143920898438 971.28857421875 986.232849121094 985.2451171875 980.828430175781 989.954711914062 990.501159667969 993.6767578125 992.690124511719 998.626098632812 992.377319335938 989.1064453125 1000.57165527344 1002.22637939453 1008.98883056641 1001.13269042969 1005.85345458984 1000.11022949219 1007.70568847656 1005.54626464844 1007.716796875 1003.95745849609 1006.80218505859 1011.43658447266 1010.59918212891 1021.89276123047 1022.64556884766 1026.67504882812 1028.16955566406 1032.84387207031 1025.8603515625 1032.60034179688 1047.60693359375 1050.90844726562 1050.31555175781 1053.8291015625 1059.91674804688 1048.32568359375 1046.96765136719 1054.35327148438 1041.58129882812 1040.35229492188 1031.79211425781 1033.02075195312 1030.93798828125 1028.44311523438 1043.68127441406 1052.00805664062 1055.42065429688 1058.91516113281
945.661315917969 947.948181152344 950.793395996094 959.964416503906 966.359680175781 972.349365234375 972.486450195312 958.879821777344 961.805603027344 974.515747070312 966.965454101562 964.740905761719 961.608825683594 957.16748046875 957.60595703125 958.054748535156 960.407958984375 948.618103027344 940.184692382812 945.44873046875 943.392944335938 940.37841796875 950.408874511719 953.157531738281 954.214965820312 939.147277832031 950.15966796875 946.06591796875 953.851135253906 956.579895019531 960.955017089844 953.240783691406 951.66796875 942.314514160156 943.05029296875 939.487121582031 946.690185546875 942.366271972656 940.995727539062 940.53759765625 951.826538085938 953.869750976562 954.230773925781 944.250610351562 950.862731933594 944.78564453125 953.892272949219 954.753845214844 955.702514648438 952.955200195312 954.246276855469 953.375122070312 959.496337890625 957.119812011719 961.60986328125 960.4013671875 954.902893066406 955.044616699219 966.186279296875 970.340026855469 968.684509277344 960.817749023438 962.816833496094 969.77734375 967.462097167969 963.76708984375 972.794128417969 971.381103515625 970.469665527344 968.668579101562 972.036010742188 974.54150390625 970.081970214844 966.435302734375 972.556823730469 963.011840820312 962.184753417969 961.819091796875 972.2919921875 966.089660644531 976.330993652344 978.332946777344 974.765502929688 977.384582519531 972.666137695312 969.403991699219 969.978332519531 975.225158691406 978.224731445312 973.954040527344 976.604064941406 973.222106933594 963.291931152344 967.421081542969 977.114501953125 973.669372558594 977.0126953125 972.472229003906 980.669128417969 984.609313964844 974.95068359375 987.91357421875 979.882385253906 985.697631835938 990.832702636719 989.302612304688 991.844909667969 988.357788085938 992.153503417969 998.22412109375 999.595153808594 995.995971679688 995.847778320312 997.113708496094 1000.45617675781 995.69091796875 1003.81213378906 996.670349121094 1007.25347900391 1006.64202880859 1012.70556640625 1006.61163330078 1014.65106201172 1006.98590087891 1008.40649414062 1018.53820800781 1018.13659667969 1018.58117675781 1008.28991699219 1011.55035400391 1012.28930664062 1025.77404785156 1040.71887207031 1044.01696777344 1050.28894042969 1054.97937011719 1061.697265625 1058.60534667969 1050.7890625 1038.36889648438 1025.4697265625 1029.47973632812 1032.30554199219 1039.36572265625 1039.10876464844 1030.86083984375 1037.75134277344 1043.7529296875 1045.32055664062 1042.974609375
952.55419921875 954.753540039062 952.019897460938 960.784362792969 959.970703125 969.724426269531 973.0615234375 961.709228515625 952.189392089844 958.865905761719 967.10009765625 958.586181640625 953.225524902344 951.825927734375 952.829345703125 949.669006347656 947.850952148438 940.615966796875 941.297607421875 938.918640136719 935.065124511719 940.479614257812 943.422607421875 953.83154296875 952.891357421875 943.028198242188 944.763977050781 944.480834960938 954.202941894531 958.419738769531 967.2138671875 960.497436523438 951.876708984375 933.88037109375 940.224365234375 941.742431640625 946.86962890625 938.597717285156 940.179016113281 937.768615722656 948.415710449219 957.054870605469 948.784851074219 942.309997558594 946.381042480469 952.192199707031 948.68505859375 952.897155761719 952.321228027344 957.374694824219 955.540588378906 955.816955566406 952.705627441406 953.658386230469 960.247924804688 955.391906738281 958.550598144531 958.45849609375 965.747375488281 965.4443359375 964.825012207031 959.0576171875 962.666442871094 966.482299804688 964.124328613281 961.417846679688 968.610107421875 965.344909667969 964.06591796875 969.672790527344 973.3125 972.50732421875 958.421508789062 969.502685546875 967.136291503906 967.623596191406 958.686218261719 958.40380859375 965.571899414062 970.361328125 976.257568359375 978.895568847656 977.63525390625 986.088562011719 980.225952148438 981.993713378906 975.820434570312 974.901123046875 980.81591796875 972.58544921875 969.149597167969 964.566223144531 968.503356933594 972.043823242188 970.181396484375 983.038208007812 986.348022460938 974.876159667969 972.529663085938 978.855041503906 991.153503417969 991.681030273438 986.4970703125 993.619750976562 991.55810546875 987.4228515625 986.249572753906 991.871643066406 993.871459960938 997.731994628906 1001.33966064453 996.541748046875 1003.81103515625 990.160217285156 999.637939453125 998.269226074219 1007.15716552734 1011.63720703125 1012.56427001953 1018.23187255859 1022.50518798828 1018.68841552734 1015.1328125 1009.20288085938 1005.13122558594 1013.20886230469 1010.70709228516 1011.54278564453 1013.99932861328 1007.28063964844 1011.48107910156 1023.16168212891 1022.99792480469 1036.03405761719 1040.93212890625 1044.29431152344 1052.1240234375 1058.51354980469 1052.57543945312 1039.25769042969 1023.93743896484 1021.99078369141 1016.17584228516 1029.02233886719 1036.21630859375 1025.36987304688 1029.76538085938 1025.23583984375 1023.33508300781 1029.15368652344
958.671752929688 955.660217285156 952.334655761719 958.806762695312 955.937683105469 953.527099609375 957.535217285156 957.15478515625 952.363830566406 947.966491699219 956.770446777344 957.110656738281 949.896667480469 952.027282714844 944.920776367188 945.838134765625 949.991516113281 948.854797363281 944.512939453125 944.420715332031 939.728942871094 937.77099609375 941.179016113281 944.647888183594 950.1875 944.428894042969 949.411926269531 949.861022949219 952.849426269531 957.468017578125 955.822082519531 967.924621582031 961.493041992188 944.764404296875 936.391723632812 937.478393554688 950.47607421875 940.905456542969 943.6259765625 942.282836914062 951.345825195312 954.592590332031 953.167358398438 957.047790527344 968.619873046875 962.457824707031 950.964904785156 953.62109375 960.279724121094 948.480407714844 956.6162109375 957.825927734375 960.875244140625 967.769348144531 957.466125488281 961.171203613281 962.301696777344 959.009765625 964.535522460938 966.151672363281 964.966125488281 969.938537597656 965.406860351562 965.034057617188 963.280212402344 971.404479980469 965.348327636719 967.696105957031 962.030456542969 963.643859863281 964.694946289062 965.479064941406 960.193908691406 968.92138671875 962.580749511719 974.739196777344 969.264404296875 967.685852050781 968.055541992188 973.584045410156 980.482727050781 980.859313964844 985.624694824219 978.468139648438 983.680480957031 981.139953613281 975.439147949219 983.811340332031 978.326904296875 972.145202636719 972.547180175781 968.65283203125 966.930786132812 977.857971191406 975.638549804688 981.293701171875 980.476135253906 978.534729003906 974.5390625 983.544250488281 991.182250976562 990.1201171875 994.370971679688 997.499450683594 984.214111328125 990.641906738281 988.122619628906 986.388793945312 993.477416992188 998.644653320312 1008.74200439453 996.427429199219 1003.76501464844 995.679626464844 1004.53387451172 1000.09008789062 997.821044921875 1014.58074951172 1022.28881835938 1024.51831054688 1026.53173828125 1018.08361816406 1016.96313476562 1015.66033935547 1016.794921875 1013.5146484375 1011.04241943359 1018.42034912109 1023.60491943359 1020.26458740234 1011.5615234375 1015.48114013672 1030.33569335938 1041.99243164062 1028.30688476562 1036.41174316406 1038.17956542969 1051.22521972656 1041.78552246094 1037.33825683594 1023.03363037109 1025.22741699219 1026.49157714844 1025.39184570312 1032.6748046875 1024.35107421875 1021.99713134766 1025.95361328125 1023.07574462891 1028.02087402344
951.487365722656 961.20654296875 951.191345214844 956.199462890625 955.377868652344 954.137390136719 956.212524414062 957.089904785156 957.490173339844 946.007446289062 950.422607421875 948.100952148438 944.292602539062 946.815246582031 939.148376464844 942.3642578125 945.664855957031 945.718811035156 946.480407714844 947.797790527344 945.552307128906 940.813171386719 935.800109863281 937.692443847656 951.899108886719 951.303649902344 948.986206054688 944.855407714844 949.347900390625 954.964660644531 961.687927246094 957.301879882812 953.091979980469 950.1083984375 939.981384277344 938.789672851562 948.743469238281 947.272033691406 942.428833007812 946.477722167969 950.391235351562 958.500549316406 960.868286132812 957.665405273438 968.587341308594 972.797668457031 976.268920898438 969.309020996094 964.766235351562 963.020202636719 962.56005859375 961.400756835938 964.337768554688 966.516296386719 972.594421386719 970.311828613281 971.192077636719 963.411376953125 970.124389648438 970.698120117188 963.4267578125 966.173706054688 958.415283203125 963.27685546875 959.458862304688 964.581848144531 965.758422851562 969.069519042969 969.327697753906 966.653503417969 973.879455566406 966.442993164062 968.389953613281 974.328063964844 965.335205078125 972.051635742188 971.046508789062 971.767639160156 970.918151855469 976.41455078125 974.465881347656 982.289978027344 976.325439453125 974.578552246094 981.980590820312 978.823913574219 974.516418457031 975.256164550781 975.733093261719 968.822998046875 975.064880371094 968.400085449219 966.84326171875 972.489501953125 980.881591796875 985.786804199219 980.943786621094 991.174072265625 981.88037109375 991.241333007812 988.369140625 994.856140136719 994.507263183594 997.3486328125 992.115844726562 993.545349121094 991.886413574219 993.232421875 988.733947753906 1008.95599365234 1016.74133300781 1011.07989501953 1016.06036376953 1010.87860107422 1003.42413330078 995.89306640625 1003.82806396484 1012.14709472656 1020.19445800781 1022.16760253906 1021.56506347656 1020.23693847656 1021.24169921875 1019.69384765625 1013.0859375 1020.59558105469 1016.03509521484 1019.50390625 1024.38720703125 1020.03491210938 1017.57067871094 1022.88507080078 1027.90881347656 1036.93090820312 1030.34411621094 1035.33825683594 1038.89147949219 1041.0546875 1039.38110351562 1037.80517578125 1031.51354980469 1026.25659179688 1030.70544433594 1020.45648193359 1016.72375488281 1009.65289306641 1006.06915283203 1012.80120849609 1013.47521972656 1021.0693359375
959.310241699219 951.383544921875 955.414794921875 949.599853515625 957.255981445312 956.434020996094 961.895141601562 951.717163085938 948.041137695312 948.193237304688 943.030517578125 949.688842773438 950.387634277344 943.025329589844 937.317687988281 942.243774414062 950.861145019531 944.230163574219 946.3134765625 953.842590332031 949.947143554688 949.313537597656 936.000122070312 935.844909667969 945.829467773438 944.703063964844 944.674133300781 941.061889648438 945.662353515625 955.56689453125 960.190734863281 949.508911132812 951.680236816406 937.766967773438 946.724975585938 945.041870117188 954.817443847656 949.926147460938 940.552124023438 943.201965332031 948.129577636719 958.445983886719 958.128173828125 965.059936523438 975.13134765625 974.503967285156 975.367736816406 975.831726074219 971.046325683594 969.184020996094 967.794372558594 967.436218261719 979.534240722656 967.431762695312 967.046142578125 971.488647460938 969.34228515625 967.199157714844 971.563842773438 975.321655273438 966.859558105469 964.867553710938 966.923950195312 967.09228515625 963.218017578125 958.884155273438 973.067565917969 972.429260253906 973.907409667969 972.678100585938 973.078979492188 977.296264648438 979.070739746094 976.426818847656 971.023315429688 974.270629882812 974.303527832031 972.988708496094 976.950866699219 977.032470703125 975.159484863281 985.911499023438 985.206970214844 977.279296875 971.554443359375 983.55078125 978.033874511719 966.376708984375 965.826049804688 975.001953125 970.593627929688 978.141479492188 976.4482421875 970.56591796875 971.038024902344 976.592956542969 977.640014648438 982.17529296875 981.45458984375 985.71484375 985.683410644531 990.40283203125 984.646423339844 996.040771484375 993.041625976562 999.337280273438 998.99658203125 998.803466796875 1010.1689453125 1015.00048828125 1021.88409423828 1018.70007324219 1029.6005859375 1023.72772216797 1013.65997314453 1007.67590332031 1014.70831298828 1025.52734375 1033.14294433594 1029.23022460938 1029.47912597656 1023.49951171875 1017.39147949219 1018.74389648438 1022.11358642578 1020.54766845703 1006.11566162109 1014.37841796875 1020.63244628906 1020.24645996094 1022.82495117188 1016.17932128906 1026.70251464844 1036.453125 1037.37170410156 1036.25451660156 1045.10803222656 1041.15686035156 1024.58508300781 1033.14697265625 1029.5595703125 1027.83435058594 1028.73156738281 1011.43090820312 1005.81774902344 1007.5390625 1007.80133056641 1003.64123535156 1011.80798339844 1018.59747314453
947.988891601562 943.192077636719 947.490234375 948.12744140625 960.420837402344 957.671508789062 947.044799804688 947.662719726562 943.413452148438 944.253051757812 948.070007324219 953.084167480469 956.061340332031 951.548767089844 944.821838378906 943.341979980469 945.833312988281 946.25439453125 951.586975097656 947.616271972656 940.421081542969 942.938903808594 942.690002441406 942.854858398438 941.07568359375 942.62744140625 939.255676269531 948.21875 954.688659667969 950.623046875 963.461059570312 956.584045410156 959.361511230469 948.317687988281 940.792541503906 938.641967773438 946.364135742188 951.883117675781 949.211853027344 949.899597167969 951.6123046875 955.424499511719 964.489135742188 968.360229492188 971.516479492188 978.483215332031 971.468566894531 980.698181152344 980.84326171875 982.50439453125 973.970031738281 979.698791503906 974.040161132812 966.356628417969 970.600402832031 973.837463378906 975.673156738281 976.299743652344 977.583129882812 978.948913574219 970.634094238281 974.207946777344 968.416625976562 971.899841308594 982.682067871094 973.474548339844 975.026245117188 974.492553710938 977.29150390625 980.888122558594 980.546203613281 974.954406738281 976.702453613281 978.283630371094 968.381958007812 977.916870117188 976.5732421875 978.320983886719 984.48046875 969.998168945312 980.664916992188 983.801696777344 988.901977539062 987.098876953125 986.202941894531 982.231262207031 968.994445800781 960.227294921875 968.85400390625 979.687683105469 969.674865722656 976.596984863281 971.060607910156 977.240417480469 978.412902832031 978.376708984375 988.764038085938 982.181030273438 978.337219238281 982.509033203125 985.888061523438 992.44970703125 992.257873535156 992.283935546875 992.498229980469 1000.79302978516 1007.37451171875 1008.48498535156 1013.57739257812 1021.77392578125 1017.67718505859 1021.59576416016 1024.97424316406 1029.10778808594 1029.44201660156 1022.68121337891 1024.65771484375 1031.40319824219 1046.05798339844 1035.70361328125 1036.671875 1028.16259765625 1023.27459716797 1028.00903320312 1011.96252441406 1012.50830078125 1011.14947509766 1014.05499267578 1016.24334716797 1023.8505859375 1015.24700927734 1022.54400634766 1030.60693359375 1027.08850097656 1038.1435546875 1036.0947265625 1033.70788574219 1038.19982910156 1036.45947265625 1030.25952148438 1029.87145996094 1019.44573974609 1016.02526855469 1016.57904052734 1003.45819091797 1000.11297607422 1003.66418457031 1003.62115478516 1013.46520996094 1014.81793212891
961.444152832031 947.569152832031 949.77099609375 946.672180175781 943.130004882812 945.642395019531 945.411865234375 948.733337402344 946.023864746094 936.587097167969 944.917846679688 954.683959960938 956.292785644531 956.780517578125 954.5107421875 951.396057128906 955.037475585938 954.450561523438 950.249694824219 950.019104003906 954.438171386719 944.544860839844 952.460327148438 961.633422851562 950.218627929688 951.71875 950.257629394531 954.626098632812 959.685791015625 959.519165039062 963.618225097656 963.469909667969 952.758972167969 952.270629882812 956.656127929688 950.011901855469 944.300231933594 950.6328125 959.255737304688 955.91552734375 957.369018554688 956.633361816406 965.064697265625 970.911865234375 978.133911132812 977.219177246094 980.703796386719 982.640808105469 978.033752441406 969.838012695312 971.640380859375 969.690612792969 968.955810546875 975.079772949219 976.265686035156 970.427124023438 975.072265625 971.4091796875 973.7529296875 978.419067382812 972.3994140625 979.322082519531 972.161926269531 975.280395507812 975.545471191406 968.295715332031 967.617492675781 973.281127929688 979.220458984375 975.486083984375 985.222778320312 974.703796386719 970.375183105469 971.023986816406 970.743225097656 979.352722167969 978.812072753906 972.314086914062 964.30029296875 970.059326171875 973.494995117188 977.173217773438 982.936645507812 982.629028320312 982.065673828125 973.050903320312 971.965698242188 973.953369140625 970.404174804688 984.874267578125 984.0029296875 983.612609863281 980.094482421875 980.201293945312 975.774963378906 983.396423339844 984.28076171875 981.296325683594 991.3896484375 978.320007324219 987.881713867188 993.106201171875 1002.55145263672 995.161193847656 990.273803710938 1000.89031982422 995.746520996094 1006.36187744141 1005.56402587891 1015.70733642578 1018.06384277344 1021.91943359375 1023.62261962891 1035.39135742188 1037.73010253906 1033.43566894531 1033.85803222656 1033.90100097656 1037.88293457031 1037.02307128906 1041.46228027344 1034.21203613281 1030.7822265625 1024.71447753906 1033.00708007812 1027.00048828125 1013.13122558594 1013.66564941406 1015.97729492188 1014.84210205078 1021.86206054688 1027.68298339844 1024.43127441406 1031.765625 1031.53991699219 1036.20043945312 1029.48596191406 1026.5556640625 1029.71618652344 1022.65026855469 1022.44274902344 1015.91589355469 1025.05615234375 1021.01037597656 1006.33135986328 1004.45550537109 1006.50842285156 1000.29827880859 1002.82678222656 1005.92840576172
950.716674804688 948.239501953125 940.888122558594 947.282043457031 947.40478515625 944.634826660156 942.782409667969 946.523681640625 941.500122070312 941.21875 948.891296386719 951.165283203125 952.414367675781 956.249328613281 960.323608398438 963.614624023438 962.977905273438 960.355346679688 957.05615234375 956.589538574219 960.841552734375 958.948120117188 957.664001464844 959.429443359375 958.975952148438 954.1669921875 958.501892089844 960.895385742188 965.089416503906 965.757263183594 957.259582519531 962.17431640625 954.017822265625 948.659606933594 955.426513671875 948.41259765625 948.118835449219 947.904907226562 953.240783691406 954.795227050781 959.643310546875 957.472106933594 968.192199707031 977.788513183594 977.834106445312 979.927612304688 985.202087402344 988.998168945312 983.060546875 982.186096191406 979.386352539062 974.627502441406 967.859130859375 972.761291503906 972.742553710938 982.486206054688 983.177917480469 977.639038085938 974.211730957031 974.783264160156 972.451110839844 970.573120117188 984.058410644531 980.189270019531 979.972412109375 971.675170898438 971.301635742188 970.357971191406 976.552917480469 981.910705566406 974.483520507812 975.528991699219 966.416687011719 970.852294921875 978.2021484375 976.256713867188 976.018615722656 971.706604003906 973.380249023438 970.894104003906 975.113830566406 981.071166992188 985.607055664062 975.220825195312 973.149597167969 982.6513671875 979.509521484375 975.939331054688 990.257141113281 985.971008300781 989.608276367188 979.888793945312 982.636291503906 983.598022460938 981.771911621094 988.435852050781 991.0556640625 997.654052734375 988.714294433594 980.5546875 990.768188476562 992.44921875 996.3388671875 997.392150878906 987.502380371094 999.469055175781 1001.32855224609 997.618286132812 1007.53240966797 1011.49975585938 1015.98968505859 1017.63604736328 1027.31530761719 1028.21789550781 1034.09423828125 1034.10205078125 1037.15185546875 1035.71594238281 1037.59887695312 1042.79992675781 1046.00085449219 1042.69750976562 1046.35119628906 1035.18664550781 1031.96704101562 1028.45324707031 1030.52001953125 1021.14886474609 1020.93469238281 1018.70172119141 1019.91638183594 1020.99932861328 1020.36499023438 1021.60736083984 1028.31115722656 1027.90356445312 1025.46228027344 1022.23504638672 1023.27947998047 1022.43896484375 1020.66302490234 1021.2958984375 1015.23785400391 1010.09899902344 1009.17761230469 1001.92248535156 998.951843261719 1000.72235107422 991.820373535156 996.060913085938
958.198181152344 951.013916015625 944.734375 949.973815917969 948.567138671875 940.050415039062 946.09912109375 946.676452636719 942.450378417969 947.026000976562 953.559326171875 946.434753417969 951.094787597656 955.097717285156 968.290893554688 968.631774902344 964.298645019531 967.7431640625 961.471496582031 962.839965820312 963.903076171875 962.817626953125 954.25830078125 948.516418457031 955.054565429688 955.518371582031 965.77392578125 965.109985351562 968.373962402344 967.930358886719 962.612548828125 957.885375976562 949.449035644531 952.756591796875 953.200927734375 958.078918457031 949.940734863281 950.123291015625 960.386657714844 959.997924804688 952.98388671875 967.602661132812 972.4189453125 977.270324707031 979.329895019531 976.478332519531 977.890075683594 986.737487792969 982.305969238281 985.124694824219 982.593872070312 981.381530761719 981.362976074219 978.287292480469 977.819458007812 982.732177734375 977.713745117188 974.182495117188 967.970886230469 967.762939453125 965.086120605469 971.275390625 975.338500976562 983.985229492188 971.079345703125 969.955688476562 972.905944824219 973.2509765625 979.891967773438 975.438598632812 971.120178222656 974.424621582031 976.946838378906 978.8515625 983.114196777344 985.885070800781 982.394775390625 978.782409667969 975.5654296875 974.357849121094 972.251342773438 977.926574707031 982.099243164062 982.26806640625 983.499206542969 990.406921386719 987.271118164062 979.099365234375 987.451477050781 986.919189453125 981.888427734375 982.482666015625 980.257568359375 978.740905761719 988.992065429688 996.024108886719 998.623352050781 993.111083984375 998.474609375 994.774475097656 989.209716796875 996.182312011719 988.450927734375 986.0654296875 991.238342285156 999.7275390625 1005.86651611328 1004.7666015625 1012.17810058594 1018.35668945312 1013.82745361328 1020.26086425781 1023.39178466797 1030.26940917969 1030.79309082031 1033.35339355469 1033.72766113281 1034.26306152344 1034.43347167969 1039.26037597656 1041.84680175781 1052.99865722656 1043.20031738281 1038.60290527344 1027.78442382812 1028.76318359375 1034.83972167969 1028.60705566406 1028.19653320312 1018.46771240234 1021.04431152344 1019.58917236328 1021.84808349609 1015.82153320312 1022.62243652344 1022.64569091797 1021.12457275391 1016.65081787109 1025.13220214844 1022.85321044922 1020.10241699219 1017.68585205078 1017.87347412109 1019.57464599609 1010.95880126953 1002.40045166016 1000.51171875 999.307312011719 993.664794921875 996.328552246094
957.931945800781 942.437072753906 942.790771484375 944.83203125 946.041931152344 946.461120605469 941.114685058594 936.944458007812 945.912231445312 946.898681640625 951.399963378906 952.756408691406 955.200134277344 964.33056640625 972.962585449219 983.026245117188 980.804443359375 982.214477539062 974.109741210938 966.82470703125 966.076171875 965.544189453125 969.890869140625 960.154479980469 966.985412597656 967.718566894531 961.318176269531 966.155578613281 974.663330078125 978.935485839844 972.340209960938 963.060852050781 949.337463378906 945.886108398438 956.167419433594 955.302185058594 953.130798339844 961.114624023438 956.104736328125 957.414001464844 957.112976074219 973.478637695312 973.246826171875 984.971862792969 981.060974121094 986.517517089844 989.009399414062 990.436218261719 990.92041015625 982.954345703125 991.177368164062 988.046875 989.468139648438 983.960327148438 981.050659179688 973.820068359375 974.159301757812 964.494201660156 972.714294433594 959.521667480469 967.872924804688 965.925048828125 971.029113769531 968.917663574219 974.363098144531 982.985046386719 979.869567871094 972.08984375 974.69580078125 975.983520507812 973.091552734375 971.571655273438 974.687927246094 984.743225097656 985.160461425781 991.667053222656 987.692504882812 988.037963867188 980.326721191406 976.781005859375 978.580078125 980.428161621094 980.899475097656 975.624877929688 984.875061035156 988.794738769531 984.99560546875 985.357604980469 983.9814453125 985.657104492188 976.835815429688 970.909240722656 974.819274902344 982.798583984375 987.250854492188 994.476196289062 995.182312011719 993.138000488281 1001.30993652344 1010.78009033203 1004.02301025391 996.121887207031 978.789489746094 986.071899414062 991.508056640625 1002.33337402344 1001.4892578125 1004.140625 1013.47833251953 1019.37005615234 1026.67565917969 1021.01501464844 1021.41650390625 1030.95593261719 1035.69555664062 1032.65161132812 1031.42822265625 1028.00268554688 1030.91052246094 1031.23693847656 1043.49926757812 1047.91137695312 1042.53210449219 1032.56225585938 1028.95751953125 1028.42199707031 1019.47241210938 1023.60626220703 1019.01129150391 1016.94781494141 1025.1357421875 1017.57537841797 1019.09124755859 1015.23236083984 1012.97814941406 1012.85913085938 1022.58569335938 1019.83782958984 1018.16735839844 1010.78277587891 1013.49407958984 1011.36993408203 1019.15026855469 1010.93621826172 1005.65466308594 997.513366699219 995.114196777344 998.449951171875 996.549377441406 994.458435058594
953.777893066406 943.625854492188 940.455017089844 938.464538574219 947.384765625 942.135192871094 937.177795410156 933.482543945312 937.0390625 950.284545898438 958.687377929688 955.155212402344 957.646484375 963.095031738281 976.055725097656 986.851318359375 993.639465332031 991.449462890625 986.877624511719 974.071960449219 963.982788085938 972.748596191406 965.890563964844 973.1083984375 981.329772949219 976.720153808594 969.891357421875 975.643432617188 981.707214355469 978.122314453125 976.465698242188 962.362487792969 959.692443847656 955.074768066406 953.563110351562 962.572021484375 959.538879394531 959.819702148438 949.665222167969 962.491516113281 975.854248046875 983.103759765625 988.229553222656 989.039855957031 992.956115722656 987.253540039062 993.441650390625 996.817626953125 989.526916503906 990.201843261719 992.677734375 997.297546386719 998.071960449219 984.205017089844 977.650756835938 981.515930175781 964.642456054688 965.253356933594 975.720092773438 971.195007324219 963.595397949219 968.387878417969 965.285217285156 969.942626953125 974.079406738281 976.461303710938 972.251159667969 972.013244628906 975.305053710938 974.376220703125 968.337036132812 968.027770996094 978.834350585938 983.140380859375 987.227416992188 997.0009765625 989.009521484375 979.160095214844 982.405883789062 981.506530761719 991.306945800781 987.010986328125 984.290100097656 985.033386230469 980.77587890625 992.857055664062 993.030090332031 994.193115234375 987.140747070312 980.34765625 981.848510742188 988.647155761719 976.643188476562 983.952270507812 987.68115234375 992.385925292969 997.917602539062 1003.67517089844 1017.6201171875 1012.07501220703 1005.19885253906 999.751831054688 990.718566894531 993.682373046875 1003.84210205078 1008.79168701172 994.298950195312 1010.63635253906 1009.74688720703 1017.56481933594 1022.40881347656 1021.88989257812 1024.58557128906 1026.97814941406 1035.70141601562 1034.93981933594 1035.7587890625 1029.87634277344 1029.20654296875 1028.94262695312 1043.14025878906 1048.21032714844 1054.09619140625 1047.23413085938 1034.86010742188 1024.9482421875 1024.41589355469 1016.96002197266 1020.74761962891 1018.06573486328 1013.09448242188 1016.60375976562 1016.44091796875 1009.62322998047 1009.91375732422 1013.52624511719 1005.04760742188 1007.36218261719 1009.33081054688 1005.29168701172 1000.94812011719 1005.15972900391 1011.81951904297 1006.62756347656 1005.04711914062 994.983093261719 1002.19647216797 993.733764648438 990.700988769531 987.784851074219
946.570495605469 947.967163085938 935.477478027344 942.550476074219 940.626037597656 944.950500488281 934.9091796875 937.25341796875 945.940490722656 950.414306640625 949.352172851562 952.206665039062 955.391357421875 967.621948242188 970.609741210938 990.421325683594 993.492614746094 999.448059082031 996.807006835938 984.522155761719 976.515747070312 973.556213378906 972.912841796875 975.91259765625 977.385375976562 973.992614746094 969.217041015625 980.236145019531 986.231628417969 982.784240722656 970.931945800781 964.664184570312 954.10986328125 947.074768066406 955.205383300781 973.108764648438 966.93115234375 966.973205566406 965.903991699219 983.10986328125 987.262634277344 983.927673339844 993.72509765625 987.14794921875 996.546264648438 988.435546875 991.432250976562 994.0380859375 996.916870117188 1002.36279296875 1007.63061523438 1001.52124023438 1002.54876708984 992.441772460938 984.437683105469 983.634521484375 974.529663085938 979.106384277344 974.489929199219 976.10986328125 969.483825683594 962.324462890625 961.140747070312 970.327514648438 979.887390136719 985.732421875 982.757080078125 972.531799316406 976.418640136719 975.643859863281 980.179870605469 978.154907226562 982.613830566406 991.459716796875 983.824096679688 986.642639160156 990.642272949219 981.863037109375 990.859130859375 981.873229980469 975.267761230469 975.816162109375 978.211181640625 985.451232910156 983.295715332031 985.51318359375 985.728881835938 983.603393554688 978.97412109375 974.403564453125 981.180358886719 991.223266601562 984.893676757812 982.973510742188 992.240539550781 1004.90209960938 1005.81433105469 1006.93090820312 1019.06701660156 1008.28656005859 1003.54284667969 1002.44128417969 1003.31170654297 1019.45648193359 1006.99182128906 1008.76739501953 1003.72027587891 1016.04333496094 1013.56579589844 1018.93487548828 1020.86126708984 1026.34594726562 1022.61700439453 1016.89654541016 1022.19982910156 1028.04113769531 1032.65539550781 1037.2080078125 1031.62219238281 1035.41491699219 1042.1884765625 1046.85021972656 1044.99719238281 1048.29638671875 1037.98229980469 1029.01306152344 1021.40246582031 1019.65026855469 1021.39990234375 1008.634765625 1011.14489746094 1011.68865966797 1008.79949951172 1006.72680664062 1005.76806640625 1015.16558837891 1004.66595458984 1007.51934814453 1000.85302734375 992.826049804688 991.285949707031 995.749694824219 1000.50567626953 1005.33587646484 1000.86242675781 990.691345214844 993.358520507812 996.200500488281 986.296630859375 983.190612792969
946.99853515625 955.247680664062 950.045715332031 932.146362304688 928.517333984375 936.598388671875 931.714782714844 938.232177734375 931.0400390625 943.947021484375 947.323120117188 948.425048828125 956.649841308594 969.977172851562 975.661926269531 986.234802246094 989.709228515625 988.311950683594 988.67236328125 983.887268066406 971.014953613281 981.529479980469 979.327758789062 986.061828613281 983.967834472656 972.427124023438 973.824035644531 974.24853515625 975.164611816406 984.40966796875 968.363830566406 958.776611328125 949.991882324219 961.114868164062 963.242065429688 978.080993652344 980.557250976562 980.572570800781 985.236145019531 989.51318359375 986.362365722656 991.741516113281 995.663269042969 1003.39971923828 1003.134765625 995.511901855469 1001.00036621094 994.876525878906 1001.10736083984 1011.28094482422 1019.05102539062 1015.30413818359 1007.626953125 1002.40844726562 985.871887207031 981.090759277344 981.907104492188 977.994567871094 974.465393066406 976.0625 965.783325195312 965.827270507812 971.462768554688 970.540405273438 975.356201171875 988.124328613281 984.350463867188 984.698059082031 989.0634765625 974.653747558594 985.062255859375 980.847595214844 986.96923828125 993.891906738281 996.4482421875 1000.46716308594 989.55859375 989.877319335938 989.138244628906 988.2216796875 982.254760742188 975.013244628906 966.746276855469 972.652709960938 978.166015625 986.204956054688 983.634094238281 980.312622070312 973.589660644531 971.087463378906 980.363525390625 984.842651367188 993.690856933594 994.862670898438 992.059326171875 999.098937988281 1009.54870605469 1015.64898681641 1015.22723388672 1009.48181152344 1011.41424560547 1005.94622802734 1000.32293701172 1005.78204345703 1001.94323730469 1007.89031982422 1005.08880615234 1008.47564697266 1015.64068603516 1019.82434082031 1027.49108886719 1021.61956787109 1033.53918457031 1024.3642578125 1023.55621337891 1016.79229736328 1023.349609375 1025.58679199219 1028.00451660156 1033.39440917969 1035.88073730469 1041.13525390625 1040.02233886719 1046.76696777344 1022.81726074219 1025.61865234375 1011.84594726562 1008.56958007812 1012.26806640625 1012.64794921875 1006.75756835938 1010.00360107422 1011.08612060547 1009.47241210938 1005.00524902344 1010.16796875 1007.12316894531 1002.09320068359 996.676086425781 989.188354492188 992.54443359375 993.00830078125 994.303161621094 999.619873046875 1000.66693115234 999.125122070312 998.588439941406 991.51708984375 995.337219238281 994.340576171875
942.354370117188 948.921447753906 941.008117675781 932.135986328125 932.007934570312 935.717956542969 926.662536621094 928.787292480469 925.540832519531 935.334045410156 952.043090820312 956.527587890625 964.531982421875 975.285583496094 979.369506835938 984.266906738281 996.842895507812 987.463500976562 989.037780761719 982.367370605469 980.59228515625 986.65625 985.523193359375 987.346862792969 988.087158203125 980.228088378906 977.136657714844 972.608520507812 975.299438476562 969.15380859375 972.294494628906 970.556640625 963.002624511719 966.084045410156 964.994384765625 976.139404296875 991.243347167969 991.9912109375 983.829345703125 988.269958496094 987.180603027344 996.74560546875 997.299499511719 1008.28375244141 1008.75793457031 1004.99273681641 1012.47888183594 1000.86157226562 1004.45251464844 1015.88177490234 1011.01214599609 1011.72406005859 1009.47137451172 1000.36285400391 986.793090820312 984.356567382812 980.41650390625 984.683898925781 983.035339355469 984.504699707031 970.071166992188 973.720520019531 974.165710449219 975.675354003906 976.338562011719 992.377197265625 987.080810546875 989.043884277344 983.728942871094 981.860473632812 976.957641601562 987.084350585938 987.369201660156 1004.20977783203 995.086242675781 996.782287597656 998.708251953125 995.820861816406 995.830932617188 997.4580078125 984.450500488281 984.402099609375 968.645751953125 968.854064941406 958.249633789062 979.850708007812 972.775512695312 986.787475585938 981.752868652344 979.453857421875 987.9716796875 990.396118164062 986.790466308594 989.762512207031 997.4814453125 995.106628417969 1004.06085205078 1007.38275146484 1006.12744140625 1020.37982177734 1012.51617431641 1010.42639160156 1004.84020996094 1005.24377441406 1006.20935058594 1013.69744873047 1009.99005126953 1011.82104492188 1013.78167724609 1012.36602783203 1019.20782470703 1024.29223632812 1027.59509277344 1024.58276367188 1020.57458496094 1018.15014648438 1013.94580078125 1022.65850830078 1020.294921875 1030.875 1038.66528320312 1036.43151855469 1034.60717773438 1037.41015625 1026.89916992188 1021.37774658203 1017.16528320312 1004.50170898438 1005.44134521484 1000.751953125 1004.73455810547 1002.27142333984 1001.80212402344 1006.73822021484 1009.26202392578 1012.41485595703 1007.759765625 1003.30828857422 998.801147460938 995.163696289062 993.900451660156 990.841003417969 995.935974121094 992.235229492188 992.598205566406 996.994201660156 995.263854980469 996.477905273438 999.735595703125 1002.0498046875
940.154846191406 940.4052734375 933.706848144531 932.631652832031 928.414489746094 923.784729003906 924.101684570312 924.377868652344 920.28271484375 934.864990234375 952.386901855469 955.289611816406 966.631042480469 970.549438476562 979.227844238281 993.535339355469 991.878967285156 989.365295410156 995.850036621094 989.617858886719 987.95556640625 990.381896972656 991.988342285156 985.383117675781 990.353881835938 985.740417480469 984.342346191406 983.322448730469 971.545654296875 971.566345214844 962.079772949219 973.716613769531 969.590942382812 979.391052246094 977.369873046875 981.505615234375 981.578308105469 992.970703125 992.433959960938 996.225341796875 1001.07855224609 992.067932128906 1001.4072265625 1023.28619384766 1025.37658691406 1018.68481445312 1017.22717285156 1011.95129394531 1013.98852539062 1008.36608886719 1011.99884033203 1010.73822021484 1002.28881835938 1001.74957275391 990.639892578125 993.835754394531 985.039123535156 983.067199707031 982.840576171875 974.883239746094 971.681335449219 976.552062988281 979.398071289062 982.591857910156 983.305297851562 993.92431640625 983.385375976562 987.461059570312 977.34423828125 984.148071289062 979.861877441406 985.355590820312 987.27001953125 991.116577148438 994.383911132812 990.959228515625 996.601135253906 999.705383300781 998.809265136719 991.503295898438 989.850402832031 983.557983398438 973.432861328125 974.557312011719 970.609069824219 973.494567871094 977.116943359375 989.551025390625 991.489318847656 982.213256835938 989.796691894531 986.832763671875 985.716125488281 987.681396484375 991.146728515625 988.670593261719 1004.38659667969 1002.93017578125 999.357055664062 1014.30688476562 1009.72192382812 1009.07293701172 1019.25091552734 1019.240234375 1012.9638671875 1007.24487304688 1007.01446533203 1004.20483398438 1012.35614013672 1010.63702392578 1016.73059082031 1020.36334228516 1024.46667480469 1012.28344726562 1017.998046875 1018.87194824219 1015.07257080078 1018.03765869141 1016.953125 1023.69671630859 1032.66845703125 1027.86535644531 1034.32641601562 1029.39135742188 1022.61157226562 1018.90112304688 1014.81701660156 1009.93902587891 1010.91485595703 1008.58862304688 1000.99963378906 1006.76550292969 1008.205078125 1004.60638427734 1006.07086181641 1011.44958496094 1014.30511474609 1000.53967285156 1003.21795654297 1000.48370361328 1002.74041748047 994.305236816406 991.961669921875 983.364562988281 984.5751953125 998.350769042969 1000.78497314453 997.348388671875 1002.61975097656 1003.69921875
940.037719726562 933.710144042969 940.603881835938 934.529418945312 930.206665039062 934.323059082031 922.611450195312 923.668090820312 934.175720214844 935.8310546875 954.803283691406 960.835510253906 965.035766601562 973.593322753906 975.637023925781 986.921264648438 983.401062011719 986.157348632812 989.863708496094 986.536254882812 994.918762207031 991.551452636719 996.953125 992.320251464844 986.489501953125 988.385864257812 985.591369628906 973.958251953125 980.347534179688 977.171569824219 972.583190917969 982.570129394531 977.174865722656 981.510192871094 980.713928222656 989.402099609375 986.638244628906 996.127563476562 1003.04650878906 1007.30743408203 1006.68884277344 1008.8466796875 1011.10186767578 1021.27478027344 1028.93627929688 1026.13684082031 1019.51000976562 1014.20056152344 1016.82232666016 1025.47229003906 1011.02801513672 999.760437011719 998.930480957031 996.687377929688 1001.1474609375 994.618408203125 989.328247070312 988.261169433594 978.341613769531 970.686828613281 974.854919433594 979.280639648438 990.383483886719 976.163940429688 978.429443359375 985.622375488281 982.104370117188 992.927734375 986.814697265625 997.246215820312 986.081726074219 992.519287109375 994.863464355469 994.1142578125 990.112121582031 1001.23992919922 997.742248535156 1000.48059082031 997.659484863281 991.505493164062 999.089660644531 990.008850097656 979.318298339844 981.007507324219 978.481994628906 980.887023925781 991.681274414062 985.157409667969 984.535888671875 990.385314941406 991.284118652344 991.77734375 990.764587402344 981.835388183594 988.566772460938 988.432250976562 1003.31970214844 1001.00213623047 990.001953125 1004.75634765625 1004.19421386719 1006.18054199219 1013.02172851562 1008.01885986328 1014.14965820312 1010.87829589844 1000.50646972656 995.455871582031 1000.74420166016 1007.87908935547 1018.51965332031 1031.09631347656 1024.26330566406 1028.04956054688 1025.7607421875 1023.45880126953 1024.42419433594 1022.94287109375 1015.75036621094 1022.71301269531 1027.66906738281 1025.79614257812 1026.04235839844 1021.77697753906 1029.21752929688 1025.21594238281 1015.20050048828 1011.88366699219 1011.22399902344 1009.79443359375 1009.1650390625 1002.83868408203 1010.98260498047 1002.18194580078 1001.52264404297 999.530944824219 1007.49090576172 1000.66186523438 1001.80560302734 1002.33453369141 1004.5439453125 997.323669433594 985.953308105469 983.059265136719 990.008850097656 994.347778320312 997.252990722656 991.106567382812 993.11181640625 993.265686035156
936.810913085938 938.055297851562 933.29541015625 931.003601074219 926.85986328125 931.266723632812 930.146545410156 927.767944335938 944.555603027344 956.755615234375 965.146606445312 973.911743164062 976.146606445312 971.063537597656 974.6533203125 981.560546875 976.840087890625 980.703430175781 982.231567382812 983.351440429688 987.336791992188 992.088256835938 991.321655273438 994.642944335938 982.186157226562 986.95654296875 985.774536132812 982.027160644531 988.830810546875 982.007202148438 979.325134277344 983.875671386719 983.357421875 980.383972167969 985.046997070312 984.928894042969 989.796997070312 999.754577636719 1005.38012695312 1004.96435546875 1011.669921875 1003.68927001953 1008.98492431641 1011.81359863281 1017.83624267578 1013.62689208984 1022.54284667969 1018.26257324219 1010.34606933594 1006.53088378906 1001.0322265625 1001.28558349609 994.075073242188 994.267333984375 993.126770019531 992.883056640625 986.636596679688 975.04345703125 967.891052246094 971.963317871094 976.302795410156 983.280212402344 981.8076171875 976.697631835938 968.216064453125 970.120666503906 977.50048828125 986.427551269531 997.759033203125 995.856323242188 993.911315917969 995.162231445312 990.390930175781 998.326538085938 1005.80798339844 996.7978515625 998.377136230469 1002.69793701172 1004.71484375 1000.91058349609 1001.19274902344 999.123229980469 995.140441894531 996.874572753906 988.428283691406 987.046936035156 988.355346679688 983.833251953125 986.326904296875 989.157165527344 984.769165039062 977.371948242188 987.377502441406 987.479675292969 999.62255859375 989.937744140625 1000.77935791016 990.616027832031 995.981994628906 1003.33819580078 999.572204589844 1011.05474853516 1015.91955566406 1013.23400878906 1003.95495605469 1015.96960449219 997.668212890625 1006.40307617188 1010.81433105469 1013.56878662109 1022.54736328125 1025.59777832031 1026.99255371094 1031.95422363281 1031.89538574219 1039.14135742188 1034.98803710938 1028.8916015625 1025.03674316406 1036.1826171875 1029.39172363281 1028.3203125 1026.64294433594 1018.13903808594 1019.81225585938 1015.33740234375 1011.33288574219 1009.28570556641 1006.96783447266 1001.26007080078 1000.65814208984 1008.91748046875 994.774963378906 999.57080078125 1001.88391113281 1003.52069091797 992.901977539062 1010.06372070312 1001.33172607422 1003.44848632812 996.409729003906 992.040832519531 985.689147949219 982.233276367188 979.452880859375 979.923522949219 981.666931152344 981.1162109375 981.888000488281 989.314331054688
942.9482421875 940.502563476562 932.800659179688 931.757385253906 932.319274902344 934.241577148438 929.160705566406 935.419189453125 951.414123535156 968.561950683594 976.272155761719 971.676940917969 979.348571777344 973.259094238281 977.387451171875 982.863952636719 981.611938476562 976.240661621094 974.701477050781 969.160278320312 974.9189453125 976.460144042969 982.722106933594 989.335021972656 984.680053710938 985.843322753906 993.023254394531 986.266967773438 976.412109375 980.664611816406 982.564392089844 983.82275390625 980.969909667969 982.023681640625 985.842956542969 987.007995605469 994.970336914062 994.87646484375 1004.67718505859 1006.30523681641 1007.67724609375 1004.49047851562 1006.58032226562 1009.73181152344 1007.05322265625 1007.60864257812 1013.01354980469 1003.59790039062 996.967956542969 1003.69073486328 999.552490234375 993.179138183594 990.915161132812 990.47900390625 984.324401855469 988.75048828125 991.120361328125 977.060424804688 973.786804199219 969.88134765625 973.060852050781 976.549987792969 974.39306640625 971.977661132812 970.973937988281 972.226623535156 982.536743164062 989.370178222656 989.056274414062 993.558227539062 994.459350585938 986.271728515625 994.684387207031 996.942749023438 1003.56433105469 1010.0908203125 1003.78637695312 1006.39611816406 1014.81146240234 1009.19189453125 1003.55334472656 994.977355957031 1007.20709228516 1002.09948730469 1000.80450439453 992.008178710938 986.575561523438 982.075866699219 982.695068359375 983.995239257812 987.795654296875 984.763549804688 983.606567382812 989.879516601562 989.118469238281 990.687561035156 992.178161621094 994.791870117188 1002.13201904297 1005.85522460938 1008.54925537109 1007.28601074219 1001.37738037109 1003.30596923828 1014.38970947266 1015.54229736328 1018.04705810547 1014.39447021484 1017.201171875 1019.42749023438 1028.52526855469 1036.28735351562 1027.2529296875 1034.23181152344 1029.79724121094 1033.69274902344 1028.5185546875 1035.38098144531 1033.94458007812 1035.84436035156 1046.12243652344 1035.150390625 1032.28137207031 1021.00177001953 1011.98962402344 1008.04467773438 1007.41967773438 1000.98937988281 998.379699707031 1011.50299072266 996.0419921875 1003.27856445312 1001.64422607422 1003.9462890625 1002.20391845703 986.21875 986.037719726562 992.621215820312 996.967712402344 996.935791015625 991.878967285156 990.277404785156 989.021850585938 985.077514648438 989.784545898438 971.831726074219 985.7626953125 984.882934570312 984.457702636719 989.969543457031
956.148681640625 952.173889160156 938.93017578125 933.426025390625 934.663330078125 936.944763183594 938.586181640625 936.898254394531 951.640502929688 966.121520996094 978.324096679688 984.556335449219 980.908935546875 979.828796386719 986.386047363281 983.937805175781 978.903076171875 976.751586914062 974.303649902344 970.973571777344 973.410217285156 991.627990722656 986.854064941406 984.328247070312 987.296630859375 985.068725585938 989.282592773438 993.445678710938 982.936645507812 982.077941894531 983.281066894531 983.936279296875 988.39453125 979.288024902344 989.33251953125 986.203674316406 986.826965332031 995.640930175781 999.597290039062 1000.1044921875 1005.23223876953 999.347961425781 1000.35107421875 991.971435546875 994.033935546875 998.471069335938 1001.80419921875 993.515014648438 992.088989257812 1001.64495849609 998.365173339844 997.655578613281 988.448669433594 993.426574707031 985.813049316406 986.938659667969 988.685424804688 977.817199707031 975.224975585938 972.200866699219 972.804321289062 969.659729003906 969.856811523438 964.734191894531 976.126281738281 979.257141113281 978.714782714844 987.537475585938 982.39501953125 987.067626953125 991.970458984375 988.49072265625 994.251403808594 1004.71423339844 1002.92565917969 1003.30627441406 1010.05065917969 1008.81646728516 1007.61602783203 1006.37329101562 1009.38098144531 1007.37408447266 1002.02270507812 1004.28424072266 1005.04132080078 996.485961914062 992.924438476562 988.993041992188 984.651062011719 992.674133300781 991.438415527344 989.733276367188 993.737548828125 985.682800292969 982.975952148438 986.819641113281 992.717834472656 993.958923339844 1002.06677246094 1004.01293945312 1005.92669677734 1007.57769775391 1005.72650146484 1003.28106689453 1008.63537597656 1005.63403320312 1012.90026855469 1015.90686035156 1026.33642578125 1033.58959960938 1033.17456054688 1041.57751464844 1034.38818359375 1030.37255859375 1033.59399414062 1033.11743164062 1030.06689453125 1033.73413085938 1038.03857421875 1034.84899902344 1031.83361816406 1037.21667480469 1037.81652832031 1021.83996582031 1009.51318359375 1004.24859619141 1006.48864746094 1008.76629638672 1002.28002929688 1007.38104248047 990.695678710938 992.244995117188 997.301391601562 1003.69482421875 1004.31408691406 996.731750488281 992.40771484375 996.121826171875 997.124267578125 990.660522460938 989.817138671875 987.353820800781 987.09912109375 993.828247070312 979.465515136719 982.30859375 984.009521484375 985.153869628906 987.19580078125 995.922485351562
955.195434570312 959.503662109375 950.750427246094 945.059936523438 933.843811035156 936.565795898438 942.380065917969 944.679382324219 951.030334472656 970.712280273438 981.323181152344 992.148559570312 986.716674804688 980.416809082031 985.642700195312 988.319885253906 979.443603515625 978.791076660156 970.718933105469 977.781921386719 974.410583496094 989.806640625 989.238586425781 993.936462402344 992.579772949219 986.827941894531 991.355834960938 993.409118652344 984.476379394531 982.076110839844 983.145935058594 975.231079101562 986.402587890625 981.805908203125 985.654663085938 990.063232421875 991.737426757812 990.283752441406 998.307434082031 996.482238769531 995.302673339844 1001.72869873047 994.855834960938 992.226440429688 985.896240234375 1000.798828125 994.196716308594 987.348449707031 988.796020507812 993.612182617188 999.721130371094 986.349182128906 987.549865722656 980.808532714844 987.4365234375 988.430725097656 980.553100585938 978.252990722656 975.966369628906 982.413208007812 975.099853515625 973.699035644531 979.116271972656 977.91015625 975.330810546875 985.503662109375 982.137512207031 982.560302734375 983.314880371094 983.209228515625 983.577087402344 991.88330078125 992.785095214844 995.536804199219 993.906494140625 997.473510742188 1002.95635986328 1008.52337646484 1003.1904296875 1011.01824951172 1010.94567871094 1013.64514160156 1005.46612548828 1010.89880371094 1009.06652832031 1010.64294433594 1004.35089111328 993.305358886719 991.224670410156 992.718078613281 994.536682128906 1001.15667724609 992.147888183594 984.268615722656 984.709045410156 997.575439453125 993.476013183594 989.025573730469 993.659851074219 1009.46508789062 1010.71618652344 1008.72229003906 999.250549316406 1004.82531738281 1002.96032714844 1005.94793701172 1007.84411621094 1015.22076416016 1034.68395996094 1036.11877441406 1045.67687988281 1048.7880859375 1035.96887207031 1040.04040527344 1042.47534179688 1035.70788574219 1036.97058105469 1034.88623046875 1040.06396484375 1037.12805175781 1039.8779296875 1043.35192871094 1043.67395019531 1026.44458007812 1012.16577148438 1006.54412841797 1003.33441162109 1010.65356445312 999.572814941406 1002.08087158203 991.620910644531 990.408020019531 994.082153320312 999.812255859375 995.25732421875 994.050231933594 999.696655273438 988.055419921875 993.3837890625 982.371887207031 986.571411132812 988.290771484375 979.078735351562 980.08984375 982.398864746094 990.119567871094 987.471618652344 987.021606445312 992.568359375 984.679626464844
947.712890625 959.728332519531 959.682312011719 944.1875 936.862060546875 935.6982421875 937.952880859375 942.005249023438 948.37939453125 959.324768066406 969.510498046875 976.241760253906 977.342346191406 978.392700195312 977.768127441406 984.077026367188 973.198059082031 969.778747558594 968.580932617188 971.365356445312 979.477111816406 979.225341796875 983.039489746094 990.990783691406 990.754943847656 998.846069335938 988.392517089844 985.64404296875 979.170043945312 979.208923339844 973.786254882812 972.036437988281 974.693298339844 974.79931640625 986.564514160156 987.230773925781 987.141296386719 987.626281738281 994.307312011719 998.051208496094 1005.12042236328 999.969482421875 996.488464355469 995.962341308594 984.603210449219 995.411804199219 995.644775390625 990.909484863281 988.10693359375 994.441772460938 998.492431640625 992.861633300781 986.491271972656 989.750122070312 989.5771484375 995.254272460938 988.119873046875 981.569274902344 983.345520019531 981.792785644531 981.059265136719 973.853454589844 978.374633789062 979.405395507812 979.987243652344 978.37890625 979.609130859375 983.85595703125 976.545776367188 989.319458007812 980.904663085938 990.670166015625 992.58349609375 986.929504394531 988.817565917969 995.47900390625 1000.18811035156 1004.82189941406 1001.42987060547 1007.15673828125 1011.81842041016 1016.62683105469 1007.47100830078 1009.39306640625 1003.77746582031 1004.45910644531 1003.98425292969 993.5908203125 994.06494140625 1000.39697265625 996.675170898438 994.785705566406 996.975402832031 991.767150878906 996.052551269531 995.726684570312 998.498352050781 999.1552734375 1004.31604003906 1007.09295654297 1006.34002685547 1003.849609375 993.721557617188 999.937377929688 1002.60528564453 1003.49090576172 1009.73510742188 1011.44720458984 1031.66345214844 1032.2158203125 1051.93908691406 1061.84936523438 1048.88220214844 1045.0966796875 1042.99865722656 1046.08276367188 1030.48474121094 1038.73547363281 1032.86401367188 1031.37512207031 1026.29028320312 1036.17370605469 1036.35913085938 1023.30889892578 1014.97149658203 1000.86737060547 991.013366699219 991.834045410156 999.072692871094 995.095458984375 1000.96234130859 993.325866699219 999.76416015625 994.140319824219 981.682739257812 989.354248046875 985.515502929688 977.509582519531 987.051696777344 985.752990722656 977.55810546875 976.856262207031 977.231079101562 985.453125 983.031860351562 985.570434570312 989.810241699219 996.9208984375 985.13037109375 982.466735839844
962.287414550781 964.25341796875 961.720031738281 947.580749511719 940.623840332031 944.842041015625 942.576782226562 951.298828125 954.303161621094 963.039733886719 973.691162109375 967.115356445312 970.417053222656 976.037292480469 970.507202148438 966.315368652344 961.378356933594 955.617919921875 958.237426757812 962.669494628906 969.917846679688 979.701599121094 983.39208984375 985.050415039062 985.802856445312 996.275512695312 988.46728515625 981.192260742188 973.718139648438 968.351684570312 960.60400390625 955.496398925781 973.252258300781 974.297058105469 981.646545410156 991.059631347656 990.321166992188 988.778198242188 992.474548339844 993.6162109375 1003.31378173828 991.764709472656 995.677062988281 990.625366210938 986.376770019531 986.201293945312 1002.47265625 988.557434082031 994.682800292969 994.832946777344 996.966247558594 988.59033203125 986.11865234375 994.640380859375 986.656860351562 989.972229003906 992.28955078125 995.693542480469 987.664001464844 984.529174804688 978.802673339844 976.221130371094 973.546264648438 977.87158203125 976.669799804688 984.431274414062 972.776672363281 976.474853515625 981.476318359375 990.242248535156 989.872497558594 994.7421875 979.283203125 985.22265625 982.891418457031 993.187377929688 997.387023925781 1000.81890869141 1001.51000976562 1000.80426025391 1016.42590332031 1005.68402099609 1006.56451416016 1014.02099609375 1009.49774169922 1007.61999511719 999.844055175781 994.700378417969 995.50927734375 1001.80291748047 998.202087402344 1007.12182617188 995.4921875 993.269653320312 1001.28796386719 1000.51574707031 995.747619628906 1002.92791748047 1004.50939941406 1002.892578125 1004.28771972656 996.427429199219 1007.25048828125 1012.73706054688 1002.263671875 1010.76116943359 1022.45819091797 1027.07250976562 1037.67395019531 1038.18017578125 1052.19567871094 1063.02209472656 1051.0087890625 1052.70935058594 1050.76599121094 1041.46020507812 1048.13171386719 1046.13720703125 1039.37097167969 1038.22436523438 1042.63793945312 1041.93908691406 1026.97961425781 1014.20849609375 1005.93103027344 1003.18377685547 996.397094726562 991.888732910156 997.545104980469 998.740234375 989.81884765625 983.709899902344 989.301574707031 988.144104003906 986.742309570312 993.4912109375 1002.16442871094 988.934814453125 984.818664550781 977.628540039062 977.895080566406 975.193359375 970.62109375 981.210266113281 985.944702148438 979.538330078125 987.885070800781 988.052429199219 982.180236816406 983.85107421875
957.340698242188 961.233459472656 960.35693359375 946.007751464844 938.422119140625 945.480224609375 944.395690917969 945.217956542969 946.397888183594 956.755493164062 965.57666015625 966.124694824219 958.954895019531 961.462280273438 956.813232421875 968.416137695312 960.962585449219 953.468200683594 957.889465332031 957.037475585938 962.582397460938 959.478942871094 968.940246582031 973.435974121094 975.699523925781 978.261291503906 982.378356933594 978.988342285156 969.643676757812 964.8515625 962.316101074219 961.492614746094 969.852844238281 981.789184570312 982.489868164062 992.76708984375 987.652404785156 989.388061523438 985.167602539062 989.500061035156 994.132751464844 995.713989257812 992.828979492188 989.466613769531 990.185363769531 983.26513671875 997.492980957031 1001.29736328125 1000.36529541016 997.9169921875 994.770446777344 994.59912109375 998.562561035156 996.445251464844 986.909118652344 987.371398925781 995.408996582031 988.209289550781 992.9296875 991.224426269531 982.355285644531 980.422790527344 985.949096679688 986.091796875 980.283081054688 984.509399414062 971.943664550781 975.36083984375 982.607971191406 985.627685546875 987.745178222656 987.542907714844 988.614807128906 983.165222167969 983.701049804688 987.233703613281 998.277526855469 1000.31134033203 1002.09112548828 1003.66009521484 1011.32037353516 1010.48046875 1010.59161376953 1011.03350830078 1009.51391601562 1006.8857421875 1003.45892333984 1008.22717285156 1003.95849609375 999.482116699219 1002.79315185547 1000.94720458984 1000.59417724609 1000.3984375 999.552429199219 998.497436523438 999.796997070312 999.827758789062 1004.95129394531 998.9951171875 997.559753417969 1000.31353759766 994.108215332031 1004.92633056641 1007.67376708984 1017.16613769531 1024.17150878906 1032.25842285156 1029.60571289062 1042.13635253906 1045.48681640625 1052.26953125 1050.55578613281 1056.53039550781 1060.83422851562 1055.51147460938 1053.7060546875 1052.814453125 1056.22253417969 1042.75134277344 1045.97729492188 1037.69714355469 1023.38262939453 1019.60083007812 999.925598144531 1007.52807617188 996.238342285156 993.302856445312 986.761352539062 976.559387207031 974.222778320312 977.69775390625 985.611145019531 981.226196289062 981.509399414062 991.612487792969 988.923828125 994.945739746094 985.027587890625 982.055236816406 978.180908203125 973.441101074219 981.506103515625 983.979248046875 981.415893554688 977.472045898438 985.859008789062 989.620544433594 982.84912109375 979.473083496094
962.926574707031 962.885131835938 957.794921875 949.508605957031 941.703247070312 944.612365722656 936.230895996094 937.011291503906 947.774475097656 955.329833984375 960.817199707031 956.468505859375 957.497619628906 953.075073242188 948.687377929688 958.205261230469 959.304748535156 964.792297363281 958.156616210938 957.789794921875 954.848999023438 948.508422851562 959.919494628906 972.374572753906 972.230712890625 973.100036621094 974.401245117188 967.80859375 965.990844726562 963.278015136719 969.582336425781 965.728515625 973.569580078125 972.267333984375 975.357727050781 974.674194335938 978.598327636719 977.307495117188 967.771240234375 973.842590332031 983.629028320312 985.852172851562 979.99365234375 985.872741699219 993.795532226562 991.573181152344 993.312561035156 1000.29797363281 997.465209960938 994.5859375 996.3623046875 1000.33508300781 994.228515625 982.9365234375 990.326477050781 985.031677246094 988.588439941406 986.430053710938 1000.20812988281 991.471069335938 992.070373535156 989.598937988281 987.864562988281 986.561706542969 980.908264160156 982.32177734375 974.933715820312 981.324523925781 981.401611328125 981.797912597656 984.414978027344 991.473754882812 991.199340820312 976.742614746094 977.075561523438 981.641235351562 988.005249023438 993.054077148438 995.415771484375 1002.0126953125 1007.29827880859 1009.47631835938 1017.23303222656 1011.37945556641 1007.93328857422 1005.67730712891 1013.10217285156 1004.74310302734 1008.31335449219 1006.34796142578 1001.63098144531 1003.09313964844 995.238403320312 1002.56774902344 996.93115234375 998.092407226562 999.307312011719 995.973449707031 998.529235839844 996.881286621094 997.228881835938 999.118835449219 1004.14764404297 1003.47003173828 1005.95574951172 1015.69201660156 1027.6689453125 1035.07568359375 1035.02111816406 1042.55493164062 1042.03454589844 1052.74072265625 1060.85375976562 1068.97338867188 1070.76635742188 1057.42419433594 1047.65539550781 1052.22082519531 1055.11437988281 1043.83325195312 1031.33837890625 1032.12939453125 1024.86169433594 1016.33428955078 1007.97503662109 1006.31280517578 1000.21978759766 992.202331542969 977.856079101562 967.127075195312 967.626342773438 980.857421875 977.16845703125 980.575012207031 984.671142578125 991.444274902344 984.23974609375 986.116943359375 990.075927734375 982.171691894531 980.721862792969 980.568237304688 982.354248046875 976.769287109375 975.102416992188 967.789489746094 970.120239257812 984.864074707031 983.5302734375 987.423522949219
961.101257324219 961.338256835938 952.169738769531 947.765808105469 948.913269042969 938.525085449219 928.713500976562 932.649658203125 942.649963378906 950.011779785156 955.578491210938 951.647094726562 948.628051757812 941.199279785156 948.514404296875 955.138000488281 962.350341796875 959.6533203125 953.988037109375 959.782348632812 950.961853027344 952.365905761719 955.537719726562 959.558410644531 967.051574707031 963.172241210938 965.420837402344 968.7880859375 964.77392578125 965.401794433594 966.316711425781 968.702514648438 970.305847167969 964.788024902344 962.432495117188 969.451904296875 970.773803710938 963.147888183594 955.113525390625 969.020141601562 974.88330078125 984.822692871094 985.566833496094 990.227661132812 993.454040527344 985.788024902344 995.017395019531 995.986877441406 993.376220703125 992.523803710938 995.637390136719 999.8876953125 984.330139160156 984.815490722656 987.304260253906 984.355224609375 991.734680175781 993.317565917969 1000.08941650391 993.181396484375 984.476318359375 988.949584960938 984.501953125 982.710388183594 977.346557617188 975.648071289062 973.474426269531 977.321594238281 980.779846191406 990.429382324219 989.554565429688 993.271911621094 989.673461914062 981.924926757812 980.786010742188 990.795104980469 991.756042480469 985.507690429688 985.988464355469 986.849365234375 1007.50836181641 1001.40270996094 1008.27490234375 1004.66680908203 994.183654785156 1002.94586181641 1008.10321044922 1011.08819580078 1006.64184570312 995.537719726562 994.92822265625 994.282165527344 999.229370117188 1002.29412841797 1014.58435058594 1004.83032226562 996.742980957031 990.624145507812 989.083374023438 995.028686523438 1003.93969726562 1004.59808349609 999.587951660156 1005.75256347656 1013.72882080078 1026.03942871094 1029.66821289062 1031.72277832031 1036.85913085938 1046.88500976562 1051.52990722656 1059.23937988281 1067.61401367188 1082.54077148438 1068.4443359375 1064.79577636719 1050.77209472656 1051.88000488281 1039.69445800781 1037.32373046875 1024.66540527344 1030.41540527344 1011.18774414062 1012.48229980469 1008.08715820312 1003.04876708984 999.997741699219 985.269897460938 984.7646484375 969.576171875 969.849853515625 979.874694824219 979.002014160156 979.373779296875 984.646362304688 979.319641113281 974.086791992188 979.151550292969 980.645751953125 986.370483398438 980.954833984375 976.37451171875 974.314331054688 970.227844238281 968.780029296875 969.393005371094 968.042358398438 972.608215332031 974.058349609375 989.108276367188
961.130004882812 966.614868164062 958.289978027344 948.525939941406 946.831665039062 942.103576660156 934.9892578125 934.611206054688 946.53564453125 945.263854980469 943.020751953125 945.295837402344 944.208190917969 946.363586425781 948.549255371094 950.526550292969 956.705932617188 960.503540039062 960.344909667969 958.130676269531 955.73828125 948.347412109375 948.005187988281 952.645568847656 957.562255859375 961.190002441406 958.036010742188 955.970397949219 958.507751464844 960.6826171875 956.73583984375 969.454650878906 970.270751953125 967.057312011719 957.918640136719 964.833862304688 961.504089355469 960.044250488281 967.915405273438 973.595886230469 984.719299316406 987.672546386719 987.562072753906 986.503295898438 983.348449707031 989.162536621094 990.728698730469 989.849731445312 989.147277832031 990.163696289062 997.0869140625 997.344482421875 992.562622070312 992.588012695312 995.80615234375 995.866516113281 996.254272460938 998.894897460938 990.111999511719 995.349853515625 985.223754882812 985.773620605469 989.117248535156 986.3955078125 983.831298828125 985.818054199219 979.984436035156 978.664306640625 979.724853515625 993.466857910156 992.653259277344 989.687255859375 988.548278808594 990.838623046875 989.521118164062 990.580810546875 995.1240234375 989.721130371094 989.588317871094 995.381896972656 999.724365234375 1004.53704833984 1000.22210693359 996.589111328125 997.894653320312 1004.99560546875 1007.54071044922 1011.08636474609 1008.35412597656 999.602966308594 994.573852539062 990.828125 998.563354492188 1003.80462646484 1007.28698730469 1003.90325927734 999.323974609375 995.278686523438 999.888000488281 1002.17492675781 1008.75341796875 1008.94073486328 1005.80529785156 1015.89093017578 1022.69445800781 1034.21533203125 1032.74963378906 1037.38232421875 1049.26708984375 1053.55432128906 1057.751953125 1063.98596191406 1074.57214355469 1069.68786621094 1071.76867675781 1063.0556640625 1052.48364257812 1052.84143066406 1044.58911132812 1043.89147949219 1040.01489257812 1023.35241699219 1005.48944091797 1005.20172119141 1006.40155029297 999.556579589844 988.179260253906 988.569763183594 980.021423339844 975.773254394531 980.267028808594 985.581298828125 988.919067382812 985.290405273438 978.598510742188 981.063598632812 979.243896484375 978.640625 981.603454589844 982.856262207031 978.578796386719 969.456359863281 965.013977050781 968.339782714844 971.144592285156 969.094604492188 967.262451171875 969.444946289062 974.440002441406 986.919860839844
966.813049316406 958.215454101562 949.322448730469 942.616271972656 935.417419433594 938.495056152344 934.401428222656 946.023071289062 945.904418945312 948.358032226562 943.595947265625 947.364501953125 942.102661132812 944.148620605469 943.138854980469 943.518371582031 957.716796875 957.502685546875 956.702331542969 963.944946289062 957.02880859375 957.966125488281 956.768005371094 954.637329101562 951.965026855469 953.716186523438 958.44970703125 956.122314453125 958.792785644531 964.950012207031 966.574401855469 964.146545410156 970.788818359375 970.579528808594 966.403564453125 959.459838867188 963.471923828125 963.628356933594 970.680114746094 971.219665527344 979.222900390625 984.776550292969 987.784790039062 984.20751953125 988.988586425781 992.96875 988.734375 986.392761230469 992.772827148438 997.672668457031 1003.07342529297 1005.97766113281 1008.81164550781 999.132934570312 1005.92059326172 997.698181152344 995.086853027344 1001.689453125 992.887939453125 992.523010253906 987.593139648438 988.032592773438 988.947082519531 993.727600097656 994.749450683594 997.284118652344 986.939880371094 991.664367675781 987.2978515625 988.790588378906 991.512878417969 981.873291015625 991.26171875 988.272399902344 997.287475585938 997.486694335938 991.757019042969 991.796020507812 989.044677734375 990.662292480469 998.806274414062 1006.65063476562 1006.00238037109 1004.44879150391 997.398071289062 1008.56903076172 1007.58898925781 1016.47930908203 1006.66259765625 1002.77478027344 1002.49340820312 998.125610351562 990.227600097656 996.150573730469 1010.93859863281 993.854064941406 1001.73760986328 1003.70111083984 1012.15026855469 1011.52044677734 1017.55212402344 1019.30187988281 1011.45642089844 1019.98876953125 1022.80743408203 1024.79321289062 1029.6474609375 1039.98547363281 1044.94384765625 1044.52893066406 1048.2861328125 1060.70690917969 1065.19470214844 1063.17724609375 1061.46069335938 1058.9765625 1055.82983398438 1065.0625 1056.20007324219 1047.36083984375 1034.984375 1024.0927734375 1014.86389160156 1013.07861328125 1007.72235107422 1001.80773925781 991.413879394531 987.808227539062 987.243713378906 985.636169433594 984.431823730469 981.913208007812 983.157897949219 979.569580078125 978.644714355469 974.471557617188 978.252502441406 981.604919433594 971.418518066406 978.401428222656 973.752319335938 961.774536132812 969.318664550781 967.958984375 970.211730957031 973.18115234375 967.659301757812 964.659851074219 973.777770996094 985.56005859375
