NCOLS 150
NROWS 37
XLLCORNER 7394249
YLLCORNER 4843139
CELLSIZE 30
NODATA_VALUE -9999
954.601318359375 954.825927734375 947.853942871094 950.057373046875 958.290161132812 953.470092773438 955.046264648438 950.969482421875 959.513732910156 960.505004882812 958.700012207031 962.329528808594 962.805358886719 971.761169433594 968.902099609375 959.347778320312 966.519958496094 966.838439941406 967.072204589844 981.962097167969 974.279602050781 977.864868164062 980.881408691406 980.73828125 983.356384277344 991.671447753906 995.757202148438 991.728576660156 998.285034179688 996.432922363281 998.924377441406 991.866394042969 997.148498535156 996.086364746094 1001.57080078125 1004.51989746094 1011.99346923828 1015.53430175781 1022.97601318359 1026.42016601562 1023.79522705078 1033.62707519531 1021.11535644531 1019.11566162109 1010.13494873047 1006.96997070312 997.019958496094 1006.50158691406 991.535766601562 989.568420410156 987.773254394531 999.857604980469 985.173095703125 981.694274902344 995.05859375 1001.03259277344 1005.66278076172 997.55419921875 998.792602539062 989.753173828125 998.132263183594 1007.14764404297 1011.85693359375 1022.03442382812 1017.43072509766 1014.0107421875 1015.99694824219 1018.61932373047 1018.37030029297 1012.69073486328 1003.29925537109 996.639709472656 1004.37860107422 997.830749511719 1000.78216552734 1000.96252441406 1000.33605957031 998.56982421875 999.00537109375 1001.22021484375 997.692260742188 992.051818847656 995.637756347656 998.126403808594 996.558715820312 1010.23022460938 1011.52722167969 1018.86798095703 1022.46643066406 1021.12347412109 1018.00439453125 1009.07995605469 1017.72137451172 1018.40441894531 1019.54040527344 1017.93237304688 1013.74780273438 1015.81866455078 1009.58306884766 1016.13714599609 1005.30407714844 1003.89453125 1002.97473144531 1009.64227294922 1018.13677978516 1008.14404296875 1004.44488525391 1001.0419921875 991.245422363281 991.453247070312 983.2080078125 971.681945800781 959.194274902344 953.887512207031 945.498718261719 951.934753417969 965.545654296875 961.66162109375 979.782348632812 990.936828613281 994.441223144531 1004.07525634766 1015.87731933594 1021.18017578125 1022.75091552734 1029.80029296875 1032.22338867188 1035.814453125 1042.91711425781 1046.45983886719 1047.50769042969 1045.10363769531 1049.62646484375 1054.40368652344 1046.39807128906 1042.52697753906 1038.77478027344 1029.2412109375 1037.11291503906 1038.43334960938 1046.78369140625 1049.81579589844 1054.89038085938 1066.474609375 1069.57678222656 1073.10205078125 1085.3310546875 1091.63647460938 1089.09399414062 1085.69482421875
957.977966308594 954.671936035156 951.249755859375 952.699462890625 953.035217285156 948.353942871094 951.531188964844 957.528503417969 963.399353027344 970.461059570312 970.24365234375 965.469543457031 965.4912109375 968.091552734375 970.163879394531 963.0078125 965.303588867188 965.434387207031 974.184326171875 977.672546386719 979.262390136719 982.373352050781 975.835754394531 977.941101074219 982.819763183594 987.707092285156 987.01806640625 992.812133789062 993.438781738281 994.21142578125 993.115478515625 994.1708984375 990.714599609375 989.031616210938 998.92138671875 1012.72283935547 1013.18469238281 1013.13586425781 1018.38671875 1013.47186279297 1015.07470703125 1013.20617675781 1013.95483398438 1009.10186767578 1003.998046875 1008.68194580078 1008.53924560547 1002.55615234375 994.089233398438 984.152648925781 985.5751953125 987.001403808594 989.937255859375 977.522521972656 990.495544433594 996.3896484375 994.496948242188 997.622985839844 1004.46765136719 998.673522949219 990.97265625 995.472290039062 1011.74212646484 1004.4189453125 1011.2119140625 1008.09100341797 1003.82879638672 1004.41040039062 1010.33367919922 1002.50756835938 998.951354980469 999.901794433594 1006.52966308594 1004.58532714844 998.725769042969 992.86962890625 1002.66162109375 997.961059570312 998.52734375 998.182495117188 992.330078125 991.865356445312 992.247802734375 987.419311523438 997.812683105469 1011.89758300781 1015.2412109375 1022.04034423828 1015.1279296875 1017.67169189453 1018.37451171875 1012.50872802734 1012.45178222656 1020.62139892578 1011.54455566406 1014.40911865234 1009.00451660156 1011.89788818359 1007.27008056641 1012.97552490234 1014.27111816406 1014.92852783203 1008.81842041016 1009.55822753906 1007.27301025391 1011.62976074219 1013.8310546875 1004.10028076172 995.791015625 991.27978515625 980.859252929688 964.344421386719 944.106567382812 944.134399414062 939.641479492188 941.708557128906 951.45556640625 969.222961425781 980.516235351562 984.894470214844 993.163391113281 1003.14849853516 1020.93212890625 1020.78619384766 1027.00317382812 1031.17419433594 1040.08740234375 1038.66748046875 1049.85998535156 1050.72900390625 1045.78894042969 1045.55749511719 1047.51306152344 1045.42565917969 1044.79516601562 1038.65087890625 1038.68078613281 1030.88244628906 1029.96166992188 1029.9521484375 1039.48779296875 1046.3857421875 1055.11022949219 1058.99914550781 1064.91442871094 1078.35217285156 1089.97131347656 1095.01513671875 1094.98706054688 1097.02868652344
952.8017578125 942.459655761719 946.528930664062 954.430358886719 944.818359375 959.375305175781 955.246704101562 957.511291503906 968.629577636719 966.20556640625 966.385070800781 962.130920410156 964.995544433594 967.978820800781 976.240295410156 971.461059570312 969.684509277344 971.958129882812 970.274841308594 973.455688476562 980.219177246094 983.42822265625 977.132873535156 976.489196777344 989.601135253906 985.984619140625 989.7724609375 989.766540527344 991.832458496094 992.620788574219 991.042419433594 976.854858398438 992.777160644531 995.292724609375 997.804748535156 1004.50598144531 1007.2294921875 1006.22705078125 1008.23815917969 1005.82244873047 1010.62579345703 1007.50885009766 1008.21697998047 1010.98400878906 1007.67401123047 1008.96398925781 998.619506835938 992.682250976562 983.831909179688 984.696105957031 986.935546875 987.412353515625 983.328125 990.944030761719 993.414611816406 995.041809082031 993.770690917969 986.677612304688 994.241943359375 994.034362792969 995.916198730469 998.614196777344 1003.15881347656 1008.40869140625 1009.30902099609 1005.93719482422 997.931518554688 1001.38146972656 1010.93023681641 1000.17822265625 995.743774414062 1004.91516113281 1006.46423339844 1001.22717285156 997.57763671875 996.723205566406 998.066162109375 1001.35461425781 1000.81414794922 997.549865722656 1002.69976806641 992.845092773438 984.220031738281 982.928100585938 992.572814941406 1007.82366943359 1015.83221435547 1015.91351318359 1016.38299560547 1014.83874511719 1015.19274902344 1013.30230712891 1014.57873535156 1012.56683349609 1010.68139648438 1008.16864013672 1011.85748291016 1006.23394775391 1013.00671386719 1016.69787597656 1011.27868652344 1006.32861328125 1012.76477050781 1008.20623779297 1007.56115722656 1003.36834716797 996.914428710938 1005.01843261719 989.076538085938 977.409057617188 979.036682128906 974.825744628906 953.359741210938 943.673095703125 943.684997558594 946.201110839844 948.976501464844 962.810607910156 981.331726074219 987.324157714844 989.4921875 1005.78668212891 1014.65350341797 1022.87188720703 1028.26770019531 1034.80261230469 1039.92590332031 1038.32250976562 1039.96313476562 1045.76440429688 1039.65087890625 1044.57092285156 1042.65270996094 1039.20166015625 1038.57604980469 1029.10437011719 1021.11016845703 1021.11981201172 1029.89611816406 1031.61047363281 1036.3154296875 1047.81005859375 1054.39428710938 1066.61535644531 1073.38439941406 1079.35034179688 1093.98449707031 1099.83764648438 1101.13439941406 1101.12084960938
954.750183105469 944.500915527344 947.818481445312 953.797607421875 952.820190429688 955.199035644531 964.026550292969 961.047485351562 963.283752441406 970.927734375 971.808471679688 963.507568359375 962.739013671875 975.194152832031 976.783142089844 976.996459960938 978.693237304688 971.412109375 972.618103027344 973.682800292969 976.270751953125 987.744995117188 989.331848144531 983.623962402344 979.803466796875 988.863647460938 989.122802734375 997.682495117188 993.650329589844 986.027221679688 976.390319824219 983.939453125 992.1416015625 992.2294921875 1003.98687744141 1001.24291992188 1008.15155029297 1004.26629638672 992.013000488281 997.609558105469 998.926513671875 1005.55828857422 999.035766601562 1007.55108642578 1012.42669677734 994.530700683594 995.345092773438 997.6748046875 988.716125488281 983.361145019531 988.889892578125 990.820617675781 983.30126953125 988.645629882812 987.934326171875 991.269165039062 996.222412109375 990.189086914062 987.458557128906 986.978332519531 995.91650390625 998.657775878906 1007.92102050781 1009.29974365234 1003.85028076172 998.393493652344 996.120300292969 991.250671386719 999.466735839844 996.766479492188 986.961791992188 998.294677734375 1003.07574462891 997.318786621094 992.970886230469 1000.68542480469 999.226989746094 999.917114257812 1002.46057128906 987.3115234375 998.600646972656 995.584899902344 994.65966796875 995.101196289062 996.210632324219 1000.86279296875 1006.98376464844 1019.44592285156 1015.48394775391 1013.76568603516 1015.3408203125 1016.23132324219 1018.94085693359 1009.39947509766 1013.69635009766 1014.90832519531 1014.59136962891 1020.01220703125 1025.044921875 1020.2412109375 1014.03106689453 1014.58654785156 1008.37066650391 1017.66162109375 1014.98406982422 1011.18353271484 998.879577636719 1001.20727539062 990.455993652344 982.265319824219 976.831787109375 964.524353027344 953.171325683594 939.988830566406 933.486999511719 940.82177734375 948.117492675781 958.850769042969 972.330139160156 988.025207519531 995.749328613281 1000.13031005859 1018.41833496094 1022.12426757812 1034.75378417969 1037.42016601562 1039.10913085938 1043.55126953125 1043.52160644531 1030.37927246094 1028.99560546875 1030.52722167969 1027.21826171875 1034.73718261719 1025.95666503906 1025.64990234375 1028.40014648438 1030.41674804688 1025.65979003906 1035.83081054688 1047.24731445312 1050.73754882812 1057.90515136719 1070.36181640625 1084.34655761719 1093.55139160156 1091.5478515625 1094.59631347656 1095.26257324219 1104.89660644531
946.845336914062 945.964965820312 952.049926757812 957.573486328125 959.259887695312 957.281311035156 961.848205566406 961.510009765625 966.914428710938 961.616638183594 970.723510742188 968.934631347656 974.058227539062 976.838562011719 971.580444335938 980.212219238281 971.739868164062 968.259094238281 976.204956054688 977.297668457031 979.905090332031 991.725891113281 991.719848632812 985.271545410156 985.058349609375 989.345581054688 988.937133789062 991.776794433594 984.238952636719 984.919250488281 976.064208984375 993.489807128906 990.171752929688 998.234802246094 1001.40924072266 998.995849609375 1004.3359375 997.719909667969 992.617370605469 988.703063964844 986.306396484375 992.765625 998.239379882812 1007.43048095703 1003.14880371094 997.546569824219 995.95458984375 992.253662109375 989.250305175781 992.399475097656 994.483459472656 987.634155273438 985.871398925781 984.696350097656 978.599548339844 989.275512695312 986.37841796875 988.276245117188 977.681091308594 974.720886230469 984.598815917969 993.703857421875 1007.283203125 1003.62951660156 1009.513671875 1010.56750488281 1002.35296630859 997.942199707031 989.913818359375 992.005615234375 995.518676757812 997.321655273438 993.883117675781 984.505737304688 985.78369140625 995.662353515625 1001.84283447266 995.70751953125 992.091979980469 997.048522949219 987.775085449219 993.229187011719 991.686767578125 993.436645507812 1001.85595703125 999.856384277344 1011.89758300781 1020.22192382812 1018.51098632812 1015.65673828125 1012.46319580078 1021.75372314453 1023.82147216797 1015.43145751953 1013.29144287109 1012.11065673828 1012.09680175781 1017.84136962891 1025.40454101562 1012.80615234375 1020.60247802734 1013.04748535156 1013.19427490234 1016.13653564453 1014.68341064453 1010.73004150391 1003.06024169922 996.653747558594 995.905334472656 987.341003417969 976.541259765625 960.878967285156 951.345275878906 940.923461914062 937.353881835938 945.178161621094 952.007019042969 955.433715820312 966.916748046875 985.674560546875 987.360412597656 998.396545410156 1010.77978515625 1020.45135498047 1033.20483398438 1037.69714355469 1038.83129882812 1042.40002441406 1038.17150878906 1036.37902832031 1035.12170410156 1037.21484375 1031.56274414062 1028.82678222656 1030.43347167969 1025.54699707031 1028.21252441406 1031.31921386719 1031.13586425781 1032.580078125 1042.62536621094 1045.93395996094 1065.40087890625 1069.38415527344 1082.43896484375 1093.56518554688 1086.98120117188 1090.62426757812 1102.28649902344 1106.88488769531
950.200927734375 948.697204589844 961.2421875 962.252685546875 965.974792480469 960.105224609375 960.74462890625 964.548889160156 964.633056640625 978.189636230469 972.46435546875 972.001525878906 974.271484375 973.515197753906 979.432373046875 975.701110839844 976.223693847656 979.435546875 981.772277832031 987.450500488281 984.177368164062 986.054260253906 991.40283203125 988.406066894531 985.656494140625 988.568603515625 994.655578613281 998.230224609375 985.121643066406 982.240051269531 983.832336425781 994.938842773438 992.133117675781 992.428161621094 1001.25439453125 993.628051757812 992.042419433594 989.006713867188 987.923706054688 993.252868652344 987.258544921875 989.921630859375 984.5498046875 998.309387207031 999.242492675781 1003.54235839844 996.932983398438 990.156127929688 988.595092773438 999.986083984375 987.070983886719 988.168823242188 987.291564941406 976.35205078125 976.738708496094 984.302978515625 982.865417480469 976.916809082031 968.518676757812 968.037292480469 977.456115722656 995.097839355469 1001.45843505859 1014.75634765625 1008.32580566406 1016.30786132812 997.905700683594 998.286010742188 992.524230957031 994.534118652344 997.047241210938 987.988037109375 987.464904785156 987.437316894531 981.833435058594 987.826416015625 999.252136230469 994.621398925781 996.907836914062 999.454711914062 989.241760253906 987.598571777344 993.544555664062 989.304443359375 1002.29956054688 1002.27368164062 1009.14807128906 1014.99725341797 1014.08459472656 1015.16741943359 1025.63415527344 1020.29528808594 1019.69427490234 1017.69097900391 1015.92956542969 1008.60461425781 1017.03564453125 1013.8447265625 1015.78106689453 1007.44482421875 1004.26342773438 1001.82293701172 1007.69451904297 1012.25921630859 1013.41986083984 1004.19769287109 999.751342773438 998.882385253906 1008.30041503906 989.0625 983.799133300781 961.616577148438 947.228393554688 942.052124023438 934.21484375 943.349060058594 949.180541992188 961.237976074219 967.174255371094 980.276123046875 986.225646972656 998.581726074219 1011.02386474609 1027.57263183594 1019.6279296875 1019.74291992188 1020.84973144531 1029.72338867188 1026.79846191406 1033.60046386719 1034.95007324219 1040.50732421875 1037.68310546875 1027.54467773438 1028.65502929688 1022.88360595703 1015.58209228516 1015.65362548828 1022.64202880859 1038.27172851562 1043.53210449219 1042.15905761719 1049.92565917969 1068.80883789062 1079.95751953125 1087.7587890625 1089.43151855469 1086.40686035156 1103.13952636719 1111.65356445312
939.278259277344 951.968078613281 965.369995117188 969.654479980469 968.660888671875 973.366088867188 961.279113769531 956.925537109375 966.155029296875 971.594360351562 973.02001953125 973.567260742188 974.987670898438 970.342956542969 978.318481445312 972.4814453125 970.751770019531 979.83642578125 972.631164550781 982.505859375 981.619140625 981.242370605469 990.759155273438 981.438659667969 982.401306152344 983.995849609375 989.076721191406 997.664428710938 988.745361328125 979.520874023438 983.499084472656 983.30029296875 993.709533691406 982.883728027344 988.601684570312 986.636413574219 991.382751464844 992.20947265625 987.603515625 986.700256347656 987.550231933594 990.159423828125 989.730895996094 989.900390625 989.737854003906 984.018981933594 986.08203125 989.994262695312 987.522888183594 995.598266601562 991.330505371094 985.528137207031 979.506286621094 972.948913574219 973.961608886719 968.475769042969 972.694946289062 976.968322753906 972.641906738281 968.371643066406 978.442138671875 991.60400390625 998.425170898438 1003.67687988281 1015.25012207031 1010.7294921875 1001.11322021484 998.730285644531 999.606750488281 989.782958984375 996.001159667969 990.601257324219 991.704406738281 982.134826660156 982.91259765625 987.64208984375 996.478210449219 993.735656738281 991.374206542969 987.775329589844 984.368041992188 991.155883789062 996.036804199219 992.7607421875 996.392517089844 1005.47058105469 1008.10009765625 1015.69018554688 1014.93322753906 1012.40454101562 1013.77642822266 1018.25610351562 1014.73095703125 1019.95642089844 1012.71508789062 1009.40002441406 1014.41302490234 1014.3603515625 1014.37219238281 1007.36999511719 1007.87359619141 1008.18499755859 1003.86456298828 1001.74169921875 1005.60949707031 1007.98126220703 1000.34289550781 998.244018554688 994.904663085938 992.090209960938 972.591491699219 959.362060546875 949.420532226562 951.944152832031 944.754211425781 939.06201171875 957.620971679688 965.711975097656 973.5087890625 972.169067382812 988.128662109375 999.519897460938 1008.51538085938 1022.12261962891 1024.0595703125 1023.09753417969 1025.24743652344 1034.2548828125 1026.60949707031 1030.00366210938 1034.71643066406 1026.271484375 1026.82897949219 1027.30883789062 1021.93988037109 1023.07220458984 1016.05291748047 1014.02990722656 1023.58813476562 1033.83044433594 1044.16027832031 1043.99072265625 1050.25305175781 1061.85217285156 1077.53942871094 1087.25891113281 1098.96337890625 1093.98583984375 1099.95861816406 1108.35070800781
943.667175292969 944.909423828125 955.256713867188 957.890502929688 969.146606445312 971.296508789062 971.587951660156 970.852172851562 975.892150878906 973.28173828125 981.534240722656 979.044128417969 982.592956542969 978.217712402344 973.050598144531 969.380310058594 971.264587402344 968.373779296875 968.8173828125 973.771118164062 979.088623046875 976.280334472656 978.330749511719 974.115234375 978.483215332031 983.983642578125 988.493041992188 999.027954101562 981.032165527344 978.075927734375 981.947998046875 989.931640625 991.465087890625 985.278259277344 983.75537109375 989.987915039062 991.742736816406 986.554931640625 979.175903320312 975.803039550781 985.250793457031 986.214477539062 996.723510742188 982.066772460938 979.294250488281 978.571411132812 983.897216796875 992.111755371094 991.930114746094 998.601135253906 982.15185546875 979.80859375 976.351623535156 977.08837890625 971.022888183594 974.455200195312 969.428588867188 976.814819335938 972.049438476562 971.829956054688 978.101684570312 984.144104003906 986.383850097656 993.358215332031 1006.15350341797 1005.68060302734 1007.66851806641 1006.69781494141 996.997436523438 997.682006835938 991.114379882812 988.373107910156 986.87109375 987.04052734375 982.420593261719 980.843200683594 990.478515625 985.815979003906 976.165832519531 987.911743164062 991.820129394531 999.620727539062 989.024719238281 1002.58905029297 1001.87377929688 1011.83868408203 1013.80090332031 1009.61364746094 1016.16296386719 1009.63305664062 1011.60113525391 1009.12677001953 1018.16638183594 1015.71697998047 1017.57452392578 1015.98504638672 1001.35754394531 1013.17303466797 1020.5751953125 1015.94964599609 1006.48620605469 1000.55657958984 1010.45281982422 998.188659667969 1001.55450439453 996.65234375 991.78662109375 991.5419921875 990.818420410156 993.0234375 980.26416015625 973.590698242188 965.160095214844 963.186279296875 959.617736816406 949.656799316406 960.584228515625 968.954895019531 975.5947265625 975.648681640625 989.581665039062 1001.41644287109 1010.55010986328 1019.78790283203 1027.62854003906 1025.8603515625 1026.52697753906 1031.99731445312 1024.51916503906 1023.54833984375 1032.05419921875 1019.84735107422 1019.48297119141 1009.79498291016 1015.68444824219 1019.32922363281 1020.84936523438 1012.00579833984 1030.32885742188 1031.18566894531 1049.13220214844 1051.56237792969 1062.43603515625 1068.05615234375 1087.07556152344 1091.0947265625 1098.81018066406 1100.16650390625 1107.32360839844 1107.66015625
945.363708496094 951.986206054688 953.638305664062 952.992553710938 966.243103027344 971.452697753906 973.344848632812 970.754821777344 980.048156738281 974.397705078125 976.4130859375 970.017883300781 971.031311035156 978.099914550781 980.204284667969 968.938903808594 971.674133300781 975.997741699219 975.871704101562 978.519104003906 979.165222167969 977.802978515625 975.083312988281 971.91650390625 977.948547363281 980.049499511719 984.693786621094 984.343627929688 987.672912597656 983.617004394531 993.888916015625 988.897155761719 994.602416992188 983.426574707031 985.220336914062 989.675170898438 986.756042480469 974.12890625 970.923950195312 976.045349121094 990.819091796875 990.326416015625 995.948425292969 984.475952148438 983.082641601562 983.634399414062 983.674011230469 978.104736328125 980.748962402344 977.208068847656 982.669494628906 980.020874023438 973.072998046875 968.285278320312 976.600463867188 971.562866210938 979.268127441406 974.396911621094 974.039184570312 976.187683105469 979.856994628906 980.65576171875 980.33056640625 981.796569824219 992.048156738281 992.116394042969 996.851013183594 1001.86090087891 992.624267578125 987.237060546875 983.691223144531 971.428405761719 980.881896972656 989.478759765625 989.966552734375 989.698974609375 989.4111328125 983.495056152344 981.6123046875 989.522521972656 995.006225585938 1001.05950927734 996.399597167969 998.2412109375 1002.21740722656 1010.15069580078 1006.52563476562 1010.17785644531 1016.75836181641 1027.73425292969 1015.90057373047 1016.25708007812 1015.82397460938 1014.06390380859 1019.4453125 1024.01098632812 1008.29223632812 1009.68292236328 1022.43426513672 1023.69268798828 1009.66101074219 999.933227539062 1002.79937744141 1001.77288818359 996.3125 991.346923828125 999.316772460938 991.973388671875 991.293640136719 992.593627929688 989.542236328125 980.434936523438 974.995239257812 969.52685546875 967.014953613281 964.785034179688 965.85546875 976.667541503906 981.217712402344 993.063842773438 1002.80432128906 1010.32720947266 1014.88293457031 1017.91461181641 1020.07598876953 1021.91357421875 1025.34655761719 1030.50549316406 1021.27612304688 1015.2470703125 1010.77960205078 1017.37756347656 1010.76391601562 1013.41174316406 1015.23706054688 1022.38848876953 1020.33642578125 1027.26037597656 1033.64892578125 1040.65466308594 1054.33178710938 1064.71508789062 1074.75512695312 1081.0791015625 1087.97485351562 1098.96520996094 1103.03381347656 1109.31823730469 1103.36853027344 1111.9501953125
942.176818847656 949.891357421875 961.851379394531 967.810913085938 970.508972167969 964.51708984375 973.129333496094 967.286560058594 968.692138671875 973.277709960938 973.802062988281 977.108764648438 975.390869140625 977.646850585938 975.349304199219 978.690368652344 977.772583007812 980.392272949219 978.983215332031 980.876159667969 979.559020996094 984.324279785156 974.456298828125 969.574951171875 982.986389160156 980.502807617188 988.511047363281 984.273071289062 976.568664550781 983.963623046875 983.095153808594 990.563842773438 986.591979980469 986.59326171875 985.129821777344 990.823059082031 988.504699707031 975.522766113281 965.523071289062 975.096130371094 977.453735351562 995.058898925781 993.211730957031 989.667541503906 988.836730957031 985.364318847656 977.377319335938 980.263366699219 975.177917480469 979.953918457031 978.445617675781 981.069641113281 971.202026367188 979.374206542969 975.912109375 976.607055664062 977.093688964844 974.985656738281 985.038513183594 976.906677246094 976.705078125 971.470458984375 984.390869140625 984.405395507812 983.443115234375 988.848205566406 991.6357421875 995.45947265625 997.470092773438 987.357299804688 981.640808105469 981.029357910156 988.78759765625 991.023986816406 982.392272949219 985.750671386719 984.721313476562 985.514892578125 989.205200195312 996.103881835938 1006.84899902344 1002.94122314453 1009.48205566406 1002.64068603516 1004.48095703125 1006.70428466797 1002.30212402344 1007.1962890625 1013.83917236328 1016.64886474609 1009.23455810547 1012.32171630859 1012.65032958984 1021.53979492188 1024.16577148438 1018.28790283203 1021.9580078125 1010.08099365234 1010.70281982422 1013.39361572266 1015.16467285156 994.658386230469 994.606628417969 995.740661621094 995.921142578125 994.286804199219 1000.05975341797 991.937438964844 987.562866210938 989.079895019531 986.478271484375 989.356811523438 989.0615234375 984.411071777344 966.654907226562 977.360046386719 979.566467285156 976.430114746094 981.833190917969 999.141662597656 1000.98046875 1010.78558349609 1006.85229492188 1015.212890625 1015.49584960938 1008.92425537109 1015.55944824219 1027.16223144531 1019.26275634766 1008.94213867188 1010.5185546875 1012.38647460938 1012.90850830078 1014.30969238281 1016.24200439453 1018.04449462891 1015.09356689453 1029.26611328125 1036.25537109375 1049.94445800781 1060.85815429688 1073.93518066406 1080.12097167969 1084.63903808594 1092.82409667969 1099.89599609375 1113.03381347656 1110.07922363281 1112.56213378906 1110.09436035156
945.038513183594 944.7470703125 956.922668457031 960.745239257812 972.771850585938 965.085998535156 969.414123535156 974.720642089844 977.65771484375 973.956604003906 966.762084960938 970.160217285156 980.046875 978.738891601562 972.309692382812 967.1123046875 974.014038085938 977.773742675781 982.061889648438 977.626892089844 983.698791503906 980.195678710938 975.319519042969 967.366088867188 977.133239746094 980.998901367188 979.309326171875 989.310302734375 980.171752929688 977.271179199219 975.43212890625 984.4482421875 981.928466796875 976.707214355469 982.717834472656 989.854614257812 997.442321777344 986.632507324219 972.383605957031 980.888732910156 984.168701171875 985.019714355469 986.523986816406 988.030578613281 985.893371582031 981.838928222656 973.661560058594 975.822265625 970.299194335938 980.423095703125 978.745239257812 985.278381347656 980.1533203125 973.654602050781 970.145324707031 975.508483886719 978.125671386719 979.549255371094 976.229125976562 975.915100097656 974.33056640625 982.736328125 982.060729980469 981.19091796875 979.166564941406 991.02734375 987.947814941406 985.18115234375 984.372009277344 980.518493652344 980.234436035156 977.886413574219 987.900207519531 984.467529296875 989.51513671875 986.908935546875 988.442138671875 990.577758789062 997.117980957031 1005.52349853516 1000.908203125 999.178039550781 1006.37182617188 1009.05792236328 999.5390625 1009.80346679688 1016.29992675781 1006.49737548828 1009.36492919922 1012.53283691406 1010.26000976562 1009.47320556641 1009.25421142578 1014.74572753906 1014.38488769531 1018.14031982422 1010.26885986328 1006.05285644531 1004.29364013672 1009.12567138672 1006.21752929688 994.891479492188 997.117126464844 995.163696289062 997.802490234375 997.027709960938 995.724365234375 987.51025390625 987.628967285156 985.171508789062 994.943725585938 989.943359375 991.010986328125 989.290710449219 984.18896484375 991.862609863281 991.900451660156 987.546081542969 999.398132324219 996.609436035156 1003.78942871094 1007.86096191406 1001.24725341797 1006.87408447266 1005.50451660156 1005.14514160156 1017.32586669922 1013.34295654297 1014.75518798828 1005.34588623047 1010.83917236328 1017.94689941406 1015.79846191406 1012.01947021484 1021.52893066406 1020.73815917969 1022.82305908203 1035.07629394531 1046.49694824219 1058.703125 1079.02551269531 1091.32788085938 1092.55126953125 1092.20971679688 1099.78210449219 1105.62353515625 1109.72375488281 1120.84265136719 1119.37133789062 1124.00952148438
950.268798828125 953.372680664062 958.817749023438 959.065795898438 967.667175292969 962.07666015625 970.332336425781 975.067993164062 971.600952148438 969.290100097656 977.67822265625 974.053344726562 978.824340820312 979.72509765625 972.390258789062 969.814575195312 978.347351074219 971.415771484375 978.896240234375 978.507568359375 975.795776367188 970.522827148438 978.189514160156 968.895812988281 973.183471679688 976.198425292969 978.337036132812 978.232177734375 978.720764160156 974.060668945312 975.035461425781 988.2431640625 990.523071289062 981.775024414062 980.001037597656 988.179382324219 987.749328613281 981.403076171875 983.188537597656 976.609924316406 981.766418457031 982.647521972656 985.220764160156 974.451110839844 976.013732910156 979.40234375 967.173706054688 972.912963867188 973.498718261719 975.865112304688 984.726135253906 981.134216308594 987.245422363281 985.772766113281 975.230895996094 974.748779296875 976.003967285156 979.287841796875 977.467590332031 975.152099609375 975.815795898438 983.593688964844 981.422241210938 984.951599121094 987.413696289062 987.539733886719 979.7783203125 981.05078125 980.352844238281 983.687133789062 972.815490722656 978.680419921875 979.463989257812 992.076843261719 990.100646972656 993.864318847656 990.205749511719 999.528076171875 1001.12280273438 999.82275390625 1005.99792480469 1001.15148925781 999.302368164062 1004.81787109375 1003.02587890625 1005.61358642578 1006.90954589844 1008.33917236328 1009.04174804688 1006.26727294922 1007.66656494141 1005.64886474609 1003.54718017578 1010.01251220703 1012.10485839844 1015.22479248047 996.657836914062 1001.41857910156 999.789611816406 1009.94781494141 1000.08740234375 997.466064453125 997.264099121094 992.543151855469 994.033142089844 992.336608886719 988.7431640625 988.625732421875 992.393920898438 986.378112792969 994.970642089844 997.614318847656 998.077392578125 993.479675292969 993.19140625 996.617858886719 999.543029785156 995.075012207031 995.369934082031 1003.8564453125 996.470397949219 991.833679199219 985.42041015625 990.449645996094 992.514526367188 1001.11419677734 1007.58489990234 1003.56213378906 1008.22137451172 1015.57293701172 1010.31817626953 1012.36822509766 1012.61791992188 1020.89306640625 1028.70190429688 1026.74340820312 1038.38000488281 1045.5693359375 1054.75036621094 1069.68090820312 1083.39782714844 1093.73095703125 1105.43737792969 1100.42797851562 1106.14794921875 1115.05786132812 1121.11096191406 1132.7041015625 1138.36975097656 1135.04931640625
939.499389648438 948.636657714844 958.18798828125 962.232604980469 964.90576171875 962.014099121094 970.571411132812 977.104064941406 972.137390136719 971.246826171875 970.940185546875 973.205627441406 976.160217285156 979.714904785156 971.970642089844 965.397888183594 973.355590820312 979.482299804688 982.484680175781 975.450927734375 979.988464355469 976.427856445312 981.249755859375 979.032043457031 975.912292480469 971.761352539062 977.521179199219 980.21240234375 986.485534667969 977.492065429688 976.035766601562 989.197448730469 996.446838378906 990.203369140625 985.293762207031 983.866943359375 988.534790039062 983.46044921875 985.498474121094 974.052185058594 979.865844726562 987.739929199219 980.887084960938 974.206115722656 968.696960449219 972.23046875 972.087829589844 976.896850585938 970.965881347656 982.090698242188 986.191833496094 982.278198242188 981.742065429688 981.787292480469 975.847290039062 969.717102050781 976.748474121094 975.43896484375 977.19921875 980.951110839844 975.028503417969 971.290161132812 978.883544921875 985.659362792969 987.092346191406 986.703002929688 982.433410644531 978.397705078125 979.453552246094 977.950805664062 977.011840820312 980.301940917969 978.999877929688 988.333862304688 986.538452148438 993.562194824219 1000.61877441406 991.241455078125 1001.62915039062 997.893737792969 999.371520996094 1004.009765625 1000.07269287109 994.35791015625 991.35693359375 1005.78631591797 1000.43737792969 1004.66430664062 1002.81713867188 998.891357421875 1000.11773681641 1002.36804199219 999.8994140625 1010.37603759766 1009.46124267578 1010.54931640625 1002.97735595703 1003.88818359375 996.6474609375 1001.75592041016 1010.72552490234 992.352844238281 991.995971679688 987.308166503906 993.004760742188 998.612548828125 986.67626953125 988.930786132812 994.431457519531 989.386413574219 999.952941894531 1001.64288330078 995.289306640625 998.482055664062 1000.24530029297 994.942504882812 1001.6494140625 1004.78637695312 1001.72113037109 1002.66546630859 995.747863769531 989.7001953125 985.675964355469 987.942077636719 989.835144042969 999.195739746094 1005.39892578125 1003.88098144531 999.23193359375 1010.19958496094 1018.90167236328 1013.96270751953 1011.01165771484 1023.46038818359 1024.90747070312 1034.04174804688 1033.2763671875 1045.40649414062 1060.13330078125 1072.43896484375 1085.34741210938 1096.37475585938 1102.47631835938 1109.791015625 1116.45349121094 1122.30541992188 1128.46435546875 1140.69519042969 1140.69519042969 1135.07849121094
937.317565917969 945.091064453125 956.611694335938 962.694396972656 968.892883300781 964.449096679688 965.394348144531 971.301452636719 973.345703125 977.08447265625 975.7666015625 977.934875488281 973.085998535156 968.883544921875 967.679504394531 972.50927734375 967.736389160156 971.709045410156 977.327453613281 981.261901855469 984.299682617188 978.802429199219 975.293701171875 983.445190429688 973.40478515625 970.870910644531 973.660705566406 986.489013671875 986.662414550781 975.049621582031 980.205444335938 988.344909667969 993.01416015625 989.552673339844 990.597717285156 983.271545410156 978.224182128906 988.09716796875 982.145568847656 983.582153320312 978.993225097656 980.611389160156 982.3662109375 979.547790527344 976.856201171875 971.160339355469 973.065246582031 971.54541015625 976.610778808594 972.33935546875 975.047668457031 973.478637695312 983.0419921875 990.489929199219 981.718811035156 984.379272460938 983.443176269531 977.940368652344 972.175964355469 975.703247070312 970.500305175781 972.038818359375 977.636413574219 982.8515625 988.023071289062 983.244934082031 986.087341308594 984.957092285156 979.67626953125 973.54296875 973.88671875 971.297180175781 977.973022460938 974.148559570312 985.302734375 984.419311523438 995.35498046875 995.668029785156 999.533020019531 992.45068359375 989.190612792969 992.159912109375 995.981079101562 993.973449707031 988.355102539062 995.567687988281 1003.87286376953 1003.23590087891 1008.06890869141 1009.12652587891 1008.22973632812 999.848571777344 992.689147949219 1000.40960693359 1000.82568359375 999.030090332031 996.558715820312 995.38037109375 994.316711425781 994.565795898438 1003.37145996094 992.007141113281 988.694885253906 984.000671386719 993.289001464844 991.519287109375 993.625915527344 985.800109863281 988.580017089844 999.351867675781 996.968444824219 991.824768066406 986.923645019531 995.294067382812 995.267517089844 999.114868164062 994.926208496094 992.902038574219 998.15283203125 998.163208007812 1001.18572998047 995.772521972656 992.377746582031 983.313598632812 990.630737304688 1007.70196533203 1011.03466796875 1000.16510009766 1008.66662597656 1016.97662353516 1017.28668212891 1020.62329101562 1022.10150146484 1030.20068359375 1037.61291503906 1033.4482421875 1037.0576171875 1045.04016113281 1059.86706542969 1067.56237792969 1081.5087890625 1097.94104003906 1105.8046875 1117.16479492188 1119.16589355469 1127.72802734375 1139.09008789062 1143.78991699219 1149.41369628906 1152.80310058594
946.584899902344 944.388854980469 958.680053710938 967.86279296875 971.645568847656 966.7001953125 960.204833984375 962.304260253906 964.080627441406 966.892578125 969.882080078125 980.42041015625 982.859802246094 971.738586425781 965.590515136719 977.628173828125 971.454772949219 967.043518066406 976.305725097656 977.641540527344 975.224304199219 973.462463378906 971.814575195312 975.763305664062 968.3701171875 962.377197265625 963.500305175781 970.4658203125 975.391662597656 965.237670898438 979.301513671875 977.623901367188 977.839111328125 983.142883300781 983.610717773438 978.788024902344 975.312866210938 981.65478515625 975.695434570312 972.287170410156 973.741577148438 979.699096679688 982.549194335938 975.18603515625 974.972412109375 978.881958007812 976.118530273438 978.564453125 978.246337890625 969.341369628906 963.573303222656 970.944641113281 971.682495117188 978.734619140625 977.252868652344 981.207885742188 975.75341796875 971.447692871094 974.694396972656 973.899963378906 968.582885742188 970.278076171875 975.60009765625 980.260803222656 987.647827148438 987.591491699219 986.20556640625 990.155944824219 977.187377929688 971.177062988281 971.439453125 979.324645996094 976.421875 974.401123046875 971.724548339844 977.727233886719 993.539855957031 995.50341796875 998.700988769531 985.910522460938 994.855895996094 990.883056640625 983.457336425781 984.309326171875 988.739440917969 994.43896484375 998.748962402344 998.724365234375 997.931274414062 1005.04479980469 997.249328613281 994.416320800781 987.672241210938 998.871643066406 993.533142089844 991.813415527344 992.447998046875 994.295593261719 994.973266601562 997.035278320312 996.176452636719 992.666809082031 987.178771972656 989.216735839844 989.378540039062 986.946472167969 988.693176269531 986.018188476562 987.924255371094 992.735778808594 1001.70123291016 992.556884765625 994.055358886719 994.133666992188 993.284423828125 989.085510253906 989.264831542969 993.547424316406 999.227600097656 1005.53900146484 1007.77795410156 1000.23132324219 993.612060546875 991.335510253906 998.089782714844 1003.17523193359 1001.02062988281 1010.50378417969 1015.67730712891 1019.69061279297 1022.39593505859 1028.13659667969 1032.97644042969 1033.21984863281 1033.92956542969 1037.345703125 1037.10754394531 1055.91125488281 1061.14111328125 1070.70739746094 1080.60339355469 1094.0419921875 1108.16625976562 1123.74182128906 1124.36706542969 1137.84020996094 1134.4794921875 1139.22094726562 1148.62280273438 1153.12561035156
947.151550292969 947.350769042969 957.0771484375 961.961364746094 959.480834960938 961.186279296875 963.17822265625 962.814147949219 959.10986328125 964.526184082031 968.920715332031 971.130004882812 973.384033203125 963.499267578125 970.143615722656 969.952392578125 977.986938476562 982.94091796875 978.94970703125 975.921936035156 973.601928710938 976.770751953125 969.410217285156 974.657043457031 967.875366210938 960.996520996094 960.970581054688 973.655029296875 965.534851074219 968.464965820312 974.120971679688 986.114807128906 975.230773925781 983.350402832031 978.833312988281 985.031677246094 978.193969726562 980.496643066406 979.03515625 973.552185058594 971.1806640625 978.140014648438 975.443664550781 972.786071777344 968.892822265625 974.812194824219 970.829650878906 974.227111816406 971.611999511719 977.73876953125 971.822326660156 971.439147949219 979.050598144531 968.879211425781 974.404357910156 974.922485351562 967.545227050781 973.251892089844 970.343383789062 969.005126953125 963.921752929688 969.661865234375 973.09765625 974.17041015625 982.581848144531 988.798278808594 985.223937988281 990.031433105469 981.901000976562 969.832092285156 965.3212890625 970.099975585938 970.098449707031 973.304016113281 970.112976074219 973.022827148438 984.551208496094 985.700805664062 993.398986816406 978.426330566406 980.87646484375 984.386840820312 989.566955566406 983.747009277344 987.388671875 985.451965332031 1001.27764892578 1000.34362792969 997.11181640625 1001.00390625 995.222229003906 990.88134765625 991.245666503906 984.281616210938 980.864379882812 986.015747070312 989.61083984375 993.102416992188 1000.65960693359 998.32421875 989.949951171875 984.069274902344 983.250915527344 982.176635742188 995.500610351562 985.328002929688 990.277099609375 986.252319335938 983.450317382812 996.347229003906 1008.02911376953 995.664367675781 1001.6435546875 996.627990722656 995.849975585938 994.346923828125 995.790771484375 997.270141601562 1000.88433837891 1001.25842285156 1006.60339355469 1004.88024902344 990.037109375 990.238952636719 998.477478027344 1000.61663818359 1007.46270751953 1014.67254638672 1021.29479980469 1027.82690429688 1032.14807128906 1031.87512207031 1037.93127441406 1036.1298828125 1045.22973632812 1043.03845214844 1051.033203125 1064.69128417969 1071.48852539062 1078.87646484375 1090.91589355469 1096.94018554688 1104.16235351562 1124.46728515625 1139.20849609375 1146.23645019531 1151.48132324219 1154.98400878906 1151.62670898438 1148.744140625
940.530578613281 945.510620117188 954.375549316406 960.621887207031 956.867492675781 957.613830566406 957.87841796875 956.513061523438 956.248168945312 965.503784179688 966.067138671875 968.426391601562 975.896362304688 966.827087402344 968.360412597656 978.560241699219 978.803771972656 976.263244628906 973.195251464844 970.069885253906 975.268005371094 976.877685546875 982.129516601562 982.9794921875 974.27197265625 964.444274902344 961.958435058594 962.666015625 960.218017578125 967.039428710938 979.187316894531 979.588928222656 982.146728515625 973.05810546875 979.346069335938 975.991027832031 975.936584472656 972.539855957031 973.174072265625 977.037475585938 971.915832519531 967.3349609375 969.067626953125 970.160095214844 964.479919433594 972.033081054688 973.851440429688 966.217468261719 967.399780273438 978.40625 977.029113769531 979.679992675781 977.212768554688 965.506530761719 966.332641601562 967.013061523438 971.649230957031 979.876098632812 973.220458984375 967.385131835938 977.126098632812 969.820007324219 969.956481933594 972.3447265625 968.804138183594 983.233215332031 981.015686035156 983.252807617188 982.247619628906 975.356628417969 967.076538085938 968.431579589844 965.499267578125 967.222106933594 973.190734863281 975.738586425781 985.247375488281 989.593505859375 977.605773925781 966.7666015625 973.843811035156 985.408752441406 985.941711425781 985.563171386719 995.529602050781 998.834594726562 985.747497558594 991.219177246094 986.649108886719 998.317504882812 988.547119140625 984.403259277344 984.811157226562 983.487609863281 972.811645507812 977.960266113281 990.261413574219 990.90771484375 987.65771484375 989.598876953125 980.36376953125 982.831481933594 980.749938964844 983.507629394531 985.60107421875 986.477111816406 989.717651367188 986.2109375 988.6845703125 996.787292480469 1004.61322021484 1003.41900634766 1000.45910644531 999.471557617188 989.805969238281 992.873718261719 988.906982421875 987.3447265625 995.322937011719 996.887145996094 990.409118652344 992.923889160156 987.60986328125 1002.14477539062 1002.98364257812 1002.59393310547 1001.62384033203 1011.54168701172 1018.99835205078 1031.70825195312 1040.26013183594 1033.96264648438 1044.76623535156 1049.66088867188 1059.94738769531 1054.03845214844 1053.5107421875 1064.546875 1072.95642089844 1085.98620605469 1095.09765625 1106.88208007812 1117.57287597656 1130.12255859375 1146.54711914062 1154.06945800781 1159.45861816406 1163.68933105469 1161.90112304688 1145.17846679688
941.300231933594 951.187072753906 946.334655761719 960.170776367188 953.817443847656 957.226928710938 959.448608398438 955.088134765625 959.086364746094 964.275390625 968.729736328125 965.460205078125 972.426696777344 967.852783203125 965.4970703125 978.119934082031 979.286376953125 976.047485351562 974.73388671875 964.839477539062 962.72509765625 971.614868164062 979.748596191406 979.3369140625 967.654541015625 966.453308105469 966.6142578125 963.234558105469 966.582214355469 976.634704589844 982.995239257812 983.72119140625 975.569030761719 972.81298828125 969.278381347656 973.866516113281 970.839660644531 975.865234375 974.354187011719 971.001220703125 969.959106445312 960.922302246094 962.085510253906 966.921875 966.002014160156 974.966186523438 974.638366699219 970.245910644531 973.607971191406 977.173889160156 979.852783203125 973.03955078125 978.080078125 962.96533203125 971.67578125 966.434326171875 985.480834960938 989.243225097656 976.048217773438 975.515808105469 974.971984863281 963.485412597656 960.713439941406 969.648254394531 971.900634765625 982.197143554688 980.65087890625 979.075561523438 977.765747070312 974.51318359375 976.816223144531 972.850280761719 969.483154296875 966.07666015625 970.421997070312 976.762084960938 976.420776367188 976.260375976562 974.305725097656 979.903625488281 980.318786621094 991.204528808594 989.822570800781 991.97998046875 995.811096191406 989.649047851562 993.190063476562 991.775634765625 989.139099121094 994.978576660156 977.846435546875 984.975708007812 985.4794921875 981.509155273438 982.908325195312 987.073669433594 982.569213867188 982.649353027344 982.54150390625 988.918762207031 980.622253417969 974.580749511719 973.055725097656 979.570922851562 986.106994628906 991.527099609375 990.82763671875 986.791198730469 986.587341308594 996.388549804688 997.794921875 996.995239257812 993.039123535156 995.009582519531 994.836486816406 996.535583496094 999.928466796875 994.16015625 992.942504882812 993.670593261719 995.223205566406 995.042663574219 996.092407226562 998.810363769531 1007.3037109375 1011.47265625 1014.52691650391 1022.85174560547 1016.01336669922 1026.65539550781 1046.20446777344 1045.5087890625 1045.11108398438 1056.71142578125 1065.19299316406 1059.53881835938 1061.46765136719 1072.587890625 1082.2900390625 1088.85546875 1101.91955566406 1114.87231445312 1124.33117675781 1140.505859375 1153.12951660156 1154.82043457031 1157.7529296875 1164.9921875 1165.978515625 1155.32604980469
947.329650878906 945.074340820312 943.613830566406 952.838500976562 956.350280761719 949.966491699219 955.908264160156 955.572265625 956.282592773438 963.320251464844 963.62158203125 963.862182617188 972.337951660156 964.80517578125 967.320861816406 976.39599609375 984.128845214844 981.313293457031 971.222229003906 973.712219238281 965.692810058594 966.753845214844 979.010009765625 982.258972167969 971.6884765625 975.479125976562 977.853332519531 969.841613769531 973.011291503906 980.939147949219 979.927124023438 980.610290527344 984.332824707031 973.889953613281 970.724487304688 972.231506347656 975.968444824219 972.900268554688 975.626953125 967.204162597656 973.463317871094 967.600463867188 972.071960449219 969.782836914062 963.451965332031 977.337280273438 974.517822265625 973.846252441406 972.791625976562 971.759460449219 974.231018066406 976.838500976562 971.795104980469 966.656066894531 971.792358398438 972.124267578125 978.531982421875 973.659240722656 975.091003417969 973.56982421875 980.430786132812 968.541198730469 965.873596191406 961.772155761719 972.394897460938 975.14404296875 977.424377441406 973.623229980469 977.906799316406 980.741516113281 977.787048339844 969.656005859375 963.018859863281 965.020874023438 958.693542480469 966.380615234375 969.0439453125 976.019958496094 980.989929199219 984.265075683594 977.883911132812 983.794799804688 988.989501953125 984.405883789062 989.546569824219 981.309997558594 988.835021972656 991.113220214844 985.168334960938 981.771179199219 981.368286132812 981.773010253906 982.632263183594 980.559326171875 984.850402832031 976.785095214844 978.518310546875 979.407775878906 983.320129394531 979.460327148438 978.162292480469 974.984558105469 978.542541503906 982.222229003906 987.225646972656 989.788330078125 982.556457519531 981.217163085938 978.011047363281 987.101623535156 983.231140136719 988.233459472656 984.284484863281 995.920959472656 992.333740234375 1002.88201904297 1003.09838867188 1002.43395996094 991.954772949219 998.763122558594 992.232482910156 999.63134765625 997.638671875 1002.66119384766 1008.0537109375 1009.33160400391 1019.85278320312 1021.77819824219 1039.47131347656 1039.98986816406 1047.50378417969 1054.81958007812 1053.26623535156 1064.64697265625 1070.10375976562 1066.12536621094 1068.40161132812 1076.09362792969 1082.93957519531 1093.50659179688 1104.64025878906 1118.45471191406 1127.63708496094 1141.34106445312 1155.56091308594 1162.30517578125 1166.7109375 1165.09753417969 1161.14807128906 1157.06640625
954.436584472656 953.797485351562 943.524658203125 945.120483398438 948.001953125 950.585327148438 952.190368652344 956.1904296875 957.374450683594 963.762329101562 976.888000488281 974.267395019531 973.263366699219 974.282775878906 977.623107910156 978.507629394531 984.312133789062 977.899169921875 972.722351074219 976.360107421875 972.858703613281 967.277770996094 982.907592773438 990.936157226562 991.986267089844 976.453308105469 979.072937011719 978.215759277344 975.778869628906 979.306091308594 981.415649414062 977.116149902344 975.125183105469 976.250366210938 968.567260742188 970.270446777344 972.456237792969 972.056762695312 967.18017578125 969.649108886719 963.935424804688 965.063659667969 962.456237792969 965.747680664062 961.9814453125 961.518615722656 960.094909667969 963.582275390625 970.253662109375 970.838684082031 969.349487304688 966.253662109375 967.125305175781 970.418334960938 970.786865234375 963.351257324219 972.977294921875 968.70068359375 968.493530273438 966.722473144531 967.929016113281 979.282836914062 972.880310058594 974.828857421875 976.803405761719 977.938415527344 971.931030273438 982.830627441406 983.370666503906 986.737609863281 975.018981933594 968.228820800781 959.023132324219 959.172546386719 958.376342773438 961.114135742188 966.528198242188 977.844909667969 980.635925292969 971.880798339844 971.475341796875 970.651550292969 979.147033691406 978.2314453125 987.593444824219 977.861083984375 981.751953125 983.559387207031 986.224426269531 979.140747070312 978.835693359375 985.21044921875 989.928588867188 988.19677734375 984.615905761719 979.508483886719 975.317749023438 974.777587890625 971.096862792969 974.041442871094 978.677062988281 971.738830566406 977.188354492188 976.386047363281 980.788269042969 980.431762695312 980.276428222656 981.953552246094 980.496215820312 984.912475585938 992.25634765625 996.491088867188 987.394592285156 993.331115722656 997.524841308594 1000.42321777344 1002.41973876953 993.26220703125 994.044799804688 999.852478027344 1003.88122558594 1005.49151611328 1015.27380371094 1010.62902832031 1006.32427978516 1013.07025146484 1026.76953125 1029.27978515625 1035.03430175781 1041.46813964844 1055.01696777344 1051.71704101562 1060.59790039062 1059.8271484375 1065.72717285156 1071.23022460938 1074.78723144531 1083.64978027344 1090.12561035156 1092.26513671875 1106.47497558594 1113.33435058594 1122.814453125 1132.53100585938 1150.51477050781 1165.51477050781 1169.08520507812 1166.13720703125 1165.94519042969 1159.12182617188
956.979736328125 956.324951171875 950.521484375 949.986022949219 949.098388671875 951.935363769531 955.215209960938 962.940002441406 962.950866699219 963.245971679688 974.044738769531 970.977722167969 972.828308105469 973.495666503906 975.799255371094 979.416076660156 974.996154785156 969.253723144531 973.451599121094 974.034973144531 973.068786621094 967.327697753906 975.851013183594 986.432312011719 977.323120117188 976.969055175781 979.206115722656 973.507751464844 975.291015625 982.930969238281 970.700317382812 972.305908203125 975.246765136719 971.527465820312 968.649108886719 969.562133789062 970.036926269531 963.273681640625 971.433227539062 964.473327636719 966.589538574219 970.217163085938 962.67919921875 966.966003417969 963.000732421875 964.578125 970.532287597656 965.928405761719 967.289794921875 967.1552734375 965.004516601562 967.644348144531 963.965209960938 965.674194335938 969.050598144531 972.856689453125 971.213317871094 966.673889160156 974.060974121094 977.936218261719 971.585632324219 979.67919921875 972.928039550781 973.199951171875 967.62890625 970.315368652344 977.653930664062 982.69140625 976.716796875 979.152770996094 968.984802246094 966.37548828125 965.3095703125 956.73291015625 955.28857421875 963.996032714844 971.666687011719 966.855712890625 963.943115234375 970.906860351562 966.224182128906 964.727355957031 965.61328125 971.026245117188 971.899230957031 975.330688476562 975.816589355469 972.313598632812 978.579467773438 975.454284667969 980.655212402344 977.716064453125 984.768737792969 989.954711914062 984.438232421875 976.042175292969 980.209716796875 985.518249511719 982.434509277344 971.251281738281 979.3896484375 977.511962890625 984.486450195312 977.273620605469 967.017822265625 985.253051757812 986.419128417969 985.7236328125 990.774169921875 984.772766113281 990.235717773438 995.210144042969 1000.51538085938 998.892639160156 998.978942871094 1005.61724853516 999.030090332031 1008.07189941406 1007.70587158203 1008.091796875 1007.76239013672 1018.76879882812 1025.89929199219 1016.70129394531 1015.16650390625 1020.87329101562 1035.48645019531 1038.75231933594 1047.88000488281 1055.74145507812 1062.38024902344 1060.65173339844 1065.28894042969 1064.01257324219 1073.80065917969 1069.75952148438 1079.85583496094 1081.87048339844 1093.75341796875 1098.5537109375 1099.97412109375 1113.6962890625 1124.16613769531 1125.9697265625 1142.72705078125 1148.09069824219 1161.46667480469 1165.72985839844 1170.86450195312 1167.08837890625
952.657043457031 969.017517089844 963.764709472656 959.099060058594 954.163391113281 955.199401855469 952.243469238281 957.19140625 966.095336914062 971.474670410156 972.238220214844 974.154907226562 963.629760742188 969.155334472656 976.08447265625 982.903991699219 984.039733886719 972.340393066406 969.253112792969 970.449035644531 973.15576171875 964.031005859375 978.263122558594 973.680908203125 968.343688964844 979.068603515625 986.128662109375 980.698364257812 975.898986816406 978.99755859375 974.525390625 968.749084472656 980.430053710938 974.64453125 975.977661132812 973.289245605469 967.857055664062 966.828491210938 968.327575683594 965.581604003906 965.892028808594 960.989074707031 964.503784179688 957.17578125 962.3408203125 964.924621582031 970.663452148438 971.812927246094 967.501281738281 970.593627929688 972.797729492188 974.302551269531 969.835144042969 964.2578125 965.446472167969 966.474792480469 969.043029785156 975.616333007812 974.746520996094 971.475341796875 970.669311523438 968.503356933594 969.579223632812 974.298400878906 970.886962890625 970.53662109375 975.577941894531 969.317016601562 968.434143066406 963.795288085938 963.376037597656 957.291748046875 970.984191894531 964.298828125 962.107299804688 969.5810546875 970.003051757812 959.46533203125 960.25732421875 974.461791992188 967.787109375 964.687194824219 967.39208984375 961.106323242188 961.073974609375 967.304443359375 970.08740234375 970.216369628906 966.265686035156 971.601501464844 976.147705078125 981.133117675781 983.491149902344 988.689453125 987.581787109375 985.184204101562 981.152404785156 981.527404785156 978.444946289062 971.893737792969 976.046142578125 983.461730957031 989.91943359375 978.943969726562 986.116027832031 981.472290039062 992.999450683594 992.755432128906 995.615051269531 994.645751953125 998.806823730469 1004.18542480469 1005.09790039062 1004.10711669922 998.399475097656 1000.62408447266 1010.93743896484 1012.29901123047 1013.79272460938 1011.72088623047 1006.20281982422 1019.78289794922 1019.49627685547 1024.52526855469 1025.19958496094 1024.4462890625 1037.29809570312 1040.87023925781 1059.46423339844 1059.09765625 1066.96716308594 1071.31372070312 1069.18798828125 1077.05053710938 1076.83276367188 1081.20886230469 1076.77478027344 1077.54602050781 1086.02233886719 1089.46655273438 1095.8037109375 1111.46142578125 1114.62255859375 1129.3740234375 1132.63244628906 1147.76513671875 1146.81799316406 1148.30541992188 1151.65600585938 1155.68579101562
949.38818359375 955.4951171875 964.164367675781 958.069213867188 953.425537109375 956.628234863281 954.054260253906 958.651062011719 965.582153320312 964.749084472656 977.068237304688 963.524475097656 972.593017578125 976.533142089844 968.731628417969 975.849060058594 977.028686523438 973.241088867188 970.293395996094 983.239624023438 968.758605957031 966.382202148438 974.719970703125 969.568115234375 969.351867675781 973.897583007812 978.522399902344 982.464965820312 968.005676269531 978.242980957031 975.64892578125 969.501037597656 973.73046875 967.251892089844 969.379089355469 975.298522949219 967.624816894531 962.742919921875 963.709411621094 966.900451660156 961.595397949219 961.356689453125 956.350402832031 957.005126953125 962.810852050781 957.515319824219 964.701904296875 968.537048339844 966.032775878906 966.348510742188 967.356140136719 970.683349609375 972.474792480469 970.794250488281 969.106628417969 970.776062011719 969.621948242188 972.535217285156 972.568725585938 970.044128417969 972.142272949219 972.9384765625 969.189758300781 965.437805175781 966.121398925781 965.086120605469 956.872619628906 964.857055664062 965.37548828125 959.582397460938 961.370239257812 962.48974609375 966.311889648438 968.55859375 969.316528320312 971.456970214844 973.261474609375 966.580017089844 965.367492675781 968.352844238281 966.501342773438 963.639892578125 969.425903320312 960.938781738281 964.926025390625 975.859008789062 969.821960449219 967.100708007812 973.7080078125 972.032653808594 986.938232421875 977.288696289062 984.636474609375 974.750061035156 982.302612304688 973.741516113281 976.157348632812 976.850708007812 971.342041015625 972.549133300781 967.573425292969 985.439025878906 986.683532714844 991.001281738281 988.357666015625 987.220581054688 991.691955566406 998.732482910156 992.023742675781 994.118713378906 995.232055664062 1006.95880126953 1012.26922607422 1003.81665039062 1003.00579833984 1006.88757324219 1011.98937988281 1012.83154296875 1018.30767822266 1010.70434570312 1016.78833007812 1014.80419921875 1016.90026855469 1015.89172363281 1030.98937988281 1032.0068359375 1035.3671875 1042.92431640625 1048.26257324219 1056.96801757812 1059.73059082031 1070.54602050781 1079.25549316406 1078.89477539062 1074.69506835938 1086.24340820312 1083.38293457031 1084.71765136719 1087.03039550781 1090.99462890625 1106.94738769531 1113.9130859375 1109.68688964844 1119.54431152344 1129.38635253906 1135.45910644531 1139.90197753906 1142.56713867188 1150.404296875 1155.31787109375
952.64892578125 954.931640625 957.015808105469 956.669738769531 956.98095703125 967.540283203125 967.858703613281 965.960388183594 966.262084960938 960.231811523438 964.94873046875 958.721557617188 961.574523925781 965.449645996094 975.894958496094 976.404724121094 973.445068359375 977.114624023438 980.836181640625 978.193298339844 972.691711425781 971.311096191406 972.164733886719 964.934936523438 965.821960449219 963.456970214844 966.840759277344 973.407836914062 979.083618164062 969.395935058594 976.574096679688 970.3232421875 966.140380859375 967.701171875 970.308227539062 968.217895507812 969.195068359375 961.704406738281 967.984375 967.251586914062 960.40234375 967.172973632812 958.349975585938 964.107238769531 961.89013671875 957.989440917969 968.32763671875 957.831237792969 961.166198730469 968.376586914062 976.897521972656 970.422668457031 969.532348632812 974.119567871094 964.044494628906 956.156860351562 970.951416015625 972.032348632812 967.775390625 964.710632324219 964.232971191406 963.63720703125 967.795532226562 962.655883789062 966.829956054688 966.246765136719 966.217834472656 967.098449707031 963.1689453125 964.263488769531 961.213256835938 961.403930664062 953.711181640625 967.752624511719 966.197448730469 968.213989257812 976.009460449219 977.947082519531 967.372009277344 966.766174316406 968.217041015625 961.71240234375 971.013671875 966.175720214844 975.7998046875 974.672912597656 967.579650878906 969.193115234375 979.773376464844 984.74169921875 994.50927734375 982.298583984375 986.273681640625 980.650817871094 974.817199707031 976.565734863281 971.355712890625 980.784484863281 980.731323242188 976.274047851562 976.136962890625 981.416870117188 985.805053710938 992.442260742188 984.884887695312 989.688720703125 993.155090332031 986.088500976562 984.435852050781 992.33935546875 998.002380371094 995.840759277344 1005.24890136719 995.047973632812 1001.35620117188 998.908264160156 1005.14331054688 1012.52618408203 1008.77911376953 1010.55462646484 1018.09893798828 1024.14196777344 1018.77362060547 1018.31622314453 1031.86450195312 1037.54455566406 1038.580078125 1040.53601074219 1045.74914550781 1056.41955566406 1064.30969238281 1069.93640136719 1070.27209472656 1075.10473632812 1078.62634277344 1086.59497070312 1091.74975585938 1089.35668945312 1095.00329589844 1091.83154296875 1103.05346679688 1106.73315429688 1115.78393554688 1115.38549804688 1132.20349121094 1135.23181152344 1141.31140136719 1143.01672363281 1151.58227539062 1160.49035644531
949.187744140625 957.094970703125 960.174438476562 966.160583496094 965.207946777344 961.031616210938 960.341796875 961.553588867188 965.70263671875 961.071472167969 969.841979980469 968.3662109375 964.755126953125 967.4423828125 973.232360839844 980.087951660156 975.345397949219 979.352416992188 971.682250976562 974.052795410156 982.819030761719 973.750183105469 967.510803222656 965.492126464844 960.429748535156 964.411254882812 970.587097167969 975.341186523438 973.695068359375 970.156127929688 973.645446777344 971.143188476562 964.674499511719 960.09912109375 967.707336425781 964.755249023438 963.218017578125 962.424987792969 964.900939941406 965.150329589844 950.28369140625 958.016357421875 953.26220703125 961.592651367188 971.286682128906 970.280822753906 967.210388183594 963.187133789062 960.481628417969 969.343139648438 965.815795898438 963.486999511719 964.691101074219 961.189636230469 962.096923828125 963.500671386719 967.849975585938 971.367309570312 965.411865234375 964.510192871094 958.998840332031 970.729736328125 963.344116210938 961.191101074219 963.106140136719 967.630676269531 968.055297851562 962.799133300781 958.136413574219 967.852905273438 966.03564453125 956.915283203125 961.434020996094 963.982055664062 966.925537109375 969.686950683594 979.072448730469 966.697265625 968.265441894531 971.677307128906 970.996643066406 962.054626464844 968.998596191406 971.325317382812 974.8544921875 973.725708007812 965.080688476562 970.539245605469 981.848388671875 981.918579101562 989.790283203125 982.79052734375 986.8642578125 988.271179199219 979.118103027344 975.951904296875 968.986450195312 971.673767089844 976.57666015625 974.495483398438 969.81494140625 970.723876953125 976.226318359375 981.366516113281 985.867980957031 988.832763671875 991.166625976562 988.643249511719 995.812622070312 1000.85119628906 994.353088378906 996.13134765625 998.623657226562 1002.90295410156 997.157592773438 994.104797363281 1000.22186279297 1011.41564941406 1006.54040527344 1006.8359375 1007.72943115234 1008.82025146484 1017.15997314453 1018.31512451172 1031.27001953125 1035.50439453125 1040.30285644531 1051.6123046875 1049.16174316406 1063.38647460938 1059.400390625 1064.05249023438 1064.88989257812 1071.46875 1075.35766601562 1082.7763671875 1095.654296875 1094.05871582031 1095.90441894531 1102.40808105469 1098.76513671875 1107.6162109375 1111.86962890625 1114.43054199219 1126.91540527344 1131.36511230469 1128.818359375 1141.68176269531 1144.28247070312 1154.77648925781
961.2607421875 957.324035644531 958.784545898438 962.727416992188 961.421447753906 958.653686523438 966.747741699219 966.309509277344 967.772216796875 977.59130859375 976.138671875 966.901428222656 965.199829101562 978.726928710938 972.194580078125 974.459777832031 982.8583984375 985.946228027344 985.328979492188 974.178405761719 970.137756347656 961.143371582031 958.347229003906 962.821838378906 967.498229980469 956.123657226562 958.585510253906 967.90234375 970.562927246094 970.352600097656 971.964599609375 972.335998535156 971.624877929688 964.5244140625 963.823364257812 963.663879394531 957.322204589844 968.936340332031 967.338562011719 962.653137207031 958.800537109375 955.183715820312 958.359436035156 964.311706542969 973.234069824219 966.440979003906 963.858581542969 960.601806640625 959.690307617188 966.141235351562 964.379455566406 966.246826171875 965.078002929688 967.365295410156 960.954284667969 964.692993164062 962.202209472656 968.335815429688 963.462707519531 961.37451171875 959.005310058594 959.072021484375 952.408813476562 956.449157714844 960.198486328125 968.892211914062 976.410766601562 964.310363769531 963.665100097656 963.780944824219 967.940551757812 967.267211914062 972.458374023438 974.263061523438 969.678161621094 966.276306152344 971.742248535156 964.301025390625 970.534790039062 968.585327148438 968.987243652344 959.024291992188 960.505920410156 970.346313476562 972.754699707031 977.380737304688 968.519104003906 973.682739257812 977.21044921875 970.58984375 972.650939941406 988.764465332031 989.351501464844 980.319702148438 975.921203613281 972.647705078125 972.158325195312 966.410034179688 970.840270996094 973.0234375 969.549560546875 974.115905761719 980.325805664062 983.5419921875 982.002258300781 987.077880859375 988.00830078125 991.022766113281 994.553466796875 999.298156738281 993.722717285156 999.654296875 997.980041503906 1002.85327148438 999.791625976562 995.638977050781 1000.38830566406 1015.06634521484 1015.21887207031 1007.53131103516 1008.53717041016 1010.57904052734 1011.02508544922 1023.64385986328 1026.38037109375 1036.38549804688 1035.87451171875 1044.91735839844 1054.84240722656 1057.88586425781 1054.3701171875 1066.91882324219 1076.71350097656 1085.96875 1080.79455566406 1079.58435058594 1091.34716796875 1094.48999023438 1090.32666015625 1090.73828125 1101.04528808594 1103.61047363281 1113.89733886719 1121.08618164062 1125.1025390625 1122.43359375 1126.94360351562 1133.66638183594 1137.04443359375 1156.3125
961.860534667969 952.070678710938 954.447875976562 961.0048828125 960.322692871094 966.704650878906 967.255310058594 970.398010253906 976.936950683594 975.230163574219 973.740112304688 975.06201171875 970.22314453125 974.968078613281 983.271850585938 980.33984375 982.715087890625 989.572875976562 998.885864257812 984.466979980469 969.691162109375 961.7763671875 954.921936035156 962.702575683594 965.583435058594 962.848388671875 960.307250976562 963.521606445312 970.297241210938 974.374755859375 974.287963867188 977.625244140625 974.070922851562 970.281921386719 963.411071777344 962.042663574219 957.778625488281 962.12939453125 969.94775390625 958.501525878906 952.993347167969 953.708435058594 951.326171875 964.46728515625 970.473022460938 966.505920410156 961.070861816406 963.583312988281 956.357055664062 961.084533691406 964.377136230469 961.759948730469 955.379150390625 966.448608398438 969.935363769531 956.926940917969 959.256469726562 959.942810058594 958.626708984375 957.958312988281 961.463012695312 956.272888183594 945.554565429688 955.029602050781 963.312866210938 970.825622558594 970.991943359375 966.819946289062 958.408386230469 959.055236816406 970.403686523438 966.3330078125 970.383056640625 968.005737304688 962.9453125 970.724975585938 973.7099609375 967.266845703125 966.175903320312 977.830322265625 965.504638671875 968.623352050781 966.391540527344 968.73388671875 970.200012207031 970.763916015625 971.801574707031 969.943359375 963.108276367188 969.9169921875 976.32568359375 977.293029785156 981.198181152344 981.012390136719 979.946105957031 977.99072265625 977.86669921875 974.104370117188 975.961669921875 969.432189941406 969.248291015625 976.05419921875 982.009399414062 980.969604492188 984.519348144531 982.422912597656 989.442443847656 986.239379882812 984.862182617188 990.442260742188 987.061157226562 993.195068359375 1001.06707763672 1005.56768798828 1008.08410644531 999.952514648438 1003.51489257812 1014.14270019531 1011.39331054688 1008.33483886719 1011.52783203125 1012.99694824219 1014.15509033203 1021.04644775391 1022.50256347656 1034.15942382812 1038.015625 1034.29113769531 1038.21105957031 1048.4462890625 1048.02917480469 1063.15686035156 1074.27746582031 1082.93701171875 1076.00036621094 1084.41577148438 1092.07409667969 1095.58532714844 1086.97839355469 1084.60998535156 1089.80603027344 1094.9130859375 1112.0654296875 1116.80578613281 1119.67578125 1122.79638671875 1124.57800292969 1133.57348632812 1136.38720703125 1147.72143554688
963.099914550781 967.628723144531 964.452758789062 965.814758300781 970.934020996094 970.895935058594 967.713562011719 968.417663574219 972.679016113281 972.948913574219 967.8662109375 966.413269042969 975.056945800781 986.344604492188 979.050476074219 984.192993164062 981.504577636719 991.090515136719 991.238342285156 984.697692871094 963.960693359375 963.493225097656 961.807006835938 957.112487792969 961.218078613281 959.38232421875 958.963500976562 965.146850585938 967.355041503906 970.338317871094 967.549560546875 970.478210449219 961.546142578125 957.690795898438 961.110656738281 959.894226074219 957.649108886719 961.167419433594 961.480041503906 963.26806640625 957.951416015625 954.105529785156 957.413208007812 963.87646484375 966.192138671875 970.238159179688 957.73974609375 970.215515136719 956.475646972656 954.857666015625 955.390747070312 959.238525390625 967.081848144531 966.244995117188 966.232543945312 956.6259765625 958.394836425781 964.793640136719 952.820434570312 952.118957519531 958.268920898438 950.288635253906 954.945373535156 964.359436035156 966.639587402344 971.930786132812 973.805969238281 958.414123535156 952.75634765625 954.971557617188 965.368347167969 964.712280273438 961.72314453125 962.632751464844 960.635559082031 961.978515625 961.541442871094 960.085693359375 966.268859863281 968.661071777344 968.19091796875 964.684448242188 975.667236328125 968.161926269531 962.469787597656 973.163635253906 961.6279296875 971.02099609375 973.464538574219 969.055969238281 975.388977050781 975.882873535156 972.396118164062 971.641479492188 971.116027832031 975.043273925781 968.192321777344 975.226928710938 969.68505859375 973.054992675781 966.449401855469 976.282043457031 977.653259277344 974.764892578125 973.598510742188 981.463256835938 979.433166503906 984.245361328125 973.302124023438 988.703918457031 994.2978515625 998.31787109375 1002.28045654297 1004.92797851562 998.857543945312 999.105773925781 1010.35961914062 1011.34545898438 1008.54418945312 1012.52502441406 1010.96948242188 1011.13989257812 1014.24096679688 1018.63110351562 1031.2333984375 1026.56018066406 1029.34790039062 1027.970703125 1036.69311523438 1042.91918945312 1050.54675292969 1061.93969726562 1069.19018554688 1069.52758789062 1074.41833496094 1077.90441894531 1094.6015625 1098.09814453125 1089.02185058594 1090.23217773438 1083.98156738281 1094.09375 1093.80676269531 1103.62329101562 1113.33227539062 1113.90075683594 1121.88513183594 1125.41320800781 1132.31030273438 1128.39685058594
966.567260742188 964.057189941406 970.365844726562 964.852416992188 971.915405273438 971.194580078125 972.693969726562 975.792785644531 969.904357910156 971.865051269531 957.819702148438 957.799560546875 972.333068847656 967.746520996094 965.138610839844 979.41259765625 974.495849609375 978.405517578125 978.357299804688 984.023803710938 978.186950683594 964.484191894531 967.309265136719 956.906494140625 961.334106445312 967.21044921875 958.717529296875 966.011047363281 970.6875 960.224853515625 960.084716796875 967.384887695312 959.529907226562 962.730407714844 963.673156738281 963.776123046875 970.739807128906 965.736267089844 954.711486816406 964.470825195312 970.796813964844 956.601806640625 953.266296386719 961.141357421875 966.6376953125 962.736572265625 954.748779296875 963.967224121094 958.661987304688 947.525756835938 953.401916503906 955.98828125 958.209655761719 961.450134277344 955.347839355469 954.927917480469 947.087219238281 955.90576171875 960.868774414062 959.053894042969 957.1669921875 964.590881347656 954.637756347656 966.099365234375 967.195007324219 970.224182128906 961.757568359375 960.031921386719 955.324645996094 957.027404785156 956.419860839844 964.826354980469 963.095397949219 963.806335449219 966.010681152344 962.141052246094 964.536193847656 963.158447265625 960.091918945312 965.63525390625 963.683532714844 960.325439453125 972.169494628906 967.602172851562 974.225524902344 974.707397460938 971.157653808594 973.925842285156 972.406066894531 978.183166503906 971.494323730469 971.697570800781 976.338439941406 979.786315917969 977.172607421875 976.948974609375 976.424560546875 976.340454101562 973.324340820312 980.26171875 974.46875 980.771057128906 983.480651855469 984.663330078125 980.181823730469 978.298889160156 974.437866210938 976.756652832031 973.623352050781 975.516723632812 992.20947265625 992.727966308594 1002.71954345703 998.097045898438 1001.79248046875 1001.31970214844 1001.48107910156 1007.84771728516 1007.19891357422 1009.39636230469 1016.26831054688 1015.82952880859 1008.60119628906 1025.30334472656 1025.03344726562 1031.13952636719 1028.09936523438 1021.96667480469 1039.54907226562 1050.88757324219 1055.16125488281 1070.56689453125 1085.01416015625 1079.390625 1071.12268066406 1076.35180664062 1092.60021972656 1092.63073730469 1087.16174316406 1089.77551269531 1087.94152832031 1085.45593261719 1079.33117675781 1100.95336914062 1100.48937988281 1106.14428710938 1122.76489257812 1123.63012695312 1125.56591796875 1122.41662597656
962.726379394531 966.244140625 962.088134765625 954.214294433594 967.036926269531 974.006896972656 970.24072265625 965.962341308594 969.952270507812 963.799133300781 964.323608398438 970.583740234375 970.506164550781 970.101867675781 976.812133789062 963.780029296875 974.483276367188 971.840087890625 972.322021484375 974.486083984375 969.499145507812 966.640808105469 967.925720214844 959.136047363281 957.143188476562 961.315612792969 962.765686035156 964.359191894531 971.653015136719 958.163818359375 961.108337402344 966.555725097656 955.145141601562 960.314636230469 967.219360351562 955.857727050781 970.439453125 965.219543457031 959.356567382812 959.258178710938 969.374206542969 960.46142578125 951.764770507812 953.072021484375 963.316955566406 960.480773925781 952.162475585938 961.072814941406 958.901794433594 951.708251953125 954.932373046875 959.221435546875 956.468139648438 964.921081542969 967.20849609375 963.273620605469 949.016174316406 955.098510742188 957.279846191406 951.22607421875 961.451354980469 956.164855957031 957.570617675781 956.699890136719 964.323120117188 965.595092773438 965.868347167969 963.181762695312 962.737182617188 957.5458984375 960.424926757812 966.806457519531 964.29052734375 960.823547363281 958.804260253906 958.906127929688 955.884155273438 962.133422851562 961.692077636719 962.731994628906 959.451782226562 969.309997558594 969.590209960938 970.731872558594 968.86083984375 975.493591308594 973.209167480469 972.058776855469 967.978271484375 979.031127929688 971.065795898438 974.031188964844 973.115661621094 969.555297851562 967.990173339844 967.521423339844 971.127685546875 971.071716308594 973.560302734375 973.80859375 974.699523925781 979.103393554688 978.019287109375 983.624389648438 978.546691894531 974.891845703125 979.910095214844 983.230651855469 984.19677734375 979.212646484375 984.604125976562 985.132873535156 992.475891113281 998.026611328125 1008.47100830078 999.341613769531 999.519104003906 1003.37823486328 1007.32360839844 1009.87396240234 1008.94738769531 1011.03131103516 1017.57110595703 1015.18395996094 1028.35803222656 1032.20373535156 1035.15295410156 1027.69177246094 1036.7255859375 1048.37231445312 1060.67834472656 1072.45886230469 1079.54724121094 1078.88903808594 1069.16125488281 1073.94177246094 1083.54321289062 1092.84008789062 1092.61364746094 1089.16296386719 1082.24304199219 1078.14599609375 1075.17834472656 1083.79541015625 1094.35705566406 1102.203125 1103.95678710938 1113.75903320312 1114.39636230469 1109.38562011719
967.573059082031 964.500915527344 968.948120117188 968.002807617188 965.156433105469 970.767578125 969.652221679688 966.0400390625 968.590026855469 965.757934570312 971.414184570312 975.105529785156 979.258728027344 973.746215820312 968.960388183594 976.040161132812 966.115051269531 966.098022460938 966.467041015625 970.293640136719 966.557006835938 966.614379882812 954.155944824219 960.563232421875 959.638000488281 961.816345214844 963.955993652344 968.253356933594 972.742370605469 964.883728027344 962.57373046875 960.075439453125 960.068054199219 965.326293945312 961.001831054688 960.213073730469 955.376892089844 953.47705078125 946.540100097656 953.855712890625 969.183776855469 965.237670898438 966.652404785156 960.001708984375 958.843566894531 950.867492675781 951.920104980469 948.606018066406 947.920776367188 951.733703613281 949.671997070312 959.868835449219 962.558776855469 962.311706542969 961.97265625 955.689880371094 960.887756347656 952.935241699219 957.62060546875 945.505554199219 948.944152832031 951.833190917969 964.038452148438 968.959716796875 957.292907714844 964.503112792969 961.953735351562 969.025390625 961.48388671875 966.447204589844 968.80712890625 965.212768554688 965.17529296875 953.17724609375 953.456909179688 959.932312011719 956.431274414062 958.125244140625 963.614013671875 969.105651855469 970.841735839844 966.146240234375 977.502868652344 973.652221679688 982.091247558594 981.329345703125 978.818603515625 973.99462890625 972.274597167969 971.196838378906 976.366943359375 970.099426269531 967.537231445312 960.295104980469 975.239929199219 977.582275390625 968.060546875 971.144714355469 971.377807617188 968.910766601562 969.634826660156 971.4404296875 981.622314453125 986.626647949219 975.639709472656 971.060791015625 979.421569824219 983.8857421875 988.295837402344 987.556640625 988.614318847656 986.821472167969 988.321228027344 995.58837890625 999.343444824219 994.072937011719 997.418762207031 998.735229492188 1010.33734130859 1006.24737548828 1011.33636474609 1007.26812744141 1012.01770019531 1017.32861328125 1021.64343261719 1035.09448242188 1027.88464355469 1038.74609375 1049.4072265625 1042.83032226562 1062.70983886719 1070.65417480469 1065.59838867188 1072.15307617188 1076.6162109375 1082.74499511719 1080.50854492188 1079.1181640625 1084.48913574219 1081.60070800781 1070.17761230469 1063.64501953125 1065.3037109375 1075.48962402344 1086.03564453125 1096.20495605469 1094.34753417969 1093.6064453125 1097.07116699219 1095.23828125
962.671936035156 970.28466796875 977.009643554688 976.948486328125 972.00439453125 966.197692871094 965.270263671875 971.270568847656 972.104919433594 966.745239257812 971.710327148438 974.871887207031 977.048095703125 970.999145507812 975.672790527344 978.046875 974.475830078125 970.257751464844 968.881042480469 966.296447753906 963.867553710938 961.899719238281 966.703125 962.859313964844 967.602905273438 971.310546875 965.256530761719 958.2255859375 958.534057617188 955.571594238281 964.451721191406 960.1923828125 963.896606445312 961.219116210938 964.452270507812 952.524108886719 958.275085449219 952.213439941406 950.030578613281 956.906860351562 961.117919921875 977.702270507812 960.302490234375 954.409057617188 950.407165527344 957.286193847656 954.561340332031 955.602233886719 947.868530273438 951.436645507812 946.552368164062 952.78125 961.729125976562 950.912475585938 952.749938964844 955.831787109375 957.779907226562 957.404541015625 949.978271484375 943.323852539062 954.171936035156 954.248596191406 968.077087402344 969.665466308594 960.415588378906 958.022033691406 960.33642578125 958.334594726562 965.358581542969 956.386352539062 963.43359375 964.130676269531 964.013977050781 945.139221191406 954.372863769531 961.43505859375 959.69189453125 961.519409179688 964.825988769531 972.386352539062 964.462280273438 970.086364746094 973.0048828125 972.866638183594 975.3125 979.228637695312 978.046936035156 974.474670410156 970.473815917969 964.399291992188 966.134826660156 966.941528320312 965.242431640625 962.226257324219 962.608154296875 966.273010253906 965.604064941406 970.579956054688 974.279357910156 976.607849121094 976.744262695312 978.677490234375 986.426940917969 995.421081542969 979.162292480469 974.319519042969 977.986450195312 983.500793457031 989.734313964844 992.180297851562 1003.76391601562 989.884582519531 995.309814453125 993.666259765625 1004.02410888672 998.979187011719 990.921936035156 995.503784179688 1002.95538330078 999.093200683594 1003.88421630859 1006.58459472656 1014.1396484375 1016.03277587891 1019.63647460938 1019.86389160156 1019.53131103516 1033.18200683594 1050.38647460938 1046.19689941406 1058.58178710938 1062.34484863281 1067.48986816406 1070.28857421875 1082.68933105469 1087.66235351562 1087.31616210938 1077.70544433594 1084.015625 1071.67895507812 1062.07824707031 1052.61706542969 1060.29809570312 1059.38293457031 1070.68872070312 1076.68176269531 1080.76452636719 1079.27709960938 1080.7421875 1090.24499511719
968.959533691406 969.546081542969 969.513061523438 966.728820800781 976.092102050781 976.041687011719 976.131469726562 962.608215332031 975.056640625 969.264831542969 970.851379394531 980.004638671875 975.268493652344 973.714782714844 972.511840820312 967.742492675781 965.826904296875 963.364562988281 966.992919921875 968.444274902344 961.050842285156 961.938903808594 953.998840332031 954.522399902344 950.694030761719 953.634338378906 952.174499511719 951.800415039062 951.44921875 955.316162109375 960.531616210938 955.013305664062 952.672424316406 955.525512695312 954.33935546875 954.594177246094 954.666870117188 957.944946289062 953.167358398438 952.521789550781 956.260498046875 962.566467285156 959.619873046875 955.395690917969 954.019653320312 957.828979492188 949.869689941406 960.433776855469 953.40478515625 953.726623535156 952.894470214844 958.507385253906 957.089538574219 955.760864257812 952.81689453125 955.822998046875 954.89599609375 954.012756347656 955.925964355469 952.722717285156 953.512817382812 955.7138671875 957.083374023438 958.998657226562 960.12939453125 953.036499023438 959.110046386719 962.710266113281 968.657409667969 970.663330078125 968.926818847656 969.419799804688 962.750366210938 958.2900390625 962.045349121094 959.853698730469 961.743286132812 959.529174804688 961.886047363281 967.913879394531 961.562194824219 968.36328125 972.104309082031 968.653625488281 982.010620117188 979.736511230469 968.9619140625 967.960754394531 963.83642578125 971.772094726562 981.299499511719 974.510437011719 972.146423339844 957.719787597656 970.900451660156 971.403991699219 977.6748046875 970.1484375 978.891784667969 984.036865234375 981.195251464844 977.283569335938 976.606506347656 978.411682128906 979.311828613281 980.913330078125 977.304260253906 979.278564453125 989.951171875 989.133972167969 992.27783203125 997.465454101562 996.600646972656 995.316345214844 992.729309082031 992.2021484375 988.994506835938 998.992980957031 997.322937011719 1003.27532958984 1005.98834228516 1009.85186767578 1013.55413818359 1024.80773925781 1022.09405517578 1009.95349121094 1016.67633056641 1027.17004394531 1039.1455078125 1050.10681152344 1053.72692871094 1062.0341796875 1066.93115234375 1072.19067382812 1075.10888671875 1079.36682128906 1091.55651855469 1091.0029296875 1077.81994628906 1064.650390625 1065.55163574219 1058.13525390625 1057.16796875 1058.66040039062 1057.17248535156 1067.80993652344 1067.23388671875 1072.44189453125 1067.62133789062 1070.96667480469
968.019165039062 959.069091796875 963.851440429688 969.345031738281 975.623596191406 976.279541015625 977.323120117188 978.525024414062 970.145446777344 965.413391113281 968.291320800781 970.751892089844 965.503112792969 964.25732421875 965.938842773438 971.638427734375 970.040649414062 965.554321289062 957.998046875 962.9326171875 955.988464355469 962.311706542969 956.755004882812 950.271423339844 950.4755859375 948.176330566406 943.474731445312 945.102111816406 949.844360351562 951.057495117188 955.910522460938 959.302307128906 950.957214355469 950.890014648438 958.26806640625 953.243896484375 955.025573730469 953.2783203125 957.272827148438 955.671264648438 957.126525878906 954.302368164062 952.873413085938 945.432373046875 941.883972167969 949.773376464844 951.397094726562 952.169738769531 951.929321289062 959.44189453125 953.314270019531 949.114685058594 955.433227539062 952.255493164062 947.330627441406 960.088745117188 961.61962890625 956.272888183594 955.372924804688 958.712707519531 950.5166015625 949.493347167969 950.731689453125 956.207458496094 959.296264648438 964.329040527344 959.492126464844 956.238037109375 965.410705566406 964.588684082031 967.742431640625 972.068542480469 971.564453125 960.426086425781 960.256896972656 968.599670410156 960.92626953125 955.466186523438 956.209838867188 963.378234863281 966.502136230469 966.432861328125 960.933837890625 959.689392089844 963.312194824219 974.963562011719 971.805114746094 960.453430175781 965.409729003906 971.371154785156 977.608703613281 973.825744628906 975.429321289062 973.937194824219 976.277954101562 976.326782226562 976.190673828125 978.186950683594 973.983520507812 980.742370605469 983.22314453125 986.986145019531 976.372863769531 971.447265625 976.854675292969 977.212036132812 979.569152832031 985.879272460938 983.166564941406 992.17138671875 992.815124511719 988.626647949219 990.208862304688 990.910766601562 987.636779785156 981.564453125 990.011413574219 1002.26666259766 1008.1298828125 1002.36242675781 1000.35766601562 1011.08801269531 1022.75445556641 1025.39453125 1022.53070068359 1014.8369140625 1019.94647216797 1018.41284179688 1028.10583496094 1040.65307617188 1053.70251464844 1055.52880859375 1055.60900878906 1058.001953125 1062.32824707031 1068.3369140625 1077.18249511719 1075.25146484375 1074.96936035156 1069.18688964844 1060.63696289062 1054.912109375 1055.10083007812 1054.26489257812 1048.34020996094 1051.10314941406 1060.18774414062 1060.5908203125 1069.54418945312 1073.21813964844
960.596923828125 957.234191894531 957.429077148438 972.543518066406 975.842041015625 980.294189453125 976.821655273438 973.585266113281 965.339416503906 968.94970703125 965.111877441406 959.701477050781 961.451538085938 964.85205078125 961.6904296875 965.822570800781 961.887451171875 964.700439453125 956.10400390625 955.059204101562 955.103759765625 952.577087402344 954.884582519531 953.265319824219 944.770812988281 947.86767578125 947.355041503906 951.040771484375 944.644165039062 947.760131835938 945.787292480469 953.846252441406 941.128051757812 944.802917480469 947.269287109375 951.160766601562 957.159240722656 956.963500976562 955.908386230469 953.684509277344 950.109802246094 950.957885742188 940.573974609375 947.061401367188 946.170715332031 943.716064453125 955.427856445312 951.510192871094 954.4990234375 963.063049316406 960.355224609375 953.262756347656 949.592346191406 945.997802734375 955.073547363281 953.605163574219 958.250671386719 967.49609375 960.465209960938 960.340209960938 961.994812011719 948.668884277344 948.756103515625 948.81884765625 968.902954101562 972.862365722656 972.53857421875 961.437866210938 970.044311523438 979.438415527344 967.180480957031 967.647277832031 967.175903320312 963.643249511719 965.27880859375 968.925720214844 957.542785644531 958.187683105469 964.665832519531 964.687194824219 965.263305664062 974.968688964844 966.765930175781 963.570739746094 962.971557617188 969.570739746094 959.256713867188 964.119018554688 966.613586425781 968.750427246094 967.401977539062 966.898010253906 978.073913574219 974.759521484375 981.888610839844 986.526000976562 980.813781738281 982.174072265625 974.064697265625 969.066162109375 973.988342285156 983.911926269531 972.014953613281 978.546447753906 983.328796386719 980.95458984375 985.361755371094 989.141784667969 988.429626464844 989.777221679688 984.665893554688 982.513122558594 992.394165039062 993.165222167969 990.68798828125 984.218017578125 991.554138183594 1002.04901123047 1010.55627441406 1009.43096923828 1008.59741210938 1006.05444335938 1026.57653808594 1028.74584960938 1018.58819580078 1013.15643310547 1013.93151855469 1008.9560546875 1027.78393554688 1040.45727539062 1052.56359863281 1061.29858398438 1060.60461425781 1065.17431640625 1060.04870605469 1060.25842285156 1056.22814941406 1071.49108886719 1070.46655273438 1063.59899902344 1053.50451660156 1046.55285644531 1042.28186035156 1049.06359863281 1044.68591308594 1048.53295898438 1061.52990722656 1059.02502441406 1054.56787109375 1061.20300292969
959.066345214844 951.611389160156 964.02685546875 973.198120117188 968.19775390625 968.341186523438 971.098449707031 972.329956054688 964.848388671875 963.838928222656 963.899597167969 961.778259277344 961.106567382812 957.136840820312 967.139099121094 969.869323730469 965.149230957031 961.792419433594 968.682922363281 955.550659179688 951.287231445312 944.644897460938 947.100830078125 947.369079589844 945.465454101562 947.799194335938 956.175231933594 947.839965820312 946.523681640625 944.920776367188 941.919311523438 944.119567871094 947.17041015625 949.71240234375 948.915283203125 950.888610839844 956.702819824219 951.22607421875 952.630859375 951.842041015625 945.37890625 947.984069824219 945.4033203125 945.670776367188 945.675720214844 947.096557617188 956.566284179688 955.776123046875 956.473754882812 962.054504394531 962.361206054688 956.755676269531 957.203796386719 956.441345214844 962.669128417969 959.76025390625 956.492370605469 963.08447265625 965.671569824219 965.582702636719 958.189636230469 957.235961914062 951.697875976562 948.900634765625 957.795959472656 962.501647949219 964.016174316406 966.573608398438 969.120971679688 966.544555664062 964.440002441406 968.157592773438 960.452575683594 965.492431640625 965.303833007812 959.807556152344 964.642822265625 964.212890625 961.310791015625 965.200500488281 964.829162597656 971.123352050781 968.231872558594 959.897888183594 965.969909667969 967.485412597656 964.0703125 970.917541503906 968.505126953125 972.994079589844 965.522338867188 965.841857910156 979.93310546875 978.728637695312 974.399230957031 981.260498046875 979.057556152344 975.314086914062 980.520141601562 970.774597167969 972.297912597656 976.885864257812 979.765930175781 983.573669433594 982.911743164062 984.398986816406 985.524841308594 985.197082519531 989.325439453125 983.805297851562 983.124572753906 989.477478027344 988.738525390625 987.438293457031 994.775329589844 999.884094238281 996.41064453125 998.107849121094 1006.40765380859 1004.61407470703 1001.54248046875 1003.07891845703 1019.52984619141 1024.70349121094 1024.66064453125 1013.12298583984 1008.79254150391 1015.06066894531 1024.26684570312 1042.75048828125 1051.55871582031 1053.62817382812 1056.68737792969 1056.31323242188 1053.20971679688 1052.73937988281 1055.96325683594 1062.47204589844 1057.79516601562 1054.26477050781 1049.79272460938 1047.03198242188 1031.4541015625 1034.05102539062 1034.65246582031 1043.93664550781 1050.69360351562 1044.51770019531 1053.18298339844 1048.62084960938
959.898986816406 960.593994140625 962.795715332031 969.971008300781 963.968872070312 965.265197753906 970.803039550781 963.756103515625 970.119506835938 965.025268554688 954.842895507812 964.254150390625 965.583801269531 968.3125 973.083862304688 975.629150390625 967.024719238281 957.649108886719 960.418518066406 961.150817871094 947.8408203125 943.943664550781 949.833862304688 948.163696289062 945.613464355469 947.019958496094 949.570922851562 954.995239257812 952.206176757812 949.366027832031 947.278869628906 949.109924316406 945.416564941406 958.189270019531 951.336181640625 950.037353515625 954.946105957031 952.590270996094 949.526184082031 946.8251953125 939.745178222656 948.100463867188 956.15283203125 953.241882324219 952.096984863281 955.215026855469 957.979064941406 960.606079101562 954.920288085938 952.0546875 947.197082519531 952.558410644531 952.578918457031 955.162719726562 958.765991210938 962.796203613281 957.368408203125 960.597106933594 966.239318847656 966.829895019531 966.0947265625 958.528137207031 962.68994140625 954.345336914062 959.829895019531 962.521850585938 961.809204101562 958.973388671875 958.202453613281 959.198608398438 965.0302734375 964.595703125 971.905090332031 969.428161621094 968.783752441406 967.747253417969 967.297180175781 970.903076171875 968.67822265625 963.438903808594 968.664001464844 968.664855957031 970.228149414062 963.19140625 974.578918457031 968.565185546875 972.796997070312 976.152648925781 964.226745605469 973.719421386719 967.429382324219 970.576110839844 975.351501464844 967.265991210938 958.984497070312 962.525817871094 972.894775390625 965.612609863281 966.118896484375 971.515197753906 981.280029296875 986.324584960938 987.319213867188 990.424011230469 996.155151367188 986.721008300781 984.294494628906 988.166625976562 990.000549316406 991.509399414062 999.443054199219 993.15771484375 984.563598632812 988.452209472656 993.739990234375 994.461059570312 997.307495117188 994.054382324219 1003.57562255859 1000.14270019531 992.959228515625 1000.28680419922 1018.99743652344 1012.12658691406 1017.25122070312 1022.75463867188 1012.12561035156 1021.35003662109 1022.25994873047 1031.97106933594 1042.80676269531 1047.25207519531 1055.53820800781 1055.07751464844 1048.79809570312 1060.14294433594 1054.23059082031 1054.53137207031 1055.87060546875 1050.23596191406 1043.49060058594 1036.27258300781 1035.24719238281 1029.25866699219 1033.396484375 1054.45715332031 1054.57006835938 1040.38342285156 1043.80346679688 1044.14270019531
