NCOLS 150
NROWS 37
XLLCORNER 7394249
YLLCORNER 4843409
CELLSIZE 30
NODATA_VALUE -9999
977.940795898438 974.061767578125 983.148498535156 991.286315917969 989.209045410156 988.859924316406 994.244262695312 983.381164550781 981.906433105469 985.747436523438 976.346374511719 975.265991210938 971.311096191406 977.005432128906 972.984375 978.818359375 984.512268066406 976.658630371094 983.059143066406 982.481811523438 978.359680175781 990.608581542969 995.057434082031 990.6279296875 988.708312988281 994.526000976562 1000.76983642578 1005.58355712891 1007.63342285156 1011.61480712891 1018.78002929688 1019.01013183594 1020.95324707031 1029.06176757812 1037.85754394531 1030.15124511719 1027.44372558594 1032.24438476562 1042.97778320312 1040.75634765625 1047.74060058594 1045.49328613281 1043.53137207031 1044.54577636719 1047.35241699219 1041.91723632812 1025.89892578125 1021.98822021484 1016.23510742188 1020.30010986328 1009.40093994141 999.125061035156 1004.51690673828 1003.5458984375 1018.31903076172 1013.39154052734 1005.58935546875 1005.07562255859 1001.4658203125 1009.66784667969 1026.4375 1033.42395019531 1025.68237304688 1028.15295410156 1014.19750976562 1023.64617919922 1020.10168457031 1027.17492675781 1018.64147949219 1009.14318847656 1008.27722167969 1013.07604980469 1026.05615234375 1034.80285644531 1035.05310058594 1040.11474609375 1029.62780761719 1029.37145996094 1026.22473144531 1028.53430175781 1036.47631835938 1036.36791992188 1029.54821777344 1029.1591796875 1017.63946533203 1006.98181152344 1005.67291259766 992.451599121094 984.930541992188 974.864074707031 962.349670410156 956.044250488281 969.773132324219 976.511291503906 974.249450683594 964.055725097656 966.192077636719 969.560974121094 966.910095214844 980.069152832031 980.490234375 971.005004882812 976.511352539062 991.219970703125 988.812316894531 980.785888671875 975.891845703125 969.405029296875 981.838623046875 974.385803222656 985.360168457031 971.597961425781 952.473510742188 954.247375488281 950.958068847656 933.4013671875 927.558715820312 932.177490234375 936.522155761719 945.09765625 950.418273925781 964.130615234375 972.013244628906 968.555969238281 978.20263671875 978.861999511719 990.668884277344 998.434753417969 1009.16229248047 1016.07946777344 1023.14270019531 1024.50183105469 1035.10205078125 1043.47106933594 1037.72241210938 1047.11596679688 1057.48889160156 1064.4501953125 1070.34289550781 1086.12866210938 1099.64526367188 1094.39697265625 1087.18615722656 1082.71533203125 1081.36181640625 1098.89587402344 1104.68408203125 1106.06481933594 1101.31030273438 1108.74365234375
975.638244628906 984.218017578125 984.392578125 980.021484375 987.764343261719 977.113891601562 977.677978515625 979 979.687927246094 983.916137695312 984.620666503906 982.977416992188 969.505798339844 977.354248046875 976.77197265625 972.596862792969 984.165710449219 981.192138671875 972.915771484375 976.800659179688 972.534484863281 983.261596679688 988.164001464844 984.767456054688 987.759094238281 991.477478027344 1009.17486572266 1014.22338867188 1017.39819335938 1024.45556640625 1020.2919921875 1029.36987304688 1027.85705566406 1021.04339599609 1028.88293457031 1035.62829589844 1019.37176513672 1035.51452636719 1041.62255859375 1037.00622558594 1044.66149902344 1045.69689941406 1041.865234375 1047.07446289062 1041.21984863281 1032.27880859375 1022.94342041016 1020.12847900391 1021.03100585938 1014.49896240234 1001.78955078125 1004.71405029297 996.279541015625 1008.75610351562 1020.91271972656 1005.97930908203 995.985656738281 994.58251953125 997.621643066406 1006.48986816406 1015.22711181641 1019.98370361328 1025.34033203125 1022.78594970703 1026.01416015625 1024.15222167969 1030.89233398438 1017.48529052734 1018.41357421875 1013.45739746094 1014.30059814453 1022.12390136719 1030.10778808594 1033.43078613281 1031.04223632812 1032.37817382812 1027.13317871094 1026.67541503906 1021.71832275391 1022.67608642578 1031.1669921875 1037.22802734375 1023.60748291016 1022.57330322266 1005.55181884766 994.742553710938 1008.34832763672 1003.65356445312 990.954711914062 984.704711914062 978.69677734375 972.805541992188 977.007141113281 981.742492675781 985.504760742188 975.384704589844 973.025817871094 984.773498535156 975.275756835938 974.220397949219 970.245971679688 987.477294921875 986.258178710938 989.6201171875 1004.56530761719 989.615051269531 983.004333496094 979.219848632812 981.203125 974.811706542969 973.568908691406 964.955444335938 946.424011230469 954.361389160156 940.592590332031 932.712158203125 931.154846191406 930.58642578125 935.247924804688 939.399658203125 946.692260742188 961.877014160156 971.618041992188 975.660705566406 977.640075683594 990.176635742188 996.001281738281 1000.67132568359 1012.93206787109 1012.83056640625 1021.32244873047 1030.61169433594 1034.39440917969 1035.92553710938 1042.87390136719 1051.63208007812 1060.78796386719 1060.27514648438 1079.57189941406 1089.05859375 1097.28442382812 1092.25354003906 1089.20275878906 1085.61804199219 1084.97338867188 1089.78015136719 1093.00402832031 1094.37182617188 1107.14233398438 1096.34716796875
973.539428710938 974.544067382812 977.487976074219 983.776184082031 978.689453125 980.135498046875 987.71044921875 987.254333496094 989.028198242188 992.405029296875 988.672180175781 980.908752441406 969.614807128906 969.100891113281 974.361389160156 973.1396484375 978.582702636719 976.043273925781 978.023559570312 974.160888671875 976.948486328125 975.930236816406 980.3056640625 984.320251464844 989.80859375 992.383911132812 1007.06579589844 1008.67321777344 1016.29107666016 1020.33160400391 1022.98382568359 1017.65753173828 1028.13171386719 1023.30267333984 1016.49658203125 1019.25970458984 1022.11865234375 1028.21850585938 1032.126953125 1030.61486816406 1032.20263671875 1036.158203125 1041.28149414062 1042.06420898438 1030.49255371094 1032.51452636719 1020.25433349609 1027.11218261719 1014.48895263672 1000.15539550781 1004.98321533203 1003.310546875 999.732604980469 1003.29626464844 1013.81774902344 1004.60583496094 999.171997070312 998.13525390625 1004.77923583984 1004.68395996094 1013.48132324219 1016.42895507812 1015.01348876953 1023.16107177734 1024.07739257812 1024.14990234375 1021.53674316406 1023.12353515625 1026.48156738281 1023.75079345703 1020.38323974609 1018.47833251953 1018.10217285156 1020.36303710938 1024.84045410156 1019.40380859375 1015.74517822266 1020.66369628906 1024.45629882812 1016.74987792969 1018.17431640625 1023.03521728516 1016.01403808594 1012.10540771484 1012.94207763672 997.98974609375 1006.54663085938 1005.71148681641 1005.43786621094 992.225830078125 989.216674804688 982.721801757812 987.809753417969 982.095520019531 982.605041503906 977.844421386719 983.828491210938 988.360229492188 978.610595703125 971.253723144531 979.200805664062 981.900695800781 987.117004394531 989.034362792969 994.342712402344 998.045959472656 990.510131835938 989.480834960938 974.716247558594 969.511657714844 969.827453613281 965.277770996094 947.491149902344 944.116638183594 939.668518066406 931.621826171875 922.16650390625 926.245056152344 937.382568359375 945.67236328125 950.387817382812 963.019104003906 972.474304199219 991.090393066406 991.152648925781 992.578796386719 1010.7548828125 1014.17095947266 1007.90350341797 1016.20300292969 1025.66296386719 1034.5234375 1033.43762207031 1040.25415039062 1034.01831054688 1052.0703125 1064.85388183594 1065.23706054688 1077.6552734375 1090.81958007812 1090.76733398438 1076.357421875 1084.73352050781 1090.35852050781 1082.42163085938 1100.1669921875 1102.19665527344 1097.76843261719 1092.83215332031 1092.28735351562
970.258544921875 966.52587890625 973.887268066406 971.485778808594 969.602661132812 973.308837890625 990.012329101562 985.547058105469 981.393676757812 985.159790039062 980.391296386719 972.001770019531 963.627380371094 963.889831542969 969.919921875 973.175109863281 974.590148925781 976.569580078125 975.648986816406 971.401245117188 971.017639160156 973.473937988281 979.207580566406 984.32080078125 986.263793945312 997.1962890625 1005.49554443359 1014.14428710938 1016.31237792969 1014.93341064453 1020.76428222656 1014.55871582031 1018.00866699219 1024.27978515625 1018.94464111328 1018.22100830078 1022.38702392578 1024.3662109375 1023.05712890625 1027.73498535156 1031.55859375 1034.36108398438 1044.98034667969 1036.00964355469 1023.54479980469 1026.69567871094 1024.71203613281 1017.91241455078 1012.03753662109 1010.17828369141 1013.09442138672 1011.92028808594 1007.17193603516 1003.01550292969 999.215515136719 1003.98931884766 997.27880859375 1002.56695556641 1000.60095214844 1005.81707763672 1017.64007568359 1018.34991455078 1021.06640625 1020.03509521484 1019.49487304688 1020.82727050781 1027.92687988281 1029.90869140625 1024.16027832031 1018.04418945312 1017.70324707031 1022.46673583984 1021.07592773438 1020.76898193359 1015.22052001953 1014.75396728516 1010.44299316406 1013.79266357422 1024.53076171875 1015.9970703125 1011.03472900391 1013.79534912109 1010.21795654297 1009.30230712891 1014.00323486328 1001.60760498047 1003.85241699219 999.402404785156 1004.62628173828 993.840270996094 990.710510253906 992.914245605469 993.90283203125 987.999694824219 980.987182617188 987.953002929688 992.339233398438 991.745666503906 999.050048828125 990.077453613281 984.687377929688 982.084106445312 992.570556640625 997.792663574219 1002.43481445312 1009.49334716797 1002.80297851562 994.765014648438 987.103332519531 980.884094238281 966.014831542969 958.822021484375 944.733154296875 937.992492675781 944.813659667969 933.485107421875 924.661315917969 927.68017578125 936.0380859375 939.128295898438 957.891906738281 970.070739746094 976.17822265625 983.936401367188 986.826110839844 999.298522949219 1001.44836425781 1021.55438232422 1018.1474609375 1019.13427734375 1026.0712890625 1028.98583984375 1037.60510253906 1036.69946289062 1043.3896484375 1049.1826171875 1055.44140625 1064.46118164062 1068.17016601562 1074.54309082031 1079.05078125 1082.14086914062 1085.20568847656 1080.37512207031 1088.91735839844 1094.20690917969 1104.4404296875 1104.65307617188 1096.05065917969 1090.49670410156
946.692626953125 956.873229980469 960.906127929688 964.756103515625 964.133178710938 961.045776367188 967.406188964844 968.663513183594 974.229187011719 979.324462890625 980.245666503906 971.393371582031 965.983154296875 957.016357421875 965.862548828125 972.332214355469 975.793884277344 964.774841308594 971.039001464844 965.632019042969 971.403869628906 967.428405761719 972.760192871094 973.357543945312 982.430297851562 990.985595703125 1001.44348144531 1015.93286132812 1016.5146484375 1019.07196044922 1019.03912353516 1021.97839355469 1024.92138671875 1014.21801757812 1018.12097167969 1019.7431640625 1026.08923339844 1022.41217041016 1023.69622802734 1023.10748291016 1029.40454101562 1035.89782714844 1033.41491699219 1031.53149414062 1021.40795898438 1011.81530761719 1017.00402832031 1017.35119628906 1008.29937744141 1002.08612060547 1010.87902832031 1006.61322021484 999.910461425781 993.054077148438 996.113220214844 1004.06799316406 1008.978515625 1005.45092773438 1006.97515869141 1013.87054443359 1015.5556640625 1014.89703369141 1019.13128662109 1019.3291015625 1018.63903808594 1020.72033691406 1021.1220703125 1014.39630126953 1016.01873779297 1023.27349853516 1019.83575439453 1019.50701904297 1021.54827880859 1017.44525146484 1011.32177734375 1004.60485839844 1010.49261474609 1013.06268310547 1019.57775878906 1016.03521728516 1010.28503417969 1002.14129638672 1004.62274169922 1004.62347412109 1001.98193359375 1002.7216796875 1005.90319824219 1006.69818115234 1002.49572753906 999.351318359375 1002.52301025391 1003.10705566406 997.118103027344 998.097961425781 996.779296875 997.278625488281 1005.67962646484 997.726989746094 1002.8310546875 994.742858886719 991.154052734375 995.181518554688 985.231018066406 1001.11822509766 1011.80578613281 1011.02600097656 1001.40814208984 991.405334472656 989.991577148438 973.8935546875 963.143737792969 954.598266601562 944.675476074219 933.377319335938 935.751281738281 929.119689941406 925.009826660156 923.918823242188 943.36572265625 950.786926269531 961.348510742188 978.008972167969 980.666076660156 980.264465332031 988.409912109375 998.447937011719 1013.52502441406 1023.19049072266 1020.17266845703 1032.22583007812 1036.06518554688 1044.88439941406 1041.59899902344 1030.45397949219 1040.833984375 1054.76623535156 1050.77587890625 1059.69128417969 1071.82299804688 1079.76501464844 1078.42761230469 1087.61328125 1086.29089355469 1089.21740722656 1088.74475097656 1093.32788085938 1101.65100097656 1098.1630859375 1094.34216308594 1105.76293945312
942.427856445312 948.098815917969 965.222412109375 962.574951171875 954.374145507812 950.496215820312 954.424987792969 956.814697265625 962.537536621094 965.761291503906 970.773742675781 968.670349121094 962.020202636719 955.5673828125 954.300476074219 959.712158203125 955.375122070312 967.768188476562 967.998352050781 969.992614746094 972.9775390625 967.86767578125 970.31982421875 972.589904785156 985.258056640625 993.468444824219 993.444152832031 1004.81420898438 1003.57373046875 1008.02581787109 1016.28070068359 1016.87091064453 1024.37915039062 1014.25531005859 1014.71557617188 1019.19781494141 1017.15832519531 1015.08612060547 1026.35302734375 1022.26165771484 1019.52960205078 1026.45092773438 1028.13671875 1027.4248046875 1017.31707763672 1015.76397705078 1011.01263427734 1004.59393310547 1006.86614990234 999.771789550781 1002.62854003906 999.973510742188 999.18798828125 996.955322265625 999.313842773438 1004.359375 1004.79412841797 1004.57366943359 1008.17193603516 1009.47357177734 1019.91571044922 1018.17401123047 1017.86767578125 1011.74920654297 1018.79821777344 1016.71508789062 1016.59112548828 1013.12481689453 1014.30688476562 1009.09088134766 1021.66491699219 1011.49810791016 1021.7060546875 1018.07843017578 1008.31225585938 1014.10748291016 1014.44378662109 1015.16662597656 1014.83270263672 1011.89337158203 1014.44549560547 1018.44049072266 1009.98645019531 1001.48889160156 1005.78125 995.713928222656 994.394592285156 1009.09765625 1005.02551269531 1011.31701660156 1009.41491699219 1000.27923583984 1003.87689208984 1004.84368896484 1013.806640625 1006.99719238281 1017.16827392578 1015.34503173828 1009.71472167969 1005.77056884766 1002.36584472656 994.882934570312 997.8642578125 998.272155761719 1008.67907714844 1012.58404541016 999.375915527344 989.518676757812 990.443725585938 980.634521484375 970.6669921875 951.866577148438 939.751342773438 942.538818359375 939.012451171875 937.984558105469 941.832580566406 940.156982421875 951.967224121094 957.132263183594 966.283142089844 971.914733886719 978.059631347656 991.131103515625 991.60986328125 1002.44415283203 1012.78912353516 1017.71545410156 1030.91320800781 1033.13659667969 1041.88366699219 1040.22155761719 1047.55139160156 1043.88171386719 1039.21997070312 1043.33923339844 1050.07006835938 1052.99499511719 1070.10375976562 1079.69311523438 1079.49914550781 1088.71923828125 1087.44055175781 1096.88110351562 1095.70153808594 1091.07214355469 1101.29077148438 1103.77087402344 1100.67846679688 1103.79248046875
940.109191894531 946.988525390625 959.059509277344 955.887390136719 957.386291503906 959.360229492188 950.48388671875 948.823120117188 953.670593261719 961.93603515625 960.367614746094 962.5146484375 959.013061523438 952.380554199219 951.524841308594 951.239990234375 959.672424316406 970.792724609375 975.766723632812 967.225769042969 975.238525390625 977.050598144531 976.494506835938 972.952392578125 983.170593261719 996.038818359375 1001.49615478516 995.4208984375 1001.080078125 1007.82873535156 1018.91607666016 1024.30322265625 1018.04443359375 1016.13726806641 1017.53851318359 1019.16064453125 1010.36199951172 1025.32763671875 1024.30883789062 1018.15484619141 1019.52404785156 1008.19403076172 1012.71960449219 1023.51837158203 1023.6533203125 1008.37969970703 1004.36859130859 1003.64477539062 1005.62677001953 999.707397460938 1004.03527832031 994.956604003906 993.229797363281 993.706115722656 998.817932128906 997.930847167969 1002.45532226562 1001.93048095703 1002.53631591797 1007.30499267578 1009.06701660156 1004.92950439453 1006.81396484375 1011.01641845703 1009.39312744141 1016.42248535156 1016.96313476562 1022.45104980469 1029.15600585938 1019.65185546875 1016.80529785156 1009.4287109375 1012.91363525391 1008.4658203125 1011.74444580078 1012.66668701172 1009.58117675781 1005.82141113281 1010.65856933594 1014.37878417969 1017.95025634766 1027.74475097656 1010.50573730469 1010.22290039062 1012.83154296875 1002.16314697266 999.047790527344 1004.93878173828 1012.64526367188 1021.58465576172 1020.2080078125 1013.14221191406 1008.59069824219 1013.29418945312 1022.08709716797 1027.79162597656 1026.55090332031 1026.70007324219 1015.93103027344 1008.31091308594 1006.36383056641 1001.96325683594 1008.96044921875 1009.95361328125 1002.71014404297 1009.65521240234 997.606140136719 987.236633300781 985.502319335938 977.847839355469 965.771423339844 951.508544921875 945.181457519531 943.394714355469 934.951843261719 946.088439941406 941.865356445312 953.216125488281 965.442016601562 973.594970703125 976.122131347656 975.9697265625 986.506652832031 985.971496582031 1000.17999267578 1007.04180908203 1019.13134765625 1021.87445068359 1030.05932617188 1037.86096191406 1039.71044921875 1041.56652832031 1043.60192871094 1042.74743652344 1049.08190917969 1059.15258789062 1050.91027832031 1055.38818359375 1069.01904296875 1078.36254882812 1081.36584472656 1081.72741699219 1089.16003417969 1092.23205566406 1094.18530273438 1087.93273925781 1092.3115234375 1100.52282714844 1089.4169921875 1099.08264160156
939.411376953125 939.920288085938 951.612731933594 946.125549316406 954.117614746094 964.064636230469 959.971313476562 950.39453125 950.106811523438 944.919677734375 950.802917480469 951.120300292969 947.041442871094 943.333984375 942.478942871094 953.250183105469 966.115295410156 976.373779296875 971.8828125 979.817993164062 978.571166992188 974.178100585938 976.84423828125 978.254211425781 986.381530761719 985.945129394531 993.334655761719 995.258728027344 994.067138671875 996.845397949219 1010.97552490234 1011.08795166016 1006.52014160156 1003.95477294922 1012.74597167969 1011.63232421875 1006.35534667969 1019.42297363281 1021.97863769531 1016.81378173828 1014.47509765625 1010.54962158203 1012.47418212891 1016.63348388672 1013.49554443359 1009.70355224609 1010.23614501953 1000.69012451172 995.027893066406 998.091003417969 999.777038574219 995.409729003906 990.751403808594 994.681762695312 991.779174804688 995.496704101562 996.06591796875 994.921630859375 1000.26495361328 1003.86846923828 999.700805664062 995.681396484375 997.579223632812 1006.62652587891 1013.15466308594 1019.09490966797 1023.12579345703 1022.89001464844 1025.75903320312 1017.41363525391 1016.30993652344 1021.59881591797 1013.60534667969 1016.19622802734 1013.73071289062 1004.94519042969 1008.3916015625 1004.32434082031 1013.09429931641 1020.21514892578 1017.11529541016 1013.97076416016 1019.06683349609 1022.65667724609 1005.91619873047 998.447387695312 1010.45269775391 1009.14324951172 1013.6533203125 1019.20440673828 1011.66375732422 1014.33319091797 1019.26129150391 1025.14526367188 1033.65795898438 1027.19250488281 1027.8544921875 1034.50573730469 1024.72106933594 1019.66546630859 1012.57580566406 1003.59075927734 1010.26745605469 1012.05212402344 1006.96813964844 1006.04772949219 1004.59661865234 986.676574707031 987.982727050781 977.362670898438 961.242431640625 943.742736816406 945.238647460938 946.008544921875 939.442749023438 944.920654296875 944.801513671875 964.36083984375 975.330200195312 989.151611328125 989.807006835938 993.278442382812 995.866516113281 1008.20428466797 1008.46160888672 1009.59893798828 1020.91101074219 1030.6630859375 1037.87426757812 1038.55310058594 1043.93701171875 1048.68505859375 1048.47583007812 1057.17993164062 1058.02697753906 1053.49133300781 1051.83630371094 1056.67822265625 1070.7509765625 1078.10229492188 1077.41186523438 1070.03845214844 1079.06945800781 1091.98229980469 1090.8349609375 1090.47143554688 1090.41369628906 1082.5068359375 1095.69384765625 1097.662109375
932.345764160156 935.206726074219 945.477172851562 950.670532226562 967.333312988281 970.308166503906 974.953247070312 959.126403808594 956.570678710938 955.642761230469 951.093627929688 942.542297363281 940.872375488281 940.83642578125 944.87109375 956.414184570312 968.56201171875 974.789245605469 979.333679199219 981.414001464844 976.014343261719 978.058471679688 986.028747558594 985.522033691406 989.515686035156 990.756042480469 990.986022949219 987.441284179688 994.221923828125 1001.35510253906 1001.24060058594 1008.08758544922 1003.01086425781 995.137878417969 999.956787109375 1005.31134033203 1002.72894287109 1023.53192138672 1028.4306640625 1021.74139404297 1018.25061035156 1015.67712402344 1009.66973876953 1010.84411621094 1011.77899169922 1008.66259765625 998.655639648438 994.045654296875 992.221801757812 995.751831054688 991.238525390625 996.701538085938 993.074523925781 989.652648925781 1002.60729980469 992.358947753906 991.697387695312 998.165283203125 991.988647460938 1000.28729248047 1000.03747558594 996.905639648438 999.689086914062 1006.26715087891 1022.14489746094 1027.82653808594 1026.21252441406 1023.31121826172 1024.4248046875 1020.15753173828 1016.84118652344 1023.32995605469 1019.07244873047 1015.49505615234 1001.83837890625 995.050598144531 999.853393554688 1008.11920166016 1017.52191162109 1019.47705078125 1015.64294433594 1020.57647705078 1013.14849853516 1012.99298095703 1009.95794677734 1007.75366210938 1006.22613525391 1010.57690429688 1010.81561279297 1017.23059082031 1018.76153564453 1019.310546875 1023.76245117188 1033.61315917969 1029.71447753906 1033.78625488281 1025.8798828125 1029.44702148438 1021.83557128906 1015.85955810547 1008.95635986328 1008.46331787109 1015.380859375 1017.47064208984 1007.00256347656 1009.10589599609 1009.97375488281 997.320983886719 974.893005371094 967.987670898438 961.42724609375 945.44189453125 944.929077148438 940.45458984375 939.527526855469 943.393005371094 947.363220214844 964.700256347656 978.997131347656 991.646118164062 998.068725585938 1015.93688964844 1007.27429199219 1006.31707763672 1021.46398925781 1018.76525878906 1023.70837402344 1039.53161621094 1039.22021484375 1035.15222167969 1039.67175292969 1043.6640625 1048.47619628906 1062.21569824219 1055.47924804688 1051.55969238281 1049.05944824219 1052.05407714844 1062.97839355469 1070.21948242188 1069.11254882812 1069.90197753906 1073.94909667969 1079.63256835938 1092.97143554688 1093.57739257812 1089.76489257812 1089.78186035156 1091.20031738281 1088.09399414062
929.586303710938 928.760009765625 942.169250488281 953.417785644531 961.965026855469 967.699035644531 975.388061523438 963.246337890625 962.147644042969 957.715209960938 960.719848632812 952.836791992188 950.006896972656 947.0029296875 949.486694335938 961.404907226562 963.042602539062 972.976196289062 979.020324707031 976.958435058594 980.788269042969 977.148742675781 984.610717773438 988.28564453125 995.782653808594 993.532653808594 1005.60394287109 996.496765136719 995.321716308594 994.561279296875 997.87841796875 1000.095703125 996.703491210938 993.637817382812 996.61376953125 999.965454101562 1006.94750976562 1017.30737304688 1016.02099609375 1021.90148925781 1012.32666015625 1015.13122558594 1009.59533691406 1000.7705078125 999.476013183594 1000.60467529297 999.326782226562 993.574584960938 991.904663085938 989.295715332031 993.72705078125 987.203369140625 987.361755371094 993.457336425781 995.316467285156 990.863464355469 995.737915039062 998.091918945312 1001.10614013672 992.115112304688 993.173950195312 992.473754882812 1005.62017822266 1006.68389892578 1013.72479248047 1016.49389648438 1012.87200927734 1014.64630126953 1023.17938232422 1028.68542480469 1022.20086669922 1018.81988525391 1020.18402099609 1005.45635986328 999.452331542969 993.299499511719 994.999389648438 1003.28869628906 1011.20520019531 1013.78112792969 1009.591796875 1009.31457519531 1016.04077148438 1006.87432861328 1006.26239013672 1015.20989990234 1015.7890625 1018.76849365234 1022.66156005859 1026.19970703125 1022.40325927734 1018.45660400391 1020.25842285156 1027.48559570312 1031.12951660156 1033.51379394531 1027.26416015625 1029.99230957031 1031.20971679688 1023.35302734375 1005.94885253906 1002.66778564453 1006.97186279297 1009.90417480469 1010.68743896484 1005.49139404297 998.526184082031 1001.89221191406 983.034729003906 979.932434082031 962.683288574219 950.929565429688 949.834411621094 946.134033203125 944.768981933594 945.2646484375 938.258056640625 955.625244140625 972.405700683594 989.950073242188 1000.81927490234 1008.54705810547 1008.79846191406 1009.728515625 1026.06091308594 1018.92077636719 1037.83081054688 1042.64514160156 1037.41491699219 1035.05053710938 1029.66918945312 1040.11267089844 1048.63391113281 1055.02905273438 1057.5302734375 1053.47229003906 1050.41369628906 1060.1904296875 1068.64562988281 1063.84252929688 1056.42932128906 1073.09826660156 1076.787109375 1075.73767089844 1083.29553222656 1095.53381347656 1092.42407226562 1096.64599609375 1093.70458984375 1083.99548339844
942.661010742188 938.538696289062 937.543823242188 942.473754882812 964.29296875 959.266845703125 967.902465820312 966.885681152344 960.793334960938 954.47021484375 958.609252929688 956.415893554688 962.722290039062 951.14599609375 955.110229492188 959.546081542969 961.066833496094 967.426330566406 968.779296875 973.480102539062 980.213562011719 975.048461914062 981.032958984375 990.1435546875 996.79541015625 991.201171875 998.683471679688 993.073791503906 992.109008789062 991.913635253906 996.984619140625 993.9619140625 994.412231445312 996.141052246094 997.055297851562 998.7587890625 1006.88659667969 1000.16088867188 1010.74847412109 1014.03454589844 1013.72607421875 1008.63208007812 1005.21148681641 1005.07653808594 997.476867675781 994.692199707031 1001.30987548828 992.369445800781 990.617065429688 991.473449707031 993.219909667969 992.217407226562 984.199890136719 990.295349121094 997.385192871094 986.900939941406 995.016357421875 1003.98504638672 996.751220703125 993.567993164062 989.790405273438 992.208679199219 1001.40869140625 1005.94152832031 1001.60540771484 1004.92608642578 1006.71307373047 1017.84405517578 1016.67712402344 1019.65771484375 1023.18310546875 1018.69702148438 1014.39282226562 998.168579101562 986.619140625 997.780639648438 996.888549804688 999.250671386719 999.34619140625 997.699645996094 998.27099609375 1001.09790039062 1003.49597167969 1012.98266601562 1011.96423339844 1007.36926269531 1007.40112304688 1019.19812011719 1026.27282714844 1028.76354980469 1019.14471435547 1024.58215332031 1023.60595703125 1020.96948242188 1023.66522216797 1029.73132324219 1030.6494140625 1026.3076171875 1031.47302246094 1025.18957519531 1009.53405761719 997.512451171875 1000.35638427734 1003.615234375 1007.52856445312 1002.31579589844 998.183166503906 997.803649902344 983.768493652344 976.5693359375 966.534362792969 962.633911132812 961.233947753906 952.840942382812 949.944641113281 945.624816894531 944.722778320312 949.75732421875 965.940002441406 980.647094726562 995.819458007812 1006.31457519531 1014.96832275391 1027.00610351562 1031.60339355469 1027.07373046875 1030.75524902344 1033.00329589844 1041.16870117188 1032.92492675781 1031.68322753906 1041.87036132812 1039.13293457031 1054.49047851562 1058.77197265625 1049.02111816406 1054.48950195312 1063.27685546875 1059.58947753906 1052.83923339844 1057.09594726562 1061.82763671875 1062.20642089844 1074.35424804688 1078.22973632812 1085.94116210938 1091.54479980469 1088.23510742188 1079.06762695312 1083.19738769531
932.98681640625 936.133117675781 941.854309082031 944.436645507812 948.002197265625 960.087280273438 959.026794433594 960.080383300781 964.168701171875 966.914428710938 969.409362792969 969.5888671875 969.756042480469 967.20263671875 961.478637695312 962.509094238281 961.605407714844 964.773620605469 968.583679199219 972.388916015625 974.477478027344 980.749145507812 984.362731933594 984.786071777344 990.7578125 990.47265625 988.657470703125 991.480895996094 986.122131347656 995.380432128906 992.332946777344 995.198120117188 992.085205078125 990.515686035156 987.371459960938 991.6015625 998.823059082031 1002.74212646484 1005.10717773438 1000.60198974609 1008.6005859375 1004.35913085938 1000.63793945312 1001.28070068359 997.77734375 994.098693847656 995.707763671875 996.573547363281 993.923034667969 999.968566894531 996.883483886719 992.291320800781 989.586364746094 989.232299804688 1003.32861328125 998.454650878906 992.9716796875 995.657165527344 1003.11077880859 999.292602539062 990.224731445312 993.557861328125 1002.45947265625 998.153015136719 1005.74169921875 999.78369140625 1006.99255371094 1017.84484863281 1016.38403320312 1020.65319824219 1020.82702636719 1020.12622070312 1006.75433349609 1001.68591308594 997.289733886719 992.669921875 992.513366699219 993.598571777344 988.166137695312 989.849731445312 1002.24346923828 993.103149414062 1008.71313476562 1010.66491699219 1009.14880371094 1009.02392578125 1019.23114013672 1018.68267822266 1015.13696289062 1018.75244140625 1025.61376953125 1020.1171875 1015.83782958984 1012.87878417969 1018.01007080078 1025.97692871094 1029.47204589844 1029.83557128906 1028.32775878906 1023.63677978516 1007.43884277344 1003.42529296875 1002.10174560547 996.727966308594 995.413208007812 1004.17346191406 1006.39868164062 1000.09600830078 990.030456542969 974.43798828125 972.717407226562 968.628234863281 957.477783203125 950.920959472656 953.14404296875 951.978088378906 951.735107421875 950.455444335938 960.185974121094 969.653991699219 997.776550292969 1007.65490722656 1011.32843017578 1031.22473144531 1028.21899414062 1024.91235351562 1023.50482177734 1013.88452148438 1027.56579589844 1029.35473632812 1033.74621582031 1042.95642089844 1044.28796386719 1056.09521484375 1035.58520507812 1052.736328125 1050.2529296875 1056.083984375 1049.06359863281 1053.77368164062 1056.75329589844 1060.76733398438 1056.04614257812 1075.25769042969 1067.84582519531 1076.83129882812 1083.23071289062 1084.56359863281 1083.74133300781 1084.40454101562
936.364562988281 932.94140625 948.622009277344 939.147155761719 945.941711425781 952.594543457031 947.515258789062 961.010620117188 960.48583984375 966.040954589844 960.461242675781 967.592895507812 972.814636230469 981.497802734375 974.157958984375 980.914611816406 971.525146484375 969.36865234375 971.947814941406 968.359680175781 967.001403808594 974.185668945312 982.747619628906 985.331115722656 991.003967285156 991.298583984375 989.054870605469 989.777099609375 984.803039550781 986.362243652344 993.746520996094 987.390747070312 992.984741210938 992.315734863281 986.876586914062 984.307495117188 998.589660644531 1001.05316162109 1001.83520507812 999.041076660156 998.364501953125 997.389343261719 992.688415527344 985.908203125 1000.72955322266 989.282165527344 990.117431640625 987.286254882812 995.94091796875 999.672119140625 996.419372558594 996.551879882812 993.9267578125 987.201538085938 998.779541015625 991.702758789062 983.328247070312 988.648864746094 997.447998046875 990.6416015625 985.839538574219 987.970947265625 995.358154296875 984.004821777344 986.725036621094 998.139892578125 996.641784667969 1004.2080078125 1003.07495117188 1005.94592285156 999.544799804688 1008.54510498047 1001.72973632812 1007.52545166016 1001.09149169922 994.719909667969 986.057983398438 985.177856445312 988.991516113281 992.430358886719 1003.29669189453 995.832824707031 1001.53497314453 1004.77203369141 1012.12799072266 1016.66827392578 1021.61029052734 1020.11322021484 1012.92645263672 1014.30603027344 1013.166015625 1017.0322265625 1019.91839599609 1017.37139892578 1013.33190917969 1021.65557861328 1010.94207763672 1011.49560546875 1012.90185546875 1008.82080078125 1003.25317382812 999.331237792969 995.752502441406 994.738403320312 999.149047851562 995.686889648438 1002.10534667969 1003.19055175781 997.113159179688 978.381530761719 979.255981445312 964.3203125 958.1396484375 956.03271484375 954.956848144531 948.994873046875 952.262939453125 945.99853515625 956.0595703125 967.9521484375 983.795776367188 1000.55450439453 1014.47406005859 1020.91369628906 1022.02777099609 1023.18981933594 1022.22039794922 1017.46936035156 1020.8095703125 1025.96728515625 1028.71130371094 1033.68115234375 1028.10766601562 1029.49853515625 1036.32604980469 1038.7841796875 1048.36474609375 1053.06115722656 1046.63012695312 1039.19287109375 1046.30029296875 1052.92736816406 1051.740234375 1062.07373046875 1063.78430175781 1075.00219726562 1079.46740722656 1087.94946289062 1085.22265625 1087.36193847656
942.297668457031 952.883911132812 954.426086425781 958.681823730469 964.006958007812 962.52392578125 958.503173828125 962.600280761719 962.8134765625 969.388488769531 964.5888671875 965.794128417969 970.76123046875 977.454772949219 976.978271484375 981.87109375 969.654235839844 972.520690917969 970.2802734375 962.478698730469 970.218383789062 977.899169921875 985.024841308594 991.060485839844 997.072570800781 992.644287109375 992.456848144531 986.891479492188 990.153564453125 983.654174804688 985.215209960938 981.878234863281 987.974670410156 994.792541503906 991.590698242188 993.393005371094 995.269592285156 997.384338378906 992.146728515625 990.272094726562 999.376708984375 996.006408691406 988.514709472656 980.058349609375 987.445495605469 994.927551269531 991.410705566406 985.801696777344 991.987976074219 995.868103027344 997.612609863281 994.362243652344 984.027770996094 979.723449707031 985.659851074219 991.003723144531 991.155639648438 984.142028808594 984.387756347656 998.633728027344 986.668884277344 993.291259765625 992.229858398438 989.289672851562 982.272033691406 985.883117675781 984.499572753906 995.774291992188 995.128540039062 1004.19091796875 1004.08459472656 997.790100097656 994.329467773438 1003.19488525391 995.905639648438 999.142395019531 995.778381347656 992.401000976562 989.337463378906 998.765869140625 993.434204101562 991.995178222656 1000.77392578125 1012.29046630859 1016.18914794922 1012.57861328125 1015.93841552734 1013.42498779297 1012.37835693359 1008.73089599609 1015.58538818359 1015.13146972656 1022.07598876953 1026.572265625 1011.71563720703 1019.8388671875 1002.60467529297 1005.51336669922 1003.85491943359 995.016967773438 995.382995605469 995.718078613281 994.980285644531 1004.64367675781 999.967651367188 1000.79357910156 1004.49273681641 1003.32446289062 995.428100585938 984.05712890625 985.135864257812 962.423706054688 952.267578125 952.779724121094 944.653015136719 950.3876953125 960.253356933594 959.918334960938 963.222839355469 964.025329589844 977.218811035156 994.703796386719 1013.28784179688 1031.10913085938 1024.99926757812 1023.58923339844 1022.29125976562 1021.49670410156 1016.44543457031 1019.33227539062 1023.98999023438 1020.97772216797 1035.76232910156 1034.07434082031 1041.19079589844 1040.66784667969 1041.37927246094 1041.40649414062 1036.13793945312 1039.49267578125 1041.7861328125 1046.98986816406 1045.40795898438 1054.66552734375 1061.6357421875 1076.58984375 1076.51965332031 1085.98974609375 1087.96655273438 1092.2822265625
950.810607910156 951.076049804688 955.357116699219 962.320251464844 968.817199707031 958.18994140625 960.399353027344 960.410461425781 963.947875976562 959.591613769531 971.078369140625 959.760314941406 964.913208007812 971.941589355469 969.759826660156 976.935974121094 970.024291992188 969.966491699219 961.81201171875 971.956237792969 979.764587402344 974.072204589844 986.3134765625 988.255187988281 999.404052734375 990.47802734375 992.018798828125 992.214660644531 981.752014160156 986.121032714844 990.489135742188 984.042724609375 991.381774902344 992.747680664062 990.096618652344 993.7890625 987.700561523438 989.149963378906 993.997863769531 987.20654296875 989.068420410156 990.841064453125 990.9306640625 979.869201660156 988.348083496094 990.91357421875 989.939453125 989.518920898438 990.589172363281 990.733764648438 990.659912109375 989.725524902344 973.642578125 983.522277832031 977.345886230469 997.2236328125 993.975463867188 994.781372070312 985.857177734375 992.3994140625 987.555053710938 989.79638671875 991.25634765625 985.952941894531 989.408752441406 983.758728027344 983.494445800781 989.235473632812 993.11865234375 994.388916015625 997.994445800781 982.590454101562 995.482421875 998.417785644531 993.080261230469 986.642517089844 991.296875 993.285095214844 983.033935546875 989.718688964844 990.530334472656 996.052551269531 1005.169921875 1006.17620849609 1013.08026123047 1011.18359375 1006.70104980469 1009.4287109375 1018.40704345703 1004.97351074219 1007.81970214844 1012.05773925781 1023.09545898438 1020.09417724609 1013.33898925781 1016.78204345703 1005.71423339844 1003.91729736328 1007.87799072266 999.010009765625 994.064331054688 990.629455566406 993.725402832031 1008.09454345703 1008.9091796875 1001.58325195312 997.742919921875 991.999572753906 996.330871582031 987.309814453125 983.389465332031 967.512145996094 956.649475097656 946.298645019531 942.600280761719 949.070434570312 955.513549804688 966.383728027344 963.9423828125 967.540222167969 977.169250488281 997.661071777344 1018.65264892578 1022.12646484375 1022.92932128906 1026.03784179688 1017.95104980469 1022.10791015625 1026.96057128906 1027.38171386719 1036.00256347656 1035.08801269531 1032.66650390625 1035.87475585938 1041.32116699219 1040.46484375 1030.1240234375 1040.17602539062 1036.31188964844 1030.21044921875 1040.46398925781 1043.42700195312 1047.41723632812 1056.58642578125 1053.88159179688 1072.40551757812 1072.92517089844 1082.39050292969 1088.22314453125 1095.25830078125
962.692749023438 964.766784667969 961.349609375 966.594299316406 961.319641113281 962.580871582031 959.59423828125 969.753845214844 961.979064941406 960.515869140625 962.797119140625 962.880615234375 974.882873535156 972.911376953125 969.299987792969 980.841369628906 969.523986816406 969.288696289062 965.493835449219 982.660705566406 979.287536621094 981.783813476562 988.197937011719 996.941040039062 992.246704101562 987.831359863281 993.756713867188 992.369445800781 983.318542480469 988.381286621094 990.904357910156 981.810180664062 986.616088867188 995.326110839844 989.271667480469 989.59130859375 982.969421386719 982.88623046875 991.675354003906 983.300476074219 982.116943359375 988.177368164062 986.55517578125 987.466979980469 989.655151367188 989.080444335938 983.073425292969 981.151550292969 981.132263183594 985.945068359375 990.035888671875 989.635925292969 985.782836914062 983.416442871094 984.723022460938 991.556701660156 992.680725097656 988.614074707031 988.877990722656 991.341369628906 989.872314453125 991.890686035156 994.302429199219 994.517272949219 999.367736816406 995.553955078125 988.867858886719 992.075378417969 992.947143554688 990.772094726562 980.312744140625 985.656555175781 988.123962402344 985.6357421875 983.945922851562 975.255920410156 984.927429199219 994.50341796875 985.066833496094 984.281799316406 989.243225097656 996.71533203125 1006.22375488281 1010.30249023438 1006.38696289062 1011.87164306641 1009.11456298828 1007.0849609375 1005.30926513672 1008.33142089844 1006.05133056641 1011.90588378906 1018.36553955078 1007.36352539062 1011.68481445312 1006.14538574219 1009.76147460938 1000.73529052734 999.8037109375 1000.40972900391 999.832946777344 988.979797363281 995.560974121094 1014.97698974609 1004.90454101562 998.520874023438 987.754028320312 989.264587402344 985.374084472656 984.886413574219 980.553344726562 968.720031738281 963.456909179688 963.205810546875 963.278625488281 957.918884277344 964.260803222656 971.786376953125 976.688110351562 978.231689453125 992.474609375 1005.69299316406 1016.82861328125 1022.60369873047 1026.94519042969 1012.05841064453 1027.41967773438 1023.11688232422 1021.13873291016 1030.13732910156 1034.65185546875 1030.67565917969 1024.25634765625 1032.02770996094 1029.56994628906 1037.37585449219 1031.53295898438 1030.74499511719 1029.20495605469 1026.22412109375 1045.00866699219 1050.86804199219 1053.23400878906 1048.96899414062 1060.3994140625 1070.85498046875 1078.75158691406 1094.00817871094 1101.45178222656 1092.70581054688
965.002136230469 968.12353515625 960.520874023438 962.835388183594 961.144470214844 974.525024414062 971.575256347656 968.352905273438 965.5390625 964.042053222656 961.955383300781 970.968811035156 978.350646972656 977.989135742188 980.369750976562 969.525756835938 977.362243652344 969.167114257812 969.018737792969 975.213317871094 977.610595703125 973.33544921875 988.854919433594 980.39599609375 986.523376464844 988.508605957031 988.22412109375 984.838500976562 980.356262207031 982.07421875 984.0361328125 982.780090332031 984.249328613281 987.9853515625 985.01220703125 983.706787109375 978.948913574219 979.298522949219 979.086364746094 977.799560546875 977.474182128906 981.122619628906 990.783020019531 986.368347167969 989.025939941406 985.482482910156 982.114379882812 985.635681152344 978.75146484375 979.709167480469 980.918395996094 980.269958496094 982.443725585938 978.779052734375 989.355163574219 983.513000488281 985.74365234375 983.1875 982.402221679688 987.652587890625 989.049072265625 990.846862792969 986.976989746094 992.567016601562 988.13818359375 990.486145019531 990.7109375 998.029907226562 1004.17150878906 994.723754882812 990.227722167969 984.895751953125 980.71923828125 975.71044921875 981.282348632812 975.830627441406 979.963806152344 987.264953613281 984.238342285156 990.96826171875 987.562744140625 1005.87274169922 1008.5283203125 1008.57531738281 1003.54895019531 1009.35272216797 1008.83520507812 1013.29937744141 1014.0302734375 1016.81964111328 1008.35815429688 1010.80212402344 1015.61755371094 1014.47094726562 1010.91412353516 1000.66906738281 1002.28472900391 996.828491210938 999.24951171875 995.046691894531 998.094482421875 997.591918945312 1003.97680664062 1017.45648193359 1007.01800537109 1005.04388427734 995.503723144531 984.303649902344 978.369506835938 975.712646484375 971.21142578125 972.189880371094 967.471252441406 974.715698242188 960.655212402344 962.947021484375 965.436462402344 970.644897460938 981.719970703125 981.321166992188 985.325378417969 995.418640136719 1007.52136230469 1018.17291259766 1028.75207519531 1019.97570800781 1023.35217285156 1019.90771484375 1025.53930664062 1035.19104003906 1028.66186523438 1023.69085693359 1022.07763671875 1025.05932617188 1025.21105957031 1023.88623046875 1027.71008300781 1030.40905761719 1033.142578125 1038.66687011719 1049.4345703125 1061.53967285156 1062.59765625 1063.78479003906 1064.5068359375 1074.19677734375 1085.79760742188 1089.32458496094 1094.27331542969 1104.80529785156
962.646606445312 962.377075195312 965.886840820312 961.957458496094 971.676452636719 977.342895507812 968.245300292969 978.230834960938 974.245788574219 967.219909667969 967.719421386719 976.090454101562 982.929870605469 981.353210449219 971.857849121094 959.248291015625 975.061767578125 974.233215332031 966.843933105469 979.186950683594 980.887451171875 980.663208007812 979.746520996094 979.5615234375 986.545104980469 985.094421386719 983.842407226562 975.809143066406 980.791015625 984.225158691406 979.610107421875 988.5927734375 987.113952636719 984.290161132812 976.6103515625 973.46484375 969.970092773438 973.108947753906 982.478088378906 977.482116699219 976.458312988281 979.115905761719 991.551940917969 997.813110351562 982.987060546875 984.82373046875 980.32666015625 975.877502441406 976.999877929688 981.1142578125 980.149719238281 980.426940917969 981.093017578125 972.867919921875 983.863830566406 978.282958984375 974.408996582031 978.925842285156 984.098876953125 985.182312011719 982.13037109375 986.660095214844 984.803100585938 990.706176757812 992.926574707031 992.182678222656 999.425109863281 998.168273925781 1004.94317626953 987.604736328125 983.119995117188 978.129821777344 975.315307617188 976.5107421875 983.311645507812 986.415710449219 980.652465820312 980.465942382812 972.910827636719 979.171508789062 993.225769042969 1005.01080322266 1010.08239746094 1004.10986328125 1006.74780273438 997.11279296875 1008.68786621094 1008.23876953125 1015.47607421875 1016.60424804688 1011.95092773438 1005.31744384766 1018.02398681641 1018.17712402344 1006.85791015625 993.601013183594 990.785766601562 986.096984863281 991.304870605469 992.144897460938 988.724548339844 998.0712890625 1001.33721923828 1004.20904541016 995.656982421875 995.775939941406 989.710327148438 986.862670898438 980.274963378906 985.863403320312 975.811584472656 978.081481933594 970.803466796875 964.988037109375 958.223876953125 958.925109863281 967.125732421875 979.344848632812 991.902587890625 986.325012207031 990.783508300781 994.950134277344 1009.07495117188 1020.15264892578 1019.54711914062 1022.94702148438 1022.951171875 1016.49951171875 1019.83825683594 1021.42498779297 1018.51837158203 1016.78924560547 1017.03924560547 1016.28845214844 1017.93469238281 1021.35150146484 1026.06982421875 1023.90557861328 1031.57751464844 1037.83618164062 1050.25415039062 1063.42053222656 1068.34643554688 1069.67822265625 1063.38073730469 1070.18151855469 1078.71350097656 1088.33752441406 1102.8095703125 1103.46142578125
952.658935546875 957.820556640625 961.934387207031 964.603698730469 968.730651855469 972.079956054688 972.680358886719 972.7802734375 973.853576660156 973.664611816406 968.128173828125 974.64794921875 976.666625976562 971.937133789062 970.466125488281 972.543579101562 976.74365234375 978.05517578125 978.123474121094 981.9697265625 982.160522460938 983.495849609375 971.909790039062 968.6259765625 974.1240234375 985.34423828125 978.836791992188 978.195434570312 984.90771484375 981.819152832031 989.982421875 988.132568359375 978.934326171875 973.469848632812 973.978820800781 971.891662597656 977.357971191406 981.522033691406 988.446594238281 978.956176757812 976.28564453125 977.754699707031 992.355651855469 986.285888671875 986.981872558594 982.864990234375 980.737365722656 976.308044433594 971.901062011719 980.635131835938 982.734985351562 977.839721679688 972.085205078125 973.808349609375 974.896118164062 983.977111816406 978.5673828125 979.818542480469 972.104919433594 974.156616210938 977.643005371094 986.633483886719 982.932067871094 987.244323730469 989.913391113281 991.119750976562 997.7890625 994.856689453125 988.913940429688 976.281066894531 975.889282226562 973.306335449219 971.454284667969 969.724609375 984.908447265625 985.692810058594 983.111633300781 981.583435058594 980.802612304688 983.540588378906 994.385925292969 998.854919433594 1000.43951416016 999.308959960938 1002.23742675781 1008.76324462891 1013.23132324219 1017.46618652344 1024.24377441406 1011.82281494141 1005.71166992188 1006.17041015625 1009.81884765625 1012.48010253906 999.399719238281 996.94287109375 991.337036132812 999.646118164062 993.123046875 996.471008300781 993.419555664062 994.577575683594 997.599304199219 997.046203613281 998.704956054688 988.34619140625 987.877685546875 990.261108398438 985.114501953125 995.503662109375 983.670349121094 983.943725585938 982.560913085938 977.876708984375 967.954528808594 965.110900878906 977.431762695312 995.287109375 998.75 1005.19506835938 999.684387207031 1005.24798583984 1021.048828125 1017.59112548828 1021.74365234375 1016.92944335938 1014.14672851562 1008.13714599609 1010.22088623047 1012.06811523438 1010.42620849609 1014.00897216797 1013.66052246094 1012.31976318359 1016.14617919922 1017.68255615234 1034.5615234375 1036.92175292969 1039.09729003906 1044.94616699219 1054.09741210938 1062.48327636719 1072.43896484375 1080.95275878906 1080.53063964844 1079.20825195312 1083.54296875 1092.76647949219 1100.49450683594 1115.54284667969
946.975952148438 953.936828613281 959.358581542969 966.825927734375 970.78662109375 968.463684082031 967.402404785156 975.648803710938 969.00048828125 965.516967773438 967.585388183594 970.272644042969 978.623474121094 979.773071289062 974.513061523438 979.810607910156 977.378051757812 980.636901855469 976.724853515625 973.021240234375 979.738525390625 982.047912597656 982.935363769531 969.100402832031 971.059204101562 983.625549316406 988.988098144531 983.381652832031 973.870727539062 987.029235839844 990.996704101562 989.251647949219 980.764343261719 973.059692382812 970.026611328125 968.674194335938 975.152648925781 981.054748535156 982.125610351562 975.753723144531 977.711730957031 979.372741699219 984.388061523438 981.008972167969 980.558837890625 977.230285644531 979.869140625 972.113220214844 980.282653808594 979.533020019531 978.630981445312 973.793762207031 966.277709960938 970.02685546875 978.943359375 976.624328613281 979.371398925781 979.631408691406 972.109985351562 971.802001953125 972.579711914062 982.665710449219 982.108825683594 985.877258300781 985.388488769531 988.90869140625 993.977600097656 993.527099609375 987.441711425781 966.121398925781 970.6240234375 975.435974121094 975.833312988281 975.244323730469 985.682556152344 992.923461914062 981.5146484375 984.457824707031 987.573059082031 984.767456054688 991.123718261719 993.174072265625 999.81005859375 1000.04821777344 1006.20837402344 1006.02093505859 1012.10241699219 1013.36010742188 1017.98760986328 1009.40539550781 1009.26727294922 1006.13763427734 1003.47790527344 1008.14764404297 1011.84240722656 1000.24139404297 1000.30450439453 992.955200195312 995.03271484375 999.786193847656 990.862976074219 1000.49945068359 988.525085449219 990.071166992188 1002.50677490234 988.623352050781 989.568481445312 994.809509277344 992.580078125 986.560424804688 990.269775390625 997.2216796875 992.467346191406 976.65576171875 972.518737792969 978.693115234375 989.385131835938 1002.99670410156 1007.86968994141 1014.70275878906 1016.32635498047 1017.41973876953 1010.74829101562 1008.90441894531 1005.23693847656 1018.67059326172 1010.77838134766 1001.32189941406 1010.2587890625 1008.44848632812 1003.75811767578 1009.64617919922 1008.59027099609 1015.29113769531 1022.24792480469 1017.02990722656 1032.51428222656 1040.66223144531 1045.14575195312 1050.07055664062 1053.48034667969 1070.62231445312 1073.86389160156 1090.40258789062 1088.49072265625 1082.580078125 1087.27111816406 1095.50720214844 1099.43859863281 1106.607421875
957.666015625 955.21484375 956.708923339844 961.749572753906 967.820678710938 979.104370117188 971.091247558594 971.961730957031 968.092895507812 967.330627441406 970.81591796875 972.814819335938 977.219543457031 978.985107421875 980.375061035156 975.94970703125 970.101440429688 974.888916015625 970.8046875 981.607299804688 988.633911132812 988.77099609375 982.898742675781 982.719360351562 978.284973144531 977.561096191406 983.2080078125 979.609924316406 979.117248535156 987.969604492188 981.726745605469 973.588562011719 974.075012207031 976.469299316406 969.528991699219 971.1787109375 981.863403320312 979.688659667969 973.565246582031 977.216674804688 982.787353515625 976.313354492188 977.799499511719 976.842651367188 976.682495117188 975.998718261719 971.948181152344 976.117370605469 976.331909179688 980.084899902344 968.725646972656 968.952026367188 974.122253417969 975.162292480469 968.973083496094 979.655029296875 981.653625488281 978.859252929688 965.521667480469 983.31982421875 981.826110839844 976.618591308594 977.891662597656 977.292541503906 988.052307128906 995.726867675781 990.233093261719 978.517761230469 982.732849121094 967.850402832031 973.42236328125 983.171081542969 981.387268066406 983.841491699219 984.826538085938 993.872924804688 985.168884277344 985.334655761719 985.178283691406 987.717041015625 978.682983398438 979.862121582031 998.156005859375 1000.86010742188 1007.94738769531 1001.78900146484 1007.36517333984 997.361999511719 1004.77734375 1004.61810302734 1005.73724365234 1006.19366455078 1006.0029296875 1003.92059326172 994.929382324219 993.426818847656 998.615966796875 1000.90856933594 990.540161132812 989.289245605469 995.3994140625 996.620056152344 994.113098144531 996.045349121094 990.982971191406 983.391784667969 989.019470214844 989.331665039062 988.302856445312 987.890686035156 987.264770507812 996.176208496094 996.787475585938 990.623352050781 1001.15002441406 987.485595703125 994.465209960938 1000.29644775391 1001.81726074219 1016.19342041016 1015.47918701172 1010.66857910156 1007.52008056641 1009.70654296875 1002.43609619141 1012.91363525391 1010.17266845703 1002.65661621094 1011.3056640625 1006.18627929688 1008.75256347656 1011.15521240234 1012.63568115234 1014.83410644531 1015.77239990234 1019.61865234375 1033.16479492188 1047.06689453125 1056.97399902344 1052.39318847656 1060.27185058594 1072.5986328125 1082.73901367188 1093.3037109375 1094.09216308594 1098.25085449219 1097.09509277344 1100.98937988281 1108.40368652344 1119.10241699219
949.764892578125 959.092102050781 962.404479980469 973.654357910156 974.304626464844 975.119262695312 972.569580078125 969.926574707031 973.472595214844 969.505554199219 970.024536132812 972.863159179688 969.325988769531 971.913879394531 976.956726074219 976.920349121094 969.447875976562 974.945373535156 976.076293945312 980.7666015625 982.026672363281 982.994445800781 976.113098144531 974.714965820312 973.131042480469 973.989990234375 963.67236328125 971.0732421875 973.244201660156 979.735717773438 972.310180664062 975.738891601562 973.558288574219 976.587707519531 969.8955078125 970.235107421875 969.868774414062 982.52099609375 973.607727050781 978.796691894531 979.163330078125 978.294799804688 970.467346191406 969.827453613281 976.16796875 966.536987304688 967.592163085938 972.276306152344 970.762329101562 968.717407226562 972.204711914062 974.557434082031 974.338806152344 973.373291015625 983.288146972656 976.866088867188 969.626647949219 976.684204101562 971.620849609375 968.929016113281 977.229431152344 979.153015136719 984.044738769531 983.208190917969 991.879760742188 991.415649414062 992.014831542969 977.964477539062 979.401306152344 972.643798828125 977.810180664062 979.726440429688 997.011962890625 985.608581542969 982.412841796875 980.877380371094 982.986999511719 990.209228515625 987.194091796875 981.321044921875 977.868041992188 978.779479980469 995.114929199219 1000.82659912109 1000.32769775391 996.290405273438 992.478332519531 997.881591796875 998.256896972656 1001.27630615234 1002.59674072266 1001.25238037109 997.655395507812 1000.78369140625 1002.38146972656 994.8134765625 1002.99798583984 995.794128417969 989.926940917969 994.08544921875 991.744873046875 1004.20672607422 989.319152832031 984.402770996094 986.468444824219 986.571594238281 980.472900390625 980.109558105469 983.377868652344 991.491394042969 990.340393066406 993.480773925781 998.880493164062 997.194946289062 1003.81298828125 996.847595214844 994.049560546875 985.418762207031 1000.75836181641 1007.60070800781 1014.70983886719 1012.69805908203 1016.03240966797 1015.57690429688 1007.62194824219 1011.75897216797 1008.93377685547 1010.97888183594 1007.46362304688 1014.63305664062 1013.76391601562 1018.61480712891 1018.84399414062 1012.27221679688 1026.40405273438 1033.92236328125 1037.12463378906 1046.42236328125 1057.07922363281 1059.43896484375 1067.71154785156 1068.85827636719 1077.09118652344 1095.25439453125 1095.56823730469 1098.95727539062 1108.27990722656 1116.57092285156 1132.88305664062 1130.9248046875
960.447143554688 956.24072265625 959.869445800781 976.254821777344 973.463928222656 974.053100585938 977.521667480469 974.166320800781 976.121337890625 974.333251953125 966.117004394531 968.742919921875 973.378723144531 965.712341308594 965.994873046875 975.634216308594 971.111022949219 981.108032226562 978.722778320312 982.829650878906 978.65673828125 977.630126953125 975.043823242188 973.705505371094 971.790100097656 964.183837890625 961.730285644531 970.927001953125 972.060607910156 974.855834960938 978.364074707031 973.49853515625 977.082458496094 970.687866210938 975.982666015625 981.475158691406 981.697998046875 969.535400390625 966.935363769531 971.004272460938 966.08056640625 971.30712890625 977.174621582031 964.989868164062 971.547973632812 971.409973144531 970.049011230469 963.974914550781 968.363525390625 976.233215332031 980.325134277344 978.104309082031 976.947570800781 979.517456054688 977.389892578125 969.407592773438 967.706481933594 968.240844726562 968.713989257812 968.365661621094 975.585876464844 984.440185546875 984.849853515625 980.843505859375 990.291625976562 993.657348632812 992.272644042969 984.557983398438 986.884033203125 980.175354003906 975.105346679688 970.882507324219 983.1982421875 984.711486816406 983.001342773438 978.237060546875 983.537292480469 983.370666503906 983.935424804688 980.822326660156 979.489074707031 990.0478515625 991.824768066406 1000.88873291016 1000.74194335938 991.754638671875 988.761169433594 992.805725097656 988.605346679688 984.432983398438 991.099548339844 999.830139160156 992.887817382812 991.93212890625 994.291198730469 996.8515625 1008.40277099609 1005.74572753906 998.437561035156 990.349304199219 1002.8583984375 983.851989746094 986.041198730469 987.623901367188 988.211181640625 992.549743652344 991.320007324219 992.46044921875 993.557678222656 996.2412109375 998.829772949219 999.8759765625 997.42578125 1002.98309326172 997.240600585938 1008.38513183594 1007.31103515625 1005.26422119141 1000.04034423828 1007.91302490234 1009.09783935547 1008.08386230469 1010.95782470703 1008.32580566406 1010.07507324219 1010.14166259766 1003.734375 1006.57751464844 998.046630859375 1015.61187744141 1019.82550048828 1020.59301757812 1019.87243652344 1023.45385742188 1033.2412109375 1034.90869140625 1047.701171875 1048.11267089844 1063.26708984375 1066.43762207031 1079.3076171875 1080.81604003906 1086.5087890625 1088.67980957031 1103.9150390625 1114.75903320312 1122.39794921875 1134.54174804688 1134.98364257812 1134.35913085938
958.351318359375 965.227416992188 961.524780273438 972.483276367188 976.792053222656 968.655456542969 971.598571777344 961.434509277344 962.423156738281 966.00927734375 966.510498046875 965.303894042969 970.308471679688 963.601684570312 971.753479003906 974.663269042969 975.085388183594 979.01513671875 975.026489257812 979.293823242188 984.230590820312 982.622802734375 984.59033203125 974.1298828125 971.814147949219 972.900329589844 971.06591796875 972.630798339844 970.017700195312 967.153442382812 971.997924804688 972.771057128906 969.821960449219 974.850219726562 981.740600585938 976.463623046875 983.427429199219 977.090637207031 977.885131835938 973.237548828125 973.147155761719 966.9287109375 964.404479980469 961.962158203125 967.943725585938 973.1123046875 968.829040527344 962.589782714844 971.727783203125 977.549560546875 974.773864746094 979.792785644531 974.592468261719 975.081115722656 975.660400390625 975.851379394531 961.456604003906 966.751281738281 974.374084472656 978.867126464844 985.559143066406 984.219177246094 984.489501953125 974.524780273438 978.38525390625 975.587341308594 981.573608398438 991.755859375 995.249450683594 984.588256835938 975.540832519531 980.200012207031 971.132141113281 975.864868164062 978.35498046875 975.277770996094 976.955261230469 988.0078125 982.611694335938 981.70849609375 985.00341796875 990.218627929688 995.882263183594 992.360534667969 995.774719238281 989.204284667969 985.938720703125 992.996215820312 990.67578125 986.447326660156 981.240234375 990.6484375 984.537475585938 982.657165527344 989.509826660156 998.234375 993.985778808594 996.484008789062 999.482116699219 994.702087402344 999.381164550781 986.751831054688 984.772521972656 992.821105957031 986.54345703125 988.228759765625 994.036193847656 997.5634765625 1003.72174072266 999.835083007812 993.571166992188 1001.78503417969 1001.09820556641 1004.89819335938 999.850280761719 993.287048339844 1004.21301269531 997.532165527344 1007.33306884766 1001.65997314453 1005.10192871094 1005.92327880859 1008.41284179688 1006.55895996094 1002.93621826172 1009.55364990234 1006.75463867188 1010.84832763672 1002.64398193359 1016.50262451172 1015.38830566406 1026.54846191406 1020.19250488281 1032.97387695312 1033.42346191406 1031.49682617188 1049.13659667969 1048.74279785156 1061.95776367188 1068.84057617188 1074.66394042969 1084.203125 1091.76354980469 1105.21484375 1115.06689453125 1121.58312988281 1129.9013671875 1137.248046875 1134.77587890625 1132.84033203125
960.193908691406 960.010620117188 965.817504882812 961.063415527344 957.673645019531 961.112060546875 959.581726074219 962.208312988281 952.282775878906 960.240295410156 965.989379882812 974.06640625 967.411254882812 965.984985351562 973.648803710938 979.928161621094 973.961608886719 983.29052734375 980.79541015625 979.113403320312 990.748291015625 986.457641601562 990.406799316406 977.3857421875 979.026794433594 972.317443847656 971.160278320312 978.030456542969 970.304077148438 971.459106445312 975.366088867188 971.053955078125 969.506164550781 975.003784179688 983.220031738281 982.552429199219 985.12353515625 987.554443359375 980.802429199219 977.182495117188 972.745910644531 970.191345214844 966.254821777344 966.23681640625 971.68701171875 969.418090820312 962.079711914062 969.731994628906 970.767944335938 966.360168457031 980.238037109375 982.770690917969 977.176940917969 972.42041015625 971.142272949219 969.085632324219 965.881713867188 974.768432617188 984.26123046875 984.361999511719 982.923828125 978.365112304688 977.972229003906 975.800720214844 968.595031738281 969.291320800781 973.166931152344 973.273315429688 990.116516113281 981.117858886719 979.3203125 972.380126953125 967.632995605469 970.586669921875 974.386657714844 974.237182617188 976.812866210938 984.884033203125 980.65087890625 976.871398925781 981.36669921875 989.353881835938 990.442138671875 992.978759765625 991.45458984375 995.03271484375 994.754821777344 1000.26019287109 994.417419433594 985.409301757812 991.11767578125 987.701477050781 985.723754882812 984.5869140625 985.266296386719 993.583312988281 996.310119628906 999.117797851562 996.495300292969 988.165100097656 993.108276367188 992.192199707031 980.2607421875 983.016052246094 984.189147949219 989.422668457031 985.386413574219 1000.69555664062 1004.10974121094 1001.16845703125 995.708862304688 992.063049316406 1002.74053955078 995.083801269531 999.593444824219 993.652465820312 993.53125 999.620910644531 999.279541015625 1006.4296875 1010.06048583984 1009.49530029297 1000.58166503906 1003.00622558594 992.461059570312 1002.70184326172 1012.15081787109 1017.04418945312 1014.18817138672 1016.84136962891 1018.61999511719 1024.24255371094 1029.67846679688 1032.39440917969 1037.2197265625 1040.26403808594 1040.68603515625 1050.37573242188 1062.05017089844 1069.76086425781 1068.62280273438 1083.87548828125 1098.65490722656 1112.56884765625 1115.44750976562 1125.41320800781 1137.4091796875 1145.54064941406 1153.26782226562 1139.97241210938
948.998352050781 964.773376464844 959.005859375 960.613464355469 954.676818847656 955.751220703125 955.8818359375 961.122436523438 957.632385253906 956.819396972656 962.26611328125 967.803771972656 975.767639160156 968.556030273438 970.452331542969 980.707336425781 973.300231933594 983.100646972656 976.725280761719 987.225402832031 992.131774902344 992.261413574219 986.057800292969 978.469909667969 977.110412597656 970.124755859375 967.45263671875 973.322448730469 975.997192382812 977.283874511719 977.465698242188 975.918395996094 975.325561523438 981.670288085938 989.625732421875 989.346069335938 980.9033203125 980.506286621094 976.894958496094 976.16796875 978.363525390625 965.856689453125 965.275085449219 969.889343261719 968.685485839844 971.527893066406 969.286193847656 967.546142578125 971.911926269531 976.877197265625 979.887268066406 984.562805175781 980.351928710938 971.668334960938 966.981201171875 972.672546386719 974.976867675781 977.03271484375 980.203002929688 975.64794921875 983.948364257812 981.170166015625 975.549865722656 970.598083496094 964.414855957031 978.019226074219 973.170349121094 976.546020507812 985.169860839844 983.287902832031 985.536926269531 976.210693359375 976.300842285156 971.586547851562 977.300354003906 974.627197265625 974.083312988281 971.731201171875 979.216552734375 971.758117675781 979.120239257812 977.340759277344 980.205932617188 989.038513183594 989.7119140625 989.069946289062 989.681884765625 991.655517578125 997.520812988281 982.009216308594 981.268005371094 986.958862304688 978.466064453125 972.758605957031 973.182678222656 986.928833007812 988.260986328125 995.888000488281 991.644165039062 995.225341796875 993.07470703125 996.550659179688 994.133911132812 988.430541992188 988.828735351562 984.722229003906 983.283203125 992.728088378906 995.980773925781 996.86865234375 994.792297363281 1001.60845947266 1003.54779052734 998.646240234375 993.822448730469 980.913391113281 987.966003417969 994.640991210938 998.666748046875 1007.55004882812 1005.14337158203 994.632263183594 1004.82806396484 1003.29248046875 999.625549316406 1004.59301757812 1005.79547119141 1021.21661376953 1018.67309570312 1025.4580078125 1038.41296386719 1045.08044433594 1049.69873046875 1041.60009765625 1044.61547851562 1040.40686035156 1043.8681640625 1049.47119140625 1059.7265625 1067.19226074219 1070.49475097656 1085.41943359375 1100.361328125 1110.70690917969 1124.18273925781 1131.05456542969 1140.71325683594 1156.28466796875 1157.09326171875 1149.96313476562
943.474426269531 948.029663085938 955.6474609375 959.101989746094 956.309204101562 959.706298828125 958.929748535156 962.248229980469 960.316223144531 957.503112792969 978.200866699219 971.617553710938 973.262756347656 968.7978515625 972.402770996094 972.951721191406 979.393981933594 978.299987792969 979.411865234375 983.239379882812 982.617492675781 991.630310058594 981.659484863281 982.348876953125 969.361999511719 975.225219726562 980.595153808594 968.972106933594 976.902282714844 980.892822265625 971.146484375 971.705688476562 972.449645996094 982.020446777344 978.640808105469 988.414794921875 983.0771484375 980.53759765625 981.595336914062 978.310180664062 979.928649902344 961.33056640625 965.229064941406 961.440979003906 971.241027832031 965.159912109375 974.53857421875 964.876647949219 970.309692382812 976.104248046875 977.528198242188 976.489624023438 978.904968261719 977.007141113281 975.800476074219 971.149108886719 966.754577636719 969.83447265625 970.439331054688 980.372314453125 974.608581542969 971.764770507812 965.058349609375 966.59521484375 965.688049316406 974.162658691406 978.914794921875 974.132690429688 978.548461914062 981.052917480469 979.540161132812 983.771789550781 977.166809082031 965.458679199219 971.471557617188 972.372314453125 970.509460449219 969.586791992188 975.83837890625 976.608032226562 979.057373046875 971.979675292969 979.50537109375 980.53466796875 981.054504394531 990.493225097656 991.578491210938 986.58251953125 986.2138671875 976.281555175781 979.752868652344 984.174499511719 975.245239257812 973.611572265625 974.026245117188 979.818664550781 979.807495117188 983.7734375 984.978515625 994.362426757812 992.288696289062 1000.00225830078 995.880126953125 980.664672851562 981.137878417969 983.087158203125 978.788024902344 985.033813476562 977.224548339844 991.007202148438 994.9091796875 999.042785644531 994.12255859375 990.184509277344 986.419067382812 987.628540039062 995.551208496094 995.903686523438 996.686645507812 1001.26672363281 1003.47869873047 991.578308105469 993.335021972656 993.044799804688 1001.11749267578 1005.20343017578 1023.39453125 1028.63806152344 1029.44274902344 1046.96569824219 1057.36352539062 1061.57336425781 1062.1767578125 1062.0380859375 1053.49426269531 1051.60339355469 1060.7451171875 1062.88549804688 1062.34118652344 1061.39587402344 1073.30102539062 1083.79125976562 1094.01550292969 1114.49816894531 1124.32629394531 1125.2314453125 1135.318359375 1152.54809570312 1152.826171875 1146.54284667969
946.3291015625 951.579467773438 948.427368164062 956.198791503906 952.755615234375 954.682067871094 960.938171386719 963.954650878906 957.747131347656 966.360290527344 967.911193847656 976.762939453125 975.69287109375 977.313781738281 977.93212890625 986.849792480469 974.968566894531 978.32470703125 977.970947265625 981.466003417969 982.240844726562 985.643005371094 980.382507324219 975.421508789062 965.538513183594 976.743896484375 978.662475585938 972.559326171875 979.2373046875 976.599670410156 974.890747070312 970.658508300781 967.964294433594 971.176025390625 972.014465332031 984.869934082031 974.099365234375 975.670715332031 974.459167480469 968.506042480469 972.280700683594 965.721923828125 971.437133789062 967.933044433594 963.439086914062 970.524658203125 967.446533203125 970.285766601562 978.663635253906 976.878234863281 977.960876464844 966.222778320312 967.389770507812 967.868347167969 968.528137207031 966.727478027344 968.042114257812 969.023254394531 969.88720703125 976.923461914062 974.465515136719 973.164184570312 974.203063964844 978.346801757812 971.284423828125 968.544372558594 969.542053222656 976.378051757812 975.136169433594 982.419372558594 972.359924316406 976.266357421875 973.243530273438 972.544494628906 966.496459960938 961.667724609375 959.36083984375 970.968139648438 978.856018066406 977.391967773438 974.770141601562 970.648620605469 973.068237304688 979.093994140625 982.496337890625 985.127258300781 983.129821777344 986.113159179688 982.56787109375 970.456237792969 967.402099609375 981.087890625 971.291198730469 973.952270507812 975.332214355469 980.467895507812 978.640930175781 975.917907714844 985.536376953125 994.665588378906 999.453186035156 994.580444335938 983.876953125 984.472045898438 978.2822265625 980.077392578125 974.732238769531 979.564636230469 984.174438476562 990.549255371094 989.418579101562 995.445495605469 997.413879394531 992.757629394531 985.241455078125 983.627258300781 993.332580566406 995.730712890625 990.979431152344 994.173034667969 1000.04516601562 995.412963867188 993.51708984375 995.964233398438 1005.81256103516 1011.41912841797 1020.87921142578 1036.68627929688 1049.69250488281 1058.13134765625 1066.876953125 1066.82336425781 1064.57788085938 1064.83178710938 1059.66955566406 1064.61608886719 1062.84887695312 1058.38513183594 1065.5244140625 1060.90612792969 1077.96801757812 1089.45922851562 1094.79296875 1107.84582519531 1108.32568359375 1127.28820800781 1138.36047363281 1156.5947265625 1161.78881835938 1163.63256835938
951.504455566406 944.966979980469 950.88427734375 954.714111328125 957.765869140625 958.47998046875 959.512084960938 965.291198730469 965.747680664062 971.756164550781 972.130737304688 971.898620605469 967.880310058594 981.547424316406 979.089477539062 984.577697753906 973.460083007812 970.245849609375 970.012145996094 979.9130859375 987.681213378906 981.229370117188 974.382751464844 965.850708007812 960.097778320312 977.404479980469 970.927490234375 976.327453613281 987.628051757812 979.714965820312 981.789123535156 972.088195800781 975.554626464844 972.930114746094 969.724853515625 970.241088867188 964.357727050781 965.670837402344 972.799621582031 976.602905273438 970.1259765625 967.96875 964.24853515625 968.008239746094 970.169250488281 968.133972167969 961.286926269531 958.780395507812 974.244384765625 973.264892578125 969.390441894531 967.500183105469 962.898620605469 964.6689453125 967.007995605469 965.453674316406 963.114440917969 959.025512695312 967.8193359375 967.715393066406 975.605529785156 970.973876953125 969.449157714844 976.60888671875 981.309020996094 975.143798828125 982.414245605469 985.835021972656 976.145629882812 978.255859375 974.701110839844 966.523010253906 958.208557128906 962.175842285156 969.8408203125 970.968383789062 970.058471679688 970.564697265625 977.827453613281 979.003662109375 971.187072753906 962.36474609375 957.071166992188 964.309875488281 976.039855957031 975.612976074219 977.945983886719 973.642456054688 976.252014160156 982.509094238281 974.818054199219 969.979309082031 970.287780761719 971.758361816406 976.950073242188 986.484313964844 980.305053710938 981.501159667969 987.226745605469 988.582336425781 989.888549804688 989.83349609375 980.907409667969 989.379943847656 976.733520507812 983.197998046875 975.8369140625 978.0166015625 982.616882324219 996.500122070312 997.65576171875 993.622314453125 992.005187988281 980.539428710938 980.79931640625 988.254089355469 997.407836914062 1001.89392089844 1001.14031982422 993.455627441406 1005.41229248047 1004.48547363281 1003.13763427734 1013.45159912109 1012.66229248047 1014.28302001953 1025.60107421875 1045.13342285156 1059.09936523438 1064.31884765625 1074.27526855469 1074.99499511719 1081.71423339844 1079.37915039062 1080.69763183594 1074.85876464844 1078.1328125 1074.13928222656 1071.93933105469 1068.9365234375 1078.93115234375 1094.98229980469 1107.59448242188 1109.72155761719 1116.00817871094 1137.93579101562 1144.83837890625 1171.35778808594 1171.02111816406 1166.94677734375
957.286315917969 946.559753417969 953.400329589844 951.932006835938 958.242553710938 967.32470703125 961.850280761719 961.335754394531 964.183715820312 972.8037109375 971.577209472656 967.265686035156 972.890380859375 976.6552734375 980.986572265625 989.727294921875 975.70849609375 973.528747558594 975.064453125 979.435363769531 974.30126953125 969.571044921875 969.257873535156 964.816284179688 960.969360351562 967.546630859375 960.579223632812 970.478088378906 979.983154296875 989.10400390625 978.04541015625 970.1103515625 976.824340820312 974.557983398438 968.190734863281 969.102172851562 968.861022949219 969.984741210938 968.336303710938 969.956909179688 966.805847167969 967.058044433594 968.830017089844 961.952453613281 968.105163574219 961.526000976562 957.317932128906 958.298645019531 964.406921386719 971.193481445312 974.870361328125 968.009643554688 968.214721679688 966.455505371094 951.134704589844 955.273315429688 950.29248046875 961.887512207031 964.552673339844 970.520690917969 970.843627929688 971.371398925781 975.385192871094 984.721862792969 977.597045898438 964.922973632812 967.498718261719 975.655395507812 981.306396484375 971.862426757812 966.9365234375 961.481201171875 963.14501953125 964.538208007812 964.861083984375 967.510375976562 970.604553222656 970.1982421875 977.201965332031 976.96630859375 976.085327148438 968.8876953125 964.521911621094 963.554016113281 971.160095214844 975.658630371094 976.762084960938 971.965942382812 970.810729980469 972.269897460938 974.540222167969 973.884521484375 970.767028808594 971.397827148438 974.907531738281 979.131713867188 974.175537109375 974.126647949219 991.881591796875 1002.65948486328 985.603759765625 978.103393554688 973.586242675781 982.101318359375 992.072875976562 984.713928222656 983.285217285156 983.679260253906 985.135803222656 983.207580566406 993.00830078125 999.614074707031 996.424072265625 999.125793457031 983.490661621094 988.750732421875 999.300720214844 999.905029296875 1007.66815185547 1002.31585693359 1017.22344970703 1010.75598144531 1008.34039306641 1023.13787841797 1028.9384765625 1025.265625 1038.12951660156 1043.13757324219 1059.02453613281 1065.08959960938 1070.69421386719 1082.08068847656 1086.90185546875 1086.7568359375 1086.35083007812 1093.18127441406 1084.15002441406 1083.25073242188 1079.84704589844 1085.04553222656 1086.62487792969 1100.54467773438 1113.28234863281 1117.07971191406 1127.85461425781 1139.34143066406 1149.60998535156 1168.59484863281 1163.87683105469 1162.37109375
947.608520507812 949.6826171875 943.421020507812 949.515563964844 959.121215820312 970.749389648438 966.545837402344 963.740417480469 965.041564941406 966.044555664062 968.321411132812 968.317321777344 978.755187988281 977.842529296875 975.329223632812 973.650939941406 977.35302734375 977.207824707031 978.539733886719 973.226989746094 970.824157714844 963.87744140625 967.372741699219 962.202697753906 966.532165527344 964.240539550781 960.969665527344 962.731506347656 970.482238769531 977.100952148438 972.3916015625 969.757202148438 970.479675292969 969.583190917969 969.910278320312 970.544006347656 971.142150878906 966.585876464844 970.043823242188 960.285217285156 968.936340332031 970.557189941406 962.421997070312 957.747192382812 963.277160644531 962.254089355469 962.677917480469 954.80517578125 955.184387207031 963.543701171875 975.4755859375 966.787902832031 971.091674804688 965.100280761719 958.736022949219 957.458679199219 951.373962402344 967.420837402344 963.1728515625 969.517883300781 966.055786132812 970.409362792969 970.244567871094 970.430603027344 973.713989257812 960.49365234375 966.404418945312 967.045654296875 975.575988769531 969.278503417969 973.641723632812 966.590087890625 956.243835449219 955.299194335938 965.844116210938 973.759704589844 976.029663085938 971.449890136719 972.547607421875 971.211975097656 976.126281738281 966.406555175781 955.891662597656 965.918823242188 970.795471191406 969.996459960938 969.184936523438 967.026489257812 970.161376953125 968.916259765625 973.394897460938 974.639587402344 969.006103515625 975.042907714844 970.441345214844 977.192077636719 979.811889648438 972.854736328125 984.069763183594 992.579284667969 991.249816894531 973.097961425781 982.431274414062 986.639099121094 987.177307128906 993.408752441406 983.021850585938 977.687255859375 981.780639648438 992.429748535156 995.523498535156 993.423522949219 1001.73425292969 996.295837402344 997.254760742188 1000.57885742188 1000.38372802734 1007.25732421875 1008.47778320312 1015.50903320312 1022.6943359375 1017.32830810547 1019.49298095703 1029.67224121094 1037.10510253906 1034.90966796875 1047.07434082031 1052.9921875 1059.61303710938 1057.43518066406 1066.64379882812 1073.61474609375 1078.14172363281 1083.126953125 1087.83605957031 1096.88598632812 1091.23474121094 1084.99572753906 1078.74682617188 1084.50158691406 1103.18371582031 1108.08630371094 1115.18994140625 1111.62939453125 1120.65991210938 1135.55676269531 1144.54943847656 1155.31555175781 1156.28588867188 1162.93395996094
941.559265136719 950.428527832031 953.495849609375 954.303161621094 965.3701171875 963.186706542969 967.227478027344 964.820434570312 965.098449707031 975.023010253906 970.867248535156 968.33349609375 979.380493164062 980.960754394531 979.491271972656 975.661071777344 976.974609375 983.973571777344 974.545166015625 980.205261230469 974.543701171875 970.102172851562 963.045532226562 969.068725585938 966.802062988281 964.91455078125 967.598083496094 970.537475585938 970.578674316406 969.507995605469 975.413879394531 978.573486328125 970.985046386719 970.012573242188 973.647094726562 969.377258300781 960.818542480469 970.131958007812 964.042297363281 958.618408203125 955.866882324219 968.0166015625 958.965637207031 961.224487304688 960.974609375 960.602661132812 958.604919433594 953.928894042969 962.867919921875 969.928405761719 962.6337890625 960.566711425781 970.081359863281 968.759460449219 966.256958007812 955.280151367188 960.426147460938 964.123413085938 974.03466796875 966.980834960938 959.359924316406 970.869567871094 976.711730957031 974.710754394531 969.514099121094 966.606994628906 969.103820800781 961.628845214844 962.026977539062 967.005920410156 972.72607421875 971.869934082031 962.661315917969 957.752746582031 965.193786621094 975.378479003906 977.351684570312 983.522766113281 974.157348632812 972.796936035156 972.808410644531 962.276306152344 967.39697265625 963.090393066406 964.345153808594 968.360534667969 964.257202148438 965.68701171875 965.620056152344 965.01318359375 973.231994628906 973.995300292969 975.080810546875 972.195251464844 968.082885742188 978.210510253906 980.166809082031 984.153442382812 985.424865722656 990.176696777344 979.90673828125 981.958129882812 984.602905273438 988.921508789062 992.214599609375 994.482971191406 990.409118652344 1003.13323974609 991.834289550781 993.929931640625 1000.03192138672 998.67431640625 989.092102050781 992.351318359375 1000.44061279297 1001.50164794922 1008.71215820312 1015.75549316406 1009.79284667969 1018.27111816406 1016.19293212891 1025.16955566406 1021.69152832031 1040.67602539062 1035.65966796875 1030.82421875 1048.736328125 1049.22839355469 1054.12316894531 1055.32348632812 1057.82702636719 1071.97900390625 1081.43420410156 1078.92614746094 1082.12548828125 1097.73266601562 1094.95654296875 1082.54052734375 1082.13793945312 1084.73937988281 1102.60485839844 1108.83471679688 1114.66455078125 1112.33227539062 1125.48229980469 1133.3779296875 1136.91870117188 1148.35888671875 1159.23669433594 1161.01147460938
945.341552734375 954.203796386719 954.803771972656 954.613952636719 964.616516113281 958.109252929688 966.333923339844 963.25830078125 958.736328125 965.963989257812 969.971801757812 966.834167480469 969.882629394531 972.468078613281 975.763122558594 978.233032226562 978.338623046875 981.486877441406 976.424926757812 984.674621582031 976.082092285156 970.884582519531 959.908142089844 967.304321289062 966.565673828125 961.771484375 962.996215820312 972.196594238281 986.844543457031 972.451843261719 975.7861328125 983.21435546875 979.143432617188 969.446350097656 967.769653320312 971.746398925781 963.472229003906 970.538330078125 965.998718261719 959.223571777344 955.529663085938 960.419311523438 959.171997070312 960.832946777344 957.59521484375 956.100341796875 957.858520507812 964.750061035156 965.867065429688 966.60498046875 963.033813476562 956.562622070312 959.60498046875 965.635070800781 962.388122558594 961.979797363281 960.355407714844 958.606811523438 957.736267089844 957.831726074219 962.272094726562 966.142639160156 983.4365234375 977.314636230469 969.73974609375 973.093872070312 966.265075683594 957.410522460938 960.965576171875 961.587707519531 967.018310546875 959.983459472656 965.024047851562 967.445068359375 967.255554199219 962.542236328125 970.190612792969 975.199768066406 971.842956542969 969.039001464844 979.682983398438 971.39208984375 967.735717773438 967.34716796875 964.662963867188 971.8056640625 968.585693359375 968.938110351562 963.46435546875 964.485595703125 968.384826660156 969.541870117188 975.630798339844 976.645263671875 971.894409179688 974.648803710938 978.93408203125 981.052673339844 988.164367675781 989.204895019531 989.911682128906 987.096374511719 990.075805664062 986.630187988281 989.885070800781 985.14306640625 990.426879882812 993.626647949219 1001.73126220703 1004.45739746094 993.478698730469 996.971252441406 997.300720214844 997.952941894531 996.248229980469 1005.63818359375 1006.35064697266 1018.00653076172 1018.67834472656 1017.23577880859 1019.46984863281 1026.98999023438 1031.21740722656 1034.57104492188 1039.41418457031 1032.72570800781 1036.31469726562 1047.08483886719 1050.38354492188 1055.78063964844 1060.32287597656 1071.73669433594 1079.67102050781 1084.81970214844 1086.6328125 1085.28210449219 1091.65686035156 1093.53076171875 1089.71850585938 1089.81860351562 1108.09106445312 1106.93054199219 1109.42687988281 1117.96545410156 1125.68786621094 1129.79211425781 1137.13610839844 1147.95056152344 1150.54931640625 1161.52954101562
948.141967773438 948.003356933594 954.280212402344 962.043090820312 957.190368652344 961.49658203125 959.893981933594 959.37109375 963.762329101562 964.040954589844 972.230529785156 973.136657714844 975.052062988281 964.462219238281 966.89794921875 978.711059570312 975.628967285156 975.423645019531 981.740478515625 978.815612792969 974.947692871094 963.019836425781 962.005981445312 964.741394042969 969.63427734375 968.139099121094 966.5234375 967.447265625 983.365783691406 980.320251464844 980.376586914062 988.874267578125 986.051635742188 980.575012207031 970.970947265625 968.51123046875 967.82861328125 961.914184570312 960.771362304688 963.637145996094 962.086975097656 960.959045410156 957.939758300781 955.623413085938 959.958862304688 954.189514160156 955.090087890625 972.379821777344 975.227783203125 972.009216308594 965.45263671875 963.632385253906 959.797729492188 965.325805664062 970.772277832031 967.514831542969 960.293029785156 957.029602050781 949.234375 954.878662109375 956.894226074219 965.982116699219 968.6494140625 963.139282226562 966.997436523438 966.876220703125 972.489562988281 963.065368652344 951.523803710938 968.774291992188 957.653625488281 961.267272949219 961.609436035156 963.203308105469 959.951782226562 968.189331054688 966.53369140625 973.572875976562 964.634826660156 964.920837402344 965.036499023438 972.759094238281 971.325744628906 965.732482910156 963.638366699219 970.885498046875 961.5087890625 965.362487792969 970.899169921875 969.23486328125 965.324951171875 969.781982421875 982.805358886719 975.645263671875 978.596069335938 974.117370605469 979.410400390625 982.528686523438 989.578308105469 992.222961425781 988.216674804688 984.883666992188 978.619995117188 983.050964355469 996.142761230469 993.705383300781 987.74755859375 983.979858398438 995.892944335938 990.987121582031 991.744445800781 997.377685546875 997.084838867188 998.319396972656 997.392639160156 1008.79736328125 1017.91497802734 1017.12908935547 1018.76013183594 1021.45086669922 1021.33221435547 1032.30358886719 1028.5 1037.34729003906 1036.06237792969 1029.55041503906 1033.32043457031 1045.18493652344 1049.166015625 1062.5 1063.16687011719 1077.87292480469 1085.71472167969 1086.59216308594 1081.56884765625 1088.16735839844 1084.52673339844 1099.78186035156 1097.30993652344 1094.12805175781 1102.66040039062 1109.39404296875 1102.38647460938 1110.78344726562 1112.62255859375 1121.93896484375 1132.08801269531 1138.67639160156 1146.36279296875 1153.37915039062
958.016906738281 951.514221191406 957.078857421875 955.2490234375 955.363708496094 963.340087890625 965.28076171875 969.446960449219 965.937133789062 974.592346191406 969.887329101562 974.591491699219 979.9970703125 974.062805175781 972.068725585938 975.499389648438 979.936401367188 984.686340332031 981.728088378906 974.941955566406 961.143310546875 965.21435546875 961.614562988281 967.811767578125 964.052673339844 966.231079101562 957.699279785156 960.897094726562 974.784301757812 977.316345214844 974.750366210938 987.845336914062 988.225891113281 975.628479003906 980.069763183594 970.587097167969 960.684753417969 960.741333007812 964.648986816406 963.260070800781 961.421142578125 961.741577148438 957.955200195312 958.52001953125 960.497863769531 961.588806152344 960.666809082031 961.713256835938 958.052734375 966.45703125 962.4716796875 955.0771484375 954.244506835938 955.062316894531 963.546691894531 955.900024414062 955.31689453125 947.939697265625 950.058471679688 953.507568359375 961.673278808594 961.576232910156 953.299743652344 956.591979980469 953.296264648438 959.410949707031 969.775695800781 976.8359375 971.296752929688 970.884460449219 963.740600585938 964.522644042969 962.962524414062 957.824401855469 962.775756835938 959.724975585938 963.919860839844 965.812927246094 967.648254394531 967.409545898438 966.815368652344 979.586059570312 972.411193847656 960.2763671875 971.980407714844 956.514282226562 968.949584960938 963.165100097656 967.387329101562 973.842590332031 975.637023925781 972.626098632812 977.635986328125 979.557373046875 976.573059082031 978.0439453125 976.487609863281 986.1630859375 988.316101074219 990.5126953125 986.659301757812 985.902648925781 984.1484375 986.326293945312 985.337890625 987.161743164062 984.419616699219 984.60107421875 998.233764648438 998.509948730469 988.640625 993.864562988281 994.362487792969 994.648376464844 993.620300292969 1003.44049072266 1012.91735839844 1021.06793212891 1013.27819824219 1023.36865234375 1026.57263183594 1036.31518554688 1036.49206542969 1029.10998535156 1030.32470703125 1032.90051269531 1034.80505371094 1034.63818359375 1051.30529785156 1064.70776367188 1061.63110351562 1065.97241210938 1077.49011230469 1076.86120605469 1073.05078125 1082.396484375 1083.4638671875 1097.76818847656 1097.12976074219 1102.53515625 1098.619140625 1104.29956054688 1101.80651855469 1099.50549316406 1104.35595703125 1117.72375488281 1125.9072265625 1130.25048828125 1134.43493652344 1143.89111328125
956.088195800781 951.985046386719 955.280212402344 962.079284667969 966.991271972656 968.167175292969 968.27001953125 970.477844238281 978.251770019531 970.142883300781 975.290771484375 978.991577148438 972.829650878906 975.703125 983.256164550781 978.121215820312 970.404296875 972.813354492188 982.502624511719 978.894836425781 971.617614746094 968.299743652344 960.645385742188 959.118286132812 954.508056640625 954.536804199219 954.7724609375 960.392333984375 972.483520507812 968.029907226562 969.645751953125 978.764587402344 982.706359863281 975.978149414062 968.351928710938 967.898559570312 957.6337890625 953.364990234375 961.462646484375 961.92236328125 957.143676757812 964.798950195312 965.679443359375 958.749389648438 973.799987792969 966.195617675781 954.675598144531 953.9462890625 952.548522949219 962.458129882812 962.493896484375 950.371520996094 955.735290527344 961.298461914062 956.618713378906 957.371765136719 956.222534179688 953.432189941406 952.381469726562 952.809020996094 959.370178222656 954.480224609375 956.871948242188 959.438537597656 952.126159667969 962.590698242188 961.931884765625 970.760131835938 966.788024902344 961.466369628906 955.340454101562 961.531555175781 968.891418457031 968.717224121094 963.795288085938 960.214294433594 962.842651367188 966.315002441406 955.253234863281 965.362060546875 960.506469726562 965.740783691406 977.330444335938 978.843688964844 974.580505371094 970.473510742188 964.132446289062 967.70263671875 978.078857421875 979.668395996094 977.392150878906 971.771728515625 980.634948730469 977.300109863281 976.817443847656 977.655944824219 980.725280761719 984.035278320312 979.851196289062 975.907958984375 980.565185546875 984.865600585938 982.428161621094 979.675720214844 977.382568359375 983.6279296875 979.634948730469 976.331909179688 985.798400878906 984.595520019531 988.064636230469 991.861328125 995.050048828125 997.463989257812 995.341064453125 1004.51470947266 1013.69891357422 1018.48248291016 1020.46044921875 1014.65875244141 1023.16064453125 1022.95947265625 1024.89953613281 1023.75158691406 1031.59204101562 1033.10913085938 1021.76446533203 1037.38134765625 1042.35131835938 1050.27502441406 1065.01159667969 1070.05249023438 1076.95227050781 1072.51123046875 1082.08666992188 1089.22045898438 1089.533203125 1100.74951171875 1094.89184570312 1093.83862304688 1102.9140625 1096.98474121094 1101.22229003906 1102.12646484375 1101.46472167969 1114.96740722656 1119.32250976562 1123.77734375 1126.52941894531 1128.25183105469
957.760620117188 957.445495605469 961.979553222656 965.823181152344 974.127624511719 964.117553710938 969.870544433594 974.364685058594 981.428771972656 973.063781738281 978.599670410156 971.900390625 974.124755859375 981.60205078125 979.161437988281 982.631225585938 973.350891113281 980.934509277344 983.415771484375 984.003723144531 973.733276367188 962.127807617188 957.610595703125 958.105895996094 958.878051757812 952.549621582031 955.400695800781 960.895263671875 967.761291503906 964.762390136719 968.780944824219 971.947631835938 974.028930664062 975.690002441406 965.841674804688 965.581665039062 964.086853027344 960.193359375 954.82373046875 960.654052734375 971.6884765625 968.529357910156 967.567504882812 969.430358886719 976.704895019531 959.172058105469 961.520080566406 957.885375976562 953.99609375 964.114990234375 956.291625976562 951.944030761719 957.205078125 964.425231933594 962.17578125 958.209838867188 960.67138671875 954.786437988281 959.109680175781 960.627868652344 955.832458496094 961.997192382812 955.251953125 951.920532226562 949.712890625 953.27783203125 961.991760253906 966.382873535156 960.677307128906 955.314208984375 957.797058105469 964.957702636719 957.666748046875 962.591369628906 966.52392578125 964.587158203125 959.552978515625 958.945495605469 972.392028808594 967.025634765625 965.283630371094 968.011413574219 972.417602539062 970.393920898438 976.679504394531 959.6083984375 959.202697753906 969.074279785156 974.750549316406 970.491455078125 972.210632324219 974.170349121094 977.54150390625 975.442443847656 970.88037109375 976.832702636719 981.596618652344 976.043640136719 976.810913085938 978.685607910156 979.220581054688 980.12890625 978.983032226562 981.965148925781 984.344787597656 976.813537597656 975.42236328125 966.3798828125 975.662963867188 977.044799804688 981.584350585938 981.136352539062 994.736755371094 994.583312988281 990.926635742188 1001.01000976562 1002.3203125 1016.79577636719 1018.42102050781 1013.37487792969 1016.1337890625 1018.20294189453 1027.53784179688 1028.12060546875 1031.82470703125 1025.74194335938 1025.64562988281 1032.41345214844 1028.94006347656 1044.47399902344 1069.32971191406 1076.81689453125 1073.09631347656 1080.07238769531 1087.21496582031 1088.13854980469 1099.16687011719 1097.61828613281 1096.08447265625 1095.61547851562 1100.83337402344 1098.54821777344 1098.51440429688 1105.05017089844 1107.50744628906 1108.00939941406 1108.28955078125 1118.62097167969 1124.48303222656 1126.291015625
