NCOLS 150
NROWS 37
XLLCORNER 7394249
YLLCORNER 4842989
CELLSIZE 30
NODATA_VALUE -9999
961.181823730469 962.138000488281 967.982299804688 967.339233398438 965.16015625 965.099243164062 960.713317871094 964.201049804688 971.838500976562 976.433837890625 976.636169433594 976.929138183594 975.016906738281 977.737365722656 972.284057617188 973.069458007812 974.419128417969 971.291015625 975.429992675781 981.704162597656 982.902038574219 982.63720703125 995.099670410156 998.372314453125 995.631225585938 989.276062011719 986.167541503906 977.506958007812 977.604736328125 980.26171875 985.555786132812 991.24365234375 989.097717285156 979.499145507812 984.699157714844 983.943054199219 992.758728027344 985.493713378906 982.400024414062 988.089599609375 994.177673339844 997.194396972656 993.63427734375 995.665100097656 989.7880859375 998.672180175781 998.885070800781 983.929016113281 978.642028808594 980.26318359375 979.190673828125 968.390808105469 970.128540039062 972.606872558594 984.017944335938 992.011047363281 991.347473144531 981.139099121094 982.0361328125 984.824768066406 986.430236816406 996.825317382812 994.027526855469 988.371765136719 996.329956054688 991.826904296875 998.421447753906 1003.33782958984 1004.16625976562 996.817993164062 993.424926757812 1003.41015625 1001.08612060547 995.143127441406 980.967102050781 982.470947265625 986.087341308594 984.078002929688 978.64013671875 978.376586914062 983.479309082031 993.152893066406 1000.42541503906 996.318664550781 1003.39141845703 1001.37854003906 1009.87475585938 1013.98175048828 1008.99627685547 1009.79547119141 1003.8125 1008.02630615234 1016.05816650391 1015.98028564453 1020.76824951172 1022.23211669922 1015.10583496094 1020.22125244141 1014.93762207031 1017.86236572266 1013.51977539062 1009.37365722656 1010.13372802734 1019.75091552734 1021.21716308594 1015.11676025391 1000.31268310547 989.817260742188 988.397338867188 963.038879394531 959.504333496094 947.61376953125 936.961791992188 941.904418945312 942.594787597656 954.382873535156 958.627258300781 968.809936523438 988.560607910156 996.951477050781 1008.81353759766 1008.30413818359 1009.44812011719 1010.94970703125 1012.92065429688 1022.00555419922 1020.60546875 1032.4375 1036.50756835938 1026.29748535156 1028.54736328125 1021.86871337891 1014.70562744141 1023.76208496094 1031.77062988281 1038.24279785156 1041.43200683594 1038.73010253906 1052.35009765625 1061.08325195312 1073.17333984375 1084.88757324219 1089.44372558594 1095.2197265625 1101.20617675781 1103.56762695312 1110.11730957031 1116.88305664062 1117.904296875 1119.57067871094
955.407531738281 958.133850097656 962.654968261719 966.330200195312 973.81982421875 971.5400390625 964.420227050781 961.385559082031 972.021118164062 979.660034179688 975.134887695312 978.6826171875 979.436889648438 973.25048828125 968.777587890625 971.198181152344 965.962341308594 968.701721191406 979.578430175781 982.540405273438 978.258422851562 987.677612304688 981.73974609375 982.246337890625 987.283569335938 982.603149414062 980.830322265625 977.115112304688 971.872253417969 976.276977539062 991.583312988281 977.566955566406 983.188049316406 990.722351074219 991.56005859375 987.174255371094 982.231567382812 978.06884765625 971.290222167969 978.278259277344 989.078979492188 994.910461425781 991.742370605469 1001.47393798828 994.745178222656 982.6513671875 983.064147949219 975.324829101562 977.139709472656 978.893188476562 982.338989257812 975.527221679688 979.973083496094 989.89501953125 989.408203125 988.297546386719 994.449768066406 987.115295410156 974.968994140625 981.682006835938 988.208740234375 990.954162597656 989.203857421875 995.2646484375 995.133605957031 993.400390625 997.717041015625 1003.61608886719 996.148803710938 995.054809570312 996.928466796875 993.981506347656 995.901489257812 984.714721679688 980.365173339844 980.369567871094 981.305847167969 983.065734863281 981.12109375 985.779663085938 983.805725097656 994.015808105469 1001.50164794922 1006.43908691406 1004.68298339844 1005.78839111328 1010.56256103516 1021.541015625 1019.35754394531 1010.00036621094 1014.75775146484 1012.61096191406 1014.07318115234 1010.04498291016 1016.04809570312 1014.04431152344 1016.44036865234 1011.95495605469 1021.55737304688 1021.07104492188 1009.81774902344 1018.31683349609 1015.69873046875 1020.15863037109 1004.91937255859 1012.2998046875 1001.64685058594 990.507202148438 979.742614746094 969.571838378906 952.365783691406 944.762451171875 940.526245117188 942.678283691406 948.513977050781 951.228881835938 964.97607421875 973.309326171875 984.203186035156 990.406433105469 994.066833496094 1000.90301513672 1007.81787109375 1016.81213378906 1017.99639892578 1017.85516357422 1021.25695800781 1032.50134277344 1031.16760253906 1036.06176757812 1025.28442382812 1022.53521728516 1021.58618164062 1018.01092529297 1024.40954589844 1022.66003417969 1037.06677246094 1038.77258300781 1044.47937011719 1063.67028808594 1079.02136230469 1082.32104492188 1084.67419433594 1088.95251464844 1104.99353027344 1107.615234375 1112.96350097656 1121.21081542969 1127.5029296875 1126.85400390625
949.719970703125 955.477478027344 961.94921875 960.261596679688 962.878173828125 970.293090820312 971.001159667969 975.520629882812 974.481018066406 984.080322265625 969.160949707031 971.911499023438 973.012573242188 969.573608398438 973.520874023438 964.3203125 973.886901855469 967.727294921875 976.957763671875 978.219482421875 979.849670410156 978.487121582031 984.943298339844 978.42431640625 975.248352050781 975.809387207031 976.032958984375 979.432373046875 984.314880371094 990.017883300781 988.940979003906 986.822326660156 982.777709960938 986.624572753906 977.545227050781 983.915893554688 978.950805664062 973.27490234375 977.342895507812 977.314331054688 980.193115234375 990.889953613281 982.698974609375 993.716613769531 991.4208984375 984.451232910156 988.503601074219 979.499084472656 970.262939453125 977.801513671875 984.077514648438 979.115356445312 976.405212402344 982.763977050781 987.9921875 985.509460449219 993.849731445312 982.793762207031 981.998107910156 979.788269042969 983.687072753906 979.112976074219 986.995178222656 991.711364746094 990.905944824219 986.060241699219 995.645812988281 1002.78857421875 999.129028320312 992.45263671875 989.534301757812 985.648254394531 973.605834960938 985.849548339844 984.358642578125 983.470642089844 982.646911621094 989.146423339844 983.124328613281 985.546630859375 994.143737792969 991.599487304688 997.182495117188 1002.86956787109 1004.89166259766 1007.60858154297 1018.23071289062 1019.58178710938 1014.76995849609 1010.76806640625 1018.38934326172 1015.27697753906 1019.59722900391 1023.25659179688 1019.25415039062 1013.04797363281 1010.52111816406 1010.55145263672 1022.75604248047 1010.26092529297 1007.27130126953 1008.59356689453 1014.69592285156 1015.31829833984 1006.798828125 1008.02362060547 1001.83514404297 998.783020019531 991.143127441406 975.366760253906 963.761474609375 951.714538574219 952.934387207031 960.57177734375 954.176635742188 962.28857421875 964.850646972656 972.000244140625 980.426086425781 981.260314941406 991.174499511719 1003.17474365234 1002.92944335938 1013.07220458984 1028.30310058594 1016.86322021484 1016.27813720703 1030.66735839844 1032.35961914062 1031.56494140625 1030.59484863281 1014.92834472656 1011.865234375 1013.36145019531 1014.193359375 1010.052734375 1017.69244384766 1025.74938964844 1038.71618652344 1051.80249023438 1070.44067382812 1084.09582519531 1082.80151367188 1086.43078613281 1093.30871582031 1100.3369140625 1114.4775390625 1123.80224609375 1123.4072265625 1133.37939453125
957.767028808594 955.024291992188 964.947570800781 964.645629882812 969.383422851562 977.561340332031 967.249145507812 973.746032714844 976.592895507812 977.376892089844 971.156005859375 972.957275390625 972.524353027344 975.719970703125 973.212524414062 974.117370605469 972.738342285156 970.092712402344 973.922302246094 983.283203125 983.141052246094 982.069091796875 981.615600585938 978.210815429688 976.567565917969 979.274475097656 980.414184570312 982.491882324219 983.838012695312 987.534973144531 986.331909179688 992.159790039062 978.802612304688 984.791564941406 979.365600585938 983.107482910156 981.274475097656 972.245544433594 973.528564453125 976.143188476562 977.121032714844 989.554565429688 988.223510742188 989.247619628906 988.67529296875 982.287536621094 973.853576660156 972.887268066406 980.35400390625 973.052429199219 976.444030761719 985.533813476562 979.1591796875 983.434204101562 986.544494628906 979.929992675781 980.572570800781 977.968933105469 972.042175292969 984.033752441406 978.2080078125 973.717834472656 971.683166503906 984.991333007812 988.961242675781 992.376831054688 1003.70520019531 1007.19354248047 998.086059570312 987.185485839844 985.661193847656 989.860290527344 976.310363769531 985.297973632812 982.943908691406 978.607849121094 984.923706054688 978.321533203125 986.152648925781 991.224426269531 996.646240234375 993.103393554688 1003.85998535156 999.204650878906 1002.72613525391 998.590087890625 1013.29956054688 1023.18084716797 1025.9921875 1026.30834960938 1014.12536621094 1020.91680908203 1019.34069824219 1019.42077636719 1014.01647949219 1012.60919189453 1010.92462158203 1008.22772216797 1009.32061767578 1008.37457275391 1006.85144042969 1002.63189697266 1009.01123046875 1005.45751953125 1007.64349365234 1006.31341552734 1000.38104248047 1000.08050537109 988.354064941406 981.772277832031 977.190246582031 973.945190429688 971.30615234375 971.103698730469 961.772216796875 960.988525390625 974.238586425781 980.404479980469 986.332153320312 989.501037597656 1000.48724365234 1001.31677246094 1007.32690429688 1014.52160644531 1027.2861328125 1016.88391113281 1018.12091064453 1027.65148925781 1033.38610839844 1021.93310546875 1021.91448974609 1019.22180175781 1016.98223876953 1021.92523193359 1011.82293701172 1017.19323730469 1017.95678710938 1026.33337402344 1035.81494140625 1041.92980957031 1066.32800292969 1070.771484375 1091.61083984375 1094.01599121094 1091.62780761719 1109.02294921875 1117.56457519531 1130.689453125 1128.51293945312 1141.37438964844
955.323791503906 964.939086914062 965.93115234375 967.993713378906 960.794982910156 968.254943847656 968.937561035156 973.576965332031 978.130859375 978.745910644531 978.444274902344 968.85693359375 960.118041992188 969.201171875 974.162475585938 977.237243652344 975.312744140625 979.838684082031 976.942993164062 987.238098144531 977.773620605469 986.895935058594 983.987915039062 975.619812011719 981.111328125 977.788269042969 982.13037109375 982.632019042969 985.694885253906 992.901794433594 983.086547851562 985.606201171875 986.570068359375 979.39453125 981.4052734375 987.858032226562 985.134338378906 973.550842285156 982.087646484375 977.565856933594 978.738891601562 991.752746582031 991.28564453125 992.871032714844 977.244262695312 969.701416015625 973.681518554688 963.08837890625 974.883422851562 982.9580078125 979.354187011719 981.401916503906 976.856811523438 981.566589355469 975.661071777344 979.140930175781 971.873352050781 978.174194335938 975.480041503906 975.078796386719 971.840270996094 975.345642089844 972.642272949219 976.998718261719 982.853210449219 989.460998535156 986.182922363281 994.124816894531 989.145385742188 988.73486328125 989.144592285156 982.375 983.073181152344 980.41357421875 986.62060546875 973.214416503906 979.272888183594 970.137939453125 976.6552734375 988.636657714844 996.354858398438 998.445495605469 1001.01031494141 998.624145507812 1008.60174560547 1015.01580810547 1014.45324707031 1028.95922851562 1023.29699707031 1024.27990722656 1023.45263671875 1027.26745605469 1020.55700683594 1011.41857910156 1009.56878662109 1011.51715087891 1001.81628417969 994.4140625 999.693115234375 994.281127929688 1002.68884277344 998.345642089844 997.317199707031 993.626159667969 996.828552246094 997.463012695312 998.430908203125 994.226379394531 992.810119628906 990.140441894531 981.555786132812 975.599731445312 978.727600097656 974.50537109375 971.998352050781 973.341003417969 986.722717285156 982.191650390625 987.030639648438 1001.81573486328 1002.32244873047 1009.78143310547 1011.18145751953 1020.84509277344 1022.36163330078 1021.34326171875 1016.75128173828 1020.73187255859 1019.70550537109 1019.09686279297 1017.30426025391 1015.99853515625 1007.302734375 1014.59136962891 1014.60046386719 1018.55389404297 1021.75042724609 1029.18786621094 1046.57373046875 1047.23522949219 1068.22998046875 1077.8642578125 1087.49914550781 1095.8603515625 1109.46057128906 1112.68481445312 1131.0751953125 1132.40026855469 1145.78601074219 1150.44116210938
950.461364746094 964.245666503906 961.191345214844 959.630187988281 958.878845214844 968.93359375 970.588195800781 977.955139160156 981.998413085938 980.271484375 974.940002441406 974.72119140625 966.737731933594 965.659484863281 964.519836425781 969.280395507812 977.340454101562 978.98828125 976.214782714844 981.320251464844 987.089294433594 981.655395507812 985.530944824219 984.145141601562 979.416198730469 979.998657226562 985.887329101562 981.712768554688 987.14697265625 986.853637695312 989.583923339844 984.01318359375 985.129211425781 983.057556152344 982.368713378906 987.676513671875 985.622863769531 983.906982421875 979.64892578125 975.041870117188 978.735046386719 989.663269042969 986.557312011719 982.540222167969 974.152160644531 976.639831542969 972.179748535156 971.58935546875 976.401062011719 970.794189453125 987.320129394531 988.949462890625 974.477600097656 976.563659667969 976.9892578125 982.790405273438 975.018493652344 975.713806152344 978.281799316406 972.136901855469 963.827270507812 969.238464355469 972.105285644531 982.240173339844 983.61767578125 987.267578125 994.384338378906 986.916137695312 985.006652832031 992.442138671875 990.137390136719 979.618469238281 974.333374023438 982.765869140625 985.715576171875 979.330261230469 974.433959960938 976.934875488281 976.17822265625 991.933471679688 994.217956542969 1004.18615722656 1004.32482910156 1001.5703125 1009.34777832031 1014.59307861328 1021.54327392578 1019.26708984375 1020.90075683594 1017.32043457031 1016.19354248047 1011.68627929688 1007.59661865234 1008.64562988281 1001.06201171875 1006.69641113281 996.198120117188 989.895263671875 984.546142578125 1002.47473144531 995.143737792969 995.0986328125 990.3134765625 990.588745117188 992.767822265625 1001.58386230469 999.446899414062 989.576293945312 989.322875976562 988.153930664062 983.358642578125 984.789428710938 984.026245117188 985.550903320312 984.691955566406 990.571533203125 993.181579589844 990.138916015625 993.335754394531 1003.13153076172 1010.53942871094 1015.25628662109 1015.77471923828 1020.04235839844 1015.88177490234 1011.95965576172 1021.20330810547 1015.66156005859 1018.67211914062 1009.88873291016 1004.34918212891 1008.76147460938 1007.92022705078 1022.41168212891 1020.59808349609 1018.83306884766 1023.07397460938 1043.98608398438 1059.90075683594 1071.92919921875 1068.43969726562 1081.67321777344 1087.40466308594 1095.97058105469 1111.87390136719 1116.82849121094 1135.60876464844 1146.41467285156 1154.81701660156 1168.40710449219
953.304077148438 961.923461914062 961.020324707031 962.173400878906 961.497985839844 961.072570800781 968.558959960938 974.044921875 976.563720703125 985.588928222656 986.263305664062 984.457153320312 969.029907226562 960.603759765625 957.215209960938 964.863403320312 972.835021972656 974.504150390625 973.448608398438 988.67626953125 985.897644042969 981.373840332031 977.907287597656 981.840576171875 977.084228515625 970.9658203125 982.120422363281 987.10009765625 983.914916992188 978.937561035156 984.57666015625 977.664367675781 988.431884765625 984.311828613281 990.452453613281 986.205993652344 992.826965332031 977.432922363281 968.100524902344 974.039001464844 979.519470214844 981.783996582031 977.412658691406 984.859680175781 974.38037109375 974.904174804688 979.446899414062 973.853271484375 976.01220703125 978.316101074219 975.507202148438 982.518676757812 978.497741699219 971.482666015625 971.92041015625 978.700622558594 974.251708984375 979.184387207031 978.507507324219 967.792907714844 962.328369140625 967.596069335938 967.209533691406 969.882751464844 978.641662597656 989.814392089844 984.261596679688 976.897521972656 988.675170898438 984.141296386719 987.781372070312 982.051025390625 973.722290039062 981.675415039062 987.239624023438 980.30224609375 977.486755371094 975.590637207031 980.827819824219 985.224914550781 992.676940917969 998.155639648438 1002.96362304688 1013.81762695312 1010.42718505859 1014.98529052734 1014.11120605469 1006.87274169922 1012.79418945312 1010.86047363281 1013.81823730469 1003.08666992188 1007.76513671875 1008.32879638672 1000.09326171875 1001.01715087891 1002.43536376953 994.107788085938 989.876770019531 990.498229980469 991.271667480469 990.818481445312 983.910217285156 983.375915527344 992.373840332031 994.8291015625 994.846618652344 988.818176269531 986.987365722656 989.676635742188 990.549194335938 992.963806152344 996.384887695312 992.577514648438 993.806640625 998.429138183594 997.920532226562 1002.05029296875 998.359069824219 1011.23516845703 1010.99462890625 1012.38958740234 1015.34613037109 1011.03729248047 1009.78033447266 1010.22790527344 1014.08538818359 1018.07586669922 1014.59790039062 1008.53338623047 1004.53637695312 1004.29473876953 1015.45983886719 1017.67449951172 1025.60314941406 1028.45935058594 1043.60998535156 1048.98132324219 1055.85217285156 1058.91650390625 1063.32141113281 1078.23254394531 1086.4482421875 1101.17272949219 1119.56994628906 1128.12829589844 1136.12878417969 1144.96740722656 1160.88146972656 1161.44665527344
952.296264648438 963.18359375 959.095458984375 962.061584472656 961.75244140625 953.087341308594 966.199645996094 971.522155761719 974.547424316406 973.946166992188 977.652709960938 979.859558105469 965.4228515625 970.071228027344 970.545776367188 960.187072753906 967.315490722656 968.270141601562 977.536743164062 986.243591308594 980.450378417969 980.786193847656 974.397888183594 969.866943359375 969.30419921875 975.220581054688 979.605224609375 969.333679199219 971.420715332031 979.392639160156 984.157897949219 975.152526855469 978.261779785156 979.872009277344 986.113098144531 979.439147949219 981.818237304688 983.923767089844 980.334167480469 985.182250976562 976.874267578125 975.918701171875 982.748840332031 974.55078125 974.259826660156 976.318542480469 981.340148925781 969.484069824219 972.725708007812 976.233276367188 977.907836914062 980.468444824219 981.149475097656 970.219543457031 981.301513671875 974.480163574219 974.308471679688 973.073913574219 976.972900390625 968.557556152344 966.011047363281 969.103210449219 969.39306640625 977.294921875 979.957397460938 986.22607421875 986.40625 979.856384277344 976.39990234375 976.401184082031 978.239379882812 984.05712890625 970.597229003906 971.40869140625 979.405639648438 981.743957519531 971.958923339844 968.706665039062 968.653991699219 982.061767578125 990.188537597656 985.098083496094 997.43603515625 1010.63677978516 1008.61102294922 1013.66900634766 1014.15814208984 1008.50708007812 1004.88232421875 1008.91162109375 1001.00213623047 1004.53326416016 1009.68499755859 999.294616699219 1000.93890380859 1004.95257568359 1000.86016845703 987.583251953125 990.955139160156 989.368103027344 987.465454101562 990.68359375 984.799987792969 989.858581542969 997.349975585938 997.236938476562 992.103332519531 997.062255859375 995.100402832031 990.452880859375 993.178344726562 993.41162109375 1005.66912841797 990.45361328125 994.160888671875 991.440246582031 989.449157714844 1000.64678955078 1003.59600830078 1004.34362792969 1018.29614257812 1009.22583007812 1011.03204345703 1010.18481445312 1004.28289794922 1001.61480712891 1004.75689697266 1005.48272705078 1015.04498291016 1013.90185546875 1009.57672119141 1009.75347900391 1017.46905517578 1030.79797363281 1033.32360839844 1038.15173339844 1046.72802734375 1051.78125 1056.46362304688 1065.41967773438 1075.755859375 1088.74267578125 1093.91162109375 1107.58508300781 1122.86071777344 1132.53991699219 1139.79296875 1146.17834472656 1151.75268554688 1166.9560546875
948.029968261719 959.250671386719 967.127807617188 968.358337402344 970.238159179688 963.440979003906 968.1552734375 964.8203125 974.529479980469 971.564392089844 977.907470703125 977.432006835938 979.385986328125 965.849243164062 964.584289550781 966.400756835938 969.69775390625 978.876281738281 977.991455078125 979.159118652344 978.766235351562 978.866027832031 982.487976074219 978.032043457031 970.537353515625 971.305847167969 966.818786621094 974.12841796875 973.211791992188 979.956848144531 975.969970703125 986.006408691406 981.655456542969 978.818115234375 981.590209960938 976.419555664062 985.880126953125 983.234497070312 982.562316894531 981.640625 978.5810546875 980.239501953125 978.057250976562 975.775939941406 970.711364746094 976.372253417969 974.590270996094 972.861389160156 975.732055664062 967.030090332031 978.262756347656 981.819152832031 980.842834472656 980.60888671875 982.249816894531 980.129821777344 974.197387695312 975.965454101562 971.246459960938 968.101745605469 963.264831542969 973.243347167969 972.699462890625 977.609008789062 982.147521972656 991.125244140625 985.45263671875 980.348266601562 973.593688964844 973.598205566406 975.099243164062 976.05712890625 973.294311523438 964.152954101562 973.778259277344 982.018676757812 976.085083007812 977.762756347656 969.072509765625 978.951049804688 982.91943359375 985.160827636719 999.824096679688 997.083618164062 1005.36053466797 1006.86346435547 1009.36541748047 1015.35559082031 1004.90051269531 998.818115234375 1006.5810546875 1004.43432617188 1002.92065429688 1002.36694335938 1009.06964111328 1009.10382080078 1005.68560791016 994.082580566406 987.295715332031 988.623229980469 984.214294433594 990.846984863281 987.996765136719 993.007080078125 997.51904296875 994.852844238281 993.974243164062 994.46875 994.223083496094 997.608581542969 987.165954589844 988.370727539062 995.582275390625 1001.01055908203 996.224731445312 988.752197265625 995.376098632812 998.887390136719 1001.55267333984 1001.00701904297 1002.57061767578 1006.44366455078 999.946044921875 1006.31823730469 1011.3076171875 1005.50268554688 1002.56396484375 1009.82891845703 1009.86456298828 1008.89147949219 1008.62548828125 1012.59655761719 1020.90637207031 1033.55346679688 1035.86547851562 1041.74926757812 1050.02917480469 1060.13793945312 1066.82995605469 1067.31213378906 1080.68957519531 1087.74658203125 1099.56359863281 1108.6591796875 1121.86474609375 1134.17419433594 1143.00561523438 1137.90844726562 1145.552734375 1150.91662597656
958.618835449219 959.759033203125 966.957824707031 969.187194824219 968.791687011719 968.027404785156 963.313110351562 966.86865234375 973.109619140625 968.318176269531 971.793151855469 979.578796386719 977.537902832031 971.543701171875 967.839965820312 969.144958496094 968.96484375 981.063171386719 980.781494140625 984.377624511719 981.596496582031 983.514099121094 979.031005859375 977.002868652344 973.872802734375 968.682006835938 969.178955078125 966.6669921875 967.820556640625 972.341674804688 968.788391113281 973.694458007812 977.486877441406 975.778442382812 982.617797851562 981.802185058594 993.159057617188 989.200256347656 978.774963378906 978.025939941406 977.689392089844 982.679077148438 977.382690429688 973.439575195312 970.926879882812 973.844177246094 968.9150390625 967.751037597656 974.110229492188 974.546997070312 976.947875976562 978.397094726562 977.285522460938 982.330444335938 978.286254882812 970.706665039062 963.936218261719 961.961059570312 962.902587890625 966.949890136719 972.246520996094 969.031005859375 971.10888671875 966.303100585938 978.836242675781 985.694580078125 985.122924804688 973.333068847656 970.461059570312 963.997375488281 971.12451171875 973.887756347656 974.025207519531 974.567077636719 971.398193359375 969.414367675781 965.945373535156 974.773315429688 969.100708007812 972.110290527344 976.525146484375 988.983337402344 993.304016113281 994.398803710938 991.59423828125 1006.04461669922 1006.16168212891 1007.22796630859 1003.49609375 993.353881835938 1006.51214599609 996.2158203125 1001.95629882812 1003.31860351562 999.905883789062 1000.53045654297 993.995788574219 996.698913574219 989.603759765625 988.209350585938 987.572875976562 996.480773925781 982.074829101562 993.123291015625 1000.009765625 991.632934570312 1001.28753662109 999.054443359375 997.941833496094 985.720825195312 983.486389160156 996.993103027344 991.969970703125 995.080017089844 996.02001953125 994.618896484375 994.929931640625 996.380920410156 989.013610839844 995.759948730469 998.60693359375 1003.10711669922 1000.31207275391 1005.01690673828 1008.85992431641 1008.63873291016 1004.82580566406 1008.80407714844 1014.38214111328 1009.76251220703 1009.1474609375 1018.31176757812 1032.42553710938 1039.84899902344 1041.79479980469 1052.64147949219 1047.93139648438 1064.23657226562 1075.595703125 1074.15307617188 1086.10290527344 1099.35571289062 1102.36413574219 1108.82006835938 1131.00329589844 1138.03747558594 1149.35400390625 1147.79028320312 1147.04553222656 1143.53051757812
961.547180175781 969.514892578125 970.542358398438 966.096496582031 964.8681640625 959.490417480469 960.192443847656 959.040222167969 966.497497558594 968.218444824219 969.392456054688 978.451721191406 976.048095703125 971.951232910156 975.422424316406 971.681823730469 973.038940429688 980.6171875 989.174255371094 986.971557617188 989.530456542969 982.629089355469 986.983459472656 979.44091796875 978.477722167969 966.407897949219 971.355407714844 964.790161132812 959.526489257812 965.331481933594 974.8017578125 978.3095703125 978.942810058594 979.258605957031 980.933044433594 978.146484375 976.282958984375 981.148193359375 981.572814941406 970.417114257812 974.891906738281 979.852233886719 970.052124023438 965.749755859375 966.213134765625 969.616943359375 982.931945800781 965.330627441406 970.887451171875 969.4599609375 977.522033691406 977.839904785156 971.816955566406 963.466247558594 978.829223632812 974.050537109375 959.917724609375 958.508850097656 968.225708007812 970.787109375 979.05908203125 973.448425292969 976.477294921875 972.301879882812 982.346069335938 985.909301757812 980.242370605469 966.861999511719 973.715148925781 969.523620605469 979.262573242188 971.827941894531 965.535583496094 973.208618164062 961.158935546875 965.393432617188 963.777893066406 972.655395507812 967.137817382812 962.874450683594 978.724792480469 991.559326171875 997.12451171875 989.535278320312 990.370422363281 1002.46087646484 1002.53588867188 1005.4208984375 997.729187011719 993.749816894531 1001.43634033203 1000.78747558594 1003.74468994141 995.469116210938 994.991149902344 989.527099609375 987.838928222656 986.81103515625 990.493835449219 991.341552734375 996.809020996094 988.846923828125 987.906433105469 988.356323242188 989.79736328125 985.9921875 995.95703125 997.057983398438 991.072143554688 989.734680175781 991.763916015625 989.899719238281 997.288696289062 1000.73944091797 992.107238769531 990.408203125 993.123229980469 986.347351074219 989.771423339844 993.257690429688 992.094909667969 1002.35925292969 996.953674316406 1003.03265380859 1007.98175048828 1015.29388427734 1012.97863769531 1011.99865722656 1012.6435546875 1011.29412841797 1019.40484619141 1027.85278320312 1034.37829589844 1034.58227539062 1044.78784179688 1054.72412109375 1053.88146972656 1060.59094238281 1077.39660644531 1082.02026367188 1089.39636230469 1105.11975097656 1109.56091308594 1117.27014160156 1135.97680664062 1149.89306640625 1156.01513671875 1160.9453125 1157.15856933594 1154.25280761719
948.278991699219 954.525268554688 963.801452636719 952.057312011719 954.25390625 956.659851074219 960.32763671875 958.237182617188 969.696899414062 966.097900390625 963.620971679688 973.126953125 975.85693359375 969.531799316406 975.510375976562 980.986450195312 980.966552734375 979.816833496094 985.743713378906 988.347778320312 988.264770507812 988.062194824219 985.038146972656 984.433410644531 974.031921386719 973.33154296875 970.791076660156 961.414672851562 963.157836914062 969.028930664062 975.504699707031 982.493713378906 977.595153808594 971.787414550781 976.245666503906 974.196838378906 976.095520019531 976.429626464844 969.685363769531 962.29150390625 973.676208496094 983.254455566406 973.093017578125 965.830810546875 970.539672851562 962.491271972656 971.992553710938 970.514282226562 969.897583007812 982.225463867188 973.658874511719 970.518493652344 973.057739257812 962.450256347656 979.424438476562 977.492309570312 966.91455078125 968.668640136719 959.981079101562 963.181884765625 968.902221679688 981.021545410156 979.831604003906 976.5673828125 974.025390625 975.76220703125 976.645446777344 971.650939941406 973.199279785156 971.216552734375 969.308288574219 969.606262207031 974.757019042969 970.888366699219 974.539489746094 964.545349121094 961.861633300781 968.621459960938 969.823303222656 968.369384765625 985.295715332031 983.307495117188 979.977111816406 988.534973144531 989.359313964844 992.464477539062 998.304321289062 984.276489257812 996.950378417969 989.993957519531 989.215270996094 987.561340332031 998.046630859375 1005.09912109375 998.054748535156 991.720092773438 989.639282226562 983.830017089844 981.859558105469 992.036437988281 993.658081054688 991.04736328125 986.398742675781 978.610473632812 988.930480957031 983.370666503906 988.920654296875 991.848266601562 996.717651367188 993.442138671875 993.4755859375 986.526245117188 989.330932617188 996.601501464844 990.301208496094 998.283264160156 988.196228027344 991.974304199219 988.869140625 991.915832519531 988.555908203125 997.732849121094 997.638610839844 998.681762695312 1001.50280761719 1007.46795654297 1013.05841064453 1021.04132080078 1020.93786621094 1027.34057617188 1024.21752929688 1027.20666503906 1034.13293457031 1033.86657714844 1046.90466308594 1052.85559082031 1056.73840332031 1066.13403320312 1077.11584472656 1085.75512695312 1097.83459472656 1102.72497558594 1106.54736328125 1127.67065429688 1141.1591796875 1152.75 1161.53784179688 1164.71032714844 1166.96032714844 1168.41369628906
937.046447753906 948.049926757812 953.83544921875 952.411560058594 956.758850097656 951.446899414062 947.574096679688 954.86279296875 962.750183105469 970.072265625 970.298583984375 972.178344726562 978.214538574219 971.018432617188 976.363830566406 981.967041015625 979.158325195312 979.7109375 977.926635742188 989.585693359375 994.60107421875 979.289794921875 985.585998535156 983.570190429688 978.480407714844 973.128540039062 965.833862304688 964.591979980469 968.515502929688 974.749084472656 980.759033203125 973.700744628906 977.982421875 975.228149414062 973.049255371094 970.107788085938 969.307678222656 982.21484375 974.464660644531 973.764831542969 971.065490722656 974.987182617188 965.264038085938 972.093627929688 963.003051757812 966.878601074219 972.632507324219 963.236022949219 977.903076171875 979.512451171875 973.903259277344 971.118530273438 969.153137207031 961.866821289062 966.870361328125 977.536071777344 970.150268554688 963.927185058594 962.180419921875 971.078491210938 968.445556640625 981.116638183594 980.882019042969 989.778198242188 985.728759765625 974.101928710938 976.860961914062 971.295104980469 972.526916503906 972.606262207031 973.805297851562 969.787170410156 965.980834960938 965.906921386719 964.202880859375 964.568237304688 962.112670898438 968.069274902344 975.806030273438 976.880493164062 978.068176269531 979.467834472656 976.530029296875 977.866638183594 984.746520996094 991.412780761719 993.075256347656 987.753723144531 986.157958984375 986.433532714844 986.032409667969 985.784057617188 996.847045898438 995.547790527344 995.075378417969 995.446411132812 987.037536621094 984.503112792969 980.202819824219 992.136047363281 992.441650390625 981.797790527344 977.593078613281 977.983642578125 980.438415527344 985.226501464844 976.867614746094 984.863830566406 985.588317871094 989.612487792969 981.431945800781 983.424194335938 993.3681640625 992.786682128906 994.80029296875 993.972839355469 988.4384765625 985.263916015625 991.559265136719 999.195129394531 1000.837890625 994.058288574219 996.153564453125 998.432373046875 1004.92303466797 1022.85272216797 1022.26428222656 1017.53283691406 1023.056640625 1025.51672363281 1025.92224121094 1030.65368652344 1033.47326660156 1030.02612304688 1045.89416503906 1049.85339355469 1057.13391113281 1069.22119140625 1080.05920410156 1085.337890625 1106.74255371094 1118.11730957031 1121.95385742188 1126.18786621094 1136.43896484375 1148.78369140625 1157.92150878906 1162.04797363281 1166.81945800781 1172.77502441406
944.723205566406 946.912658691406 942.486938476562 949.218505859375 952.716186523438 953.363647460938 951.783020019531 949.957153320312 954.499145507812 961.189331054688 962.720153808594 964.298156738281 973.139221191406 970.743225097656 977.895629882812 983.921264648438 973.905944824219 972.818481445312 985.107055664062 982.938415527344 984.8681640625 980.054931640625 981.752502441406 971.779296875 966.324890136719 958.641662597656 957.960144042969 954.333374023438 965.429626464844 967.009216308594 978.167175292969 969.356079101562 973.828918457031 978.397155761719 977.668334960938 974.181579589844 970.495910644531 977.265075683594 973.472412109375 971.79296875 971.679260253906 965.423278808594 968.044982910156 968.578002929688 972.600036621094 971.512817382812 968.274719238281 978.165588378906 980.658874511719 977.912536621094 971.017456054688 974.266784667969 967.587768554688 969.227661132812 966.456726074219 963.917846679688 963.7666015625 965.7998046875 961.969360351562 966.398010253906 977.586791992188 982.896240234375 987.412292480469 986.621520996094 975.198425292969 976.033935546875 976.250671386719 966.645751953125 968.174865722656 977.178100585938 968.549377441406 959.090576171875 963.173950195312 965.140075683594 961.681396484375 970.412536621094 964.1640625 971.512573242188 974.146484375 976.056579589844 979.074951171875 982.436462402344 976.75634765625 985.172485351562 981.638854980469 989.770080566406 985.516784667969 986.5322265625 983.350158691406 986.216125488281 981.078308105469 981.428466796875 989.092468261719 994.991882324219 993.756408691406 986.655883789062 986.841918945312 984.11669921875 980.528442382812 978.325134277344 988.069763183594 981.685363769531 974.799621582031 976.61083984375 980.652770996094 990.111877441406 987.747192382812 983.261779785156 986.28369140625 986.293395996094 983.4482421875 983.407592773438 983.249450683594 990.683898925781 995.304870605469 995.290161132812 991.790344238281 991.027160644531 996.25927734375 994.050964355469 999.570129394531 991.072326660156 996.882568359375 1002.99505615234 1004.76733398438 1015.51422119141 1022.38262939453 1017.43902587891 1024.13696289062 1027.20275878906 1034.3349609375 1046.67700195312 1037.30639648438 1039.91015625 1041.30505371094 1052.77075195312 1064.18981933594 1068.99633789062 1080.63073730469 1084.08801269531 1107.28149414062 1108.88610839844 1123.82971191406 1130.92077636719 1140.46411132812 1148.70129394531 1157.83349609375 1159.78161621094 1161.22973632812 1172.93054199219
945.911987304688 948.708801269531 953.320251464844 950.491455078125 948.787719726562 956.764831542969 955.823303222656 959.224304199219 964.135620117188 968.287902832031 971.768981933594 968.795043945312 970.102600097656 977.253784179688 969.594848632812 969.043579101562 974.98486328125 978.801940917969 977.500305175781 973.955078125 979.344665527344 977.45263671875 976.345275878906 962.715637207031 959.775573730469 954.065979003906 957.007873535156 957.808044433594 967.146850585938 977.750061035156 971.624145507812 974.654174804688 981.829711914062 973.380615234375 968.818664550781 967.966491699219 962.632629394531 976.994140625 980.2373046875 981.0400390625 976.363952636719 970.102172851562 960.765258789062 961.590454101562 960.744384765625 957.532775878906 961.969116210938 978.364807128906 981.936462402344 976.339538574219 970.7509765625 969.372192382812 957.724853515625 967.655212402344 966.361877441406 963.883239746094 970.704284667969 966.782958984375 966.404418945312 966.90380859375 968.097473144531 978.935119628906 985.086364746094 982.76416015625 976.716125488281 971.130981445312 973.823303222656 972.489074707031 969.617919921875 963.499267578125 963.86376953125 957.287292480469 953.998840332031 963.700622558594 968.892272949219 970.110961914062 969.822631835938 981.388488769531 969.614501953125 971.465270996094 978.506713867188 969.075561523438 963.323181152344 972.245666503906 979.407043457031 984.747375488281 977.839538574219 975.208435058594 983.309814453125 979.487060546875 984.669311523438 981.156311035156 988.535095214844 987.47412109375 985.050659179688 986.81005859375 992.643859863281 979.014831542969 987.8037109375 987.890502929688 988.953125 982.572326660156 975.6748046875 974.143676757812 977.467224121094 979.39404296875 986.218383789062 983.540283203125 987.253479003906 983.441589355469 995.4169921875 992.059326171875 985.292419433594 992.994689941406 1000.60913085938 999.218627929688 995.785705566406 992.908081054688 995.017028808594 999.281799316406 994.043334960938 1002.05987548828 1002.10913085938 1007.25 1010.08367919922 1014.27593994141 1019.255859375 1016.63323974609 1032.0869140625 1040.67883300781 1051.97814941406 1048.43359375 1047.92077636719 1054.41027832031 1054.46105957031 1061.55932617188 1065.54821777344 1073.71813964844 1079.75988769531 1088.50366210938 1108.00415039062 1120.91687011719 1128.33825683594 1135.30737304688 1146.7265625 1158.07263183594 1167.58215332031 1168.07629394531 1168.29968261719 1164.8505859375
947.273681640625 950.391906738281 956.269958496094 955.062255859375 953.386352539062 955.652587890625 959.371520996094 963.206604003906 965.645874023438 971.58056640625 973.490661621094 967.688842773438 966.40234375 962.103759765625 971.681701660156 976.008422851562 978.151916503906 988.658935546875 983.796447753906 979.584045410156 971.591186523438 968.389953613281 964.858642578125 963.273620605469 961.741149902344 960.631408691406 961.278259277344 967.233703613281 970.919189453125 974.42578125 984.159973144531 977.223815917969 977.446655273438 971.80224609375 969.515930175781 960.506530761719 964.005004882812 970.033813476562 973.349670410156 977.979919433594 972.068603515625 961.060241699219 963.782409667969 952.518188476562 958.18603515625 961.535705566406 965.32421875 975.006958007812 980.175170898438 967.541015625 969.301330566406 966.572631835938 967.560729980469 964.668151855469 963.946228027344 968.354248046875 966.056701660156 964.735473632812 959.305908203125 963.860717773438 971.15380859375 978.84619140625 974.872985839844 965.89013671875 975.054931640625 972.077941894531 966.705505371094 961.761352539062 957.889953613281 955.338745117188 960.419921875 948.325561523438 950.770263671875 965.408630371094 973.787902832031 976.289855957031 975.726684570312 977.193359375 979.63720703125 981.814208984375 979.898193359375 967.695373535156 973.288696289062 972.185424804688 972.416381835938 971.858642578125 978.638854980469 977.667602539062 982.755126953125 987.1787109375 988.33349609375 984.486877441406 989.265380859375 983.41748046875 984.032287597656 990.676391601562 988.140075683594 988.352661132812 989.974060058594 986.535034179688 987.423461914062 979.147399902344 988.127685546875 988.813354492188 981.416687011719 990.91650390625 989.428955078125 989.559020996094 994.341491699219 990.003540039062 995.313415527344 989.331359863281 995.564453125 1004.44134521484 1006.53332519531 999.251770019531 992.850830078125 994.411743164062 1004.45440673828 1000.30230712891 994.877624511719 1005.72784423828 1008.38757324219 1014.01702880859 1012.75213623047 1015.48651123047 1020.57177734375 1039.37707519531 1039.02099609375 1044.61120605469 1054.59130859375 1055.49243164062 1051.24670410156 1064.39111328125 1058.29211425781 1063.10461425781 1071.72021484375 1072.37170410156 1076.29113769531 1088.73205566406 1100.02160644531 1118.27136230469 1133.04077148438 1134.33898925781 1151.99597167969 1159.75500488281 1166.54309082031 1173.58874511719 1168.7646484375 1158.93432617188
948.036743164062 951.309204101562 954.66552734375 959.235961914062 954.324584960938 968.325744628906 963.66259765625 957.078002929688 972.508178710938 973.869445800781 970.380249023438 969.773803710938 966.064025878906 965.639099121094 968.85693359375 974.309692382812 986.420043945312 985.427185058594 982.616088867188 972.435974121094 968.255920410156 963.093566894531 962.548217773438 953.338623046875 961.030822753906 968.4384765625 964.215942382812 966.242431640625 971.213562011719 978.21484375 977.329162597656 981.136352539062 968.85791015625 970.85791015625 967.109619140625 970.033203125 968.768737792969 965.452392578125 969.984680175781 973.241516113281 963.962036132812 966.89794921875 956.010070800781 949.217651367188 951.571655273438 960.949523925781 966.378479003906 980.503234863281 969.781799316406 969.178833007812 972.527221679688 976.5478515625 975.596862792969 974.614013671875 970.128845214844 968.640502929688 963.859252929688 967.965393066406 956.798583984375 967.908264160156 969.341796875 972.11865234375 972.473937988281 972.75 969.839416503906 961.615783691406 956.710083007812 957.061889648438 949.385437011719 953.39892578125 957.693908691406 956.66796875 961.967590332031 963.774047851562 968.074340820312 979.06103515625 976.821899414062 970.469909667969 975.338012695312 967.348754882812 974.306274414062 977.872802734375 972.004028320312 969.585571289062 958.753845214844 969.000061035156 972.190368652344 973.517639160156 984.686584472656 986.57568359375 987.8115234375 989.755432128906 981.0595703125 983.480163574219 985.281921386719 982.697082519531 981.89990234375 987.791931152344 995.86181640625 986.580322265625 982.191223144531 979.388366699219 973.621459960938 993.845153808594 994.412109375 994.6572265625 996.188842773438 994.117370605469 999.350280761719 992.218811035156 990.850769042969 999.456481933594 1002.73748779297 1005.74560546875 1004.58868408203 1009.89929199219 1008.10198974609 1002.51824951172 995.143371582031 999.041809082031 994.245300292969 1010.19458007812 1008.15979003906 1011.8369140625 1013.83959960938 1020.98901367188 1035.564453125 1042.30541992188 1040.2939453125 1047.19482421875 1050.99609375 1054.40258789062 1057.28198242188 1059.33752441406 1059.93762207031 1061.45629882812 1063.67041015625 1076.60620117188 1079.11865234375 1095.20092773438 1098.9912109375 1116.41430664062 1130.52685546875 1136.70617675781 1145.099609375 1155.93566894531 1167.49645996094 1167.93017578125 1170.94018554688 1163.884765625
943.299987792969 944.685180664062 945.906616210938 954.549438476562 963.768310546875 965.960754394531 967.355590820312 971.807495117188 968.194641113281 971.374450683594 980.35498046875 968.413696289062 966.070068359375 966.006958007812 968.881469726562 973.869201660156 977.882019042969 983.417053222656 977.53955078125 979.648071289062 974.230529785156 963.577575683594 955.943786621094 949.869506835938 961.093688964844 965.578186035156 966.560180664062 965.248901367188 967.859436035156 969.349243164062 969.460876464844 971.4267578125 968.311828613281 970.745239257812 967.835083007812 970.488952636719 958.744873046875 968.951293945312 954.922180175781 963.878479003906 968.643371582031 958.864501953125 966.961730957031 962.192504882812 959.091857910156 963.172546386719 967.44580078125 985.885131835938 975.716613769531 970.941711425781 973.709106445312 973.924072265625 970.027221679688 960.597106933594 969.505981445312 973.076721191406 964.418212890625 965.995788574219 969.884460449219 966.77685546875 968.829956054688 969.224670410156 971.723876953125 973.059326171875 964.380676269531 962.860717773438 955.270568847656 947.469604492188 952.200805664062 952.038330078125 956.707397460938 959.033630371094 964.950073242188 970.3447265625 968.976501464844 973.357727050781 972.918395996094 967.157592773438 970.738647460938 969.758056640625 965.322692871094 974.873962402344 972.616882324219 965.623046875 966.287780761719 968.349853515625 971.345397949219 969.755310058594 972.401672363281 972.38134765625 976.732666015625 973.751831054688 974.237182617188 978.321533203125 988.398742675781 994.783508300781 984.561096191406 977.391723632812 986.7529296875 986.579833984375 984.31494140625 980.163024902344 980.226623535156 983.945007324219 996.561218261719 996.123291015625 993.634155273438 992.017211914062 989.7001953125 999.578674316406 987.771667480469 997.0654296875 996.568542480469 1004.61242675781 1006.94873046875 1017.23364257812 1008.52691650391 1010.95190429688 1012.2373046875 999.588623046875 1000.873046875 1000.55749511719 1015.27111816406 1019.20788574219 1022.47357177734 1026.19140625 1044.48742675781 1052.00061035156 1044.40307617188 1054.24951171875 1049.31909179688 1045.90380859375 1044.76318359375 1050.7509765625 1060.82580566406 1073.46545410156 1081.99084472656 1083.29272460938 1089.38122558594 1091.41284179688 1106.396484375 1112.93994140625 1121.94128417969 1136.04748535156 1145.31140136719 1159.85778808594 1156.02868652344 1153.66271972656 1154.19030761719 1157.12561035156
952.62255859375 946.110717773438 949.44921875 952.290710449219 952.417541503906 955.230895996094 963.386779785156 968.015014648438 976.931457519531 971.091430664062 972.393249511719 964.943481445312 967.872436523438 964.384033203125 966.1181640625 976.528259277344 978.224304199219 976.034484863281 979.852600097656 983.274291992188 976.340942382812 972.343872070312 966.021789550781 965.378784179688 968.473266601562 968.19384765625 967.182495117188 971.204711914062 973.282531738281 966.526672363281 977.370666503906 978.995971679688 975.807373046875 970.650817871094 966.537902832031 970.136901855469 969.958862304688 965.139953613281 962.540100097656 965.232299804688 968.020141601562 958.519104003906 963.489562988281 956.817504882812 958.177612304688 966.210388183594 971.6015625 973.960571289062 966.612854003906 964.643798828125 967.065612792969 966.68408203125 963.022033691406 971.230651855469 965.478576660156 962.6845703125 967.922180175781 964.346984863281 964.450500488281 963.923217773438 965.992736816406 972.075561523438 968.594543457031 970.004333496094 961.274230957031 964.797790527344 956.676696777344 946.583984375 947.2353515625 955.85009765625 963.678833007812 967.123901367188 968.9599609375 979.122131347656 978.037902832031 966.329895019531 972.933471679688 976.081420898438 968.833374023438 968.947387695312 973.923645019531 974.733825683594 970.421508789062 967.871154785156 972.317077636719 974.320983886719 976.210815429688 965.068054199219 963.024353027344 966.861694335938 969.488037109375 971.235717773438 969.139099121094 983.053588867188 991.596923828125 993.471008300781 984.493041992188 981.556579589844 977.17529296875 980.012451171875 978.529418945312 975.968566894531 990.443969726562 990.973022460938 998.060913085938 997.100280761719 1002.38415527344 990.092834472656 995.57470703125 991.642395019531 997.844482421875 995.003173828125 1003.83325195312 1007.14862060547 1004.58013916016 1011.22399902344 1017.20837402344 1018.47015380859 1012.31475830078 1013.50122070312 1011.87811279297 1009.21734619141 1016.28436279297 1019.404296875 1020.02386474609 1033.32312011719 1055.2431640625 1058.34008789062 1055.41931152344 1057.11779785156 1055.1005859375 1045.37097167969 1041.435546875 1053.70617675781 1055.74304199219 1068.76708984375 1068.5361328125 1083.94470214844 1087.24829101562 1105.490234375 1107.81213378906 1116.55114746094 1122.8388671875 1124.76574707031 1129.97595214844 1149.09484863281 1148.26916503906 1143.49560546875 1142.57336425781 1144.80615234375
953.643676757812 952.52880859375 955.750732421875 955.208435058594 950.880432128906 958.814147949219 961.412902832031 971.308898925781 971.774169921875 969.453491210938 972.011901855469 969.539916992188 970.664794921875 969.367919921875 973.106567382812 976.09814453125 976.304260253906 983.270263671875 977.503723144531 978.760681152344 967.841552734375 972.921447753906 967.246154785156 968.553649902344 961.026062011719 970.27587890625 969.320007324219 954.6611328125 970.620849609375 969.013671875 973.270568847656 975.904602050781 977.010070800781 965.903564453125 969.548095703125 966.790405273438 963.6103515625 961.052185058594 961.748291015625 959.34423828125 954.701171875 957.589172363281 967.302062988281 961.025512695312 958.052978515625 963.678771972656 965.534362792969 966.194274902344 965.187805175781 971.67578125 973.252197265625 958.903381347656 962.87060546875 956.889404296875 964.977600097656 963.239685058594 964.369934082031 959.116638183594 971.113708496094 968.330139160156 975.709167480469 974.931823730469 974.604553222656 970.057189941406 973.317932128906 971.871765136719 960.747680664062 943.550964355469 955.203735351562 953.858764648438 958.601501464844 961.605834960938 968.24853515625 976.081970214844 968.053649902344 972.624694824219 976.735900878906 979.537536621094 966.182250976562 965.67919921875 969.508605957031 965.307922363281 968.114501953125 965.951293945312 970.667053222656 972.977478027344 969.964416503906 966.212890625 961.706237792969 964.003479003906 964.815856933594 969.173889160156 975.209594726562 974.77783203125 980.413757324219 977.219421386719 979.688842773438 973.655517578125 967.129333496094 974.8701171875 976.104248046875 983.200134277344 988.892944335938 982.903076171875 990.697509765625 996.674682617188 989.486145019531 996.484436035156 999.094848632812 994.043884277344 996.428527832031 989.830627441406 990.269409179688 1001.072265625 999.65283203125 1006.49169921875 1002.60821533203 1008.82092285156 1013.49761962891 1010.94073486328 1014.05255126953 1018.86462402344 1017.458984375 1018.20135498047 1024.62829589844 1037.37512207031 1052.47534179688 1049.1640625 1048.34875488281 1058.94787597656 1054.26574707031 1048.52648925781 1051.48645019531 1052.40173339844 1065.51293945312 1067.25964355469 1072.8408203125 1080.31909179688 1088.39880371094 1105.19738769531 1109.40466308594 1112.19140625 1118.36743164062 1129.91369628906 1129.87365722656 1138.84216308594 1136.66760253906 1128.60620117188 1133.50439453125 1127.97509765625
956.403503417969 957.383544921875 957.970642089844 967.496154785156 956.722412109375 958.529663085938 975.155212402344 977.662475585938 970.662048339844 970.855285644531 974.331115722656 977.117370605469 982.954345703125 969.446960449219 978.608032226562 973.046875 966.120971679688 970.825134277344 965.756896972656 967.776245117188 971.08642578125 966.29833984375 965.875915527344 965.788757324219 964.688049316406 964.507385253906 965.655944824219 954.674499511719 964.787475585938 970.267272949219 971.379089355469 980.2109375 980.154541015625 971.32568359375 975.512268066406 970.70458984375 963.746215820312 968.610473632812 966.177673339844 959.304748535156 953.068359375 964.983215332031 962.139282226562 967.322143554688 974.634826660156 963.974670410156 962.934265136719 968.50927734375 967.051635742188 965.985961914062 965.407104492188 964.590576171875 953.591430664062 957.531616210938 960.465026855469 966.325012207031 964.422790527344 965.622863769531 966.804321289062 968.012756347656 970.715087890625 976.073608398438 973.153442382812 976.590576171875 985.576354980469 979.336608886719 959.765563964844 949.203491210938 946.322631835938 961.388122558594 961.459350585938 957.327758789062 963.690673828125 968.796569824219 967.740600585938 980.15771484375 977.367248535156 973.491394042969 971.626892089844 972.589660644531 976.20263671875 971.3369140625 969.14990234375 972.246643066406 974.942443847656 969.390197753906 974.189819335938 966.683166503906 964.060791015625 963.654357910156 970.171264648438 970.699523925781 970.643127441406 974.4365234375 973.211608886719 978.341613769531 975.235168457031 976.976745605469 967.720947265625 969.686645507812 976.3984375 977.180541992188 983.148559570312 986.436584472656 991.703369140625 997.760375976562 992.577819824219 992.670349121094 996.68359375 996.163513183594 993.877502441406 993.438171386719 990.325134277344 997.251647949219 999.562377929688 1003.36401367188 1005.21978759766 1012.89105224609 1015.07867431641 1015.05627441406 1023.80645751953 1028.57141113281 1018.20867919922 1023.77825927734 1030.58959960938 1048.7568359375 1052.21179199219 1051.35607910156 1054.28930664062 1053.02844238281 1046.50146484375 1050.18664550781 1054.5576171875 1065.24426269531 1073.44812011719 1074.38989257812 1069.91833496094 1087.77685546875 1088.78454589844 1107.29040527344 1106.41857910156 1100.50256347656 1102.51000976562 1116.12829589844 1126.82934570312 1131.08154296875 1127.34558105469 1124.58312988281 1118.37548828125 1116.20275878906
951.560852050781 961.606323242188 975.019653320312 967.791809082031 963.721801757812 964.534240722656 984.343872070312 977.131896972656 976.34619140625 972.418212890625 979.734436035156 980.6337890625 974.857299804688 978.442016601562 981.310852050781 981.445007324219 966.008544921875 965.600646972656 964.864624023438 964.157409667969 974.328430175781 966.69775390625 963.053649902344 962.174499511719 962.439514160156 965.806335449219 964.604919433594 961.987854003906 962.258544921875 963.586181640625 968.204895019531 982.272766113281 968.675720214844 975.156311035156 989.644958496094 982.513061523438 970.611267089844 975.769104003906 967.533569335938 960.873779296875 956.536499023438 957.399169921875 958.678100585938 960.767578125 971.964477539062 967.19384765625 957.086547851562 965.845153808594 965.401794433594 960.439086914062 960.72705078125 952.537719726562 948.584716796875 955.426147460938 957.202758789062 958.062622070312 972.854309082031 969.934387207031 965.69287109375 951.07470703125 959.901977539062 969.033325195312 969.15673828125 963.083740234375 966.480712890625 967.839660644531 961.262939453125 957.706176757812 950.911499023438 957.472900390625 967.727294921875 961.786193847656 968.5537109375 967.399963378906 969.619262695312 972.345947265625 977.095397949219 971.51220703125 978.08154296875 978.922729492188 972.193481445312 977.15185546875 971.003234863281 969.880981445312 969.386840820312 975.612915039062 966.862487792969 968.417175292969 968.525451660156 963.481811523438 972.174133300781 967.733154296875 973.727661132812 971.610412597656 976.792419433594 978.442932128906 965.751281738281 969.972839355469 972.687255859375 965.050354003906 965.527099609375 976.47607421875 978.00732421875 982.152099609375 983.515319824219 988.622863769531 994.5283203125 994.419189453125 991.28369140625 993.390625 988.070007324219 994.241394042969 996.459045410156 993.281616210938 998.161987304688 999.648498535156 1008.9140625 1014.85229492188 1018.60137939453 1025.55493164062 1023.68774414062 1028.59130859375 1029.17297363281 1025.82604980469 1032.0791015625 1050.28515625 1050.38732910156 1045.46813964844 1054.02404785156 1053.88891601562 1045.86059570312 1040.24609375 1055.91674804688 1059.96337890625 1073.16674804688 1067.02355957031 1082.22314453125 1089.65734863281 1097.02563476562 1099.28503417969 1107.15966796875 1105.13854980469 1108.24829101562 1112.36901855469 1116.85791015625 1121.91467285156 1123.15515136719 1110.65087890625 1105.21252441406 1106.05810546875
955.533996582031 965.5205078125 975.920227050781 975.028137207031 972.366088867188 974.397888183594 981.647766113281 977.086059570312 973.92578125 968.526062011719 975.854675292969 975.274353027344 968.832580566406 980.287719726562 983.673950195312 972.999267578125 976.053588867188 962.957885742188 971.281616210938 966.450317382812 966.288452148438 964.125305175781 962.706665039062 968.347839355469 958.0390625 959.231140136719 954.276672363281 957.502319335938 960.662963867188 966.612060546875 968.429382324219 970.3876953125 966.339538574219 975.825012207031 973.334106445312 969.04345703125 964.050415039062 973.481201171875 970.919799804688 956.191589355469 954.245849609375 953.0703125 960.541381835938 968.419006347656 967.725646972656 970.951049804688 961.130432128906 952.902221679688 961.448974609375 962.969909667969 960.343322753906 955.902709960938 952.631896972656 953.21923828125 962.802490234375 964.107788085938 968.807312011719 963.913818359375 965.520629882812 957.837341308594 955.822082519531 959.738708496094 961.049499511719 954.409118652344 960.817932128906 962.969909667969 963.085021972656 955.191528320312 962.374877929688 956.013427734375 961.750427246094 959.8232421875 967.124389648438 973.988464355469 969.374816894531 963.525695800781 973.377380371094 972.012512207031 973.096862792969 970.374084472656 967.145446777344 968.99169921875 974.536987304688 967.438293457031 976.007263183594 973.075378417969 962.103515625 964.792907714844 965.325866699219 967.749206542969 975.641418457031 980.1728515625 975.696350097656 967.493774414062 974.396301269531 973.715576171875 978.558715820312 975.714233398438 974.045227050781 958.379211425781 958.601440429688 962.897766113281 972.851318359375 971.051696777344 979.672180175781 979.966369628906 983.207885742188 993.472229003906 990.757568359375 997.129028320312 995.84375 990.239074707031 984.708068847656 990.36181640625 1003.45904541016 997.190795898438 998.74072265625 1009.92974853516 1013.95697021484 1020.4853515625 1025.16882324219 1031.17834472656 1033.31481933594 1038.42065429688 1029.11096191406 1035.24279785156 1038.06921386719 1042.95544433594 1043.68054199219 1045.80053710938 1049.00329589844 1050.42578125 1058.390625 1067.72680664062 1070.73913574219 1074.96301269531 1080.59362792969 1084.89904785156 1095.21850585938 1102.63024902344 1107.01416015625 1105.19812011719 1108.54907226562 1111.17456054688 1116.10852050781 1116.77453613281 1125.75756835938 1110.01770019531 1097.58715820312 1106.14575195312
951.452453613281 960.03125 970.312622070312 970.860290527344 963.470275878906 972.851013183594 969.837097167969 978.62548828125 972.682312011719 967.845581054688 971.239624023438 976.047180175781 971.9208984375 973.891357421875 980.414367675781 979.794555664062 980.755920410156 962.352783203125 968.210388183594 958.8564453125 965.498718261719 968.018310546875 967.038391113281 975.376220703125 963.888977050781 958.955688476562 950.168212890625 955.291198730469 960.325866699219 973.240905761719 967.744323730469 971.295532226562 965.53759765625 964.118957519531 966.359069824219 973.377075195312 965.297119140625 960.715881347656 959.576049804688 954.380004882812 949.678649902344 951.146423339844 963.450622558594 972.658081054688 970.590942382812 971.854919433594 958.414428710938 950.127075195312 959.032287597656 963.673400878906 962.177795410156 955.579345703125 954.427551269531 947.396850585938 954.248474121094 967.471740722656 969.503356933594 969.166931152344 962.329772949219 956.212036132812 953.462829589844 957.753967285156 956.916320800781 954.029663085938 959.17919921875 963.578308105469 960.485534667969 960.996459960938 959.324340820312 951.988647460938 952.818603515625 964.286437988281 963.935913085938 956.345764160156 956.367553710938 965.106567382812 957.554870605469 949.461669921875 962.963134765625 958.288391113281 955.142333984375 971.0888671875 973.098937988281 971.66943359375 978.765502929688 967.129150390625 969.568664550781 975.991638183594 963.076904296875 970.85205078125 976.597534179688 970.688598632812 965.505920410156 964.580993652344 970.629943847656 975.820434570312 970.827331542969 975.122741699219 974.869140625 962.829162597656 972.815063476562 969.062561035156 968.149047851562 976.682067871094 975.200622558594 982.783569335938 988.0068359375 991.050720214844 993.504821777344 996.947998046875 991.595092773438 983.083068847656 990.629333496094 985.853820800781 992.481811523438 999.392395019531 1003.48229980469 998.235778808594 1009.23962402344 1014.748046875 1032.71447753906 1023.90258789062 1031.86181640625 1041.98022460938 1032.02917480469 1036.1796875 1035.974609375 1029.88317871094 1032.70703125 1050.15307617188 1048.34741210938 1068.54333496094 1062.61657714844 1071.10363769531 1076.10339355469 1085.55786132812 1091.54016113281 1092.2314453125 1100.70031738281 1101.50634765625 1113.86743164062 1117.73547363281 1110.17260742188 1108.81530761719 1109.61767578125 1115.76599121094 1118.6171875 1108.69543457031 1108.30261230469 1097.763671875
960.924560546875 968.593322753906 968.557495117188 973.810241699219 976.912475585938 981.244506835938 971.847717285156 976.787292480469 972.720458984375 971.6318359375 973.724182128906 972.133911132812 974.842041015625 973.465759277344 977.330078125 972.594482421875 974.004577636719 975.314270019531 970.18798828125 960.957153320312 966.068908691406 959.00439453125 961.97314453125 970.398132324219 967.640441894531 953.066162109375 945.606750488281 954.356811523438 955.418884277344 973.806762695312 970.851379394531 964.371765136719 961.706359863281 967.892822265625 965.622009277344 967.240295410156 967.802551269531 960.667602539062 953.279357910156 955.601989746094 951.79931640625 953.709350585938 963.411010742188 966.227172851562 964.715026855469 957.905517578125 945.589538574219 943.229553222656 958.313354492188 954.934936523438 956.806335449219 959.930419921875 953.317138671875 952.04541015625 954.530151367188 964.706848144531 968.532592773438 963.280395507812 958.858581542969 954.393249511719 955.424682617188 954.915161132812 954.438171386719 960.474548339844 957.445556640625 963.161254882812 964.921875 963.435852050781 964.316345214844 964.98046875 959.157104492188 962.758605957031 968.689270019531 960.658508300781 950.442016601562 954.386291503906 957.291687011719 955.679931640625 951.247253417969 946.947265625 949.03662109375 966.471557617188 972.274230957031 969.787719726562 974.50244140625 974.563598632812 972.550720214844 973.039184570312 966.018981933594 967.590759277344 967.845886230469 970.764892578125 967.671447753906 966.857299804688 967.26513671875 978.454223632812 979.749877929688 985.12255859375 982.245544433594 971.059997558594 976.750244140625 970.506469726562 974.348876953125 971.45556640625 978.359619140625 976.00390625 982.294738769531 982.134521484375 991.66796875 987.940368652344 979.483581542969 974.527221679688 979.518920898438 984.025390625 987.139038085938 1002.17114257812 998.912658691406 1002.88262939453 1007.84381103516 1020.10467529297 1022.01196289062 1033.06750488281 1029.271484375 1039.39880371094 1040.42028808594 1041.11730957031 1038.22888183594 1030.89050292969 1031.46850585938 1045.19140625 1057.11315917969 1058.32531738281 1064.98327636719 1066.64233398438 1083.43566894531 1090.6826171875 1095.76232910156 1096.36010742188 1102.02685546875 1098.07006835938 1101.12646484375 1110.41748046875 1097.14147949219 1097.89575195312 1093.73571777344 1093.02368164062 1089.75903320312 1088.04821777344 1088.23840332031 1095.99157714844
967.84375 958.635070800781 963.280090332031 963.815246582031 977.718505859375 977.551452636719 976.7802734375 976.097717285156 976.109985351562 971.130126953125 968.574890136719 970.613037109375 980.877197265625 979.859680175781 978.550109863281 974.9619140625 979.283569335938 977.436889648438 968.727783203125 966.408081054688 972.003845214844 961.557556152344 961.477478027344 962.454833984375 949.988708496094 953.889892578125 957.056823730469 952.432373046875 953.316589355469 965.266967773438 964.105651855469 963.699768066406 963.924926757812 964.432678222656 954.374877929688 960.332946777344 961.765625 958.417663574219 957.104858398438 955.919738769531 960.179870605469 965.885437011719 958.337463378906 963.665588378906 963.628540039062 952.557983398438 948.908813476562 949.245056152344 947.594604492188 953.113830566406 956.209716796875 948.353332519531 947.297912597656 944.648681640625 956.581726074219 961.99267578125 970.289916992188 960.749755859375 959.670959472656 952.23583984375 959.273681640625 955.541564941406 957.667053222656 959.88427734375 954.034729003906 964.226257324219 958.793762207031 959.848388671875 967.494567871094 962.899047851562 968.610778808594 963.753784179688 965.152954101562 964.10546875 963.234680175781 954.811157226562 952.924865722656 951.68701171875 949.569885253906 949.033874511719 955.661254882812 966.131774902344 974.380920410156 969.534240722656 967.494262695312 972.965515136719 974.689880371094 966.466552734375 966.680114746094 968.89794921875 966.845886230469 970.496948242188 970.076965332031 970.030151367188 964.106323242188 964.318054199219 969.642028808594 980.036560058594 974.796020507812 969.879516601562 973.079345703125 973.198181152344 979.31591796875 967.755310058594 980.234313964844 969.097106933594 975.225158691406 977.707641601562 984.943969726562 984.482604980469 981.993591308594 984.681823730469 987.519775390625 981.164123535156 983.907470703125 993.491394042969 1005.87292480469 1004.64996337891 1007.27178955078 1004.65167236328 1018.89739990234 1024.76843261719 1035.07409667969 1036.84936523438 1034.92797851562 1043.19897460938 1036.88439941406 1029.21264648438 1029.66381835938 1043.17846679688 1049.4892578125 1053.1298828125 1054.80541992188 1065.48181152344 1076.29846191406 1080.86450195312 1100.58569335938 1098.34387207031 1098.04772949219 1093.41345214844 1094.05700683594 1091.4775390625 1091.92150878906 1092.74841308594 1088.12158203125 1083.72717285156 1088.56799316406 1087.26147460938 1084.16955566406 1091.84594726562
960.233520507812 962.330322265625 961.71728515625 956.192443847656 971.600708007812 976.310485839844 971.073425292969 970.203063964844 971.575805664062 968.746337890625 970.61572265625 972.161987304688 972.4140625 980.731506347656 981.597473144531 978.070495605469 974.145690917969 971.313598632812 976.171142578125 966.745178222656 968.481079101562 966.81103515625 962.859375 949.210021972656 954.92626953125 952.837097167969 953.162048339844 952.122436523438 951.415100097656 956.225036621094 957.270690917969 967.103210449219 968.588562011719 963.913513183594 955.874206542969 968.975708007812 964.44677734375 959.989135742188 958.93212890625 951.264587402344 960.527221679688 966.676208496094 967.826599121094 961.832275390625 955.774719238281 958.915893554688 955.187866210938 945.775939941406 953.354187011719 958.024963378906 948.225158691406 951.866577148438 953.403259277344 955.118713378906 952.421569824219 953.492065429688 955.60888671875 959.976013183594 952.803955078125 954.651794433594 954.445007324219 960.670837402344 957.058166503906 959.888305664062 961.917663574219 957.639282226562 958.532287597656 954.766784667969 959.239318847656 954.552734375 962.641784667969 961.456420898438 965.864135742188 970.453918457031 962.630615234375 963.020324707031 951.985290527344 947.689880371094 947.523132324219 943.694519042969 955.365356445312 967.091613769531 969.949096679688 966.735961914062 971.4208984375 983.207214355469 968.329345703125 958.969055175781 961.962890625 972.434509277344 966.701354980469 967.1005859375 962.073913574219 966.596862792969 966.603149414062 960.505615234375 964.845397949219 980.045837402344 976.851135253906 968.228698730469 971.610595703125 972.732666015625 973.426696777344 976.748962402344 973.878967285156 979.37890625 984.281433105469 983.451538085938 981.845825195312 985.966918945312 990.3623046875 977.472961425781 982.406860351562 990.150085449219 985.897338867188 990.734924316406 997.9326171875 998.451110839844 1001.55535888672 999.367248535156 1006.8642578125 1023.91363525391 1023.16729736328 1030.95837402344 1027.86999511719 1043.57055664062 1030.72180175781 1025.42236328125 1037.20654296875 1043.00036621094 1053.84313964844 1062.27160644531 1058.42065429688 1061.50695800781 1074.39135742188 1082.42578125 1097.333984375 1097.63122558594 1097.35961914062 1094.1484375 1082.70849609375 1087.31750488281 1090.435546875 1092.11608886719 1077.0732421875 1074.84106445312 1082.05261230469 1086.86450195312 1074.07287597656 1088.24328613281
959.687194824219 962.842224121094 963.672058105469 972.348205566406 977.043518066406 975.081970214844 968.918212890625 972.063415527344 975.669677734375 968.827453613281 969.868225097656 965.686279296875 976.548583984375 982.694946289062 969.447509765625 975.758117675781 968.363830566406 969.697021484375 963.895568847656 970.277160644531 966.773315429688 970.918029785156 965.087890625 958.150512695312 938.120727539062 938.4638671875 942.731506347656 949.475646972656 960.215515136719 957.191833496094 961.967529296875 959.475646972656 957.483093261719 959.034973144531 955.977783203125 953.138793945312 957.99853515625 963.645446777344 952.959716796875 950.270874023438 957.396789550781 954.613098144531 959.664123535156 964.359069824219 955.160583496094 958.747314453125 957.449523925781 955.579162597656 961.186767578125 959.652404785156 947.726867675781 956.422607421875 949.907409667969 950.868347167969 951.040405273438 954.000854492188 951.99853515625 956.098449707031 947.875854492188 950.576110839844 953.470520019531 964.262756347656 959.833190917969 951.984436035156 958.911254882812 955.438354492188 945.424194335938 947.315185546875 953.774658203125 951.785278320312 961.916748046875 966.306945800781 959.942810058594 957.832824707031 958.305786132812 955.654968261719 958.307250976562 956.009216308594 955.135986328125 960.736755371094 958.521911621094 975.413879394531 973.264526367188 968.780395507812 966.890686035156 976.153564453125 966.821533203125 969.764099121094 966.250183105469 972.307250976562 961.310302734375 972.915771484375 965.011779785156 959.962524414062 965.232238769531 967.682983398438 969.858825683594 980.99853515625 979.805114746094 979.127502441406 974.388122558594 982.402648925781 979.278564453125 985.71533203125 977.825866699219 981.037841796875 988.407531738281 988.487854003906 990.110290527344 988.584350585938 996.636840820312 983.021728515625 987.356018066406 993.518249511719 991.18701171875 994.769104003906 994.5087890625 998.650695800781 1008.01348876953 1001.00952148438 1002.82019042969 1009.16589355469 1019.36627197266 1016.31958007812 1027.63269042969 1029.13525390625 1022.03277587891 1031.70886230469 1039.88220214844 1042.63708496094 1059.90771484375 1066.70690917969 1060.04772949219 1070.99987792969 1080.94543457031 1089.67700195312 1096.1611328125 1090.107421875 1086.59008789062 1083.47473144531 1077.37231445312 1072.32873535156 1065.0517578125 1075.71313476562 1080.47875976562 1078.21508789062 1075.87829589844 1073.37036132812 1065.72827148438 1082.02221679688
961.606201171875 959.732543945312 964.928649902344 960.988403320312 975.865966796875 968.985168457031 967.274963378906 970.01708984375 974.639953613281 972.016479492188 962.7470703125 967.102294921875 972.824401855469 971.183166503906 965.466186523438 965.668090820312 963.953125 968.336853027344 966.264953613281 969.588745117188 967.543701171875 965.870300292969 967.018615722656 965.410461425781 953.793701171875 952.104919433594 947.750061035156 953.952880859375 951.363464355469 948.238098144531 955.861938476562 955.200500488281 955.768920898438 955.06298828125 950.866577148438 956.279296875 956.973937988281 960.61572265625 956.263366699219 948.73583984375 948.593383789062 946.838562011719 948.165649414062 952.594421386719 959.116088867188 956.815979003906 954.826416015625 950.86865234375 955.44775390625 951.408020019531 947.813842773438 946.922058105469 947.394714355469 950.413940429688 963.793273925781 950.00048828125 961.615966796875 953.391845703125 952.408447265625 955.264770507812 956.25244140625 954.287963867188 959.246704101562 953.869567871094 964.042175292969 962.811950683594 956.446105957031 957.712219238281 955.240539550781 956.5732421875 962.267578125 958.099365234375 962.286804199219 956.635864257812 950.291564941406 958.706665039062 958.296081542969 958.071655273438 959.324645996094 962.555541992188 973.094787597656 974.467834472656 972.140808105469 969.522766113281 963.543151855469 974.392333984375 970.350463867188 960.655578613281 962.158386230469 967.647583007812 971.37939453125 967.231689453125 956.08056640625 956.875183105469 968.865600585938 977.106140136719 971.469055175781 968.0986328125 971.345397949219 982.017456054688 982.25048828125 991.964233398438 981.557983398438 987.614990234375 984.862854003906 983.203491210938 993.408813476562 996.591003417969 994.338134765625 992.267944335938 993.06298828125 991.551513671875 993.496032714844 994.46533203125 993.877258300781 989.890380859375 1002.02117919922 995.87841796875 1002.71014404297 1009.00640869141 1008.23602294922 999.973205566406 1001.49060058594 1005.32055664062 1016.12390136719 1021.50329589844 1031.25158691406 1037.51391601562 1040.98767089844 1039.63940429688 1059.87829589844 1056.21606445312 1055.1982421875 1063.6162109375 1075.26831054688 1089.83264160156 1093.21533203125 1084.49267578125 1083.68884277344 1070.31262207031 1073.49768066406 1060.02160644531 1057.05603027344 1060.54968261719 1068.81262207031 1068.31201171875 1075.60693359375 1069.68334960938 1072.13793945312 1066.42126464844
957.56640625 965.267028808594 964.484313964844 963.216674804688 971.203002929688 975.867431640625 971.974487304688 974.786437988281 975.607604980469 965.742858886719 965.005981445312 954.405883789062 953.568176269531 965.704223632812 964.495727539062 964.648620605469 962.427978515625 956.297607421875 958.283813476562 964.014404296875 964.169616699219 968.919006347656 961.736694335938 963.503112792969 962.265014648438 957.865173339844 953.661010742188 944.356384277344 945.405395507812 948.119873046875 950.470764160156 946.951293945312 947.613525390625 950.243713378906 947.433166503906 949.345092773438 959.992370605469 957.061218261719 948.823181152344 951.636596679688 949.136291503906 942.111938476562 936.372314453125 957.209899902344 957.544494628906 957.979370117188 945.810852050781 951.299926757812 952.204956054688 947.441467285156 949.713562011719 945.398193359375 951.312805175781 949.938598632812 953.216125488281 961.120483398438 958.746398925781 955.851501464844 958.364624023438 957.2314453125 964.031982421875 963.354797363281 961.133728027344 960.128601074219 965.944519042969 963.369140625 959.746765136719 960.993957519531 962.022033691406 963.261474609375 964.511901855469 956.687133789062 963.447692871094 965.587646484375 961.668762207031 963.473815917969 961.751037597656 967.421142578125 962.137329101562 972.671203613281 975.320190429688 975.333557128906 970.051635742188 970.548400878906 971.69873046875 975.972778320312 971.225830078125 963.0263671875 961.817565917969 968.429870605469 964.603393554688 961.392028808594 966.85595703125 970.856628417969 969.04296875 977.4853515625 970.732788085938 970.876647949219 979.332275390625 982.578796386719 985.564819335938 989.434509277344 976.930236816406 992.300415039062 990.172302246094 996.399291992188 998.578918457031 997.148071289062 1003.32336425781 995.70458984375 1002.94659423828 1005.69683837891 996.771118164062 994.728210449219 990.671203613281 1000.52178955078 1002.91278076172 1001.69055175781 1008.30474853516 1009.23931884766 1000.38684082031 1005.25543212891 1008.87219238281 1006.26342773438 1016.54565429688 1027.10485839844 1022.54888916016 1032.40539550781 1044.66650390625 1039.34106445312 1049.6083984375 1061.63671875 1057.36828613281 1060.73266601562 1076.83410644531 1081.40393066406 1081.7451171875 1074.71472167969 1068.53845214844 1064.64074707031 1057.58801269531 1049.35266113281 1040.16320800781 1044.09582519531 1049.78125 1060.69250488281 1058.16564941406 1055.18798828125 1063.72814941406 1063.93383789062
961.83154296875 969.433410644531 963.442565917969 965.840637207031 966.488464355469 974.916931152344 963.426025390625 967.306640625 967.204223632812 969.835327148438 965.470031738281 961.18310546875 950.830078125 957.054016113281 961.011962890625 962.141540527344 962.094360351562 956.938110351562 958.088928222656 961.924743652344 959.458862304688 963.290771484375 965.774841308594 960.730712890625 965.307373046875 960.442626953125 958.328857421875 944.49560546875 941.536254882812 945.187316894531 943.485046386719 947.514587402344 948.404357910156 954.33056640625 951.949340820312 945.155822753906 950.499084472656 950.644165039062 956.923522949219 952.145568847656 955.601501464844 943.954467773438 945.227355957031 948.200988769531 958.221618652344 953.736694335938 949.891296386719 947.081604003906 961.413452148438 952.932922363281 947.718872070312 954.530700683594 954.513244628906 949.019226074219 954.737121582031 957.875 953.740234375 963.764770507812 965.937561035156 960.135009765625 964.868286132812 960.399536132812 954.229797363281 957.618286132812 967.067810058594 958.365173339844 964.016540527344 965.592529296875 963.928466796875 969.09619140625 961.011474609375 963.757629394531 966.409790039062 964.227111816406 965.626831054688 962.173645019531 963.093017578125 973.769470214844 970.521606445312 968.856811523438 976.513122558594 973.391662597656 967.080871582031 970.089599609375 967.063842773438 969.999267578125 971 974.280883789062 972.984924316406 974.963806152344 973.007080078125 972.333435058594 965.421997070312 961.367004394531 976.037353515625 973.740600585938 981.449768066406 988.114562988281 985.491638183594 980.220947265625 982.420532226562 982.550048828125 972.219604492188 985.46044921875 991.357055664062 998.215087890625 993.348449707031 984.423034667969 995.818115234375 997.300964355469 998.392700195312 1003.59710693359 995.486083984375 1000.88226318359 998.072326660156 1007.04962158203 1000.11468505859 1002.23706054688 1004.40051269531 1004.49670410156 1005.93811035156 1007.44128417969 1005.58544921875 1009.86614990234 1016.37158203125 1021.1142578125 1020.07586669922 1025.90063476562 1046.16455078125 1045.36083984375 1058.91625976562 1066.880859375 1059.70434570312 1065.15234375 1072.01928710938 1067.70422363281 1064.69384765625 1051.43054199219 1046.36743164062 1051.83264160156 1038.13842773438 1027.97106933594 1027.46313476562 1030.94030761719 1048.98840332031 1047.31103515625 1051.71557617188 1057.27612304688 1055.69616699219 1052.54235839844
960.629516601562 965.695861816406 964.892822265625 971.066345214844 970.061889648438 972.6943359375 969.496520996094 964.633666992188 958.3544921875 961.992492675781 967.166931152344 958.864624023438 944.513366699219 953.224304199219 954.322021484375 964.41943359375 956.455993652344 961.698120117188 959.143737792969 962.559631347656 952.853332519531 959.491394042969 953.106079101562 959.105224609375 959.567443847656 956.438659667969 952.391723632812 950.278137207031 943.912231445312 951.380920410156 940.343566894531 942.160583496094 951.303344726562 950.954895019531 950.479858398438 951.825134277344 959.237976074219 954.080444335938 950.498962402344 950.174926757812 951.9833984375 952.983154296875 950.123291015625 953.674621582031 951.778869628906 950.732788085938 961.128295898438 960.437866210938 965.0263671875 952.288452148438 956.452026367188 962.971496582031 962.401123046875 958.790344238281 962.132263183594 954.454833984375 961.215576171875 968.945739746094 969.034729003906 957.382995605469 961.729431152344 957.361511230469 960.758544921875 960.755249023438 962.109375 962.464050292969 951.928161621094 966.159423828125 966.046203613281 963.286987304688 965.674072265625 966.021362304688 964.070983886719 967.771667480469 969.448364257812 964.9833984375 972.826354980469 969.201965332031 969.526489257812 973.346618652344 970.282958984375 967.302062988281 964.299987792969 967.672912597656 973.913024902344 970.994079589844 972.990478515625 972.940673828125 974.854248046875 972.573059082031 975.472961425781 960.245971679688 968.133544921875 970.261108398438 969.335021972656 970.781555175781 971.4794921875 989.09521484375 991.413696289062 984.646667480469 984.762023925781 983.151794433594 985.794982910156 990.728576660156 992.192626953125 997.656982421875 992.891296386719 993.088989257812 993.774230957031 999.721862792969 995.763610839844 1003.23840332031 996.568298339844 995.448303222656 1002.06060791016 999.013610839844 996.078430175781 1000.86419677734 1005.42474365234 1008.19842529297 1000.83142089844 1004.60974121094 1008.09594726562 1010.61834716797 1011.1064453125 1019.63214111328 1015.54089355469 1032.00537109375 1042.24401855469 1049.15380859375 1060.61340332031 1061.68176269531 1059.63220214844 1057.76281738281 1069.11901855469 1064.72583007812 1058.72204589844 1046.48681640625 1050.75561523438 1041.62145996094 1030.81030273438 1029.64489746094 1026.72680664062 1029.63732910156 1028.853515625 1038.02966308594 1045.50476074219 1050.67004394531 1050.99304199219 1033.61926269531
966.650329589844 961.045776367188 970.430480957031 971.18505859375 966.233947753906 968.470458984375 967.096313476562 966.418884277344 964.560119628906 961.699829101562 966.367004394531 953.882873535156 952.454772949219 945.02294921875 950.693725585938 959.35302734375 954.4765625 952.346496582031 956.634887695312 954.58837890625 954.890808105469 952.106323242188 943.206665039062 956.394287109375 960.983337402344 969.766784667969 963.338806152344 951.176940917969 945.953491210938 954.570129394531 946.710083007812 943.593078613281 947.8720703125 957.103515625 949.369018554688 953.250671386719 950.008422851562 953.321838378906 953.013061523438 951.880981445312 951.908935546875 949.708801269531 952.895141601562 952.614074707031 957.583923339844 957.004333496094 959.775268554688 969.493225097656 970.809204101562 968.955627441406 962.226745605469 956.81884765625 963.977294921875 954.870483398438 964.05322265625 969.158142089844 966.886474609375 976.466918945312 966.564025878906 971.143005371094 967.403259277344 952.939514160156 953.791015625 965.256774902344 966.311279296875 970.684753417969 968.915283203125 964.481689453125 968.289489746094 965.634033203125 965.608276367188 959.344604492188 950.278930664062 973.952575683594 974.833740234375 965.301696777344 970.734497070312 971.1328125 966.608825683594 968.002563476562 974.226135253906 970.056213378906 962.161987304688 975.962524414062 967.760559082031 971.658569335938 972.911804199219 974.72900390625 975.264099121094 971.75146484375 972.7021484375 966.019226074219 967.9267578125 969.969787597656 971.05517578125 972.061157226562 971.042846679688 977.254211425781 980.64208984375 985.807250976562 992.035583496094 983.156677246094 978.520629882812 990.94140625 996.365295410156 999.683837890625 1002.57080078125 998.063903808594 996.010009765625 996.208679199219 1002.45770263672 1004.10473632812 1006.80749511719 1002.07202148438 1000.42565917969 1001.28503417969 994.462097167969 1003.49920654297 1013.28009033203 1015.97674560547 1011.60168457031 1013.38641357422 1007.55749511719 1014.28173828125 1009.21881103516 1014.46405029297 1009.85229492188 1027.76696777344 1050.32568359375 1052.67834472656 1052.99499511719 1051.90258789062 1064.95031738281 1051.17443847656 1060.08471679688 1050.19323730469 1047.77673339844 1040.02880859375 1036.66357421875 1027.26696777344 1025.44189453125 1020.58557128906 1026.64172363281 1029.36865234375 1031.31616210938 1031.96997070312 1042.40490722656 1047.27917480469 1034.85522460938 1024.29956054688
962.873779296875 961.454467773438 964.028137207031 960.70751953125 969.313781738281 959.696899414062 959.19189453125 957.109619140625 957.623779296875 962.24853515625 961.310424804688 947.695190429688 948.405395507812 945.540405273438 947.755676269531 953.245178222656 951.191162109375 941.930358886719 944.409973144531 945.136413574219 940.413879394531 946.449096679688 955.5322265625 948.113403320312 956.309875488281 958.714538574219 956.747680664062 947.000305175781 946.262878417969 949.452026367188 953.775024414062 948.809936523438 945.10302734375 953.371826171875 944.822509765625 929.489379882812 941.660461425781 950.266418457031 954.687072753906 954.464538574219 949.883117675781 951.438354492188 950.197814941406 952.138244628906 959.495483398438 959.76953125 969.248168945312 973.99853515625 964.854248046875 965.586181640625 964.600280761719 962.687683105469 959.139526367188 957.305786132812 965.37744140625 968.99365234375 962.588684082031 969.749084472656 967.963684082031 978.419616699219 960.20458984375 958.25439453125 968.155700683594 961.159301757812 967.3466796875 971.516235351562 970.098449707031 969.417419433594 973.457763671875 968.852172851562 973.926391601562 968.775939941406 965.024719238281 963.565979003906 963.766540527344 974.798278808594 977.056579589844 975.388427734375 971.948120117188 970.178405761719 965.645690917969 975.921997070312 974.747436523438 975.258972167969 980.363037109375 975.366455078125 983.932495117188 977.820617675781 976.203979492188 974.777709960938 978.349731445312 976.296630859375 973.391540527344 969.217407226562 970.064453125 978.941040039062 972.510192871094 978.684448242188 985.668334960938 993.037353515625 989.2392578125 987.739196777344 988.713134765625 998.248291015625 992.657165527344 988.665344238281 1000.01574707031 1001.51245117188 1004.41564941406 1005.87701416016 1008.63012695312 1008.69171142578 1012.09637451172 1005.82952880859 1005.623046875 1009.42993164062 1005.8916015625 1009.22186279297 1017.95404052734 1029.79138183594 1027.53259277344 1019.52209472656 1010.51593017578 1017.17901611328 1021.50042724609 1020.31848144531 1020.1318359375 1029.92456054688 1047.45239257812 1050.6435546875 1046.05603027344 1048.40478515625 1051.30859375 1052.23559570312 1049.32116699219 1043.25769042969 1037.55444335938 1035.51086425781 1036.98657226562 1034.564453125 1026.35754394531 1022.34588623047 1023.98376464844 1034.52282714844 1034.30578613281 1029.22277832031 1030.51782226562 1022.4169921875 1027.39489746094 1029.80529785156
958.091674804688 953.927490234375 957.782165527344 961.264953613281 960.237426757812 963.343078613281 952.458984375 955.433959960938 950.005737304688 961.269104003906 949.782104492188 943.195922851562 945.184509277344 940.540649414062 940.261779785156 944.087280273438 935.873596191406 936.026794433594 938.636596679688 949.173583984375 942.794921875 943.734802246094 950.928161621094 952.242065429688 949.834838867188 951.708801269531 947.6083984375 951.230529785156 945.658142089844 947.417724609375 952.570983886719 949.994201660156 947.90576171875 952.386047363281 945.06591796875 939.791076660156 941.879943847656 954.817749023438 957.418273925781 956.624877929688 961.264343261719 951.299621582031 948.580627441406 957.1181640625 967.203491210938 963.134094238281 970.123718261719 959.5283203125 962.248779296875 962.051696777344 967.508850097656 960.987487792969 956.181884765625 965.214416503906 960.129821777344 965.267517089844 960.175842285156 966.321472167969 970.818298339844 973.211975097656 967.352844238281 967.945983886719 963.297546386719 966.898193359375 962.585083007812 962.066345214844 969.460388183594 970.273132324219 978.161376953125 977.1064453125 974.484375 969.525756835938 974.107849121094 972.936401367188 967.801635742188 973.089721679688 974.476623535156 975.368469238281 971.71337890625 975.602233886719 975.206298828125 978.630493164062 978.901611328125 985.376586914062 985.874572753906 988.317626953125 986.721130371094 987.112487792969 984.058044433594 977.549682617188 974.733581542969 971.322326660156 974.938232421875 981.707458496094 974.424377441406 986.13525390625 978.945617675781 983.413696289062 987.257751464844 997.692504882812 996.059509277344 995.572448730469 1002.29345703125 997.163818359375 988.36279296875 985.328369140625 988.004638671875 1004.02410888672 1007.65362548828 1005.42297363281 1008.65222167969 1016.77215576172 1017.751953125 1013.09851074219 1006.9697265625 1016.76428222656 1012.92614746094 1013.84631347656 1015.76470947266 1035.57495117188 1033.76550292969 1023.09112548828 1017.37268066406 1021.19061279297 1021.42346191406 1021.94775390625 1025.82043457031 1034.25061035156 1047.5556640625 1048.31921386719 1040.73095703125 1041.69995117188 1040.38854980469 1042.45349121094 1038.58520507812 1043.3232421875 1033.52880859375 1024.81958007812 1028.25451660156 1034.17883300781 1025.24951171875 1025.88818359375 1022.38830566406 1028.85192871094 1029.81750488281 1028.64343261719 1025.94689941406 1017.61730957031 1013.10778808594 1020.96075439453
953.960571289062 955.171020507812 952.420654296875 951.538940429688 953.833923339844 960.404663085938 957.8486328125 950.839721679688 953.630859375 947.640258789062 945.783264160156 946.599792480469 951.487915039062 945.294616699219 946.892028808594 946.5947265625 941.490173339844 935.196472167969 941.64208984375 948.218872070312 946.882629394531 950.780334472656 948.376647949219 945.269409179688 945.759399414062 947.156066894531 940.066467285156 947.449829101562 946.669738769531 939.929870605469 953.7099609375 945.561828613281 946.858459472656 953.265686035156 948.567443847656 943.67626953125 938.657897949219 959.689453125 954.923767089844 965.339416503906 968.525024414062 954.4248046875 952.514526367188 955.740539550781 953.190734863281 958.056213378906 961.265991210938 967.230651855469 968.379760742188 956.737121582031 958.098449707031 962.678039550781 960.494567871094 963.746643066406 966.765563964844 975.956359863281 962.591552734375 965.153869628906 977.013671875 977.203063964844 975.368591308594 965.777954101562 970.966674804688 977.126953125 958.144470214844 964.094421386719 971.717895507812 975.085998535156 978.045532226562 979.550598144531 978.708068847656 975.47119140625 974.049255371094 970.8115234375 973.431518554688 976.178588867188 969.398254394531 970.081115722656 969.468566894531 975.298767089844 971.737365722656 973.739624023438 979.870056152344 983.450744628906 976.177795410156 985.002319335938 989.4921875 986.18310546875 980.520080566406 981.97509765625 977.57373046875 972.900573730469 982.411926269531 992.354187011719 987.051574707031 987.591674804688 996.275024414062 988.133361816406 990.649047851562 993.408935546875 998.5390625 993.136108398438 994.053588867188 995.7236328125 998.900817871094 991.759948730469 999.617980957031 1011.28631591797 1002.02197265625 1013.40783691406 1008.44537353516 1015.62036132812 1021.13214111328 1022.05773925781 1018.67431640625 1026.21484375 1019.25421142578 1024.63037109375 1031.97436523438 1025.91674804688 1030.33190917969 1033.98852539062 1025.42785644531 1024.1015625 1022.36676025391 1022.26672363281 1026.54333496094 1036.79174804688 1042.455078125 1041.70959472656 1031.59460449219 1026.58752441406 1034.85974121094 1039.34985351562 1034.38525390625 1032.92907714844 1025.53271484375 1017.82861328125 1025.72119140625 1028.78149414062 1022.62512207031 1028.93469238281 1015.34692382812 1018.46887207031 1021.71905517578 1012.78216552734 1018.43792724609 1005.96624755859 1010.78814697266 1011.50579833984
965.3642578125 957.445861816406 955.388793945312 948.818176269531 949.263244628906 950.706481933594 956.042114257812 955.371948242188 951.226501464844 949.985656738281 947.120788574219 944.431396484375 944.418151855469 943.754943847656 949.735290527344 944.396423339844 940.821350097656 941.960388183594 946.827331542969 945.633056640625 953.493591308594 949.600952148438 944.018432617188 941.801879882812 945.883850097656 941.72900390625 944.641418457031 945.091613769531 949.515747070312 943.819274902344 950.207702636719 951.867065429688 957.292053222656 947.784606933594 940.879699707031 944.108703613281 950.233947753906 951.588989257812 954.046203613281 963.452331542969 960.469665527344 957.039794921875 963.34912109375 961.864196777344 965.403198242188 968.197326660156 965.345275878906 966.877624511719 973.978576660156 970.945251464844 958.757873535156 969.554565429688 968.502380371094 967.071044921875 969.711486816406 974.413391113281 978.215026855469 975.341979980469 976.798950195312 970.773071289062 964.24267578125 961.826232910156 968.50830078125 975.5146484375 962.982360839844 964.699768066406 969.11083984375 972.610107421875 979.3330078125 985.469116210938 978.660522460938 974.554260253906 974.095275878906 968.426452636719 977.134765625 976.789489746094 973.425109863281 966.214660644531 967.809997558594 969.97265625 974.338806152344 977.6962890625 990.271301269531 987.235534667969 984.318542480469 975.61279296875 984.397521972656 979.01416015625 986.910461425781 977.646301269531 970.734191894531 976.743591308594 983.335388183594 994.093139648438 985.276184082031 985.628601074219 994.052124023438 983.230163574219 985.296020507812 992.70458984375 998.459899902344 998.422668457031 990.135864257812 991.817260742188 995.696533203125 996.916748046875 1001.84680175781 1004.29071044922 1014.06512451172 1014.52630615234 1014.41333007812 1009.25537109375 1021.31140136719 1019.28863525391 1015.32720947266 1028.0126953125 1032.43383789062 1027.1474609375 1025.08728027344 1029.72644042969 1032.87451171875 1034.92932128906 1031.23852539062 1027.263671875 1023.75378417969 1018.10186767578 1031.06567382812 1038.53466796875 1040.94409179688 1039.7021484375 1032.82458496094 1027.2724609375 1023.82165527344 1031.62194824219 1034.85656738281 1028.50524902344 1022.72888183594 1020.83178710938 1030.34436035156 1031.20104980469 1030.59216308594 1026.41772460938 1030.50891113281 1018.84399414062 1017.02819824219 1013.78649902344 1010.98022460938 1006.95294189453 1000.04150390625 997.51953125
