NCOLS 150
NROWS 37
XLLCORNER 7394249
YLLCORNER 4843739
CELLSIZE 30
NODATA_VALUE -9999
991.716491699219 981.604614257812 983.892822265625 991.124328613281 994.759765625 999.199401855469 1008.52014160156 1002.24676513672 1012.49890136719 1015.35620117188 1003.00518798828 1003.84680175781 1000.66912841797 1001.24774169922 1005.12365722656 1016.04107666016 1013.36950683594 1016.42449951172 1016.92303466797 1008.51055908203 1017.81890869141 1023.94647216797 1031.18469238281 1024.09350585938 1022.20471191406 1025.09423828125 1025.72387695312 1023.05712890625 1025.01684570312 1026.40600585938 1023.27453613281 1038.36157226562 1033.60229492188 1025.84753417969 1024.02844238281 1020.03204345703 1016.28826904297 1008.18981933594 1009.33142089844 1009.92047119141 1007.37445068359 1009.42828369141 1008.50024414062 1011.70989990234 1010.81097412109 1012.16918945312 1022.27136230469 1016.90734863281 1010.94567871094 1007.32684326172 1005.15057373047 1001.59631347656 996.567626953125 991.862854003906 978.151428222656 959.907958984375 959.204650878906 961.153076171875 967.893981933594 967.114440917969 967.949584960938 971.288879394531 957.069030761719 949.207702636719 929.982849121094 932.868347167969 933.839599609375 928.128295898438 928.159301757812 936.034851074219 957.505920410156 958.209838867188 963.511596679688 965.373107910156 962.839050292969 978.24462890625 989.623229980469 997.127807617188 1006.33666992188 1015.73834228516 1020.81408691406 1015.44464111328 1010.02624511719 1004.88824462891 989.843627929688 984.404907226562 987.086181640625 967.717468261719 948.542053222656 945.606994628906 937.811157226562 929.929992675781 927.886596679688 931.245788574219 922.126403808594 910.436706542969 902.701416015625 895.878173828125 897.23779296875 895.396850585938 893.100158691406 887.063049316406 878.19970703125 868.7763671875 875.154052734375 882.564697265625 879.141845703125 881.910949707031 876.197692871094 875.352294921875 877.870849609375 873.439270019531 873.935119628906 878.508728027344 891.638122558594 895.858459472656 905.248779296875 913.161560058594 924.917724609375 926.912536621094 930.625244140625 937.37060546875 942.5205078125 941.852844238281 937.729614257812 946.668395996094 953.908264160156 958.967590332031 971.693481445312 982.263732910156 988.998107910156 1005.59619140625 1024.24572753906 1032.27404785156 1037.29040527344 1050.97265625 1058.56030273438 1068.15161132812 1083.66625976562 1090.84973144531 1106.24072265625 1109.89074707031 1119.39306640625 1122.32543945312 1122.26635742188 1113.82690429688 1102.890625 1086.13122558594 1069.38598632812 1068.61535644531
992.704895019531 990.327880859375 988.086730957031 986.434448242188 989.117797851562 996.686767578125 1007.54357910156 1011.55963134766 1008.82452392578 1019.92034912109 1008.57000732422 1009.33489990234 995.850402832031 997.314636230469 999.7294921875 1010.88879394531 1008.62707519531 1014.32952880859 1007.70910644531 1012.58959960938 1014.44757080078 1023.14459228516 1032.79125976562 1029.15832519531 1023.84747314453 1019.84539794922 1016.98516845703 1021.43530273438 1021.19311523438 1021.76525878906 1023.32788085938 1029.99230957031 1030.73864746094 1024.89074707031 1021.81903076172 1021.37677001953 1011.66760253906 1010.48809814453 1003.53063964844 997.123657226562 1005.67352294922 1006.60192871094 1005.97454833984 1004.15606689453 1007.2529296875 1019.77813720703 1020.27374267578 1018.72796630859 1010.58068847656 1008.12310791016 1009.41198730469 1003.75164794922 999.2724609375 995.749816894531 990.283264160156 977.692321777344 974.593444824219 968.353515625 976.940002441406 991.168762207031 972.86962890625 973.501831054688 971.101501464844 964.507080078125 951.207397460938 942.555969238281 940.549194335938 943.224182128906 943.39892578125 949.73486328125 955.045593261719 961.739135742188 969.900390625 973.869079589844 981.621520996094 989.548706054688 1003.82513427734 1010.09375 1017.56799316406 1017.98400878906 1026.77917480469 1020.91424560547 1015.67114257812 1005.25640869141 994.30126953125 995.456237792969 983.459594726562 967.885192871094 945.328857421875 940.834350585938 932.3251953125 929.971923828125 919.572387695312 925.045959472656 919.942687988281 910.103942871094 912.469299316406 898.764953613281 904.794799804688 897.027770996094 886.876892089844 879.122924804688 882.910095214844 881.897277832031 884.717041015625 881.913696289062 887.292907714844 885.681518554688 879.379760742188 878.287048339844 885.948791503906 885.666320800781 881.159912109375 880.224304199219 890.597229003906 900.641174316406 903.877685546875 908.83349609375 918.034362792969 924.358764648438 930.686401367188 928.263244628906 936.312561035156 944.726623535156 937.042724609375 942.600341796875 952.46044921875 962.22607421875 978.073974609375 985.221435546875 994.559387207031 1006.00415039062 1029.55847167969 1031.30883789062 1040.95031738281 1053.32592773438 1063.21496582031 1080.90014648438 1097.7548828125 1102.9228515625 1109.24560546875 1124.83996582031 1122.83117675781 1128.265625 1129.78869628906 1121.87414550781 1113.52062988281 1101.38464355469 1082.01574707031 1079.46411132812
993.905883789062 992.177856445312 985.361267089844 984.3232421875 988.884216308594 987.851501464844 1000.23431396484 1005.94012451172 1012.20776367188 1012.14617919922 1004.61090087891 994.775756835938 991.271667480469 994.3798828125 1005.13537597656 1003.55548095703 999.214172363281 1004.94372558594 1013.41198730469 1017.46844482422 1027.20251464844 1028.15307617188 1019.69659423828 1018.72741699219 1007.67980957031 1015.43133544922 1007.97778320312 1009.34484863281 1008.85589599609 1003.28179931641 1017.95593261719 1022.35620117188 1026.34948730469 1030.53698730469 1023.796875 1019.20916748047 1021.7734375 1014.47491455078 1001.28564453125 995.473083496094 1001.83557128906 1007.015625 1002.95483398438 1002.74749755859 1005.39459228516 1011.98760986328 1016.65991210938 1012.11010742188 1015.17980957031 1006.72760009766 1006.37854003906 1003.53131103516 1002.93951416016 1000.13116455078 1000.59521484375 993.875122070312 991.186401367188 988.543518066406 986.984069824219 996.713195800781 985.687133789062 987.363403320312 984.11328125 972.058776855469 969.898498535156 973.238159179688 957.292602539062 953.273254394531 959.47412109375 966.648742675781 964.869873046875 971.379760742188 971.096130371094 978.286682128906 980.037353515625 996.578857421875 1008.36633300781 1014.81079101562 1026.24279785156 1025.19128417969 1029.546875 1025.63500976562 1017.50744628906 1010.11639404297 1005.14556884766 992.570861816406 989.819030761719 973.202514648438 958.384460449219 944.530700683594 934.043762207031 928.203308105469 922.313659667969 923.007263183594 923.247619628906 917.427856445312 914.214111328125 907.766723632812 908.047912597656 905.083740234375 900.872619628906 893.82861328125 895.050170898438 889.351135253906 885.55615234375 892.587097167969 898.71826171875 900.615417480469 881.493408203125 887.461181640625 890.036682128906 887.48974609375 886.492004394531 884.924499511719 895.592529296875 905.57568359375 907.975891113281 907.759704589844 921.604919433594 931.683532714844 928.955200195312 937.162963867188 934.804748535156 943.618530273438 947.987915039062 954.17626953125 958.841674804688 965.042419433594 974.269287109375 985.056884765625 993.983215332031 1004.53546142578 1021.91711425781 1031.01538085938 1043.3798828125 1054.00549316406 1065.82385253906 1084.97314453125 1089.60034179688 1107.14526367188 1113.90344238281 1134.32568359375 1139.98999023438 1143.23645019531 1134.45031738281 1121.46630859375 1121.43310546875 1099.74450683594 1097.71118164062 1085.12731933594
990.148681640625 990.076110839844 988.7724609375 989.757141113281 993.188049316406 988.813293457031 995.837036132812 1004.66510009766 1003.48919677734 1005.59924316406 1001.13568115234 989.989013671875 984.390686035156 992.387268066406 992.040283203125 996.301696777344 1004.05541992188 1012.62249755859 1016.21618652344 1023.01812744141 1023.69348144531 1021.57330322266 1011.93835449219 1014.68499755859 1008.78625488281 1002.75933837891 1002.39916992188 1003.64392089844 1001.46105957031 1002.90313720703 1009.58380126953 1021.80523681641 1022.64208984375 1020.05010986328 1025.74499511719 1028.50219726562 1022.41101074219 1018.66625976562 1011.33026123047 1005.97912597656 1010.16534423828 1012.8671875 1009.80419921875 1008.32843017578 1007.60510253906 1007.6611328125 1011.4130859375 1008.21496582031 1006.37634277344 1008.43731689453 1007.25 1009.79217529297 1002.05755615234 1011.26525878906 1006.19982910156 999.629272460938 1007.04125976562 998.16748046875 999.899780273438 999.895935058594 994.429321289062 987.01806640625 974.344177246094 976.418151855469 973.844604492188 972.373779296875 973.192199707031 966.811584472656 966.474670410156 968.846252441406 968.107238769531 978.669982910156 969.943237304688 975.89013671875 989.451538085938 1003.53680419922 1015.87756347656 1015.16217041016 1029.63940429688 1035.61999511719 1031.50158691406 1027.06384277344 1026.57897949219 1018.48931884766 1010.57415771484 1010.45855712891 991.209594726562 977.218383789062 963.156066894531 949.619873046875 928.158630371094 926.977478027344 930.285705566406 933.653076171875 929.815795898438 923.274658203125 922.229370117188 917.622924804688 914.265625 912.08203125 910.295104980469 912.284301757812 910.961303710938 912.890747070312 904.407531738281 909.851867675781 912.598022460938 907.598937988281 901.90869140625 894.544189453125 895.426940917969 893.816833496094 890.560913085938 897.749267578125 908.01025390625 906.67041015625 916.517883300781 915.280090332031 928.186950683594 935.21044921875 935.756164550781 942.826232910156 945.973022460938 950.475769042969 950.342590332031 960.506591796875 969.801513671875 975.153747558594 978.400268554688 984.061950683594 991.831909179688 1003.00079345703 1026.60864257812 1039.53454589844 1042.72692871094 1049.81298828125 1069.59716796875 1085.46875 1097.14929199219 1116.17956542969 1110.26037597656 1126.251953125 1129.59497070312 1133.07653808594 1130.39587402344 1128.45324707031 1119.93469238281 1112.54284667969 1114.92846679688 1103.54541015625
995.441223144531 994.905212402344 986.728271484375 988.976013183594 992.607482910156 995.757019042969 1002.88482666016 1005.17718505859 1002.63110351562 1005.90997314453 1003.18859863281 996.453247070312 993.302062988281 989.180236816406 998.37841796875 1004.27087402344 1011.36950683594 1011.44879150391 1019.29602050781 1023.08227539062 1021.03308105469 1024.9208984375 1016.37884521484 1012.66436767578 1008.97283935547 998.890869140625 998.409362792969 996.82373046875 997.102294921875 1002.25885009766 1001.62042236328 1015.01959228516 1022.08843994141 1016.22869873047 1020.60522460938 1021.88684082031 1022.60510253906 1017.58209228516 1019.16851806641 1008.68682861328 1009.78308105469 1003.96435546875 1008.66021728516 1009.68981933594 1016.67840576172 1013.99725341797 1005.53662109375 993.0048828125 1003.11657714844 1008.96594238281 1012.51477050781 1006.52203369141 1005.04608154297 1014.81072998047 1018.84582519531 1010.94519042969 1002.16680908203 1010.45349121094 1014.71832275391 1003.45111083984 997.598999023438 991.864135742188 981.398193359375 983.759399414062 981.06787109375 982.008178710938 981.101196289062 975.815246582031 972.824829101562 972.486206054688 980.397583007812 981.314147949219 977.154602050781 987.866821289062 1000.4560546875 1012.49633789062 1023.46868896484 1018.78326416016 1027.28051757812 1036.81579589844 1032.83251953125 1032.712890625 1031.79809570312 1020.42547607422 1013.66705322266 1000.54779052734 987.0263671875 975.530456542969 959.403930664062 942.547424316406 932.491821289062 933.300659179688 935.811828613281 936.895629882812 933.4248046875 925.286315917969 920.196105957031 921.37744140625 911.570251464844 916.319641113281 914.646240234375 922.566955566406 916.55029296875 911.322814941406 913.640014648438 915.828491210938 919.255249023438 919.387145996094 910.908447265625 904.599853515625 907.018737792969 911.25390625 899.240600585938 910.202026367188 915.65673828125 914.917114257812 916.43701171875 918.636657714844 931.702026367188 928.718017578125 932.52392578125 941.12353515625 953.19775390625 960.548889160156 956.765563964844 968.837768554688 974.140319824219 980.634582519531 984.830444335938 988.84375 1000.51898193359 1010.65539550781 1021.23022460938 1034.71899414062 1050.39636230469 1061.84753417969 1067.72180175781 1084.06909179688 1099.52746582031 1107.64758300781 1110.17883300781 1124.48901367188 1124.90075683594 1133.44396972656 1129.98889160156 1137.611328125 1131.85131835938 1131.77795410156 1127.03442382812 1115.08740234375
998.212280273438 998.390380859375 988.743225097656 981.5986328125 984.108703613281 989.621948242188 997.542175292969 1000.57165527344 1003.24615478516 1008.08160400391 1000.06378173828 993.765075683594 991.77734375 996.145690917969 999.300720214844 1007.35925292969 1006.81774902344 1012.51892089844 1017.76434326172 1011.84582519531 1017.09448242188 1006.75390625 1000.24780273438 1001.97021484375 999.152648925781 1002.51684570312 997.006530761719 1005.70617675781 999.005859375 1012.09997558594 1009.48254394531 1013.71441650391 1011.14050292969 1015.46264648438 1015.65466308594 1014.15209960938 1015.11663818359 1013.37762451172 1016.29437255859 1007.23736572266 1018.64569091797 1016.11065673828 1012.17846679688 1014.87982177734 1016.48266601562 1010.16369628906 1002.07501220703 1002.84454345703 1008.29504394531 1013.37213134766 1019.52685546875 1023.16314697266 1008.75012207031 1012.482421875 1024.142578125 1019.16912841797 1006.54327392578 1004.19274902344 1011.49786376953 1016.91101074219 1003.59710693359 993.686706542969 993.296264648438 989.845520019531 990.385498046875 996.062316894531 997.457641601562 988.5078125 978.637878417969 974.760559082031 978.705627441406 983.99560546875 991.980834960938 997.12158203125 1004.10479736328 1014.02703857422 1031.26745605469 1026.97644042969 1031.04064941406 1030.98815917969 1030.48742675781 1030.88415527344 1029.43090820312 1012.88208007812 1005.74468994141 986.716003417969 979.503479003906 976.473388671875 968.201599121094 948.777160644531 943.44189453125 940.075744628906 939.511291503906 946.886596679688 945.164733886719 930.419311523438 928.855651855469 924.991638183594 927.33251953125 930.68505859375 927.077087402344 928.072875976562 926.504150390625 925.607055664062 922.159912109375 919.365417480469 930.424926757812 931.538024902344 925.810302734375 917.880310058594 907.247436523438 909.342468261719 914.532165527344 927.476623535156 919.626770019531 917.337890625 914.350524902344 917.711730957031 924.771423339844 916.021240234375 932.786865234375 938.616027832031 953.048522949219 972.185913085938 969.711730957031 973.640441894531 983.6064453125 996.084533691406 992.521484375 993.4091796875 1001.44580078125 1028.48754882812 1030.48266601562 1041.28002929688 1058.08508300781 1065.19055175781 1071.78869628906 1082.64379882812 1083.55224609375 1095.5068359375 1105.83068847656 1108.63366699219 1120.53259277344 1131.08898925781 1140.45739746094 1130.26257324219 1132.74243164062 1129.88171386719 1118.84558105469 1113.87426757812
998.785705566406 996.493591308594 996.225402832031 990.9541015625 984.821594238281 987.458557128906 996.704956054688 1000.78674316406 990.328552246094 1001.16522216797 994.16162109375 995.00146484375 985.932556152344 991.992248535156 997.72998046875 1008.8193359375 1011.04638671875 1008.97711181641 1011.56420898438 1016.46618652344 1013.70782470703 1006.52386474609 1001.60473632812 1003.92523193359 999.243408203125 994.259582519531 1005.48559570312 1005.35852050781 1003.91284179688 1009.17279052734 1006.90692138672 1014.19616699219 1019.86016845703 1022.67834472656 1011.42395019531 1008.52325439453 1016.90985107422 1018.21081542969 1016.6572265625 1012.43817138672 1014.77355957031 1020.83172607422 1021.22448730469 1018.81695556641 1013.74774169922 1010.62731933594 998.055236816406 1008.30590820312 1012.0224609375 1011.859375 1004.68719482422 1010.81372070312 1010.68493652344 1017.92352294922 1011.40344238281 1014.51263427734 1012.16217041016 1016.60705566406 1020.43530273438 1021.43188476562 1011.12744140625 1004.30914306641 1007.39569091797 1005.01678466797 1010.24694824219 1007.71063232422 1006.84790039062 993.321960449219 985.924682617188 982.640747070312 993.380432128906 986.014953613281 993.508178710938 1001.64141845703 1010.83215332031 1022.97174072266 1026.06469726562 1024.501953125 1024.62878417969 1033.23669433594 1032.02807617188 1029.16955566406 1020.64593505859 1008.58001708984 994.927795410156 991.346069335938 987.215393066406 970.760009765625 960.7529296875 952.934631347656 947.707214355469 951.570251464844 942.021118164062 945.895141601562 940.983093261719 929.879638671875 930.634033203125 927.198364257812 927.094299316406 931.66943359375 931.855041503906 932.789611816406 930.942993164062 926.750122070312 924.089782714844 934.293090820312 940.784118652344 937.068115234375 936.36572265625 930.815551757812 925.986267089844 925.634033203125 930.178955078125 935.323669433594 934.324829101562 920.822937011719 918.155578613281 919.809448242188 919.257263183594 921.843688964844 935.002197265625 941.375549316406 951.695190429688 967.277709960938 969.393310546875 981.918823242188 990.737609863281 996.667541503906 997.704956054688 996.527404785156 1012.72485351562 1022.46240234375 1032.22802734375 1047.41979980469 1062.32092285156 1067.83813476562 1077.5234375 1084.48254394531 1085.82092285156 1093.43762207031 1094.40576171875 1103.01281738281 1115.71923828125 1119.74499511719 1127.41333007812 1122.49304199219 1127.47290039062 1124.4443359375 1118.38586425781 1120.87585449219
996.44921875 997.345642089844 992.949768066406 986.044311523438 988.312255859375 996.941162109375 992.13720703125 991.39892578125 989.185852050781 991.769470214844 982.144287109375 986.111511230469 991.712280273438 994.281127929688 1002.18951416016 1005.79766845703 1005.08038330078 1010.09808349609 1012.41430664062 1010.75402832031 1009.10284423828 999.675659179688 1001.2626953125 993.008728027344 993.236694335938 995.130981445312 1002.67016601562 1006.39611816406 1005.12170410156 1009.92700195312 1014.14135742188 1018.51177978516 1014.24841308594 1020.88824462891 1014.99182128906 1013.29510498047 1011.71276855469 1017.20416259766 1017.98077392578 1018.72259521484 1021.09265136719 1024.67407226562 1031.30871582031 1023.99102783203 1023.35021972656 1019.91802978516 1002.69616699219 1008.27288818359 1013.33764648438 1014.41125488281 1013.5849609375 1008.54473876953 1012.49774169922 1006.39434814453 1007.05023193359 1004.76483154297 1013.37420654297 1012.96551513672 1017.19952392578 1019.91967773438 1013.24041748047 1008.98443603516 1014.83099365234 1018.57843017578 1015.19610595703 1015.07147216797 1006.91766357422 993.204345703125 1000.28521728516 994.904479980469 989.768615722656 992.945922851562 992.331726074219 1003.29669189453 1016.07940673828 1020.96936035156 1023.96240234375 1031.85522460938 1031.08056640625 1029.85607910156 1028.57775878906 1018.67547607422 1015.60943603516 1008.76715087891 992.414978027344 992.81494140625 991.516418457031 973.928161621094 956.301086425781 952.8828125 950.921936035156 956.919677734375 949.549499511719 939.122924804688 943.590209960938 930.61279296875 925.38525390625 933.224670410156 928.0205078125 931.937133789062 939.051208496094 940.206298828125 939.619506835938 938.908630371094 945.059753417969 939.290466308594 946.363159179688 944.870788574219 945.968872070312 932.792114257812 939.427795410156 936.075317382812 937.950439453125 928.7744140625 930.315246582031 922.378356933594 908.518615722656 905.733947753906 923.166320800781 929.915283203125 945.508178710938 945.5791015625 953.789916992188 973.949951171875 981.644592285156 987.855224609375 985.059143066406 992.468872070312 1007.45764160156 1008.08825683594 1013.41375732422 1028.4541015625 1033.26708984375 1042.65478515625 1057.70666503906 1055.3515625 1062.39038085938 1077.81079101562 1078.44104003906 1088.15356445312 1092.77734375 1097.68322753906 1115.98620605469 1107.79174804688 1115.904296875 1118.19116210938 1126.72717285156 1123.72387695312 1124.76794433594 1111.32946777344
1000.083984375 994.918701171875 993.481079101562 995.62646484375 986.11767578125 992.80908203125 996.872802734375 994.734436035156 993.526428222656 993.290649414062 980.882934570312 978.248840332031 978.965026855469 986.541748046875 998.105529785156 989.52099609375 1002.49334716797 1002.84332275391 1002.38592529297 1001.54809570312 996.497985839844 1002.9970703125 1000.11370849609 993.04345703125 992.879211425781 985.357604980469 995.976928710938 1001.93701171875 1012.33319091797 1014.44183349609 1021.18853759766 1020.03503417969 1016.94964599609 1013.08648681641 1013.81225585938 1015.97235107422 1017.72534179688 1024.33520507812 1033.33935546875 1038.91687011719 1040.18518066406 1029.408203125 1024.08264160156 1027.51696777344 1024.80505371094 1018.48809814453 1011.69854736328 1008.79113769531 1012.49359130859 1018.32550048828 1017.09954833984 1016.71759033203 1012.90008544922 1003.41033935547 1007.50280761719 1009.23791503906 1017.23937988281 1014.04248046875 1019.45147705078 1021.30932617188 1017.92144775391 1020.1728515625 1013.19366455078 1012.85748291016 1017.61645507812 1020.05804443359 1009.40521240234 999.181518554688 1002.85607910156 993.083557128906 985.393615722656 992.094909667969 1001.45098876953 1006.89288330078 1019.13165283203 1024.40185546875 1033.10107421875 1030.86413574219 1037.60424804688 1029.76513671875 1026.35131835938 1022.72106933594 1014.86663818359 1013.28131103516 1004.87359619141 995.217468261719 987.117553710938 976.851379394531 961.423034667969 958.660278320312 956.154968261719 944.123352050781 949.135803222656 946.635986328125 946.007202148438 946.219665527344 930.820739746094 941.6513671875 935.92041015625 939.344909667969 948.869079589844 950.6650390625 949.744018554688 947.552917480469 950.643920898438 948.327453613281 943.258056640625 949.216430664062 952.943298339844 954.537109375 954.477355957031 951.493041992188 946.185302734375 934.54931640625 919.263854980469 916.119262695312 909.523010253906 911.007202148438 923.599609375 930.727966308594 943.391296386719 950.675170898438 955.555786132812 970.541687011719 983.073608398438 996.449035644531 987.8095703125 998.082092285156 1009.25018310547 1016.94934082031 1027.68688964844 1033.96691894531 1035.67785644531 1042.30712890625 1048.57238769531 1059.00744628906 1072.80615234375 1079.47570800781 1079.75732421875 1090.03881835938 1103.439453125 1104.95373535156 1112.04455566406 1105.78161621094 1103.46362304688 1115.92993164062 1114.3271484375 1124.90002441406 1123.98779296875 1111.21960449219
1004.09381103516 1000.93450927734 989.87255859375 993.9892578125 985.908752441406 984.378845214844 992.707641601562 991.074340820312 990.656555175781 980.338989257812 983.738891601562 975.40185546875 967.181213378906 974.770202636719 987.760559082031 987.780883789062 993.345458984375 997.02783203125 1003.40222167969 1007.00708007812 1003.2197265625 1003.69696044922 1011.22601318359 1001.65844726562 994.539611816406 993.0234375 995.082275390625 1003.02075195312 1017.97644042969 1017.21826171875 1018.11798095703 1016.99188232422 1017.97668457031 1020.92840576172 1018.72454833984 1023.63610839844 1021.24548339844 1037.9619140625 1035.85595703125 1039.39697265625 1032.28295898438 1030.80029296875 1025.74230957031 1029.25524902344 1032.34118652344 1008.89874267578 1012.14581298828 1013.11932373047 1010.20959472656 1016.33081054688 1014.90423583984 1015.17846679688 1017.21990966797 1005.65942382812 1001.41137695312 1004.47833251953 1005.76232910156 1007.67852783203 1014.85168457031 1019.45574951172 1022.74163818359 1015.55395507812 1015.48480224609 1016.9306640625 1025.744140625 1021.09802246094 1018.33770751953 1005.54376220703 1003.04235839844 999.737731933594 993.109252929688 996.51171875 1005.84851074219 1019.83294677734 1030.66711425781 1021.57672119141 1032.52746582031 1033.33251953125 1032.5 1031.88195800781 1031.09411621094 1029.16296386719 1026.0244140625 1015.05102539062 1007.95568847656 997.558898925781 987.9775390625 977.142150878906 966.53125 961.109313964844 943.807983398438 940.108520507812 946.009704589844 947.725402832031 954.001586914062 951.090148925781 949.166748046875 953.160400390625 949.303039550781 948.66943359375 952.971252441406 959.257019042969 959.060852050781 963.704895019531 963.039611816406 965.16748046875 954.463317871094 958.962707519531 970.635864257812 969.895385742188 958.681579589844 942.434936523438 945.39013671875 929.00634765625 921.903869628906 919.258483886719 905.957458496094 911.354309082031 927.722595214844 932.273193359375 944.901428222656 959.450073242188 965.570007324219 973.766784667969 981.521789550781 985.038452148438 1000.84027099609 1008.859375 1014.18640136719 1021.67486572266 1028.76293945312 1040.77001953125 1043.88305664062 1048.78515625 1054.13842773438 1057.03540039062 1069.06225585938 1080.626953125 1087.81005859375 1092.29138183594 1104.84423828125 1111.35388183594 1107.10473632812 1107.43420410156 1097.60876464844 1107.1162109375 1106.3076171875 1107.13562011719 1109.48449707031 1109.19921875
983.781433105469 990.196472167969 987.217041015625 988.539611816406 978.912719726562 974.354064941406 981.94921875 990.442321777344 981.872009277344 985.30078125 988.289367675781 978.594116210938 969.7353515625 978.920776367188 980.789489746094 984.386596679688 985.148986816406 988.175842285156 987.293823242188 1003.56121826172 1004.77416992188 1006.76312255859 1006.73034667969 1004.67150878906 1003.78509521484 1000.51239013672 1002.29241943359 1007.28558349609 1013.45080566406 1016.89691162109 1012.53527832031 1011.80889892578 1014.79595947266 1024.02111816406 1027.26574707031 1028.44458007812 1027.58813476562 1032.49755859375 1043.13134765625 1037.9345703125 1036.7236328125 1033.15246582031 1027.09240722656 1033.82043457031 1032.537109375 1018.68218994141 1013.15771484375 1008.73962402344 1014.6767578125 1011.21722412109 1017.93664550781 1008.32897949219 1011.52215576172 1005.70928955078 998.169311523438 994.512939453125 1001.19024658203 1002.08062744141 1014.65203857422 1024.38073730469 1030.20666503906 1018.7421875 1019.39294433594 1029.07263183594 1029.37841796875 1025.90734863281 1027.94885253906 1011.19494628906 1006.61682128906 1005.09167480469 1005.86804199219 1010.03991699219 1014.72534179688 1025.64013671875 1023.00958251953 1025.05041503906 1026.48718261719 1025.52844238281 1039.73498535156 1032.65563964844 1035.68579101562 1036.12475585938 1029.8662109375 1023.7822265625 1022.42041015625 1009.05407714844 993.334228515625 981.361450195312 972.704650878906 953.880065917969 946.485473632812 938.006652832031 943.34814453125 955.679016113281 954.615295410156 960.998168945312 962.436645507812 961.806701660156 973.506713867188 966.153076171875 963.630920410156 963.524597167969 972.480102539062 971.180297851562 977.153442382812 973.760437011719 976.958251953125 979.247680664062 979.391357421875 973.358642578125 966.826354980469 949.243896484375 944.80712890625 937.038696289062 929.451232910156 916.563049316406 907.684875488281 909.773986816406 927.934936523438 935.618286132812 953.091186523438 962.417541503906 967.787292480469 973.375061035156 979.470764160156 987.594055175781 1001.6201171875 1013.45294189453 1013.31469726562 1022.52307128906 1037.29528808594 1039.50744628906 1042.93603515625 1044.12805175781 1052.53869628906 1052.23181152344 1055.77673339844 1071.74267578125 1092.08386230469 1099.11779785156 1092.46887207031 1094.94177246094 1096.59155273438 1097.34362792969 1102.44018554688 1106.39782714844 1098.70703125 1105.55578613281 1108.03063964844 1111.87817382812
983.840698242188 987.04345703125 983.730590820312 975.831665039062 976.715148925781 981.181274414062 980.3125 978.58056640625 984.138122558594 984.75341796875 987.091430664062 981.126281738281 974.173461914062 975.47705078125 971.569458007812 975.379577636719 980.869018554688 978.491882324219 988.658874511719 1000.11151123047 1001.77380371094 1000.45080566406 1010.0380859375 1005.8828125 1005.76965332031 999.396789550781 1006.19232177734 1012.2880859375 1015.67041015625 1015.99304199219 1011.90826416016 1023.20318603516 1021.19519042969 1026.03442382812 1029.79895019531 1035.32873535156 1043.94482421875 1037.23608398438 1040.73559570312 1047.61181640625 1041.71325683594 1031.13037109375 1031.39697265625 1030.09777832031 1026.57531738281 1022.53088378906 1011.92822265625 1017.77526855469 1014.25787353516 1015.42547607422 1012.83776855469 1009.94213867188 1008.21246337891 1003.28625488281 1006.09429931641 1005.28002929688 999.802978515625 1002.56365966797 1016.67266845703 1018.16265869141 1026.18212890625 1029.99584960938 1016.74096679688 1028.20617675781 1028.33093261719 1025.11730957031 1011.87261962891 1014.6923828125 1009.72302246094 1011.14471435547 1020.60876464844 1021.45654296875 1024.79150390625 1024.27758789062 1023.56036376953 1020.60491943359 1022.75103759766 1020.28033447266 1032.47668457031 1048.873046875 1045.06091308594 1037.16198730469 1032.01013183594 1028.09594726562 1016.48315429688 1004.06115722656 992.891967773438 985.178588867188 974.254516601562 965.938903808594 950.70751953125 948.436401367188 955.9990234375 966.214172363281 970.474365234375 970.234130859375 967.08740234375 972.565368652344 973.859985351562 975.345581054688 976.760681152344 976.461120605469 988.891235351562 977.130065917969 989.786071777344 993.304809570312 988.926818847656 982.675903320312 976.488159179688 982.642944335938 960.663146972656 955.617858886719 943.818603515625 944.306640625 923.876342773438 920.216064453125 911.130798339844 923.684326171875 932.104431152344 944.297058105469 955.189453125 959.777709960938 963.983947753906 973.698059082031 984.302429199219 991.137084960938 1009.41754150391 1011.69049072266 1012.84429931641 1030.759765625 1043.36669921875 1045.97570800781 1041.85083007812 1043.65942382812 1043.20458984375 1045.8544921875 1060.31823730469 1068.91064453125 1081.52868652344 1083.7236328125 1086.60107421875 1089.91430664062 1101.56823730469 1098.53173828125 1101.52551269531 1104.72058105469 1096.9697265625 1105.60778808594 1115.08251953125 1101.4912109375
975.429565429688 978.774291992188 978.121520996094 970.562072753906 976.758972167969 981.505432128906 984.254150390625 984.905090332031 982.397094726562 987.141418457031 985.519104003906 965.911376953125 968.167053222656 970.280212402344 968.135192871094 976.848999023438 979.787963867188 981.736206054688 985.888366699219 992.503234863281 1004.32556152344 1000.77691650391 989.248291015625 988.281188964844 991.306030273438 996.248352050781 1006.71252441406 1007.35076904297 1008.09948730469 1023.05059814453 1026.53698730469 1027.42248535156 1015.82708740234 1018.36846923828 1031.15063476562 1041.93640136719 1033.80773925781 1028.84582519531 1035.60424804688 1036.96166992188 1046.90893554688 1039.77490234375 1037.32556152344 1036.271484375 1029.51171875 1026.71337890625 1018.00183105469 1016.31915283203 1013.37902832031 1016.61761474609 1020.89978027344 1016.61083984375 1008.91033935547 1000.25354003906 998.105773925781 997.928649902344 997.40869140625 1001.88507080078 1007.55993652344 1014.26971435547 1024.30908203125 1025.20922851562 1019.76623535156 1026.91979980469 1026.47387695312 1025.23596191406 1028.19555664062 1015.220703125 1015.85223388672 1012.53582763672 1018.15026855469 1016.81848144531 1022.16491699219 1026.68994140625 1021.97357177734 1015.26605224609 1006.72351074219 1018.69396972656 1036.1474609375 1040.33471679688 1039.26928710938 1032.58728027344 1025.31311035156 1025.55554199219 1016.35119628906 1006.90240478516 1003.31060791016 991.469360351562 977.598937988281 971.726135253906 963.592407226562 959.002319335938 970.314514160156 977.668212890625 976.83251953125 973.182434082031 982.251892089844 975.796447753906 983.923522949219 985.060302734375 990.534240722656 992.692749023438 999.734436035156 993.974975585938 992.808410644531 996.802124023438 991.779357910156 992.463317871094 983.154968261719 981.465698242188 973.366638183594 956.694458007812 950.84033203125 939.846069335938 933.391052246094 925.872680664062 925.931030273438 925.699401855469 935.257934570312 939.657409667969 957.871459960938 955.575439453125 964.81982421875 973.642456054688 987.964965820312 997.635192871094 1010.62390136719 1017.74475097656 1021.68682861328 1032.97497558594 1047.60595703125 1052.13793945312 1050.99975585938 1047.21630859375 1046.83874511719 1058.65588378906 1058.64916992188 1068.64343261719 1068.24694824219 1074.21728515625 1075.75988769531 1082.86010742188 1093.66235351562 1091.89611816406 1097.89916992188 1100.33813476562 1104.76892089844 1112.58874511719 1120.38208007812 1111.59045410156
974.034301757812 969.898986816406 969.506530761719 967.106140136719 968.61962890625 966.968872070312 978.687133789062 984.95751953125 986.0283203125 979.782836914062 973.874694824219 956.659729003906 960.622802734375 971.692993164062 971.970031738281 976.768798828125 975.108520507812 984.483825683594 977.85986328125 986.829650878906 989.478271484375 987.394165039062 983.051513671875 979.978942871094 991.860778808594 990.629455566406 1003.95166015625 1009.80950927734 1014.87030029297 1020.96099853516 1020.26788330078 1024.28967285156 1019.90270996094 1021.11712646484 1032.27905273438 1036.13610839844 1045.70825195312 1027.345703125 1032.63000488281 1035.10302734375 1044.22717285156 1038.4013671875 1046.75012207031 1039.93579101562 1031.78149414062 1029.40026855469 1032.90893554688 1022.76171875 1009.21252441406 1002.67333984375 1009.75500488281 1001.87493896484 1001.60369873047 1000.4384765625 1000.01928710938 1003.24468994141 1004.02484130859 1006.28802490234 1005.48822021484 1017.48876953125 1022.24139404297 1018.56726074219 1023.10394287109 1026.67846679688 1030.25952148438 1023.20837402344 1025.21557617188 1023.34313964844 1018.46020507812 1008.33337402344 1011.81359863281 1014.12078857422 1023.80047607422 1029.87109375 1019.90850830078 1016.96551513672 1017.25207519531 1018.69189453125 1024.72290039062 1033.81457519531 1033.46118164062 1028.43237304688 1024.8583984375 1019.17651367188 1011.5517578125 1000.96313476562 997.561950683594 988.154846191406 981.0634765625 977.804138183594 973.678466796875 978.068542480469 979.874816894531 987.532958984375 977.861572265625 987.379211425781 985.665283203125 987.410827636719 992.146606445312 995.027526855469 995.645874023438 996.5849609375 1005.47698974609 1001.80633544922 1003.19976806641 989.352844238281 990.894958496094 996.720275878906 998.318542480469 991.9169921875 971.820861816406 963.359802246094 950.361267089844 938.900817871094 926.315795898438 930.413818359375 929.678344726562 941.049133300781 942.317993164062 946.62060546875 955.286254882812 962.102844238281 979.307434082031 983.630004882812 986.216613769531 997.284545898438 1003.34545898438 1017.42999267578 1029.04260253906 1034.83227539062 1042.37231445312 1049.74572753906 1057.35180664062 1051.17797851562 1047.48754882812 1056.17712402344 1057.57006835938 1066.46716308594 1065.01745605469 1069.61694335938 1077.3359375 1089.212890625 1096.60192871094 1092.89086914062 1096.09606933594 1096.46850585938 1102.75256347656 1105.82885742188 1102.97705078125 1113.90405273438
983.795532226562 978.083374023438 965.744445800781 963.125061035156 955.644958496094 955.475708007812 963.001281738281 967.600891113281 966.848266601562 965.908142089844 960.276550292969 955.198181152344 965.145080566406 963.677124023438 972.596130371094 976.323669433594 975.834594726562 971.897827148438 976.636657714844 984.525146484375 993.089782714844 985.430908203125 976.409545898438 976.108764648438 984.098266601562 996.961181640625 1004.45330810547 1006.33349609375 1010.13122558594 1017.88830566406 1021.26361083984 1020.61480712891 1019.52691650391 1027.12634277344 1027.52746582031 1032.78918457031 1032.23742675781 1027.82336425781 1024.15625 1031.38806152344 1044.798828125 1036.48718261719 1033.25500488281 1043.72668457031 1033.66821289062 1027.32202148438 1029.03784179688 1018.45501708984 1005.68402099609 995.830932617188 1000.08343505859 1001.86108398438 1001.40228271484 994.2314453125 1001.50250244141 1008.78631591797 1001.9248046875 1006.4072265625 1013.47137451172 1016.83154296875 1014.32958984375 1024.63415527344 1020.52032470703 1033.05615234375 1031.26245117188 1025.630859375 1020.85974121094 1025.25366210938 1026.78503417969 1025.6103515625 1019.236328125 1022.89477539062 1019.21807861328 1026.68090820312 1016.58825683594 1023.81909179688 1015.80047607422 1016.70050048828 1025.21325683594 1026.611328125 1019.72967529297 1021.57580566406 1017.26599121094 1015.91925048828 1013.51531982422 1004.17572021484 1009.19384765625 1000.81896972656 994.86572265625 985.703430175781 991.525939941406 994.429931640625 992.216003417969 988.027954101562 991.207824707031 999.093139648438 997.333251953125 997.708251953125 997.096801757812 1001.16027832031 1001.61877441406 997.114929199219 1007.51721191406 1007.1328125 1003.64019775391 998.42919921875 995.790954589844 1002.80151367188 1001.26739501953 995.454162597656 973.456970214844 957.161315917969 954.7939453125 943.777954101562 931.85205078125 935.271545410156 930.997924804688 941.767700195312 939.593994140625 940.196044921875 946.140441894531 963.650268554688 980.296569824219 991.0615234375 992.574829101562 1003.72253417969 1012.01495361328 1019.48364257812 1032.0869140625 1046.521484375 1048.01916503906 1049.07531738281 1060.89111328125 1061.50244140625 1060.39001464844 1065.15600585938 1056.48913574219 1070.51977539062 1071.91381835938 1069.52600097656 1075.38525390625 1083.09643554688 1091.06164550781 1089.37084960938 1092.87231445312 1096.2890625 1093.51281738281 1096.37585449219 1110.01806640625 1118.53552246094
982.099304199219 980.168640136719 971.061401367188 958.794128417969 949.616333007812 946.929260253906 942.3896484375 949.923095703125 956.379638671875 955.653198242188 954.570617675781 953.577697753906 948.245300292969 960.917724609375 964.834838867188 965.216674804688 978.212341308594 980.878662109375 974.385559082031 978.36865234375 979.103759765625 971.290649414062 961.386474609375 967.500122070312 972.895202636719 988.840148925781 997.044799804688 995.794921875 999.838623046875 1011.91381835938 1002.47155761719 1010.41296386719 1013.17547607422 1019.76873779297 1026.513671875 1035.28491210938 1028.05151367188 1024.19848632812 1018.88854980469 1031.40856933594 1046.03857421875 1042.42065429688 1042.84045410156 1046.06359863281 1035.71887207031 1033.0361328125 1028.80261230469 1018.22814941406 1011.44085693359 1004.9599609375 1001.361328125 1001.04907226562 998.044128417969 998.477905273438 1005 1006.58148193359 1010.21307373047 1022.64636230469 1013.67132568359 1013.78009033203 1014.82336425781 1012.49249267578 1023.47528076172 1022.91217041016 1025.435546875 1025.50366210938 1024.84716796875 1023.25744628906 1020.70056152344 1026.52734375 1023.35455322266 1026.96118164062 1028.08093261719 1025.70593261719 1021.68743896484 1021.22027587891 1019.47668457031 1022.98291015625 1018.21539306641 1020.86187744141 1017.58563232422 1011.67254638672 1016.07476806641 1010.71203613281 1016.03314208984 1015.56207275391 1006.1142578125 1010.57086181641 995.830322265625 1003.85827636719 996.56494140625 992.578369140625 1002.46606445312 1006.97113037109 1013.45111083984 1009.08258056641 1005.79937744141 1005.14349365234 1010.21112060547 1006.30163574219 1008.43408203125 1008.36358642578 1008.45977783203 1003.54943847656 1006.05151367188 996.421691894531 996.068725585938 1002.70977783203 1000.74572753906 987.661254882812 973.801574707031 966.142517089844 950.538330078125 946.001037597656 934.5625 930.044738769531 936.193420410156 940.048889160156 938.773376464844 945.115234375 946.639709472656 963.992492675781 979.10009765625 992.0263671875 994.604187011719 1002.04943847656 1011.16986083984 1028.39904785156 1035.56408691406 1038.30883789062 1048.3369140625 1048.26525878906 1059.08044433594 1067.69995117188 1064.17065429688 1064.01989746094 1061.23974609375 1062.59252929688 1068.72253417969 1075.515625 1079.59875488281 1068.06652832031 1084.6455078125 1091.54846191406 1094.02380371094 1092.56115722656 1091.67810058594 1096.62756347656 1111.83728027344 1116.33532714844
979.414245605469 971.223937988281 959.278686523438 949.442138671875 940.700256347656 950.073303222656 941.169860839844 941.613342285156 948.019470214844 956.055358886719 954.802612304688 950.944091796875 946.178833007812 952.989379882812 953.30126953125 956.161010742188 961.560607910156 967.649841308594 977.693725585938 974.839416503906 976.472778320312 968.249877929688 966.337097167969 968.695556640625 973.091430664062 981.775207519531 993.438903808594 1000.31555175781 1001.87353515625 998.379760742188 989.619934082031 1001.32342529297 1007.40319824219 1018.83068847656 1029.43029785156 1019.44110107422 1018.31317138672 1021.46270751953 1022.56701660156 1037.90637207031 1045.35656738281 1038.50183105469 1039.60083007812 1039.40661621094 1032.00231933594 1030.021484375 1017.95062255859 1013.8916015625 1013.279296875 1008.5693359375 1000.38208007812 998.645202636719 994.762084960938 997.656372070312 1002.70074462891 1006.63720703125 1019.70007324219 1019.63116455078 1024.630859375 1014.59167480469 1011.93676757812 1013.02984619141 1015.45446777344 1019.77020263672 1020.97241210938 1014.27410888672 1019.88757324219 1026.77722167969 1024.080078125 1019.31481933594 1024.09655761719 1026.4375 1026.62609863281 1017.98333740234 1010.41918945312 1021.12689208984 1025.337890625 1023.37200927734 1018.09014892578 1008.03363037109 1003.0517578125 1008.41088867188 1007.97442626953 1008.30059814453 1007.41809082031 1009.92150878906 1012.19207763672 1013.05120849609 1005.02154541016 1001.12951660156 996.799072265625 998.871826171875 998.892150878906 1003.67498779297 1015.97131347656 1015.45031738281 1016.88018798828 1010.06604003906 1016.65057373047 1012.07537841797 1012.06774902344 1011.14154052734 1012.51507568359 1010.54382324219 1011.70568847656 1002.45886230469 1000.33032226562 1001.66284179688 994.673950195312 983.316040039062 969.577819824219 954.133361816406 950.367126464844 939.627380371094 922.590209960938 936.452331542969 942.232116699219 940.712524414062 942.098876953125 947.990661621094 948.951354980469 968.319213867188 990.964294433594 998.061462402344 991.677185058594 1001.56597900391 1009.89910888672 1021.50775146484 1032.197265625 1036.72204589844 1052.85888671875 1044.8525390625 1065.162109375 1068.83435058594 1060.49096679688 1061.73742675781 1063.73608398438 1057.88598632812 1064.26647949219 1077.98913574219 1071.57568359375 1070.71411132812 1081.11022949219 1087.17419433594 1083.99133300781 1087.63244628906 1094.80847167969 1103.54956054688 1106.62487792969 1115.70422363281
958.117248535156 954.555847167969 948.537292480469 951.722290039062 947.11328125 930.3662109375 938.055114746094 939.095275878906 946.798645019531 953.914916992188 952.4306640625 950.786804199219 948.050170898438 961.29541015625 946.272338867188 954.786010742188 957.842224121094 960.6953125 973.376831054688 981.887084960938 980.098999023438 969.200378417969 967.403930664062 971.992248535156 973.422729492188 983.344909667969 993.108337402344 991.888610839844 991.280639648438 986.860412597656 996.619262695312 999.742858886719 995.933471679688 1008.98150634766 1028.67944335938 1020.99188232422 1019.68182373047 1018.33563232422 1017.77917480469 1031.16809082031 1038.65209960938 1036.76123046875 1027.03942871094 1025.75939941406 1027.77368164062 1025.80480957031 1015.203125 1015.03216552734 1006.44488525391 1008.96008300781 1003.68096923828 999.663330078125 1003.26751708984 996.521240234375 1005.56707763672 1009.80517578125 1011.01531982422 1020.40026855469 1008.68719482422 1008.37658691406 1013.43328857422 1008.40667724609 1009.55236816406 1017.20831298828 1017.53814697266 1019.61651611328 1020.33721923828 1037.95043945312 1028.33264160156 1019.03924560547 1016.25854492188 1019.23315429688 1014.95050048828 1015.59143066406 1007.92132568359 1012.87646484375 1018.47833251953 1017.087890625 1014.55670166016 1011.35552978516 1007.23291015625 1003.42218017578 1001.43334960938 1003.81732177734 1012.62329101562 1012.32952880859 1007.8388671875 1014.89636230469 1012.22668457031 1014.52593994141 1004.85992431641 1002.86993408203 999.985778808594 1013.34686279297 1022.64031982422 1025.67395019531 1027.47485351562 1012.82434082031 1003.73284912109 1005.31298828125 1003.74249267578 1000.23107910156 1004.44622802734 1007.51477050781 1008.52136230469 1012.48529052734 1000.79034423828 1004.47644042969 993.351379394531 978.250915527344 965.508056640625 954.167175292969 943.536987304688 933.834533691406 940.697387695312 935.534729003906 948.153625488281 943.18212890625 952.415283203125 958.711608886719 975.072692871094 983.634460449219 993.891967773438 993.739318847656 995.348327636719 1001.39959716797 1015.40936279297 1023.90441894531 1032.97424316406 1040.38110351562 1047.31457519531 1049.88745117188 1064.61303710938 1062.16162109375 1055.82336425781 1046.66467285156 1052.7216796875 1063.69299316406 1062.78601074219 1070.25415039062 1072.37145996094 1075.212890625 1078.11865234375 1085.17749023438 1080.0869140625 1085.15148925781 1096.52258300781 1103.78625488281 1101.86499023438 1099.95983886719
953.516174316406 944.8330078125 946.81982421875 939.759155273438 947.416809082031 934.895324707031 939.338256835938 950.250915527344 961.532043457031 954.152099609375 961.238891601562 960.778625488281 951.38671875 955.715454101562 949.746459960938 959.153076171875 960.873107910156 969.743469238281 970.331970214844 976.539306640625 975.758483886719 976.133422851562 974.238952636719 983.048461914062 984.135131835938 982.297241210938 992.088562011719 995.947814941406 992.145385742188 991.522033691406 986.805114746094 993.719482421875 995.271240234375 999.690673828125 1018.52612304688 1015.81781005859 1015.23950195312 1015.56506347656 1018.25506591797 1032.42980957031 1027.57922363281 1020.89874267578 1014.44122314453 1020.49816894531 1012.73400878906 1012.70513916016 1012.12750244141 1007.19110107422 1000.24597167969 1001.63287353516 999.5380859375 996.764831542969 995.463623046875 1004.05670166016 1006.01702880859 1009.85241699219 1014.25244140625 1010.48126220703 1003.57067871094 1009.09619140625 1006.01739501953 1008.83544921875 1007.69049072266 1013.71508789062 1020.28735351562 1022.21246337891 1020.17297363281 1027.35314941406 1023.05303955078 1016.49621582031 1015.19793701172 1018.29333496094 1013.91375732422 1005.93420410156 1008.16040039062 1007.16033935547 1011.24432373047 1004.9814453125 1009.82348632812 1010.06219482422 1007.73498535156 1003.82647705078 1003.34301757812 1003.57098388672 1011.87744140625 1020.26666259766 1011.65393066406 1015.40606689453 1010.26361083984 1013.7958984375 1010.42010498047 1007.81842041016 1002.15679931641 1008.74987792969 1018.83966064453 1030.55871582031 1023.45483398438 1011.19183349609 1008.52447509766 999.781066894531 998.05908203125 1003.00457763672 1003.67510986328 1001.90338134766 1011.296875 1010.40740966797 1004.98779296875 1002.54516601562 990.205017089844 975.520568847656 967.147583007812 951.723449707031 944.028381347656 947.553833007812 942.0380859375 939.975280761719 940.2978515625 953.3916015625 966.522644042969 973.138366699219 985.385009765625 996.269653320312 986.102966308594 1003.25164794922 1006.66528320312 1025.24755859375 1029.916015625 1038.00695800781 1041.2490234375 1042.23974609375 1050.70581054688 1052.67578125 1050.47326660156 1060.50927734375 1054.82409667969 1051.93420410156 1062.19860839844 1056.03198242188 1064.23864746094 1065.37121582031 1068.56384277344 1074.34619140625 1080.49304199219 1080.00366210938 1079.24743652344 1082.16259765625 1094.78637695312 1092.77209472656 1090.47241210938 1098.74951171875
942.190734863281 948.481567382812 942.204772949219 945.955322265625 950.934020996094 959.363830566406 946.281494140625 949.931762695312 960.731262207031 959.14404296875 965.897766113281 955.314697265625 951.515991210938 956.013793945312 955.973266601562 964.256652832031 972.077819824219 965.437744140625 967.107849121094 964.69140625 976.267211914062 975.258361816406 968.879272460938 975.203125 981.620422363281 985.994689941406 990.616027832031 988.194763183594 1000.91021728516 999.607360839844 995.392395019531 999.563903808594 1007.08984375 1009.29791259766 1012.00921630859 1006.04156494141 1015.66693115234 1017.67932128906 1013.20526123047 1019.52368164062 1016.46551513672 1013.23040771484 1014.16162109375 1016.40423583984 1011.31085205078 1006.72265625 1004.57360839844 990.244323730469 988.384948730469 997.015625 987.722106933594 993.592041015625 996.963256835938 1000.04522705078 1008.01782226562 1006.83374023438 1004.85552978516 1010.60150146484 1006.99371337891 1007.53070068359 1010.26440429688 1012.38305664062 1011.376953125 1013.72424316406 1017.00787353516 1012.73022460938 1012.43438720703 1010.3212890625 1012.37261962891 1022.21484375 1014.52484130859 1015.32189941406 1013.98327636719 1013.02734375 1005.24151611328 1003.54321289062 1003.78582763672 1004.93292236328 1009.19403076172 1012.63055419922 1002.0673828125 995.947692871094 998.800476074219 1003.64013671875 1013.67321777344 1015.71771240234 1010.39080810547 1011.34765625 1006.39971923828 1014.35528564453 1019.11419677734 1006.79974365234 1011.01098632812 1008.365234375 1025.22680664062 1021.51824951172 1015.55474853516 1007.69512939453 1007.20922851562 1002.54486083984 993.291564941406 1006.11450195312 995.495056152344 1008.017578125 1015.4853515625 1015.02069091797 1008.78979492188 998.424743652344 990.829650878906 980.094665527344 968.287414550781 953.6083984375 958.379089355469 949.504577636719 939.223937988281 944.506408691406 944.042297363281 958.659423828125 976.84130859375 994.640014648438 993.682006835938 993.088439941406 994.110290527344 1005.61602783203 1005.40582275391 1033.88720703125 1040.48620605469 1035.03125 1038.654296875 1043.34509277344 1049.35717773438 1050.37133789062 1041.40942382812 1052.52819824219 1052.10876464844 1053.13671875 1063.32385253906 1058.41552734375 1062.24169921875 1059.82641601562 1072.25085449219 1077.01525878906 1075.12731933594 1074.23669433594 1073.28283691406 1081.73059082031 1088.49658203125 1087.14013671875 1094.00366210938 1095.31457519531
941.133178710938 945.362426757812 943.60791015625 949.618774414062 959.438537597656 961.954040527344 954.693420410156 948.574462890625 955.537414550781 966.250366210938 964.531860351562 958.849670410156 961.066162109375 962.600402832031 962.833862304688 964.070251464844 970.621276855469 970.654663085938 969.920837402344 967.8916015625 978.057495117188 981.837097167969 980.739807128906 985.625732421875 985.505798339844 992.511657714844 987.345581054688 990.684631347656 995.403442382812 997.331665039062 991.358337402344 996.090148925781 1001.36364746094 1004.71282958984 1018.11987304688 1010.38696289062 1016.73004150391 1014.62585449219 1006.47906494141 1015.34112548828 1007.05285644531 1005.67114257812 1011.28558349609 1015.45068359375 1011.61340332031 1003.62005615234 995.895751953125 990.947021484375 988.507690429688 989.308410644531 979.061157226562 987.603759765625 987.890197753906 999.403869628906 998.906311035156 1005.04437255859 998.372619628906 998.596435546875 997.296447753906 1003.53472900391 1001.30902099609 1002.26306152344 1001.52960205078 1006.74786376953 1013.2568359375 1014.76092529297 1013.35711669922 1018.81195068359 1017.99157714844 1013.83599853516 1012.54772949219 1016.29772949219 1004.18518066406 1006.71746826172 996.162048339844 995.818359375 1006.51220703125 1002.353515625 1002.20629882812 1003.99285888672 1001.74273681641 994.165893554688 997.927612304688 996.376525878906 1003.57916259766 1005.61749267578 1010.00628662109 1008.93341064453 1008.45623779297 1015.6259765625 1016.439453125 1018.24444580078 1016.57751464844 1016.259765625 1022.01104736328 1017.48327636719 1009.26495361328 1014.19470214844 1009.96398925781 1006.04992675781 998.133483886719 999.00390625 1003.54522705078 1003.65380859375 1004.91204833984 1006.53454589844 1007.02655029297 1005.23736572266 988.169250488281 980.162414550781 967.809326171875 955.665710449219 953.666198730469 945.715698242188 945.384094238281 948.942138671875 953.628601074219 965.818969726562 986.271850585938 993.614624023438 1001.20104980469 1006.32104492188 1008.52319335938 1010.28167724609 1016.38452148438 1033.50012207031 1036.28588867188 1045.55822753906 1039.97424316406 1036.15881347656 1048.12768554688 1047.79968261719 1047.10241699219 1050.408203125 1048.71716308594 1051.75280761719 1050.52197265625 1062.0478515625 1066.80578613281 1069.70703125 1071.0400390625 1062.34338378906 1075.33093261719 1075.00634765625 1076.31591796875 1089.33715820312 1087.55346679688 1087.90881347656 1096.3720703125 1099.76586914062
950.399353027344 952.702270507812 948.963623046875 957.520263671875 958.864929199219 973.914123535156 955.6923828125 950.511840820312 956.498413085938 958.741088867188 961.995971679688 961.481567382812 964.615417480469 965.720703125 962.442810058594 968.305480957031 975.367248535156 977.576171875 975.206359863281 969.56982421875 959.306884765625 977.910095214844 981.009643554688 979.208435058594 988.256103515625 990.053649902344 995.718200683594 995.099792480469 995.949462890625 993.539123535156 992.41845703125 994.665283203125 996.394653320312 999.610473632812 1016.38146972656 1014.98278808594 1005.96423339844 1008.80993652344 1013.94226074219 1008.35705566406 1009.19274902344 1007.623046875 1013.892578125 1004.66302490234 999.182922363281 1002.67724609375 1000.08221435547 998.474243164062 989.541015625 985.835632324219 986.156188964844 984.182983398438 990.861145019531 986.730834960938 1001.76202392578 997.554565429688 1000.25646972656 991.288696289062 998.037231445312 999.577209472656 997.341857910156 1002.65063476562 996.693603515625 1001.17578125 1007.51440429688 1014.45074462891 1011.57849121094 1018.84729003906 1012.18298339844 1015.67834472656 1015.13397216797 1008.51702880859 1000.20922851562 995.179504394531 1004.38012695312 1000.00891113281 999.354797363281 1001.25909423828 997.620239257812 1009.39221191406 1006.34893798828 1013.81188964844 999.754943847656 999.171630859375 1001.91149902344 1003.44720458984 1004.82147216797 1008.18719482422 1014.74072265625 1019.91052246094 1023.72381591797 1021.53051757812 1015.18176269531 1010.59515380859 1020.25305175781 1011.74096679688 1004.13647460938 1008.12426757812 1005.1279296875 1004.41290283203 1004.06622314453 1010.38610839844 1003.75524902344 1004.41314697266 1004.10754394531 1007.47607421875 997.816284179688 1001.08813476562 987.348022460938 981.4736328125 971.244689941406 954.292419433594 946.605102539062 944.710632324219 941.452514648438 946.99755859375 957.907775878906 970.154174804688 982.446166992188 992.204223632812 1003.98803710938 1013.81097412109 1012.66510009766 1014.06732177734 1018.93853759766 1025.59899902344 1030.36376953125 1032.26879882812 1043.55590820312 1035.87707519531 1036.16064453125 1045.87866210938 1045.98181152344 1049.15576171875 1054.81640625 1059.6728515625 1054.30883789062 1065.40124511719 1069.24279785156 1067.32177734375 1065.67333984375 1074.88842773438 1069.33642578125 1073.82336425781 1079.24633789062 1088.18371582031 1093.8427734375 1097.07690429688 1105.05798339844 1097.62268066406
952.61376953125 947.883117675781 957.142944335938 963.082397460938 970.5634765625 975.843444824219 964.651428222656 953.840576171875 958.852661132812 965.203186035156 966.641845703125 968.156555175781 972.061828613281 965.319885253906 964.358093261719 969.053527832031 972.210815429688 980.06787109375 980.2666015625 977.446716308594 973.024475097656 978.764587402344 985.188232421875 981.279968261719 984.245666503906 987.692565917969 990.541625976562 992.560668945312 999.02880859375 990.970825195312 996.410339355469 996.138122558594 1000.10168457031 997.12890625 1006.72186279297 1006.96954345703 1004.14605712891 1007.02868652344 1012.07946777344 1006.50714111328 1006.02301025391 1006.32415771484 1009.99267578125 1003.05200195312 1002.29534912109 1000.82611083984 997.083862304688 1002.11047363281 994.9560546875 980.559020996094 974.157104492188 980.267700195312 981.143798828125 981.393981933594 987.749816894531 992.897155761719 978.873413085938 989.276062011719 988.578796386719 997.408996582031 994.602172851562 999.260803222656 994.359252929688 1003.35504150391 1003.65368652344 1000.85540771484 999.367614746094 1002.98138427734 1011.16772460938 1020.533203125 1016.60076904297 1013.74719238281 998.580444335938 994.890869140625 998.447570800781 1001.43499755859 992.826354980469 995.362487792969 995.236877441406 998.189208984375 1009.16955566406 1004.87072753906 998.463256835938 998.161437988281 994.395080566406 1009.45971679688 1010.13214111328 1006.31085205078 1014.79107666016 1021.72406005859 1019.19958496094 1022.73266601562 1009.26025390625 1011.95971679688 1018.05041503906 1018.06756591797 1007.23211669922 999.099487304688 1006.76904296875 1006.19207763672 1021.73992919922 1019.90618896484 1012.96942138672 1015.6796875 1007.89910888672 1004.23150634766 1000.95812988281 998.879760742188 991.226623535156 979.759643554688 968.678588867188 956.125671386719 953.98779296875 941.200439453125 942.885437011719 949.863952636719 956.493591308594 969.122253417969 983.0341796875 991.915466308594 1014.19097900391 1017.17779541016 1023.70977783203 1024.41784667969 1026.94104003906 1022.46752929688 1024.50146484375 1027.55297851562 1040.21618652344 1044.60913085938 1043.14855957031 1045.99255371094 1047.72436523438 1049.98168945312 1053.34753417969 1054.6982421875 1054.57629394531 1066.36511230469 1074.08813476562 1077.19812011719 1079.21484375 1073.90075683594 1072.42700195312 1077.58630371094 1085.40014648438 1080.73205566406 1089.98046875 1102.1015625 1106.72143554688 1096.00744628906
956.332458496094 955.593505859375 962.380187988281 962.059936523438 970.986999511719 963.560119628906 960.619873046875 959.273620605469 969.422180175781 967.156372070312 964.965393066406 974.524536132812 975.104919433594 973.119934082031 985.927124023438 979.377014160156 975.857116699219 982.272644042969 988.092712402344 988.122497558594 977.883605957031 976.832214355469 985.613952636719 991.879211425781 993.192993164062 993.945861816406 993.378295898438 991.708740234375 998.009460449219 992.494201660156 989.858764648438 985.241027832031 992.325317382812 996.393737792969 1005.86077880859 1003.29541015625 1001.60992431641 1004.7685546875 1003.68524169922 1009.48980712891 1007.50256347656 1005.07629394531 995.331420898438 1000.11486816406 997.322937011719 998.238952636719 995.147033691406 996.358581542969 986.115417480469 982.948425292969 974.842712402344 976.854736328125 979.736572265625 983.967956542969 983.953491210938 981.212585449219 980.689392089844 979.897521972656 988.178283691406 996.645568847656 991.532043457031 999.896728515625 1001.00073242188 1008.81402587891 1007.87823486328 998.592224121094 997.883544921875 997.525756835938 1004.41149902344 1004.63110351562 1013.30017089844 1012.49713134766 998.32080078125 996.782104492188 997.801574707031 1003.61065673828 1000.16766357422 1000.08587646484 1001.82867431641 996.050109863281 999.24853515625 997.082885742188 1003.02954101562 997.640563964844 999.268920898438 1007.77124023438 1009.32720947266 1007.44952392578 1011.61096191406 1022.46362304688 1015.24194335938 1020.99090576172 1010.40063476562 1013.55377197266 1009.37176513672 1007.06427001953 996.893432617188 996.747436523438 994.059753417969 1001.66851806641 1017.24810791016 1022.44592285156 1009.98376464844 1011.49981689453 1006.97833251953 999.864379882812 1004.42755126953 994.438903808594 984.483154296875 984.095397949219 979.616455078125 958.2470703125 951.4833984375 948.769104003906 958.069519042969 954.425842285156 962.171997070312 969.778381347656 984.945373535156 990.007629394531 1005.93566894531 1023.27954101562 1021.55938720703 1022.82287597656 1024.31030273438 1031.70910644531 1032.38146972656 1030.4560546875 1026.97705078125 1047.21411132812 1048.89770507812 1047.93383789062 1050.58740234375 1047.33361816406 1047.84985351562 1040.52490234375 1047.583984375 1060.00622558594 1059.23950195312 1068.39770507812 1081.28466796875 1088.82153320312 1082.28845214844 1078.5234375 1086.75415039062 1093.20458984375 1090.73815917969 1094.6181640625 1106.06188964844 1094.91735839844
948.891967773438 962.137451171875 967.787475585938 963.912780761719 967.739196777344 962.361755371094 958.342529296875 959.908447265625 972.19384765625 968.039855957031 970.178039550781 973.263916015625 972.195007324219 967.111206054688 971.596130371094 982.343200683594 978.550354003906 977.257690429688 985.802978515625 987.5830078125 981.468933105469 979.035400390625 983.370422363281 995.660949707031 985.716369628906 986.723571777344 992.4541015625 992.808532714844 995.488586425781 985.502624511719 984.253479003906 981.938354492188 990.60546875 996.195434570312 991.70849609375 1001.27117919922 999.325561523438 999.41748046875 998.081665039062 999.486145019531 1006.48944091797 997.2841796875 993.7138671875 994.410888671875 991.463928222656 994.053649902344 995.014709472656 987.000854492188 989.6455078125 982.406127929688 979.392822265625 971.771362304688 979.668884277344 977.500793457031 986.667419433594 984.918395996094 982.097045898438 984.723571777344 986.304626464844 988.415222167969 988.093444824219 991.892272949219 999.500549316406 1006.87255859375 1006.560546875 998.254272460938 1002.95245361328 1002.30572509766 998.925537109375 996.748718261719 1006.13360595703 1004.16265869141 1001.88299560547 1006.20489501953 1011.18841552734 1009.91760253906 1004.81518554688 1004.66217041016 998.616516113281 989.282592773438 998.359313964844 992.533813476562 994.35107421875 998.572814941406 1003.07049560547 1008.48321533203 1009.30871582031 1005.92254638672 1010.47326660156 1019.1455078125 1015.44653320312 1016.23895263672 1011.61706542969 1020.09515380859 1017.11383056641 1011.16864013672 998.105346679688 994.092834472656 995.261413574219 998.046020507812 1008.10681152344 1012.22534179688 1005.89611816406 1007.98638916016 1010.78723144531 997.505187988281 996.791931152344 992.633117675781 984.4619140625 975.387084960938 962.5927734375 952.417297363281 951.391418457031 944.674194335938 947.28759765625 950.431091308594 959.320190429688 969.89404296875 974.657043457031 990.823120117188 1002.55902099609 1021.75598144531 1026.15576171875 1021.5908203125 1020.58538818359 1028.67468261719 1026.07592773438 1020.26287841797 1030.73864746094 1036.58117675781 1038.14685058594 1047.73254394531 1042.75134277344 1047.2021484375 1036.86499023438 1031.15441894531 1041.92126464844 1045.63110351562 1055.3095703125 1069.05249023438 1073.19287109375 1085.8662109375 1088.74291992188 1088.35668945312 1084.49584960938 1093.60961914062 1094.86047363281 1100.25891113281 1100.96899414062 1102.24035644531
951.236694335938 958.808288574219 959.045532226562 966.669067382812 965.461303710938 964.934265136719 966.495483398438 967.559448242188 965.353881835938 971.474365234375 979.232177734375 982.51171875 971.835571289062 961.573425292969 973.612121582031 976.190734863281 981.005249023438 977.635314941406 978.499938964844 981.633056640625 979.916564941406 981.365051269531 985.883544921875 991.523986816406 987.217895507812 992.443176269531 993.771118164062 992.768676757812 987.150695800781 988.819763183594 984.903442382812 991.956604003906 983.395141601562 985.152465820312 994.29638671875 991.767822265625 992.5791015625 993.591491699219 997.274597167969 997.426940917969 1004.40661621094 987.768920898438 991.420593261719 995.569274902344 1000.05816650391 987.052368164062 992.634826660156 983.317077636719 983.573181152344 980.948669433594 974.772277832031 982.048400878906 975.355590820312 975.150390625 982.550415039062 981.72216796875 988.336608886719 991.576599121094 989.924682617188 990.134338378906 986.063110351562 987.03759765625 1000.45983886719 1004.34155273438 994.575866699219 996.031921386719 1006.53259277344 993.045776367188 997.301147460938 1000.67260742188 1005.73669433594 997.869995117188 1001.080078125 1003.85345458984 1011.96673583984 1011.96856689453 1012.24371337891 1008.27264404297 1006.34210205078 990.528869628906 995.226379394531 995.123474121094 999.123352050781 1003.69232177734 1006.98034667969 1006.88275146484 1010.32098388672 1012.07055664062 1008.51202392578 1019.77252197266 1018.47009277344 1019.25579833984 1018.21331787109 1015.53729248047 1009.27105712891 1003.36865234375 1002.10858154297 993.042663574219 992.741027832031 995.525451660156 1007.13488769531 1012.69665527344 1008.01654052734 1003.32189941406 1010.77478027344 1007.96405029297 1000.45928955078 994.643005371094 983.494079589844 973.959533691406 963.70361328125 956.571472167969 955.507263183594 943.151733398438 946.899353027344 948.592834472656 953.5869140625 967.459716796875 982.0576171875 992.977905273438 999.968688964844 1018.08746337891 1017.56781005859 1020.56719970703 1021.79650878906 1022.05895996094 1034.7578125 1027.53088378906 1035.41528320312 1035.23742675781 1036.63952636719 1036.79260253906 1040.96923828125 1040.43811035156 1035.59594726562 1035.99133300781 1040.36462402344 1041.21936035156 1045.39978027344 1066.62585449219 1078.57849121094 1087.90393066406 1084.92749023438 1086.8564453125 1093.36743164062 1100.45922851562 1094.658203125 1090.91516113281 1094.35107421875 1097.56689453125
949.242370605469 964.296020507812 961.884887695312 962.602416992188 967.26416015625 969.466552734375 972.814270019531 966.192626953125 966.670776367188 966.667114257812 972.6123046875 983.631164550781 978.440002441406 968.470092773438 966.032287597656 976.384155273438 973.0732421875 977.236083984375 989.735900878906 981.560913085938 977.932006835938 988.367370605469 982.984436035156 981.343566894531 989.444274902344 992.344360351562 996.724609375 986.654968261719 983.641174316406 983.560302734375 996.565368652344 985.235412597656 977.623352050781 985.476623535156 990.767944335938 991.210998535156 989.919067382812 989.732116699219 997.4404296875 998.076049804688 989.620666503906 983.010986328125 985.474975585938 989.278259277344 990.701477050781 985.202697753906 989.440612792969 977.065856933594 982.54052734375 972.011352539062 972.175842285156 970.702392578125 976.997863769531 971.164306640625 976.936645507812 979.424133300781 987.1162109375 991.473266601562 988.604248046875 984.918090820312 986.27099609375 990.758056640625 988.769592285156 995.037780761719 988.901123046875 988.109558105469 992.786560058594 989.851135253906 998.018615722656 1005.11663818359 999.381652832031 1004.40612792969 995.849670410156 996.323059082031 1005.9873046875 1013.42712402344 1017.62512207031 1015.13598632812 1004.99609375 1000.57122802734 999.215698242188 1000.29309082031 1001.65759277344 1004.27410888672 997.810363769531 1002.53198242188 1001.04986572266 1009.74743652344 1022.50201416016 1014.09313964844 1006.64904785156 1015.587890625 1016.44311523438 1012.60906982422 1013.23095703125 1003.22125244141 1007.03442382812 1001.81683349609 1002.17248535156 1005.82568359375 1010.55010986328 1011.61450195312 1001.95361328125 1007.92559814453 1006.77270507812 1002.65716552734 998.103576660156 991.048889160156 987.229858398438 971.569152832031 966.512023925781 953.817993164062 961.651428222656 959.544006347656 952.071655273438 953.062072753906 960.652709960938 971.223205566406 980.205322265625 990.867736816406 998.815063476562 1007.93597412109 1007.64813232422 1017.39636230469 1016.59582519531 1019.42413330078 1027.09777832031 1022.07995605469 1025.64562988281 1028.92456054688 1028.79370117188 1034.26428222656 1034.69140625 1030.95324707031 1030.33947753906 1035.82287597656 1033.072265625 1031.18859863281 1041.63879394531 1058.95031738281 1068.45935058594 1083.06567382812 1075.38024902344 1079.59155273438 1094.93969726562 1098.1728515625 1101.90087890625 1100.07165527344 1102.37902832031 1099.05200195312
958.269165039062 959.136535644531 970.384094238281 960.658081054688 959.862426757812 967.988037109375 972.070068359375 970.955932617188 967.064208984375 972.513977050781 982.721313476562 990.400512695312 970.192749023438 965.480651855469 962.258972167969 958.373413085938 970.7001953125 976.364501953125 985.654907226562 981.362121582031 984.132507324219 989.790161132812 984.549438476562 971.814331054688 975.167602539062 982.103637695312 987.162658691406 989.732482910156 976.729187011719 988.506164550781 992.831909179688 991.624938964844 986.882751464844 980.553955078125 992.272277832031 990.435424804688 991.862670898438 987.166931152344 986.199523925781 977.804443359375 982.031005859375 982.205993652344 983.504638671875 986.4306640625 989.976989746094 989.738220214844 981.584594726562 976.569213867188 983.622192382812 986.585510253906 977.437194824219 978.2294921875 974.715698242188 972.044067382812 975.763366699219 971.151428222656 982.959716796875 981.753295898438 974.522827148438 988.130310058594 987.937866210938 992.756896972656 982.447143554688 992.913757324219 988.070434570312 984.066833496094 982.742858886719 989.171813964844 995.621643066406 988.280456542969 992.4384765625 998.62060546875 997.154907226562 1002.6630859375 1009.62750244141 1023.35131835938 1013.88403320312 1014.6533203125 1010.4755859375 1003.63452148438 1008.24877929688 1005.82000732422 1007.12231445312 1008.05847167969 989.5400390625 996.433654785156 1006.98828125 1011.49212646484 1013.37365722656 1012.78942871094 1013.40539550781 1015.27746582031 1014.14727783203 1011.44702148438 1009.35028076172 1008.60577392578 1009.52239990234 1012.57440185547 1007.72729492188 1013.79364013672 1021.92730712891 1009.59191894531 1004.63330078125 1007.41064453125 1003.21417236328 994.1669921875 994.257690429688 989.163146972656 985.095642089844 982.441223144531 970.054992675781 968.783325195312 971.935119628906 966.720153808594 959.618774414062 956.726928710938 963.069885253906 967.175048828125 982.876525878906 989.811096191406 992.667846679688 1004.8408203125 1011.31207275391 1019.32940673828 1019.42883300781 1016.56018066406 1017.63854980469 1017.87225341797 1021.74157714844 1017.6455078125 1015.99627685547 1030.26379394531 1024.21630859375 1022.09497070312 1020.53228759766 1016.79370117188 1025.31713867188 1025.72985839844 1036.61840820312 1055.06164550781 1067.41784667969 1071.54272460938 1076.80688476562 1092.5341796875 1095.91125488281 1102.12219238281 1106.07849121094 1104.54577636719 1100.15905761719 1101.78601074219
954.772644042969 955.883850097656 966.301818847656 964.296081542969 961.147644042969 968.959167480469 971.458862304688 975.249267578125 976.428894042969 976.660522460938 977.431457519531 976.355102539062 975.637329101562 961.741027832031 968.319152832031 969.483337402344 966.840698242188 977.591674804688 977.581970214844 987.490356445312 978.74072265625 976.842590332031 973.787414550781 970.666870117188 966.361022949219 979.554321289062 985.879455566406 982.300354003906 977.127746582031 980.950317382812 987.812683105469 990.3681640625 991.394104003906 988.53564453125 987.551696777344 988.112060546875 983.670166015625 987.05419921875 982.601379394531 969.419494628906 978.16357421875 981.600769042969 985.055603027344 979.103393554688 972.940124511719 971.705139160156 973.215148925781 980.658508300781 982.725646972656 982.502807617188 980.420471191406 978.192626953125 980.480163574219 975.13525390625 975.800598144531 977.626647949219 980.070617675781 980.755432128906 988.467956542969 987.423767089844 985.461303710938 975.355041503906 988.054931640625 983.541625976562 988.75 987.717590332031 981.72314453125 978.069763183594 987.261291503906 980.542907714844 993.567932128906 992.548645019531 996.237121582031 1000.22576904297 1002.54858398438 1007.68133544922 1009.58306884766 1004.46911621094 1008.62634277344 1007.57586669922 1007.68249511719 1012.06042480469 1009.60217285156 1001.66375732422 994.569885253906 1001.56494140625 1001.79577636719 1015.06402587891 1015.77038574219 1018.14166259766 1012.98400878906 1011.79217529297 1019.56146240234 1027.13171386719 1025.93640136719 1019.56524658203 1014.490234375 1005.42974853516 998.834777832031 1003.38647460938 1003.92669677734 1014.41357421875 1010.17840576172 1008.47271728516 1005.90942382812 998.378967285156 996.748901367188 994.476135253906 990.644714355469 980.098815917969 981.889953613281 980.928771972656 978.343139648438 967.463317871094 961.780395507812 971.6904296875 968.618225097656 982.7265625 996.535461425781 990.669067382812 996.939147949219 1013.71740722656 1009.93011474609 1017.62658691406 1021.34771728516 1019.81579589844 1014.90814208984 1010.99908447266 1012.71710205078 1014.013671875 1016.29565429688 1016.05236816406 1011.13427734375 1019.85571289062 1019.43591308594 1016.55352783203 1018.38262939453 1028.30212402344 1033.13098144531 1054.27697753906 1062.52111816406 1064.06494140625 1076.92749023438 1095.85876464844 1105.7880859375 1111.56164550781 1101.93713378906 1101.25512695312 1105.85021972656 1103.85314941406
959.845336914062 962.147888183594 953.531433105469 954.315002441406 959.3720703125 968.008056640625 981.961975097656 973.443908691406 971.871276855469 973.760314941406 975.442504882812 973.145812988281 964.713012695312 968.833923339844 969.301391601562 964.990417480469 965.874145507812 979.371704101562 973.915588378906 985.861389160156 978.146667480469 976.111511230469 973.129943847656 974.268310546875 977.426818847656 983.364196777344 983.207763671875 975.5341796875 976.727722167969 981.3056640625 987.161987304688 991.464294433594 988.142517089844 993.26220703125 991.596862792969 988.266784667969 987.555236816406 988.376586914062 978.939086914062 974.994262695312 978.421081542969 988.434448242188 988.717651367188 987.771728515625 984.431091308594 982.814208984375 972.641052246094 977.482482910156 972.708984375 979.952575683594 978.101013183594 982.640502929688 977.080932617188 979.141967773438 980.237121582031 972.689697265625 971.093017578125 970.337524414062 983.080017089844 978.558349609375 979.932678222656 978.405944824219 989.493957519531 980.218139648438 987.98486328125 977.514404296875 981.237365722656 981.028625488281 984.531555175781 974.875549316406 978.021484375 979.473083496094 982.474609375 987.306457519531 988.653198242188 992.638671875 997.056335449219 998.266235351562 1001.85180664062 998.486206054688 1002.98327636719 1012.31292724609 1015.86114501953 1006.0712890625 1003.48760986328 1004.44122314453 1007.40649414062 1013.83056640625 1015.41870117188 1027.53625488281 1019.31359863281 1014.29412841797 1017.70837402344 1020.82238769531 1028.81396484375 1017.74859619141 1005.04266357422 1005.08093261719 997.796264648438 1000.88122558594 1006.25787353516 1007.53210449219 1006.927734375 1010.65606689453 1000.36090087891 996.976745605469 991.918273925781 990.287353515625 994.60595703125 990.112243652344 987.518737792969 994.121765136719 980.501708984375 971.024536132812 977.311340332031 978.818908691406 990.08935546875 989.851806640625 994.142578125 995.909790039062 997.978454589844 1013.45428466797 1004.6669921875 1015.34063720703 1022.83813476562 1018.02722167969 1013.65954589844 1011.14038085938 1017.14361572266 1017.35455322266 1012.30560302734 1016.93560791016 1016.88781738281 1011.04461669922 1013.72027587891 1015.81927490234 1014.3701171875 1030.67797851562 1031.95031738281 1046.1494140625 1060.6142578125 1063.32421875 1085.19848632812 1094.46508789062 1101.15844726562 1108.30480957031 1109.837890625 1109.76806640625 1101.65515136719 1111.58251953125
954.39306640625 956.878356933594 957.709899902344 955.169616699219 956.239868164062 963.848022460938 969.448974609375 973.505615234375 968.910949707031 963.6240234375 969.489440917969 968.648254394531 965.691284179688 969.857299804688 969.805480957031 974.359069824219 971.012023925781 973.31103515625 986.546813964844 988.214782714844 985.795837402344 985.109680175781 979.071472167969 976.959045410156 978.117370605469 986.227661132812 985.817626953125 982.518127441406 981.251281738281 977.115600585938 978.312561035156 980.864196777344 986.793579101562 992.399230957031 991.888549804688 992.240051269531 988.777160644531 998.51611328125 980.263916015625 977.887451171875 975.648376464844 980.865600585938 985.695373535156 992.462158203125 977.073608398438 975.040832519531 970.819091796875 975.167236328125 974.71484375 980.393798828125 976.880126953125 976.443786621094 973.048889160156 982.172668457031 976.919921875 971.880737304688 975.595458984375 982.641906738281 987.268615722656 983.527893066406 984.000305175781 973.698425292969 979.298400878906 985.207702636719 978.554565429688 979.546508789062 988.639038085938 979.872253417969 982.0185546875 979.393981933594 978.505798339844 978.178771972656 972.866882324219 980.944763183594 988.878112792969 995.977600097656 994.836975097656 994.965026855469 994.009399414062 1000.16882324219 999.66845703125 1014.56237792969 1018.48461914062 999.974426269531 1002.05340576172 1002.48376464844 1003.54931640625 1011.68139648438 1017.30395507812 1019.53448486328 1020.72229003906 1016.89752197266 1013.28924560547 1013.85424804688 1009.67230224609 1013.33892822266 999.4208984375 1000.38854980469 996.542419433594 986.147583007812 984.948181152344 993.555236816406 995.829223632812 999.323364257812 992.542053222656 996.171813964844 990.264831542969 989.865234375 994.353942871094 987.776123046875 994.433471679688 995.049499511719 985.610656738281 981.179382324219 984.561889648438 988.610595703125 990.022583007812 992.749084472656 993.793701171875 994.335388183594 1004.86840820312 1005.21551513672 1005.32598876953 1011.78009033203 1020.12268066406 1021.23492431641 1007.96307373047 999.440673828125 1003.01776123047 1011.61987304688 1012.15087890625 1014.42803955078 1011.41937255859 1012.74572753906 1018.44757080078 1012.78692626953 1016.96350097656 1019.32452392578 1044.00012207031 1046.58044433594 1061.35473632812 1065.3701171875 1074.17651367188 1089.28088378906 1112.16284179688 1112.59851074219 1113.36096191406 1117.47485351562 1119.21667480469 1114.63305664062
949.617797851562 958.261535644531 959.880065917969 962.434326171875 959.499694824219 961.930908203125 968.31787109375 976.978454589844 973.517639160156 964.971252441406 967.303833007812 967.710876464844 971.524780273438 976.83251953125 972.941467285156 970.386352539062 976.255615234375 974.247863769531 978.2734375 977.483947753906 985.02099609375 974.215026855469 975.213989257812 977.859985351562 977.56396484375 980.361267089844 983.13134765625 981.070678710938 984.304260253906 978.798950195312 983.11328125 983.655578613281 982.77001953125 982.836181640625 986.568908691406 994.734375 987.827575683594 989.505676269531 981.000549316406 969.144775390625 977.7705078125 972.819885253906 975.767028808594 985.373168945312 979.999328613281 977.729248046875 963.935424804688 976.929870605469 976.409423828125 984.680114746094 985.564758300781 975.2626953125 966.818786621094 973.86181640625 971.974304199219 969.191101074219 977.577453613281 981.567016601562 977.564514160156 982.636413574219 989.864562988281 977.874206542969 972.492919921875 977.592590332031 972.893920898438 973.366882324219 979.280517578125 986.157348632812 980.754699707031 980.890319824219 972.313903808594 976.21630859375 975.292602539062 975.341613769531 977.665893554688 988.324829101562 987.801147460938 992.652221679688 990.744323730469 995.628112792969 1002.67926025391 1006.64404296875 1011.978515625 1004.64929199219 1013.43389892578 1013.00469970703 1013.84588623047 1017.89788818359 1014.65771484375 1018.92669677734 1021.74548339844 1021.80114746094 1010.46545410156 1007.69757080078 1000.26397705078 994.589904785156 998.588500976562 989.201293945312 991.720703125 990.039855957031 988.742553710938 989.318054199219 983.056884765625 990.778747558594 994.339050292969 990.513916015625 992.655456542969 998.283447265625 996.111022949219 989.777465820312 990.595581054688 992.114074707031 995.026000976562 995.738098144531 989.576171875 987.759826660156 986.40771484375 987.325073242188 992.976013183594 988.415100097656 995.766357421875 1001.47052001953 1003.65631103516 1003.24169921875 1007.20660400391 1012.90759277344 997.800109863281 994.486389160156 1004.83575439453 1006.37243652344 1012.32055664062 1014.88433837891 1020.39984130859 1012.00360107422 1027.33740234375 1020.45727539062 1020.29528808594 1024.06799316406 1047.24523925781 1058.39660644531 1056.31018066406 1069.85180664062 1083.56237792969 1090.17041015625 1111.66552734375 1117.57580566406 1123.16101074219 1133.07263183594 1124.45617675781 1120.80053710938
951.414611816406 959.739685058594 961.60302734375 961.576110839844 959.599670410156 962.645141601562 966.561645507812 970.729431152344 968.486755371094 972.124206542969 964.39208984375 966.894958496094 973.047302246094 973.805969238281 974.653259277344 970.208435058594 973.361267089844 984.270385742188 983.294677734375 977.357543945312 981.536499023438 978.552856445312 974.369750976562 972.039672851562 969.536010742188 978.133605957031 981.10302734375 979.450439453125 982.718505859375 980.125061035156 989.017761230469 987.036865234375 983.478698730469 984.719787597656 984.179565429688 987.32861328125 989.253112792969 979.881103515625 979.956726074219 970.963989257812 967.883483886719 975.432434082031 975.349975585938 974.929748535156 973.878662109375 982.877624511719 973.3017578125 971.682556152344 973.914367675781 982.665710449219 981.208129882812 970.093627929688 966.017150878906 972.868408203125 972.809997558594 972.461303710938 971.123229980469 966.200622558594 967.86181640625 974.108154296875 976.860900878906 975.20458984375 968.327819824219 980.262145996094 973.612548828125 973.574340820312 974.005737304688 975.484924316406 971.495056152344 971.273803710938 971.529541015625 964.8134765625 965.955749511719 964.330932617188 967.781860351562 978.558044433594 986.646301269531 982.962219238281 988.795227050781 992.892700195312 1004.57293701172 1009.70532226562 1002.787109375 1002.39056396484 1009.34625244141 1006.31921386719 1020.45025634766 1018.56311035156 1009.11090087891 1010.10339355469 1015.03692626953 1013.89440917969 1013.00531005859 1001.38482666016 991.903381347656 986.51416015625 991.302001953125 995.438781738281 993.674499511719 1000.21405029297 998.985778808594 1002.51098632812 992.5634765625 996.900268554688 989.497802734375 996.985412597656 1000.24468994141 996.705932617188 988.401062011719 992.547485351562 993.8271484375 991.664428710938 999.173950195312 999.025634765625 992.707763671875 989.529724121094 986.872314453125 988.86767578125 990.466796875 989.108642578125 994.671508789062 999.417663574219 1002.64611816406 1002.33996582031 1003.28948974609 994.767456054688 989.502685546875 1000.951171875 1009.05902099609 1004.15710449219 1012.47973632812 1015.77838134766 1019.77026367188 1017.37237548828 1017.72637939453 1025.29968261719 1026.61853027344 1041.94836425781 1055.77355957031 1068.43432617188 1066.4150390625 1076.40930175781 1093.45092773438 1095.93237304688 1105.72546386719 1120.20837402344 1128.97985839844 1134.01525878906 1139.40576171875 1124.77978515625
949.908752441406 951.482849121094 961.707458496094 964.830627441406 970.906494140625 966.461791992188 960.430908203125 965.281555175781 961.858825683594 962.174133300781 966.135498046875 962.728698730469 959.181640625 963.256591796875 973.783874511719 977.4248046875 980.520324707031 981.429992675781 989.346923828125 980.12646484375 977.005676269531 979.250366210938 980.3095703125 976.145629882812 976.377075195312 970.174072265625 975.392944335938 978.965942382812 984.534545898438 981.275207519531 987.295104980469 986.861145019531 976.794738769531 975.691589355469 982.755432128906 980.705322265625 983.994689941406 976.755249023438 981.083740234375 973.512084960938 981.058044433594 970.570495605469 972.011901855469 977.4228515625 980.434448242188 980.30126953125 973.247863769531 970.899963378906 968.231018066406 973.374938964844 980.432861328125 971.709899902344 969.003173828125 971.542846679688 969.843627929688 981.660888671875 975.747985839844 969.723876953125 973.503112792969 975.557861328125 979.225158691406 980.662902832031 972.690002441406 968.63330078125 982.058959960938 974.262329101562 970.095581054688 981.895446777344 978.461547851562 973.784790039062 979.542297363281 971.674438476562 979.23095703125 970.617980957031 978.990661621094 983.733459472656 983.241027832031 987.50390625 985.5205078125 997.022583007812 995.496398925781 1006.3388671875 997.064514160156 1005.68933105469 1005.55303955078 1006.68560791016 1012.52777099609 1014.88793945312 1014.51354980469 1007.00860595703 1001.96923828125 1003.42816162109 998.551574707031 998.190307617188 990.445617675781 988.579956054688 987.531799316406 992.289611816406 998.746704101562 999.641906738281 1002.84106445312 991.368835449219 991.149108886719 995.424011230469 995.524841308594 999.788818359375 1003.64453125 994.301818847656 993.182434082031 990.863342285156 993.556945800781 1004.52319335938 999.871704101562 1000.66754150391 1003.00036621094 999.424926757812 988.679626464844 997.75341796875 1003.14471435547 990.874572753906 986.130004882812 994.953063964844 999.098022460938 1000.11340332031 1000.90374755859 996.317993164062 997.52685546875 1005.11834716797 1008.34228515625 1014.24627685547 1012.52764892578 1022.14678955078 1015.93127441406 1023.95062255859 1028.8037109375 1028.15734863281 1041.85595703125 1052.1220703125 1063.71801757812 1073.32019042969 1080.76452636719 1092.71044921875 1094.28137207031 1104.39208984375 1112.14379882812 1117.13854980469 1128.25708007812 1142.447265625 1136.58532714844 1130.3017578125
952.009216308594 949.114929199219 954.240966796875 965.814880371094 960.809631347656 971.329284667969 970.942504882812 963.866027832031 959.2685546875 965.0361328125 963.654724121094 964.886657714844 960.916809082031 970.363647460938 969.476379394531 977.93798828125 982.992858886719 991.582580566406 971.644592285156 978.852661132812 976.856323242188 978.603271484375 977.327819824219 980.913879394531 974.4619140625 969.473754882812 966.9169921875 972.34912109375 979.491882324219 977.9560546875 982.166381835938 975.098388671875 981.075439453125 978.647399902344 976.845153808594 974.365356445312 972.854187011719 971.795654296875 975.760131835938 971.778686523438 973.039245605469 961.839294433594 964.812866210938 969.739379882812 968.701110839844 969.829284667969 967.834533691406 968.147827148438 963.74853515625 965.635498046875 975.308532714844 982.172485351562 979.443786621094 973.751403808594 974.551574707031 982.272583007812 963.914855957031 970.399230957031 972.997863769531 971.859985351562 974.585327148438 976.808471679688 970.739379882812 971.504577636719 976.440612792969 976.754028320312 981.495361328125 986.0458984375 980.214233398438 979.241271972656 975.268249511719 976.836059570312 979.321105957031 979.643371582031 977.800537109375 980.221984863281 984.874328613281 982.402587890625 984.285766601562 981.266662597656 988.1455078125 1001.85113525391 999.451049804688 999.908142089844 1001.19891357422 997.268371582031 1000.46026611328 996.822387695312 1002.37274169922 1007.40454101562 993.969909667969 994.481079101562 990.215759277344 992.792358398438 986.631469726562 988.133972167969 986.092224121094 992.88232421875 993.447814941406 1002.73651123047 990.815246582031 981.760314941406 987.836669921875 992.869750976562 998.998352050781 997.928955078125 996.222778320312 988.349731445312 990.343017578125 994.86474609375 997.281982421875 999.483337402344 1006.60144042969 1003.53857421875 1006.01403808594 1007.79144287109 991.952270507812 1000.63861083984 1008.71673583984 995.458557128906 987.479797363281 996.951049804688 997.047424316406 998.190490722656 994.569458007812 998.627197265625 996.222473144531 1009.38818359375 1016.45874023438 1022.55255126953 1025.31408691406 1015.26947021484 1017.92651367188 1021.46612548828 1032.41394042969 1038.28552246094 1047.29211425781 1050.41833496094 1063.15734863281 1074.55944824219 1078.00244140625 1095.38708496094 1099.61181640625 1111.26684570312 1115.24853515625 1130.14526367188 1132.06811523438 1139.10363769531 1136.36059570312 1141.83142089844
947.07470703125 940.863403320312 953.143859863281 965.440734863281 964.727722167969 958.246948242188 956.704650878906 960.226440429688 960.138977050781 966.094543457031 970.291687011719 968.487060546875 966.649963378906 970.808044433594 973.2158203125 972.163635253906 979.973449707031 979.712280273438 977.287414550781 980.241882324219 978.020446777344 972.638061523438 981.518859863281 977.795288085938 973.829223632812 963.127197265625 957.381103515625 966.171264648438 974.195129394531 978.0400390625 974.7470703125 980.72265625 972.070495605469 985.067443847656 981.207092285156 979.490051269531 977.271240234375 976.334655761719 963.896545410156 971.601135253906 970.322631835938 969.381103515625 962.237182617188 960.61572265625 960.847229003906 963.790405273438 969.1953125 964.555358886719 960.509216308594 977.114929199219 980.106262207031 981.944946289062 975.434692382812 974.9501953125 978.699340820312 974.661376953125 974.656982421875 972.60888671875 971.640197753906 967.061767578125 975.888916015625 970.723510742188 978.249206542969 973.311340332031 973.603332519531 976.218139648438 982.45751953125 980.034729003906 974.008422851562 972.491882324219 974.750183105469 968.830444335938 974.470092773438 974.939331054688 975.730529785156 982.765014648438 989.257568359375 979.4111328125 979.489013671875 977.106994628906 980.664367675781 985.929321289062 989.6630859375 988.039123535156 991.454406738281 998.930786132812 991.214050292969 997.578491210938 991.679443359375 997.567443847656 996.747985839844 992.986938476562 985.788879394531 983.886657714844 989.486511230469 980.581237792969 995.205932617188 993.035827636719 997.518493652344 991.853515625 982.846984863281 972.990295410156 978.6806640625 985.171325683594 984.571899414062 988.449768066406 988.309020996094 982.806823730469 994.930725097656 997.387573242188 997.477783203125 989.678833007812 994.150207519531 994.388366699219 1001.65649414062 1002.70440673828 994.001037597656 1000.39343261719 1006.02947998047 1000.96087646484 993.556762695312 989.711364746094 996.493408203125 1000.29522705078 994.621154785156 1001.32922363281 1005.25469970703 1013.80249023438 1020.15954589844 1037.92541503906 1036.07885742188 1033.03784179688 1028.96215820312 1031.16027832031 1038.15771484375 1046.26391601562 1049.59387207031 1055.07922363281 1067.17834472656 1075.54174804688 1086.36340332031 1101.99438476562 1107.22058105469 1113.74597167969 1116.58117675781 1130.6259765625 1139.03112792969 1138.01831054688 1134.62548828125 1138.38793945312
948.982604980469 947.536376953125 958.038757324219 960.050048828125 957.3935546875 957.532775878906 957.41943359375 959.471923828125 962.898254394531 973.939880371094 967.640991210938 968.439270019531 970.622741699219 973.467651367188 976.24755859375 978.960327148438 973.12353515625 977.098754882812 974.95361328125 976.899108886719 969.796447753906 969.162902832031 982.93994140625 976.198059082031 972.762023925781 965.9990234375 960.486083984375 960.618713378906 970.447021484375 968.232482910156 972.5087890625 984.713623046875 984.960327148438 984.313781738281 986.154907226562 981.900939941406 977.057189941406 980.981323242188 974.356750488281 965.529357910156 970.243225097656 969.989929199219 965.923034667969 970.575317382812 968.674987792969 966.293762207031 964.905944824219 965.073181152344 960.838317871094 972.661804199219 981.4970703125 975.043640136719 967.336791992188 972.843444824219 973.793579101562 965.16845703125 971.395080566406 975.526916503906 972.645385742188 975.113586425781 971.350708007812 980.258911132812 976.694396972656 973.977416992188 982.152709960938 974.960144042969 971.841247558594 975.081909179688 980.217102050781 979.067504882812 978.835083007812 975.643615722656 973.670227050781 980.944274902344 970.310607910156 975.258666992188 977.3896484375 973.401550292969 973.507690429688 977.6171875 969.0849609375 978.274353027344 983.082763671875 981.434814453125 988.940612792969 991.022766113281 984.243041992188 992.425476074219 990.962463378906 994.482177734375 987.926818847656 990.741027832031 981.073425292969 974.429748535156 985.132995605469 984.248779296875 990.594299316406 987.8818359375 991.150207519531 985.370544433594 981.359619140625 978.526794433594 982.72998046875 988.794372558594 979.423645019531 985.964721679688 981.109069824219 975.051513671875 980.034240722656 986.294860839844 987.748657226562 995.080749511719 991.241943359375 987.860046386719 990.184204101562 993.280883789062 991.330688476562 1000.75115966797 1000.93896484375 998.094848632812 989.948791503906 987.893493652344 995.308349609375 998.445861816406 1002.33703613281 1004.65759277344 1010.65161132812 1018.40954589844 1019.58752441406 1027.02099609375 1044.119140625 1035.93334960938 1027.74523925781 1036.96179199219 1046.34143066406 1057.13012695312 1056.75439453125 1057.86059570312 1075.83703613281 1089.02221679688 1093.24230957031 1100.63305664062 1103.03308105469 1117.42309570312 1120.537109375 1128.54296875 1132.41857910156 1137.96728515625 1145.0537109375 1137.09924316406
