NCOLS 150
NROWS 37
XLLCORNER 7394249
YLLCORNER 4842119
CELLSIZE 30
NODATA_VALUE -9999
964.791625976562 969.166137695312 964.4267578125 972.621398925781 980.2666015625 971.062438964844 968.487487792969 972.749877929688 974.123779296875 982.742492675781 969.331604003906 963.669311523438 952.660400390625 964.865295410156 965.739135742188 966.103576660156 968.273803710938 973.812072753906 975.3173828125 973.037170410156 965.519165039062 958.130187988281 960.403869628906 955.531188964844 949.398559570312 954.373718261719 940.016784667969 953.067138671875 955.752014160156 948.40576171875 953.316650390625 951.160217285156 958.213928222656 958.516174316406 953.816711425781 947.478759765625 951.7607421875 959.4765625 957.076110839844 953.513732910156 952.333618164062 954.494873046875 955.088684082031 950.518188476562 950.430908203125 957.823913574219 948.026611328125 954.061401367188 947.9453125 946.417724609375 953.259582519531 952.982543945312 955.452819824219 949.037414550781 951.589721679688 956.49853515625 960.705200195312 963.443603515625 960.804992675781 964.542175292969 965.312866210938 953.261169433594 955.806945800781 955.043334960938 960.950561523438 958.392517089844 964.944580078125 965.194458007812 953.864685058594 962.214904785156 954.816040039062 953.589233398438 960.644897460938 965.252136230469 976.022338867188 965.994445800781 963.503601074219 959.172546386719 963.102294921875 966.735107421875 972.976318359375 974.265502929688 970.338134765625 975.034790039062 963.579711914062 965.638122558594 962.910766601562 960.9140625 966.664001464844 961.438415527344 962.592590332031 962.335510253906 977.811889648438 976.276489257812 978.121765136719 973.952453613281 963.98486328125 978.71630859375 982.90185546875 976.396057128906 982.983337402344 977.797058105469 977.112731933594 968.398254394531 971.503051757812 975.680603027344 979.8876953125 990.880676269531 993.20654296875 996.144653320312 998.190490722656 1009.54406738281 1010.22888183594 1006.13366699219 1000.71618652344 1003.03149414062 1003.81396484375 1008.58508300781 996.909545898438 997.308288574219 1001.3955078125 1006.97735595703 1008.45245361328 1009.98516845703 1008.48278808594 1015.42700195312 1014.27319335938 1017.68872070312 1029.65698242188 1046.23559570312 1048.51110839844 1053.27197265625 1051.06323242188 1048.60974121094 1058.26318359375 1066.9404296875 1059.22607421875 1060.77661132812 1056.76501464844 1058.13732910156 1055.45581054688 1041.72302246094 1041.08898925781 1030.25341796875 1047.65490722656 1053.46215820312 1059.25744628906 1051.46545410156 1052.96472167969 1059.18371582031
972.858154296875 963.739807128906 967.243408203125 975.203002929688 969.315612792969 970.352233886719 967.604858398438 970.459655761719 969.348876953125 986.1923828125 965.028564453125 957.112915039062 960.673706054688 953.785400390625 964.643310546875 953.274658203125 958.788208007812 968.119201660156 963.794677734375 963.130920410156 958.73046875 958.669189453125 963.176452636719 954.618530273438 957.496276855469 953.088195800781 937.938659667969 952.683532714844 949.597106933594 950.765991210938 945.882385253906 953.898193359375 957.817565917969 952.916870117188 948.268371582031 946.461059570312 953.150085449219 948.4423828125 946.759765625 953.276062011719 947.028747558594 950.885131835938 954.488342285156 947.593139648438 955.319519042969 958.641479492188 944.303833007812 947.0068359375 944.952209472656 951.18017578125 953.568542480469 958.38525390625 955.134948730469 951.364440917969 948.537719726562 955.347106933594 963.783081054688 961.45361328125 957.193542480469 958.409057617188 957.298889160156 959.969421386719 957.422607421875 959.627502441406 956.594970703125 959.113891601562 967.959228515625 961.937316894531 952.322631835938 960.771240234375 967.670654296875 967.361511230469 958.512512207031 966.401428222656 969.23779296875 969.344177246094 966.404357910156 961.908874511719 956.439086914062 961.360168457031 971.469177246094 959.09423828125 966.402465820312 969.250610351562 977.140747070312 966.187866210938 970.551574707031 967.547485351562 968.350524902344 966.529968261719 971.698364257812 968.861328125 979.334167480469 974.588439941406 968.604370117188 964.080688476562 973.047729492188 979.655822753906 977.6416015625 976.208312988281 972.194580078125 979.336059570312 979.154846191406 973.426818847656 969.933166503906 973.116271972656 972.022521972656 991.229736328125 999.858520507812 998.479248046875 999.971984863281 1004.40576171875 1011.15686035156 1006.45452880859 999.839233398438 1003.48065185547 1002.23889160156 1005.78405761719 1005.3115234375 1005.10614013672 1005.65582275391 1004.85601806641 1005.69274902344 1010.87805175781 1014.55731201172 1014.62640380859 1030.8427734375 1017.65789794922 1031.48315429688 1041.95739746094 1046.70703125 1051.32287597656 1044.73266601562 1042.3251953125 1046.74755859375 1048.61474609375 1048.5478515625 1048.9599609375 1055.7353515625 1049.23559570312 1042.76245117188 1035.62353515625 1028.38757324219 1029.15075683594 1036.4052734375 1043.20385742188 1052.14233398438 1056.37622070312 1045.37133789062 1050.55285644531
969.64013671875 978.419921875 971.391967773438 966.622009277344 965.697448730469 963.121276855469 971.803894042969 969.341003417969 980.083984375 980.375915527344 957.053283691406 950.988098144531 953.761413574219 950.134216308594 951.631958007812 949.154296875 960.709167480469 963.561950683594 958.379760742188 956.968139648438 952.736572265625 954.059753417969 950.463684082031 951.968933105469 951.096801757812 950.594665527344 940.840576171875 947.395446777344 944.412902832031 945.246887207031 943.126525878906 951.294555664062 953.218139648438 951.505920410156 955.283325195312 950.580444335938 944.743957519531 947.513000488281 945.677551269531 943.051635742188 945.664184570312 949.69482421875 946.894226074219 956.396423339844 958.343688964844 957.620788574219 959.186889648438 955.33251953125 955.400512695312 960.73486328125 958.392395019531 968.332275390625 964.702819824219 964.58154296875 953.010620117188 960.720825195312 954.503234863281 957.205139160156 967.257568359375 961.049011230469 957.882690429688 962.698547363281 959.316101074219 958.908996582031 956.866638183594 957.966857910156 961.319702148438 963.302795410156 960.1904296875 961.571044921875 960.984252929688 962.434204101562 965.881164550781 960.761352539062 968.179443359375 972.293762207031 963.610168457031 966.654663085938 961.413635253906 955.058532714844 959.962219238281 967.765869140625 968.96484375 980.606262207031 976.074157714844 970.347412109375 967.721862792969 968.287414550781 976.065246582031 974.220947265625 974.279663085938 967.925659179688 973.78564453125 966.037719726562 965.338562011719 966.946899414062 965.17919921875 973.725219726562 979.681762695312 970.893676757812 972.015930175781 979.989196777344 988.392028808594 988.088073730469 984.902709960938 980.462585449219 977.068908691406 993.083190917969 994.771484375 995.750183105469 992.64208984375 1006.68804931641 1007.16448974609 999.095092773438 1000.11102294922 999.112365722656 1014.74407958984 1015.26257324219 1019.53643798828 1014.62261962891 1022.69561767578 1011.43017578125 1000.53619384766 1011.16485595703 1010.93499755859 1019.59704589844 1015.21771240234 1016.49572753906 1033.56872558594 1048.55249023438 1046.79858398438 1046.89013671875 1047.88647460938 1050.32092285156 1050.142578125 1051.93884277344 1041.45617675781 1047.94116210938 1044.77014160156 1036.24389648438 1033.9345703125 1027.24829101562 1028.62438964844 1029.67565917969 1038.35131835938 1035.72326660156 1044.87731933594 1045.69812011719 1042.623046875 1042.08850097656
966.447387695312 976.763488769531 966.734436035156 962.209167480469 956.57470703125 965.479919433594 959.501892089844 960.222412109375 965.84423828125 964.990417480469 943.567626953125 944.288818359375 947.633605957031 959.82275390625 948.60791015625 947.746398925781 961.520751953125 957.894348144531 951.696166992188 947.107299804688 944.078796386719 947.698303222656 949.627014160156 948.014709472656 951.381225585938 946.249389648438 944.77978515625 947.787353515625 946.378112792969 949.213562011719 947.962951660156 950.68408203125 951.154418945312 948.646240234375 952.037292480469 959.311096191406 949.593200683594 946.879943847656 944.8828125 945.713134765625 947.89794921875 955.202392578125 951.171752929688 958.102783203125 954.638488769531 961.926818847656 972.03515625 969.527648925781 959.013122558594 965.204467773438 962.133361816406 973.480590820312 971.563537597656 962.630004882812 960.532348632812 956.716125488281 962.978210449219 962.950317382812 964.913696289062 964.733276367188 962.970031738281 962.342102050781 965.591918945312 965.233276367188 955.639343261719 954.500915527344 966.054626464844 963.808715820312 961.181335449219 961.977783203125 962.269348144531 965.421691894531 966.865905761719 968.866516113281 969.9853515625 971.664489746094 966.640380859375 967.991577148438 970.652893066406 964.666076660156 959.380798339844 961.647094726562 977.433776855469 981.161987304688 979.998046875 980.517639160156 979.623901367188 976.105224609375 984.393005371094 978.406799316406 975.493469238281 973.663330078125 969.857360839844 971.041198730469 975.310363769531 973.53125 975.123962402344 976.769409179688 982.510192871094 978.694458007812 975.814270019531 977.019287109375 982.575256347656 984.200317382812 988.797241210938 985.440124511719 990.874084472656 982.890869140625 996.680358886719 1000.21844482422 1003.81201171875 1009.33764648438 1004.12609863281 1003.13806152344 1000.15063476562 998.476379394531 1010.65020751953 1019.05688476562 1024.88073730469 1014.28314208984 1021.85223388672 1013.42376708984 1015.76177978516 1012.26031494141 1010.4658203125 1013.04870605469 1013.18341064453 1018.84991455078 1028.17358398438 1038.26452636719 1040.29406738281 1043.76672363281 1052.56213378906 1043.9267578125 1040.92114257812 1040.3505859375 1035.51196289062 1041.02331542969 1038.90393066406 1034.404296875 1026.90026855469 1034.49719238281 1032.47033691406 1033.3388671875 1041.91027832031 1043.65234375 1043.73803710938 1043.66296386719 1028.31555175781 1026.58508300781
965.225036621094 967.45263671875 955.506469726562 948.589965820312 956.219909667969 956.353576660156 949.363891601562 951.988098144531 955.402160644531 949.12841796875 939.988891601562 939.383361816406 944.289184570312 947.49365234375 952.276245117188 959.3505859375 959.363647460938 951.542602539062 939.422485351562 946.468627929688 948.28857421875 949.97314453125 957.269348144531 950.534545898438 954.359680175781 944.386535644531 942.401306152344 950.234985351562 943.08251953125 942.423461914062 945.893737792969 951.258911132812 955.273315429688 945.931518554688 947.4375 960.666564941406 952.540283203125 944.395263671875 946.91650390625 951.150756835938 954.425048828125 959.729858398438 950.521484375 950.063903808594 956.969848632812 970.913269042969 973.08251953125 972.560119628906 969.496948242188 974.151428222656 974.26220703125 976.508483886719 963.009338378906 963.743347167969 960.464538574219 962.126037597656 961.866638183594 965.219665527344 965.570739746094 964.58837890625 966.612121582031 959.239929199219 956.172058105469 968.099670410156 959.755615234375 961.362548828125 965.619506835938 966.564514160156 971.046813964844 968.331420898438 965.836486816406 970.174865722656 975.134033203125 968.911743164062 969.656555175781 969.364868164062 970.72314453125 965.675964355469 965.195068359375 970.9208984375 953.364013671875 963.287780761719 979.407287597656 984.165405273438 984.008422851562 982.158874511719 982.42041015625 982.623840332031 988.437927246094 984.205383300781 972.274963378906 974.992553710938 971.01904296875 975.793090820312 978.959655761719 971.085571289062 968.328308105469 972.52978515625 987.881103515625 987.2646484375 985.923767089844 988.560852050781 988.434326171875 985.213623046875 990.394714355469 981.955200195312 982.006652832031 979.743225097656 992.785766601562 1001.3125 1006.29425048828 1012.02935791016 1005.29522705078 999.932739257812 1006.43005371094 1012.96032714844 1014.90594482422 1017.79400634766 1017.15209960938 1012.84246826172 1004.04614257812 1011.76348876953 1016.88165283203 1013.15057373047 1011.19158935547 1015.31518554688 1024.17395019531 1019.39288330078 1021.431640625 1035.59533691406 1034.18811035156 1047.93505859375 1045.828125 1041.80383300781 1040.17126464844 1037.37939453125 1039.45202636719 1040.50451660156 1030.34643554688 1030.07995605469 1026.66418457031 1039.12548828125 1034.89282226562 1044.0087890625 1040.06005859375 1036.90795898438 1034.4033203125 1034.78991699219 1017.6357421875 1016.06988525391
955.425415039062 956.53857421875 952.197631835938 947.671020507812 947.733947753906 951.045776367188 955.395324707031 951.202697753906 948.019897460938 942.745544433594 930.530334472656 935.356872558594 929.718688964844 941.475036621094 944.023193359375 946.561218261719 947.894958496094 938.379150390625 950.834594726562 935.760925292969 943.93994140625 951.094177246094 944.537109375 948.168273925781 952.5234375 939.218078613281 935.741271972656 941.313781738281 945.024597167969 947.08154296875 948.085327148438 953.516662597656 950.139892578125 949.458862304688 953.487548828125 955.870361328125 949.844909667969 952.137023925781 948.305603027344 951.608337402344 957.109191894531 953.748657226562 957.264892578125 955.928649902344 954.584411621094 968.773071289062 966.34130859375 969.931762695312 976.49169921875 967.670166015625 971.383483886719 969.2470703125 975.168701171875 966.212707519531 962.092895507812 959.63232421875 962.416381835938 963.036499023438 966.640625 970.707702636719 961.4814453125 968.174133300781 964.753295898438 968.131652832031 968.103515625 960.128356933594 961.924743652344 966.3486328125 977.399291992188 978.2421875 969.48974609375 973.240478515625 976.439453125 965.560180664062 961.856506347656 977.195495605469 974.955017089844 965.989624023438 965.372314453125 968.133911132812 964.32861328125 962.623046875 976.783386230469 985.542724609375 975.121704101562 976.885681152344 976.2060546875 966.07958984375 975.8310546875 972.738403320312 975.830688476562 974.341735839844 972.690612792969 976.758239746094 979.072509765625 973.580749511719 975.782104492188 986.23876953125 986.91162109375 984.630432128906 987.195190429688 997.129638671875 989.038208007812 981.375610351562 981.167785644531 978.907897949219 970.378173828125 981.150512695312 987.819519042969 1003.34899902344 1015.49444580078 1013.28051757812 1011.85467529297 1004.47283935547 1012.33978271484 1020.79827880859 1027.31005859375 1014.50152587891 1020.64141845703 1011.95825195312 1008.48565673828 1012.28503417969 1021.76898193359 1019.36645507812 1015.66522216797 1022.01782226562 1030.45715332031 1025.13757324219 1021.08636474609 1024.77099609375 1034.48205566406 1035.8701171875 1037.37463378906 1032.72863769531 1037.83544921875 1042.38110351562 1038.48449707031 1033.37109375 1024.73681640625 1027.18627929688 1030.60095214844 1027.48474121094 1033.10192871094 1032.115234375 1042.32629394531 1032.00964355469 1030.44982910156 1021.91229248047 1012.79455566406 1019.57379150391
957.066101074219 956.092834472656 956.629089355469 962.604187011719 956.629516601562 955.619262695312 955.570129394531 949.594360351562 943.787658691406 934.203674316406 934.046691894531 933.698486328125 933.619995117188 946.822998046875 951.320190429688 944.637634277344 947.694580078125 941.000793457031 939.170776367188 936.342712402344 941.811340332031 937.614135742188 946.545654296875 944.078552246094 936.79052734375 944.210754394531 939.012451171875 944.211120605469 945.962158203125 951.204528808594 953.857238769531 954.113830566406 950.386413574219 947.498168945312 952.337280273438 952.688781738281 952.214111328125 952.620178222656 948.260070800781 951.926452636719 956.848022460938 955.415405273438 951.54736328125 954.002990722656 959.130493164062 965.751953125 975.750549316406 979.580505371094 980.2158203125 971.295654296875 971.310302734375 960.165161132812 963.284545898438 975.558654785156 963.541259765625 961.989929199219 960.852355957031 957.309997558594 958.475952148438 969.297485351562 976.947631835938 964.919189453125 964.077209472656 962.018676757812 959.968994140625 956.124450683594 964.544372558594 973.295837402344 974.76513671875 976.190551757812 975.296936035156 970.543701171875 965.483581542969 971.330017089844 975.159790039062 980.88037109375 982.516174316406 976.900512695312 977.397766113281 966.664672851562 969.040588378906 974.230651855469 979.924011230469 978.709411621094 976.116088867188 974.915222167969 972.932739257812 962.531005859375 965.505249023438 972.420043945312 971.848815917969 975.284484863281 973.846923828125 970.101928710938 975.289489746094 981.018676757812 987.740966796875 991.752380371094 992.452331542969 990.988159179688 992.225708007812 1002.54473876953 992.906311035156 983.04736328125 984.50537109375 985.160827636719 983.406311035156 984.6181640625 996.861633300781 1009.86413574219 1010.10418701172 1020.80584716797 1016.21478271484 1019.9384765625 1009.01068115234 1017.22357177734 1026.30078125 1022.15100097656 1029.11315917969 1021.53979492188 1024.66906738281 1021.80157470703 1031.44030761719 1023.57843017578 1013.8046875 1019.56536865234 1029.4736328125 1021.70642089844 1023.84997558594 1028.73864746094 1024.640625 1028.82495117188 1019.45379638672 1023.17828369141 1032.16235351562 1038.24719238281 1037.57751464844 1031.24255371094 1030.32531738281 1031.43298339844 1029.15979003906 1027.05285644531 1029.32861328125 1020.07495117188 1027.19323730469 1023.35614013672 1022.42425537109 1020.83581542969 1018.18237304688 1027.86364746094
959.577087402344 953.190673828125 956.367614746094 961.074157714844 954.037231445312 961.141723632812 947.260070800781 941.835693359375 941.58203125 929.172058105469 935.0029296875 935.838439941406 934.469665527344 937.510131835938 945.296630859375 946.518371582031 948.473205566406 942.801879882812 950.628845214844 937.871948242188 936.457702636719 937.980712890625 937.291259765625 939.390502929688 932.487243652344 948.529846191406 946.163818359375 944.19580078125 948.027954101562 948.864685058594 955.305786132812 951.723999023438 949.794128417969 944.418151855469 951.966430664062 956.416320800781 953.192932128906 952.166931152344 955.277954101562 957.640930175781 956.338317871094 958.227111816406 950.770141601562 959.953491210938 962.33740234375 970.287231445312 973.741882324219 980.110046386719 974.979858398438 974.058166503906 973.176513671875 967.384033203125 965.146423339844 971.157592773438 967.545715332031 965.5390625 964.977966308594 963.401977539062 972.870300292969 967.94970703125 971.352355957031 971.440368652344 966.119934082031 969.525085449219 962.921752929688 964.2626953125 966.86328125 977.242065429688 979.966613769531 977.750671386719 979.174560546875 984.518310546875 969.102722167969 966.998168945312 976.556274414062 974.709228515625 976.840881347656 977.771545410156 979.261474609375 973.878112792969 977.249206542969 975.940002441406 981.446166992188 971.048095703125 977.987243652344 981.919372558594 977.462951660156 968.389465332031 969.798156738281 981.788146972656 975.879760742188 967.85595703125 973.505920410156 973.1611328125 985.53369140625 985.051086425781 982.794067382812 987.16650390625 1002.25653076172 989.281127929688 993.927795410156 996.588256835938 997.8125 986.463745117188 982.651245117188 987.315612792969 992.845397949219 991.426208496094 1000.75445556641 1019.46795654297 1017.28436279297 1014.44549560547 1019.75134277344 1009.52581787109 1005.22418212891 1018.39892578125 1021.36590576172 1031.56701660156 1025.23852539062 1025.37585449219 1032.47766113281 1029.89538574219 1040.82897949219 1032.59704589844 1022.80914306641 1020.61828613281 1023.39349365234 1030.9072265625 1034.6533203125 1027.46984863281 1018.27893066406 1027.88073730469 1013.02783203125 1023.8447265625 1031.08349609375 1037.59997558594 1028.14880371094 1025.79553222656 1035.11877441406 1032.86767578125 1032.54309082031 1027.3603515625 1022.60968017578 1017.54254150391 1020.10211181641 1024.98266601562 1024.77368164062 1011.91119384766 1018.98645019531 1020.62255859375
963.273803710938 948.7578125 959.910766601562 965.918334960938 956.966369628906 954.594482421875 947.101684570312 942.444702148438 943.455505371094 939.612915039062 937.590087890625 938.694274902344 938.477355957031 934.883483886719 935.068725585938 941.081665039062 942.662536621094 945.322204589844 947.483947753906 944.5361328125 931.209350585938 933.663940429688 921.5380859375 922.416137695312 938.684020996094 939.3701171875 949.301513671875 950.071838378906 946.750366210938 953.648620605469 956.091186523438 947.571411132812 950.543762207031 950.795288085938 956.787841796875 954.137939453125 960.175048828125 947.944641113281 962.154418945312 958.131774902344 951.129455566406 970.118225097656 964.632690429688 957.1943359375 964.798706054688 972.278747558594 972.8818359375 982.64306640625 976.693420410156 977.796264648438 978.364929199219 972.647338867188 977.770263671875 982.493713378906 978.457763671875 973.860473632812 964.801208496094 969.138732910156 972.26611328125 975.591674804688 976.614379882812 974.596557617188 968.655700683594 974.529296875 962.831787109375 968.126708984375 963.449340820312 975.707275390625 978.607177734375 980.470092773438 980.803466796875 981.436645507812 975.915649414062 984.574096679688 974.862060546875 971.427429199219 964.109741210938 977.11474609375 976.864318847656 982.744689941406 985.166564941406 979.607299804688 974.964477539062 982.025939941406 981.449035644531 992.148315429688 992.550659179688 982.779296875 978.999084472656 979.448181152344 976.490356445312 974.78173828125 965.578430175781 978.696533203125 985.728088378906 983.333190917969 989.08056640625 996.897033691406 991.9150390625 989.44384765625 997.188842773438 993.676818847656 992.526000976562 984.6474609375 985.9287109375 995.247497558594 995.272644042969 1000.37219238281 1005.12823486328 1010.97918701172 1006.92120361328 1014.44799804688 1017.94122314453 1008.24853515625 1007.18957519531 1020.81787109375 1018.43359375 1036.56396484375 1036.88500976562 1030.07153320312 1035.11450195312 1035.92883300781 1038.8974609375 1034.93298339844 1022.68035888672 1022.61560058594 1021.99951171875 1019.16186523438 1038.23095703125 1034.27014160156 1024.39794921875 1023.64080810547 1024.828125 1013.32025146484 1030.35571289062 1024.173828125 1029.5234375 1024.03491210938 1032.56518554688 1036.28308105469 1037.52807617188 1028.99072265625 1023.75036621094 1011.34692382812 1015.18676757812 1025.84106445312 1015.98870849609 1006.33197021484 1012.24969482422 1007.63452148438
962.73291015625 957.653930664062 952.6416015625 953.685485839844 951.963134765625 946.494567871094 941.473754882812 941.877136230469 944.836669921875 938.159790039062 941.184814453125 940.976257324219 934.887939453125 933.060852050781 935.350219726562 931.301208496094 946.652465820312 950.490356445312 956.128845214844 954.116088867188 949.739562988281 938.315246582031 932.114868164062 925.527526855469 933.735717773438 938.635803222656 942.801086425781 940.7138671875 946.949584960938 957.041259765625 954.127380371094 954.294372558594 955.104675292969 957.885375976562 954.467834472656 960.250305175781 959.30322265625 961.375793457031 963.104248046875 962.789306640625 962.67919921875 960.125549316406 953.087646484375 967.296081542969 970.484313964844 977.632751464844 981.647521972656 986.368103027344 979.754211425781 975.732299804688 986.045227050781 983.493896484375 987.914611816406 984.0908203125 978.660705566406 967.247192382812 968.972412109375 980.838745117188 971.296325683594 971.57666015625 969.739990234375 971.042724609375 967.454040527344 970.384582519531 962.450134277344 965.030334472656 972.975708007812 971.4208984375 973.681640625 975.521728515625 981.623779296875 971.075256347656 986.735778808594 984.925720214844 974.462280273438 980.779052734375 972.253295898438 973.313232421875 981.065246582031 983.781188964844 984.961181640625 985.332336425781 984.239807128906 982.987731933594 986.036987304688 994.412353515625 996.431823730469 983.601440429688 981.996520996094 981.768310546875 977.858642578125 969.435180664062 974.497863769531 987.626831054688 985.650085449219 986.542846679688 991.307495117188 1000.28240966797 996.17138671875 995.715698242188 997.312316894531 1000.51177978516 1000.55810546875 1000.22076416016 991.530883789062 993.727111816406 998.3115234375 1004.24407958984 1003.54425048828 1002.6826171875 1004.63555908203 1008.85119628906 1007.23028564453 1002.58972167969 1010.99285888672 1016.97595214844 1018.38354492188 1037.109375 1041.21704101562 1043.41748046875 1044.42565917969 1047.96728515625 1038.31213378906 1039.41540527344 1031.65686035156 1022.71118164062 1020.54266357422 1025.92749023438 1033.36279296875 1017.69122314453 1024.48400878906 1023.40698242188 1022.13336181641 1021.11712646484 1029.17297363281 1026.82727050781 1013.59411621094 1015.5224609375 1032.39074707031 1030.93933105469 1026.07897949219 1018.875 1014.11267089844 1011.30780029297 1008.39593505859 1016.55529785156 1006.6162109375 1010.36029052734 1009.79852294922 1000.66058349609
957.867248535156 960.538696289062 955.947692871094 949.645324707031 951.616882324219 935.748291015625 936.742492675781 933.696716308594 938.327575683594 940.080749511719 938.711486816406 941.779296875 935.634033203125 940.77880859375 944.248291015625 940.497009277344 950.21044921875 954.970703125 961.504699707031 953.847412109375 952.495422363281 955.305236816406 940.648010253906 933.136291503906 942.397644042969 952.147888183594 952.825378417969 947.918579101562 954.833435058594 950.035339355469 954.885559082031 948.292785644531 957.669128417969 955.387878417969 958.955200195312 956.675476074219 959.127685546875 966.033508300781 965.989318847656 965.981872558594 956.299194335938 965.55810546875 974.456115722656 968.869812011719 968.950256347656 979.189331054688 984.7373046875 991.424499511719 994.134460449219 978.732055664062 986.84130859375 985.692565917969 987.89306640625 979.413391113281 983.3134765625 979.682922363281 983.356811523438 979.715576171875 978.892944335938 970.306396484375 971.562927246094 975.114807128906 980.726806640625 965.775024414062 965.78076171875 968.38037109375 969.756042480469 974.483337402344 977.422180175781 970.021240234375 979.269165039062 981.758422851562 981.795715332031 981.64697265625 980.476379394531 980.796142578125 978.626953125 979.440307617188 982.159301757812 985.53173828125 981.725646972656 982.76708984375 982.827575683594 987.237548828125 996.246826171875 991.994689941406 992.476013183594 983.404663085938 978.758483886719 982.850280761719 981.560546875 973.4794921875 977.319213867188 992.983032226562 990.361511230469 993.939270019531 992.527893066406 997.198608398438 1002.13842773438 995.382995605469 1001.14855957031 993.153869628906 999.360656738281 992.420532226562 995.798583984375 998.364074707031 1004.65295410156 1009.97491455078 1012.13781738281 1012.75360107422 1005.40777587891 1015.18975830078 1010.07824707031 1002.6982421875 1012.52996826172 1019.45770263672 1031.34191894531 1039.85534667969 1046.16296386719 1043.87878417969 1051.48840332031 1050.01123046875 1045.02722167969 1042.63293457031 1038.64184570312 1022.29766845703 1031.44213867188 1031.08532714844 1021.50543212891 1029.11840820312 1023.76184082031 1024.45629882812 1018.15118408203 1019.52160644531 1026.72790527344 1026.78698730469 1022.96716308594 1017.65380859375 1017.80163574219 1017.63348388672 1012.75347900391 1015.83190917969 1011.28759765625 1009.77008056641 1005.47985839844 1009.48205566406 1000.70745849609 1000.23565673828 996.924560546875 1004.57659912109
952.682922363281 947.626098632812 951.122924804688 945.046325683594 952.955688476562 937.408752441406 933.288635253906 941.1240234375 940.758972167969 946.922485351562 944.091674804688 942.185180664062 941.699645996094 952.127624511719 959.277404785156 954.737976074219 953.664916992188 963.7041015625 955.170532226562 966.423583984375 968.656555175781 964.134155273438 953.828552246094 951.05322265625 950.481811523438 962.372863769531 967.563354492188 962.701171875 962.473876953125 949.590454101562 959.221557617188 963.784118652344 961.117736816406 956.459777832031 951.833068847656 965.69482421875 970.345275878906 978.040222167969 969.254699707031 965.995544433594 958.163818359375 971.149230957031 977.684814453125 986.223999023438 987.495910644531 982.044067382812 985.520202636719 990.408020019531 998.237731933594 987.4921875 985.98486328125 985.706359863281 986.852111816406 984.200805664062 975.674438476562 985.450866699219 978.349609375 975.009948730469 979.367919921875 968.749145507812 967.080200195312 983.088256835938 972.238525390625 967.285400390625 961.119873046875 968.376708984375 976.804443359375 976.279602050781 983.995544433594 983.954406738281 975.893432617188 974.378967285156 978.444763183594 976.494079589844 979.893127441406 979.90283203125 980.528076171875 981.445983886719 981.707702636719 978.98583984375 984.619323730469 982.946166992188 989.050598144531 988.782775878906 985.519714355469 985.107177734375 992.765991210938 986.606262207031 981.759155273438 969.899780273438 973.274230957031 976.095825195312 984.649047851562 988.500183105469 987.348449707031 986.740966796875 983.917053222656 1000.10894775391 1003.21624755859 1001.23260498047 1002.98388671875 1000.22515869141 998.123657226562 999.470703125 991.086730957031 990.713195800781 997.157653808594 999.485412597656 1005.86956787109 1013.03393554688 1008.84368896484 1010.84759521484 1013.51611328125 1018.96258544922 1017.31097412109 1024.83435058594 1026.79089355469 1034.412109375 1034.46984863281 1050.92553710938 1052.39294433594 1045.09826660156 1050.32067871094 1045.4248046875 1024.38940429688 1017.86950683594 1017.58685302734 1024.74768066406 1014.96264648438 1022.98944091797 1019.7255859375 1015.53405761719 1020.87927246094 1023.65069580078 1023.6923828125 1018.24884033203 1019.02917480469 1024.7353515625 1016.24737548828 1018.83715820312 1009.63098144531 1009.39923095703 998.489440917969 998.972412109375 1002.29180908203 999.429626464844 996.196960449219 1000.35998535156 1000.81567382812 1001.39459228516
950.291320800781 940.831909179688 948.105895996094 950.665405273438 940.791809082031 937.120849609375 936.521911621094 946.511901855469 936.481262207031 943.705017089844 950.055114746094 949.173583984375 954.988464355469 957.133422851562 964.6591796875 963.924926757812 968.50146484375 959.643737792969 960.809265136719 976.37890625 973.78515625 975.181518554688 967.868713378906 959.399108886719 966.860656738281 964.706481933594 969.118713378906 972.265075683594 957.220031738281 951.911987304688 947.059020996094 955.128540039062 963.810119628906 960.953369140625 963.268432617188 964.986877441406 972.550170898438 972.753723144531 973.801635742188 972.866394042969 969.58251953125 976.952209472656 977.263793945312 986.910461425781 982.522644042969 987.514404296875 987.9755859375 994.0283203125 993.293640136719 1001.75598144531 1002.82916259766 996.172668457031 990.812194824219 991.08154296875 985.203369140625 980.257202148438 976.569030761719 973.2421875 973.967224121094 972.484008789062 971.258666992188 978.06884765625 971.754638671875 969.195739746094 969.411254882812 970.1337890625 979.780151367188 976.238342285156 982.525268554688 987.765441894531 984.691650390625 977.463256835938 983.578063964844 984.391479492188 981.776611328125 983.372253417969 985.943664550781 985.189819335938 990.395751953125 986.516174316406 977.041076660156 979.484802246094 983.302185058594 983.68408203125 979.437133789062 979.107666015625 984.055541992188 983.456237792969 977.002563476562 975.935363769531 979.143493652344 981.271057128906 984.890869140625 981.535888671875 986.3212890625 986.256713867188 998.477905273438 1001.92858886719 1006.60919189453 1002.75109863281 1010.41857910156 1004.38354492188 1006.43597412109 1003.48712158203 1007.30029296875 999.4521484375 997.536865234375 1000.81414794922 1012.46087646484 1007.86590576172 1005.423828125 1017.58856201172 1025.44458007812 1026.31042480469 1025.56408691406 1028.96435546875 1032.07421875 1040.63427734375 1042.16430664062 1047.12744140625 1051.04138183594 1038.04638671875 1037.82751464844 1031.55627441406 1030.47839355469 1018.33862304688 1023.25970458984 1010.43658447266 1013.09161376953 1006.09777832031 1008.33044433594 1006.11334228516 1010.01257324219 1010.64990234375 1017.07489013672 1016.55883789062 1006.16290283203 1022.77105712891 1009.67999267578 1010.61395263672 1003.91918945312 997.543701171875 989.203857421875 993.285034179688 997.056579589844 993.974548339844 992.687744140625 988.338500976562 995.888305664062 994.114318847656
945.121154785156 944.117858886719 942.840698242188 935.178527832031 930.461669921875 931.4345703125 942.596313476562 936.564208984375 947.132019042969 950.804748535156 944.427307128906 955.0556640625 965.452331542969 968.362976074219 968.754028320312 976.310546875 971.019348144531 965.418212890625 969.865295410156 980.016174316406 984.2158203125 983.256164550781 971.930297851562 970.104309082031 971.423095703125 969.8310546875 971.080627441406 961.702514648438 960.238891601562 950.380249023438 960.942321777344 958.182678222656 964.737365722656 968.131713867188 973.396057128906 974.966979980469 976.980895996094 982.868408203125 985.634643554688 974.801330566406 981.944702148438 985.365478515625 989.059814453125 988.560546875 985.898620605469 990.129760742188 988.11279296875 991.361633300781 999.470703125 1008.09130859375 1007.13409423828 999.661682128906 996.046691894531 990.743286132812 988.251708984375 973.708435058594 970.158203125 981.371032714844 978.784973144531 976.238525390625 979.59716796875 973.174865722656 974.402648925781 978.985534667969 972.479370117188 971.962890625 980.931274414062 978.973815917969 976.019287109375 982.4775390625 977.334045410156 983.727478027344 990.280334472656 989.301513671875 984.149963378906 983.282836914062 984.512512207031 997.879089355469 985.202819824219 982.593933105469 976.074462890625 975.122985839844 972.915954589844 975.654846191406 989.594421386719 991.278137207031 987.278991699219 982.619995117188 978.582458496094 979.000610351562 974.786437988281 977.788208007812 985.159301757812 990.337463378906 985.485717773438 988.986877441406 992.524780273438 998.219787597656 998.442687988281 1007.24481201172 1008.18115234375 1007.60510253906 1008.09350585938 999.731567382812 1004.03839111328 991.862182617188 995.212036132812 1009.11895751953 1009.63299560547 1007.31781005859 1015.43347167969 1030.48974609375 1030.708984375 1036.53784179688 1024.53820800781 1031.34777832031 1033.71704101562 1038.27978515625 1024.8193359375 1034.72741699219 1034.68725585938 1028.36242675781 1029.94714355469 1028.09045410156 1028.79736328125 1023.04956054688 1013.67169189453 1009.86065673828 1001.14123535156 993.977478027344 998.050903320312 997.662170410156 999.438293457031 1009.63977050781 1004.00091552734 1013.31317138672 1016.13421630859 1014.16082763672 1012.9296875 1001.40228271484 996.537963867188 991.11572265625 989.138671875 995.405395507812 1003.69342041016 994.441589355469 995.291442871094 997.028442382812 992.914978027344 994.914001464844
950.525024414062 939.558349609375 939.244506835938 927.663635253906 925.283386230469 930.799987792969 937.779846191406 938.436157226562 950.563720703125 946.96533203125 951.969116210938 951.606079101562 960.213562011719 968.295104980469 976.162353515625 980.302001953125 976.337707519531 974.896606445312 977.823791503906 982.383056640625 981.42724609375 976.348388671875 971.379943847656 977.044860839844 981.587036132812 970.400695800781 969.262817382812 961.471618652344 966.7119140625 958.526489257812 965.292297363281 970.528747558594 972.458923339844 976.521850585938 975.211853027344 978.973815917969 980.835266113281 990.16845703125 988.136474609375 984.213684082031 993.598876953125 994.779296875 1004.23089599609 993.169738769531 985.1748046875 990.523681640625 992.80224609375 1002.59802246094 1001.2431640625 1006.04187011719 1012.72448730469 1002.7978515625 994.848205566406 997.741394042969 993.776916503906 982.672241210938 986.349426269531 983.530334472656 982.467041015625 979.811706542969 972.147277832031 968.728210449219 969.652038574219 974.998413085938 980.373229980469 974.011901855469 978.120056152344 975.9833984375 983.246032714844 980.955749511719 976.642578125 977.086303710938 982.58154296875 986.491516113281 985.024108886719 981.926574707031 986.107421875 999.031188964844 993.450805664062 984.823547363281 987.384521484375 982.114074707031 969.585388183594 969.402038574219 984.966552734375 987.066650390625 981.311218261719 977.413146972656 978.917358398438 982.023193359375 982.564758300781 988.670593261719 986.533996582031 983.203308105469 983.708862304688 987.000305175781 994.351501464844 1000.25799560547 1003.37359619141 1010.37823486328 1014.18493652344 1009.57806396484 1005.48406982422 1005.541015625 1002.36474609375 992.012817382812 993.864318847656 1001.85632324219 1004.14758300781 1012.11712646484 1016.77734375 1032.77502441406 1036.21704101562 1035.634765625 1043.16186523438 1033.37158203125 1029.01245117188 1020.70257568359 1020.21960449219 1018.02252197266 1027.9814453125 1023.85095214844 1012.64190673828 1015.95184326172 1018.41979980469 1017.88000488281 1016.64154052734 1012.65441894531 1005.00213623047 1000.17993164062 1001.173828125 999.124206542969 1006.24517822266 999.569580078125 1003.00427246094 1013.56030273438 1016.30670166016 1016.44757080078 1013.81488037109 1009.42633056641 1003.97369384766 999.197204589844 1003.10260009766 1006.46807861328 1001.03485107422 1000.56707763672 990.6748046875 996.22412109375 990.736206054688 989.446899414062
936.52001953125 935.35302734375 936.899475097656 929.806335449219 927.097290039062 933.084777832031 940.822937011719 942.775024414062 944.5625 951.241821289062 959.653381347656 956.858459472656 971.241088867188 975.889282226562 981.194702148438 986.194396972656 983.0546875 980.9716796875 971.440307617188 979.619445800781 980.21484375 977.553344726562 968.035339355469 988.793518066406 976.896545410156 976.5224609375 968.384338378906 971.188232421875 968.528381347656 968.881774902344 969.468139648438 971.054626464844 975.270874023438 974.116516113281 967.604064941406 973.527404785156 987.391662597656 989.881042480469 990.989685058594 995.751647949219 1000.50671386719 1008.32336425781 1005.38519287109 992.894653320312 988.549438476562 999.769775390625 999.507446289062 995.330810546875 1001.20904541016 999.288879394531 1007.83258056641 1008.10064697266 1007.69342041016 994.936950683594 993.915710449219 991.514770507812 987.848449707031 973.464172363281 977.413208007812 987.261657714844 978.043518066406 969.419616699219 965.436645507812 973.016540527344 979.082397460938 978.953674316406 982.356384277344 984.210571289062 982.014953613281 985.053771972656 979.794494628906 981.228576660156 991.510009765625 993.587646484375 986.369506835938 981.832214355469 980.221618652344 999.573852539062 996.666748046875 994.06494140625 985.904235839844 984.221313476562 983.349792480469 982.196899414062 983.912841796875 988.07666015625 987.1103515625 987.171936035156 989.025024414062 984.999755859375 981.380554199219 988.807739257812 980.955810546875 985.321105957031 986.565979003906 991.344482421875 997.222595214844 999.706176757812 1003.39575195312 1016.79638671875 1020.11059570312 1020.74133300781 1007.01904296875 1005.01666259766 1012.91448974609 1000.51428222656 999.81689453125 1011.51245117188 1008.71728515625 1010.82763671875 1016.234375 1030.09594726562 1034.35729980469 1039.28369140625 1036.23718261719 1038.00903320312 1028.05688476562 1019.33056640625 1011.58392333984 1015.85638427734 1013.26257324219 1021.66052246094 1020.478515625 1016.54602050781 1018.88659667969 1014.16619873047 1010.06646728516 1012.14324951172 1002.53741455078 1006.47595214844 998.809997558594 995.036682128906 996.966003417969 999.354248046875 1004.63012695312 1015.57385253906 1015.86169433594 1016.91467285156 1011.39184570312 1010.05718994141 998.72607421875 992.561157226562 1003.28857421875 997.852600097656 989.629821777344 993.418518066406 993.07958984375 993.298950195312 993.266479492188 1002.34265136719
943.131469726562 937.089660644531 932.935302734375 934.138977050781 927.616638183594 924.183349609375 934.828002929688 939.436157226562 951.361877441406 951.576904296875 953.838134765625 955.813171386719 967.462585449219 979.963134765625 985.206176757812 988.259704589844 988.549743652344 981.697692871094 972.939331054688 971.261352539062 975.367919921875 970.253356933594 972.371826171875 976.504150390625 979.328063964844 977.185668945312 973.658203125 977.83154296875 968.978942871094 969.680297851562 978.516174316406 971.401123046875 974.202331542969 974.805908203125 976.046142578125 976.722778320312 989.932739257812 994.447448730469 994.51904296875 998.897338867188 1005.25708007812 1011.09185791016 1001.61553955078 1002.08190917969 994.228454589844 999.194702148438 1000.35076904297 1004.80004882812 999.656799316406 1004.78070068359 1011.18707275391 1008.73266601562 1012.65325927734 998.3896484375 995.177062988281 987.671020507812 988.365234375 982.78466796875 987.247314453125 983.173522949219 980.883911132812 965.154174804688 963.048400878906 968.829284667969 975.908935546875 990.623779296875 994.296936035156 992.741333007812 989.946044921875 989.311340332031 991.259948730469 984.56201171875 983.282287597656 985.699829101562 976.377685546875 975.855041503906 983.258361816406 997.210876464844 997.29541015625 991.704650878906 989.496154785156 995.084716796875 992.648681640625 984.997680664062 984.842468261719 987.328979492188 989.540710449219 996.474243164062 988.633056640625 986.580871582031 984.079406738281 982.20556640625 985.793273925781 995.054931640625 992.846252441406 994.257507324219 997.527709960938 994.98095703125 1003.90539550781 1009.63995361328 1016.58453369141 1013.17712402344 1009.64166259766 1015.49664306641 1013.18383789062 1007.90850830078 1005.80493164062 1012.28430175781 1009.16857910156 1010.74163818359 1015.63690185547 1026.67639160156 1037.091796875 1043.36584472656 1033.01586914062 1030.60375976562 1031.82971191406 1017.51751708984 1017.03948974609 1013.83581542969 1009.45153808594 1014.23986816406 1022.67883300781 1020.68249511719 1022.14782714844 1017.69476318359 1013.87005615234 1011.35070800781 1003.29565429688 1003.76055908203 1002.52880859375 1003.01806640625 990.006896972656 993.977294921875 1006.7705078125 1005.77532958984 1021.16351318359 1016.57885742188 1009.45867919922 1001.31134033203 998.513305664062 998.648010253906 988.154968261719 990.718017578125 994.709167480469 990.065002441406 994.842224121094 989.982360839844 994.707458496094 999.075805664062
944.520935058594 944.264221191406 935.124816894531 923.020446777344 933.213806152344 931.944152832031 939.808532714844 944.367309570312 949.685485839844 960.983032226562 962.624755859375 968.064453125 975.292663574219 985.889099121094 987.269409179688 985.445495605469 989.67138671875 988.410888671875 983.36279296875 974.547180175781 979.375305175781 981.96240234375 981.369689941406 980.939086914062 980.188781738281 985.960754394531 977.294555664062 981.080993652344 975.4072265625 980.365112304688 976.734985351562 978.508117675781 979.402893066406 987.916137695312 982.906005859375 982.012573242188 991.314147949219 992.034484863281 993.396850585938 1005.68237304688 1014.39196777344 1003.00524902344 1010.41180419922 1001.80163574219 1006.0966796875 1012.47137451172 1005.0791015625 999.713256835938 1006.13916015625 1004.03051757812 1001.32336425781 1011.62487792969 1009.47131347656 1009.03424072266 990.015686035156 991.3671875 988.318725585938 983.824340820312 982.442077636719 982.300109863281 981.952453613281 972.848083496094 969.055603027344 972.178588867188 976.247619628906 983.829528808594 989.521301269531 993.7568359375 995.009399414062 996.804870605469 991.228759765625 1000.99139404297 983.885986328125 987.759765625 981.754028320312 983.840270996094 988.876586914062 992.457702636719 995.706237792969 997.569641113281 1000.86688232422 995.689758300781 995.924560546875 985.353698730469 988.31298828125 994.871765136719 993.073181152344 1000.88702392578 994.299377441406 993.605895996094 984.778991699219 978.567749023438 987.392578125 991.827880859375 989.769897460938 998.144409179688 1000.39343261719 998.077758789062 1003.98004150391 1002.96722412109 1012.876953125 1013.07574462891 1012.86364746094 1015.70111083984 1010.05151367188 1006.98022460938 1003.71350097656 1007.92901611328 1011.96527099609 1017.19464111328 1020.01739501953 1027.70861816406 1037.18530273438 1039.7861328125 1029.49438476562 1033.32348632812 1031.71936035156 1018.54626464844 1018.51409912109 1018.64916992188 1011.25915527344 1006.29840087891 1015.10070800781 1006.25189208984 1016.13903808594 1016.75604248047 1012.02160644531 1014.13470458984 1005.63397216797 1007.24517822266 1002.59295654297 995.37841796875 996.603637695312 1002.91534423828 1001.98327636719 1010.29956054688 1019.90594482422 1018.52325439453 1005.79174804688 991.403564453125 986.885070800781 987.421630859375 986.403625488281 991.897277832031 991.737060546875 990.737609863281 984.248657226562 985.911010742188 994.720764160156 1008.77532958984
943.79833984375 935.083618164062 940.556640625 933.944946289062 934.409851074219 946.824340820312 944.419311523438 951.64306640625 948.536804199219 963.974060058594 971.872009277344 981.361755371094 983.451538085938 992.44384765625 988.585632324219 985.60791015625 984.912780761719 984.147399902344 985.278076171875 978.218139648438 991.621826171875 992.03564453125 982.342956542969 989.849243164062 980.950866699219 988.857849121094 991.272521972656 987.095703125 979.757873535156 982.768615722656 977.355590820312 983.711181640625 979.312316894531 977.584045410156 987.121398925781 988.644165039062 990.171142578125 991.55859375 995.897521972656 999.418518066406 1001.8212890625 1007.06597900391 1014.056640625 1008.841796875 1015.26422119141 1017.97625732422 1009.74609375 1019.91674804688 1021.40948486328 1012.24597167969 1008.84124755859 1004.30694580078 1007.75286865234 998.870056152344 991.515075683594 987.610290527344 979.426147460938 972.232666015625 974.947570800781 976.021789550781 969.258972167969 977.935607910156 974.203369140625 966.248168945312 971.144470214844 974.770568847656 983.138427734375 981.929809570312 995.578857421875 992.835144042969 997.158630371094 997.933410644531 992.110229492188 979.928649902344 984.983947753906 986.617919921875 994.540832519531 996.833251953125 999.673217773438 999.509826660156 1001.32525634766 1005.84405517578 997.058044433594 989.730224609375 988.140319824219 993.560180664062 1004.87896728516 1007.88354492188 998.575012207031 993.920349121094 988.474243164062 982.905700683594 987.200744628906 987.100219726562 998.626098632812 999.944152832031 1002.44470214844 998.427795410156 999.481018066406 1010.67291259766 1007.50067138672 1014.74493408203 1006.2587890625 1008.30950927734 1004.81231689453 1012.46612548828 1006.07843017578 1009.07507324219 1015.36212158203 1020.96270751953 1021.39050292969 1036.22705078125 1033.61669921875 1036.28405761719 1029.75354003906 1032.7373046875 1029.2275390625 1028.01086425781 1025.18859863281 1022.90905761719 1007.05999755859 1007.67498779297 1006.12548828125 1006.19738769531 1015.48394775391 1010.08288574219 1009.97570800781 1005.50030517578 1007.62518310547 1002.80712890625 1001.99060058594 993.990600585938 997.410583496094 1005.46643066406 1005.20678710938 1009.06701660156 1013.02972412109 1011.25714111328 1001.28753662109 988.419311523438 992.520385742188 983.549255371094 991.21728515625 993.038269042969 987.702941894531 983.761962890625 976.242126464844 974.435791015625 991.653747558594 998.767272949219
940.320983886719 944.9736328125 937.386108398438 934.932800292969 938.502746582031 938.31591796875 944.379577636719 954.306701660156 957.048278808594 958.703796386719 968.881469726562 981.923889160156 973.998107910156 985.052673339844 983.087463378906 982.5703125 974.009521484375 978.053649902344 981.324951171875 981.276672363281 986.7265625 992.176208496094 994.336669921875 996.177062988281 999.429077148438 992.591918945312 998.526489257812 988.900085449219 982.799743652344 986.071716308594 980.879028320312 987.457702636719 988.360595703125 985.1123046875 993.393005371094 988.604125976562 994.161071777344 995.445922851562 996.597229003906 998.576965332031 1008.02093505859 1007.00592041016 1017.62762451172 1008.54473876953 1006.91467285156 1014.97357177734 1012.73022460938 1018.83306884766 1021.76434326172 1005.80755615234 1003.06713867188 1001.97198486328 1006.36767578125 999.975646972656 995.019592285156 991.103210449219 983.537292480469 976.71337890625 979.86376953125 982.180603027344 981.631469726562 975.072570800781 975.651428222656 972.900512695312 969.343383789062 977.642822265625 988.369873046875 988.816284179688 981.74267578125 984.118103027344 983.749328613281 990.991455078125 983.127563476562 983.897338867188 980.89501953125 978.797180175781 992.312927246094 992.029235839844 997.817077636719 1015.78265380859 1008.99212646484 1003.69012451172 1002.828125 992.481201171875 994.449462890625 1004.06787109375 1008.23211669922 1004.83752441406 1003.18420410156 995.32861328125 991.298217773438 993.705810546875 993.697570800781 981.881896972656 985.564697265625 997.182067871094 999.308959960938 1003.31170654297 1001.84289550781 999.066772460938 1011.60009765625 1008.39300537109 1003.69323730469 1003.23205566406 1005.9541015625 1013.69604492188 1015.52642822266 1012.97424316406 1017.40747070312 1012.99395751953 1023.16235351562 1024.01928710938 1038.1728515625 1033.787109375 1030.92456054688 1033.97583007812 1038.37170410156 1030.56494140625 1032.61389160156 1023.28851318359 1010.26080322266 1010.56237792969 1009.41882324219 1021.71820068359 1017.46142578125 1006.01165771484 1004.43328857422 1001.08154296875 1010.30749511719 1001.5849609375 994.68701171875 994.228332519531 997.892883300781 1000.09289550781 999.968994140625 997.491943359375 1004.73815917969 1003.30682373047 1004.56921386719 986.939453125 984.535827636719 977.609313964844 992.568725585938 986.213989257812 987.963256835938 974.750854492188 974.58203125 981.312133789062 979.838012695312 994.938537597656
935.296203613281 936.694885253906 943.075561523438 940.261535644531 932.688354492188 932.728576660156 933.58349609375 937.507873535156 939.441101074219 949.22998046875 962.156555175781 969.267028808594 979.489501953125 977.096862792969 981.008544921875 971.334716796875 975.486450195312 976.800537109375 975.411437988281 984.682922363281 981.68310546875 990.959655761719 995.6943359375 986.683776855469 985.902160644531 995.449951171875 988.984313964844 994.461791992188 994.5517578125 986.12255859375 976.563049316406 982.585266113281 986.521179199219 989.618835449219 989.326782226562 994.85791015625 995.422058105469 1003.85894775391 995.481323242188 993.128723144531 1003.65325927734 1008.21771240234 1009.1328125 1003.02722167969 1002.09240722656 1011.86212158203 1010.96807861328 1017.25622558594 1018.1259765625 1004.822265625 1002.58990478516 998.757995605469 995.690673828125 991.934448242188 997.546630859375 988.686157226562 980.335083007812 981.602783203125 980.337097167969 977.993286132812 984.317993164062 982.835388183594 975.932250976562 976.039611816406 975.552795410156 977.249694824219 979.201232910156 980.621643066406 986.154357910156 981.660217285156 980.102111816406 983.299072265625 985.860412597656 997.196594238281 978.963562011719 982.992736816406 993.943542480469 997.123718261719 1005.9443359375 1012.60974121094 1008.58807373047 1003.39678955078 1009.28497314453 996.91796875 999.993286132812 997.889404296875 1000.06671142578 1008.38214111328 1000.37078857422 995.154113769531 986.931884765625 985.592834472656 986.935424804688 983.402465820312 990.552001953125 996.437255859375 993.284118652344 1004.52160644531 1008.82580566406 1014.08825683594 1009.85510253906 1008.96954345703 1007.92517089844 1007.77850341797 1007.09857177734 1012.24536132812 1016.34741210938 1023.07470703125 1019.10467529297 1020.96875 1027.74035644531 1038.05810546875 1037.23327636719 1036.2021484375 1044.42199707031 1039.22387695312 1040.38500976562 1040.17761230469 1040.90515136719 1035.08520507812 1016.15924072266 1001.12353515625 1013.46142578125 1015.52239990234 1008.63067626953 1006.36145019531 1000.51000976562 1006.91973876953 1008.53649902344 1000.92858886719 996.315368652344 994.014343261719 991.894958496094 995.582397460938 998.77490234375 998.585632324219 996.978332519531 999.490051269531 996.090759277344 983.488647460938 979.655212402344 982.692993164062 989.255615234375 985.531799316406 982.941833496094 973.202392578125 978.389404296875 984.933471679688 984.049499511719 1000.45397949219
940.760009765625 931.629699707031 938.760131835938 937.86328125 935.429016113281 941.114135742188 934.516540527344 925.33251953125 932.673034667969 951.803283691406 966.613220214844 971.77197265625 971.703186035156 970.852294921875 978.414306640625 982.049438476562 977.8779296875 982.998901367188 975.308532714844 978.615051269531 984.510314941406 986.026489257812 985.444885253906 988.639343261719 992.738586425781 993.942810058594 988.45068359375 991.473754882812 986.137084960938 979.476623535156 983.622497558594 985.832458496094 983.67138671875 985.12841796875 982.56640625 987.571533203125 991.829528808594 998.251586914062 992.030700683594 998.068481445312 1001.92974853516 1006.29309082031 1008.46221923828 1005.10650634766 1007.75286865234 1008.72277832031 1013.66998291016 1018.78277587891 1016.99926757812 1011.49359130859 1004.27178955078 993.307922363281 990.258911132812 991.590087890625 983.525512695312 981.285583496094 980.520751953125 979.23486328125 986.172180175781 982.446594238281 984.3427734375 985.014587402344 981.274475097656 972.621337890625 975.032897949219 977.381530761719 978.328491210938 978.991821289062 981.977844238281 977.992980957031 978.393859863281 978.853637695312 987.4326171875 995.494689941406 982.7607421875 994.390319824219 985.810424804688 996.80859375 1003.90490722656 1007.37426757812 998.228210449219 1010.34686279297 1003.328125 996.860412597656 996.698364257812 1001.525390625 1000.02966308594 1001.43707275391 998.082153320312 998.401489257812 979.919799804688 992.288513183594 981.992248535156 979.15478515625 988.195678710938 987.367309570312 992.597961425781 991.960083007812 1004.91424560547 1010.56231689453 1006.96051025391 1009.14538574219 1010.20654296875 1013.63146972656 1008.71069335938 1008.43951416016 1020.52844238281 1018.90692138672 1015.90307617188 1023.18048095703 1024.92980957031 1045.96789550781 1051.62744140625 1054.94067382812 1051.8349609375 1044.78161621094 1046.47265625 1042.06970214844 1043.21240234375 1037.60095214844 1016.25762939453 1005.62298583984 1011.48614501953 1009.20343017578 1006.32836914062 1000.55456542969 998.828552246094 1005.92852783203 1004.10052490234 1006.14111328125 997.689636230469 1000.46118164062 992.315856933594 983.055603027344 994.442260742188 988.321533203125 987.949035644531 997.075439453125 990.63916015625 991.009887695312 983.945251464844 988.742309570312 985.069580078125 983.293518066406 981.326843261719 974.831481933594 978.236328125 983.341979980469 985.403686523438 994.676452636719
947.634155273438 945.719909667969 939.794921875 939.084655761719 944.32666015625 938.56298828125 931.720520019531 921.838989257812 935.114196777344 948.45849609375 971.069946289062 967.543151855469 969.012817382812 974.960632324219 974.38037109375 974.013488769531 974.462219238281 972.558959960938 971.142333984375 985.156921386719 972.38818359375 980.401794433594 974.58544921875 986.950134277344 995.149963378906 992.070861816406 995.819396972656 986.644470214844 982.950134277344 979.87060546875 983.831481933594 987.343994140625 977.490356445312 978.314453125 985.142395019531 975.585144042969 992.594604492188 996.378601074219 995.139221191406 1000.48199462891 995.964050292969 1001.60357666016 995.019226074219 1003.69720458984 998.180297851562 1008.65924072266 1009.53564453125 1021.02667236328 1010.75933837891 1004.81475830078 1004.09454345703 993.888427734375 989.330627441406 992.800415039062 983.894775390625 981.5576171875 989.628051757812 976.502136230469 970.161315917969 972.58154296875 971.949401855469 982.857299804688 983.330139160156 987.519104003906 983.191650390625 975.840026855469 973.558837890625 987.920959472656 985.314208984375 985.367065429688 984.813171386719 984.884155273438 986.553588867188 993.622924804688 991.244689941406 983.785461425781 983.865356445312 995.761474609375 996.234619140625 1002.69659423828 1007.642578125 1016.06524658203 998.840393066406 994.445983886719 996.475891113281 1001.40563964844 1001.9091796875 1000.83020019531 995.803466796875 995.944091796875 994.741271972656 996.449584960938 986.389221191406 988.725952148438 989.672119140625 997.09423828125 996.175048828125 996.474182128906 1002.91296386719 1008.59918212891 1009.20599365234 1010.96136474609 999.121459960938 1013.63830566406 1012.22039794922 1020.6005859375 1019.91491699219 1022.46447753906 1017.81219482422 1030.98999023438 1035.39733886719 1049.36389160156 1056.63366699219 1054.19860839844 1055.69091796875 1055.25805664062 1047.80480957031 1044.44775390625 1035.63500976562 1030.32678222656 1022.03814697266 1012.58856201172 1004.14306640625 1004.51715087891 1003.47045898438 996.256042480469 994.203308105469 999.831970214844 997.603637695312 1000.69744873047 1006.61712646484 1006.49334716797 997.441162109375 991.248840332031 987.855285644531 983.289489746094 989.692932128906 990.214477539062 994.027648925781 987.871276855469 980.521240234375 985.422241210938 984.637878417969 976.3203125 985.487854003906 975.243835449219 970.22216796875 977.928466796875 992.267944335938 993.955932617188
948.321166992188 943.773010253906 950.187316894531 946.928466796875 936.064025878906 934.312866210938 931.577514648438 930.367309570312 938.099609375 951.809204101562 965.982543945312 971.197326660156 964.278625488281 970.127563476562 965.968017578125 967.099914550781 973.234497070312 972.443298339844 969.429565429688 978.120056152344 977.687377929688 978.38720703125 977.72509765625 981.408996582031 986.569396972656 989.530395507812 987.332641601562 979.523742675781 972.998474121094 978.89208984375 980.553649902344 975.24267578125 975.993835449219 978.843444824219 978.779724121094 980.464904785156 988.654052734375 991.008422851562 989.346069335938 986.729431152344 982.57763671875 989.581604003906 997.6943359375 1005.12890625 1005.68060302734 995.196166992188 998.774719238281 1002.42584228516 1003.40631103516 997.625671386719 992.034484863281 985.958984375 984.97607421875 984.085205078125 984.1259765625 987.420349121094 992.492614746094 984.191650390625 983.968139648438 982.99169921875 984.5478515625 987.849975585938 989.01708984375 990.521301269531 979.387756347656 969.306518554688 974.168090820312 980.008972167969 988.535095214844 983.107360839844 983.201416015625 982.726928710938 986.364196777344 996.002746582031 987.627685546875 978.476013183594 979.506408691406 987.509460449219 1000.24578857422 1008.17413330078 1009.19256591797 1012.19866943359 1006.38232421875 1007.24182128906 1008.56939697266 1007.72943115234 1000.07177734375 995.240051269531 996.51708984375 1001.62469482422 996.843383789062 1002.02508544922 993.795776367188 990.18408203125 994.902648925781 996.926086425781 999.576110839844 1002.63671875 1002.68640136719 1011.59417724609 1013.77655029297 1007.67999267578 1009.44073486328 1008.60705566406 1010.65972900391 1017.69647216797 1028.43005371094 1021.32122802734 1023.49401855469 1038.39367675781 1046.56921386719 1052.3037109375 1054.95092773438 1058.73046875 1051.744140625 1048.13159179688 1044.50720214844 1046.38977050781 1035.22277832031 1022.26257324219 1019.27191162109 1013.69519042969 1012.5341796875 1001.44390869141 993.270690917969 1003.60235595703 994.740905761719 994.1826171875 997.557556152344 995.109741210938 995.034790039062 997.374816894531 992.982666015625 981.985595703125 980.71826171875 981.012634277344 985.294494628906 986.8359375 982.2958984375 986.714782714844 985.247375488281 981.765991210938 989.148193359375 982.789611816406 977.77880859375 975.31201171875 975.096130371094 983.201232910156 989.53076171875 994.267761230469
941.829162597656 939.893005371094 944.987731933594 949.873474121094 931.902038574219 933.281066894531 937.977722167969 929.682312011719 925.887573242188 946.224426269531 961.900756835938 966.153198242188 960.505859375 966.992797851562 959.621032714844 957.871765136719 964.729919433594 959.933166503906 970.236633300781 974.464538574219 970.188232421875 970.204956054688 967.06201171875 971.67626953125 982.535461425781 979.183349609375 972.969848632812 973.332397460938 967.503601074219 970.559143066406 971.711059570312 975.961730957031 979.011657714844 979.715148925781 972.280639648438 979.44580078125 977.691345214844 976.963073730469 984.77197265625 973.830017089844 976.362670898438 981.469909667969 988.739318847656 998.387084960938 988.566833496094 988.842041015625 994.652282714844 1004.47991943359 1007.58666992188 1003.25897216797 992.81103515625 989.216979980469 991.135681152344 988.048706054688 983.209106445312 985.479370117188 986.538452148438 986.336608886719 993.380187988281 986.667724609375 980.855773925781 987.080261230469 988.961547851562 982.977661132812 980.167175292969 978.468566894531 977.904418945312 974.612426757812 977.459106445312 971.740417480469 982.981628417969 986.153930664062 990.984313964844 986.456115722656 984.985656738281 982.987243652344 975.652770996094 991.282104492188 998.722778320312 1008.53405761719 1014.68377685547 1014.59832763672 1009.55743408203 1010.07739257812 1010.453125 1006.45727539062 994.750122070312 994.329040527344 990.417358398438 1001.66088867188 995.338439941406 996.504089355469 996.818786621094 990.256103515625 991.368408203125 1000.30511474609 1000.8779296875 1002.69244384766 1005.57458496094 1005.43255615234 1006.64831542969 1010.2353515625 1005.57135009766 1008.28857421875 1014.27032470703 1027.142578125 1027.03405761719 1031.4541015625 1032.96398925781 1033.74096679688 1049.12097167969 1054.57116699219 1054.06030273438 1055.85705566406 1050.20764160156 1051.61730957031 1043.41467285156 1045.8447265625 1039.54187011719 1024.34680175781 1016.22424316406 1009.88061523438 1005.73175048828 1003.90203857422 999.621948242188 999.5087890625 984.264099121094 991.021728515625 987.895141601562 985.581848144531 987.689697265625 989.551330566406 985.949340820312 975.094909667969 978.169921875 979.805847167969 977.552429199219 976.6865234375 987.016296386719 981.593627929688 979.950622558594 979.76904296875 977.609497070312 973.660583496094 973.214050292969 980.669921875 974.036926269531 986.462890625 981.457214355469 988.824279785156
946.903076171875 937.7412109375 944.722839355469 949.498657226562 941.393615722656 935.835754394531 930.4091796875 931.87158203125 925.750244140625 946.752319335938 955.410888671875 961.688049316406 950.799438476562 958.476257324219 956.578308105469 952.904235839844 957.745361328125 962.531921386719 962.681762695312 967.437744140625 958.336059570312 962.832824707031 962.46240234375 964.993408203125 982.451843261719 975.780883789062 973.570129394531 963.928771972656 959.531921386719 962.427917480469 968.3876953125 963.38232421875 970.064514160156 970.952453613281 981.435791015625 984.859375 978.006652832031 974.135070800781 970.438232421875 975.676818847656 992.355102539062 991.30712890625 983.603576660156 991.133178710938 993.922424316406 988.60107421875 996.814025878906 1002.81646728516 1010.9892578125 1004.35327148438 1002.54272460938 994.6572265625 999.813293457031 996.228637695312 990.185546875 993.802551269531 985.8984375 994.663635253906 990.326416015625 998.774841308594 990.959655761719 982.444030761719 982.263244628906 992.109924316406 981.219482421875 979.021118164062 979.61572265625 982.391540527344 981.189086914062 987.831604003906 989.055969238281 989.845031738281 990.062805175781 990.560241699219 993.057495117188 988.886291503906 990.47802734375 986.769409179688 993.259704589844 1007.30145263672 1013.68328857422 1015.53216552734 1014.4638671875 1013.00427246094 1008.96325683594 1001.77331542969 995.584533691406 993.573547363281 999.368286132812 996.88720703125 996.3056640625 995.327697753906 992.238037109375 995.5810546875 997.28515625 1008.37152099609 1007.04449462891 1011.92694091797 1003.95141601562 1001.63757324219 1004.10009765625 1003.26647949219 1008.77404785156 1007.26458740234 1010.35736083984 1018.65460205078 1031.30871582031 1028.82751464844 1030.22766113281 1040.689453125 1034.53918457031 1043.98461914062 1051.38598632812 1055.32177734375 1058.71105957031 1058.59692382812 1061.39428710938 1056.78247070312 1040.41027832031 1028.07104492188 1021.67761230469 1011.24169921875 1004.46221923828 998.807983398438 999.7060546875 990.419372558594 989.9365234375 986.929626464844 982.841979980469 984.835144042969 976.981872558594 973.174072265625 972.409790039062 962.810852050781 973.656066894531 974.479553222656 972.208618164062 967.992126464844 982.832580566406 974.529052734375 971.391479492188 969.16455078125 974.036315917969 968.000427246094 969.651977539062 972.058166503906 979.618774414062 975.764770507812 980.6357421875 981.383056640625
948.911010742188 952.910522460938 945.928527832031 941.010375976562 944.0947265625 941.20263671875 935.081787109375 945.516540527344 941.202758789062 947.048706054688 951.637573242188 954.2197265625 946.371643066406 947.581176757812 957.875915527344 955.171997070312 949.097900390625 961.705017089844 964.374450683594 961.604614257812 961.833801269531 950.852111816406 955.931396484375 956.806945800781 964.478515625 971.525634765625 962.303039550781 957.169311523438 956.263488769531 960.378540039062 969.139953613281 969.728454589844 974.175109863281 967.840881347656 980.318298339844 975.790466308594 975.348876953125 968.271606445312 971.608642578125 969.204223632812 977.51953125 981.549072265625 987.280639648438 987.777587890625 999.996459960938 998.094787597656 1005.34710693359 1004.23272705078 1001.56573486328 1006.38171386719 1005.83715820312 1002.01446533203 1001.15991210938 997.125671386719 992.864135742188 995.695251464844 990.621337890625 986.342224121094 993.183044433594 1000.40692138672 994.675415039062 983.306762695312 982.142456054688 994.608703613281 994.543762207031 990.904968261719 989.880920410156 979.440490722656 987.024353027344 994.005004882812 999.551940917969 997.9599609375 1000.01068115234 992.58740234375 998.724182128906 990.974060058594 984.171142578125 983.526062011719 987.555297851562 997.15087890625 1005.74835205078 1028.1826171875 1014.60571289062 1005.7353515625 1010.82476806641 1002.93536376953 1000.32916259766 992.993041992188 1000.85906982422 1000.65228271484 1003.17559814453 997.795593261719 997.252075195312 1006.95648193359 1005.82781982422 1004.91949462891 1009.95928955078 1017.57482910156 1018.30786132812 1006.29864501953 1007.64709472656 1011.20104980469 1014.43127441406 1012.55822753906 1010.04852294922 1017.97082519531 1033.82727050781 1030.13354492188 1032.02661132812 1041.41174316406 1045.36730957031 1049.92297363281 1055.54870605469 1067.919921875 1064.87084960938 1059.62463378906 1057.59045410156 1058.1689453125 1048.17199707031 1035.73303222656 1024.78039550781 1010.58361816406 1010.01770019531 1004.01422119141 1004.77520751953 999.828430175781 997.039672851562 993.112731933594 979.772094726562 988.041564941406 974.146728515625 973.860595703125 971.628295898438 969.143310546875 969.268493652344 972.203369140625 963.662780761719 960.260070800781 971.661926269531 972.193603515625 975.7451171875 977.353698730469 977.483642578125 966.667846679688 965.942565917969 971.187927246094 979.443481445312 982.277282714844 981.639099121094 981.533203125
953.242980957031 951.422058105469 951.74951171875 945.90283203125 937.601684570312 937.207153320312 931.066223144531 940.569091796875 945.161499023438 948.974487304688 938.775207519531 951.407653808594 949.6279296875 950.439636230469 954.137573242188 956.13720703125 951.869995117188 960.2177734375 959.483215332031 953.835021972656 956.095397949219 960.041442871094 954.828918457031 949.234313964844 959.104736328125 961.398254394531 961.426879882812 963.314331054688 962.065246582031 961.300231933594 957.954956054688 964.527099609375 958.809387207031 965.9892578125 974.928771972656 968.703125 964.518676757812 968.221862792969 970.306762695312 966.755981445312 976.496459960938 981.416809082031 987.496337890625 991.635375976562 994.678405761719 1003.77783203125 1002.17358398438 995.417053222656 1003.01745605469 1005.10241699219 1001.39752197266 1002.91571044922 998.207885742188 995.504089355469 992.158752441406 997.09228515625 984.896667480469 990.202209472656 997.103942871094 1001.63012695312 996.554809570312 986.726806640625 981.878234863281 988.923217773438 986.679931640625 990.475402832031 993.401977539062 991.61865234375 989.384521484375 989.411254882812 1005.19689941406 1005.46337890625 993.658508300781 994.540161132812 993.476196289062 1001.37774658203 992.934509277344 994.707824707031 987.712463378906 998.046020507812 1004.72131347656 1018.42370605469 1009.34838867188 1008.30700683594 1004.67681884766 1002.86260986328 1005.84918212891 1000.18316650391 1001.30047607422 1001.2783203125 1006.751953125 995.38427734375 999.055419921875 1001.31939697266 1003.05639648438 1009.01501464844 1005.41955566406 1024.17150878906 1019.63293457031 1014.57757568359 1007.56945800781 1009.64196777344 1021.71942138672 1024.37951660156 1023.63586425781 1013.91729736328 1032.2412109375 1031.09997558594 1032.95397949219 1045.50061035156 1048.26245117188 1050.71936035156 1054.13989257812 1064.22473144531 1064.67529296875 1067.82177734375 1060.43542480469 1061.44140625 1052.44970703125 1048.51281738281 1026.32800292969 1024.32348632812 1014.86981201172 1007.79266357422 1001.14239501953 998.106872558594 995.872192382812 987.545532226562 986.451904296875 990.737976074219 985.376770019531 976.298522949219 973.673828125 976.061157226562 970.573120117188 967.493103027344 964.674987792969 964.737915039062 963.116333007812 973.782653808594 977.399536132812 984.640930175781 973.058959960938 965.312255859375 968.201538085938 969.662353515625 973.370544433594 978.488891601562 981.033020019531 975.822387695312
967.192749023438 957.739990234375 957.171081542969 949.117248535156 946.775634765625 949.190795898438 947.970397949219 941.895385742188 950.280395507812 951.582641601562 941.58642578125 938.525146484375 944.148193359375 950.130737304688 951.217041015625 958.652954101562 961.601806640625 956.279724121094 958.060485839844 963.429321289062 964.086547851562 954.045532226562 962.429809570312 953.605407714844 963.843688964844 964.329406738281 962.248413085938 958.997802734375 960.533874511719 960.271362304688 958.937438964844 963.867553710938 959.811279296875 965.622009277344 969.754333496094 971.536743164062 957.005615234375 962.360473632812 967.631713867188 970.495422363281 979.140258789062 993.483459472656 995.37060546875 994.167175292969 985.462097167969 992.444152832031 991.503540039062 1002.32684326172 998.808227539062 1010.12744140625 1006.56799316406 1005.63836669922 998.7587890625 991.819946289062 993.177124023438 988.341796875 987.158203125 990.073303222656 999.011535644531 1006.42016601562 1000.03289794922 994.770080566406 983.262084960938 989.858642578125 988.955932617188 996.000122070312 994.095458984375 994.325317382812 992.022033691406 995.206726074219 995.385314941406 996.179931640625 991.691101074219 998.719299316406 993.470458984375 1002.974609375 1005.54083251953 999.080078125 997.796081542969 991.172607421875 1000.11444091797 1005.41717529297 1008.64184570312 1013.56958007812 1017.2099609375 1009.59552001953 1000.42706298828 1000.12072753906 1003.37750244141 1004.638671875 998.92919921875 999.816833496094 1003.45727539062 998.855834960938 1001.83740234375 1010.14221191406 1011.97967529297 1018.71142578125 1018.68499755859 1016.69738769531 1011.52465820312 1015.97222900391 1017.89031982422 1034.85559082031 1034.19104003906 1024.4140625 1028.17797851562 1027.51721191406 1034.87841796875 1042.55383300781 1054.89086914062 1048.69372558594 1052.61608886719 1060.88464355469 1069.11376953125 1058.65759277344 1059.94165039062 1059.703125 1052.46081542969 1037.04919433594 1036.07153320312 1023.24389648438 1019.37744140625 1012.86279296875 998.480102539062 983.657775878906 985.944091796875 985.946228027344 986.750549316406 985.867004394531 986.130310058594 979.097106933594 973.422241210938 976.995544433594 969.418090820312 968.189636230469 958.906005859375 970.000671386719 976.147033691406 971.363037109375 975.870910644531 983.33935546875 979.831787109375 974.271301269531 965.419494628906 969.183715820312 975.105895996094 977.152709960938 978.054748535156 982.078308105469
962.4619140625 957.343017578125 959.820434570312 950.023498535156 951.730834960938 939.804443359375 950.178283691406 947.681579589844 942.967895507812 949.423522949219 944.605102539062 946.5673828125 942.642272949219 958.087707519531 953.373718261719 947.909423828125 949.176086425781 950.414306640625 964.762451171875 962.465087890625 971.580627441406 968.23876953125 965.44140625 968.675231933594 963.936401367188 965.697204589844 962.880004882812 965.236694335938 962.013366699219 963.155090332031 958.377380371094 971.041381835938 965.851745605469 973.494018554688 973.404724121094 959.716003417969 967.707641601562 971.595153808594 974.133239746094 978.855102539062 985.462890625 985.640991210938 985.285278320312 979.428161621094 975.2880859375 989.748779296875 989.9638671875 991.281311035156 997.554260253906 1006.27813720703 1006.796875 1002.47802734375 994.817749023438 990.806457519531 986.873596191406 986.226623535156 991.0380859375 997.498046875 999.811096191406 1004.56823730469 1000.66528320312 992.933837890625 997.364440917969 989.511535644531 990.523071289062 993.138427734375 994.262390136719 993.229553222656 993.903137207031 996.537109375 993.347473144531 992.89990234375 989.450744628906 998.921264648438 1000.75250244141 998.642883300781 1005.50952148438 1000.90734863281 1001.85876464844 995.185974121094 993.470031738281 1002.02563476562 1002.12738037109 1000.71417236328 1014.37481689453 1006.04333496094 1002.65832519531 1010.49072265625 1006.25354003906 1004.23345947266 1010.94403076172 1010.69421386719 1005.25140380859 999.349792480469 1001.41534423828 998.365356445312 1005.59344482422 1009.86889648438 1018.78338623047 1016.58752441406 1021.81842041016 1021.55865478516 1028.44482421875 1038.96215820312 1033.79345703125 1027.05517578125 1030.24267578125 1033.53479003906 1038.41223144531 1043.20068359375 1051.46704101562 1041.90783691406 1049.64440917969 1058.77172851562 1059.41064453125 1056.01904296875 1059.90808105469 1049.02990722656 1044.82202148438 1052.06311035156 1037.92272949219 1025.21130371094 1016.27941894531 1004.0185546875 996.173889160156 997.669860839844 993.835632324219 993.374816894531 986.944885253906 986.498596191406 980.265808105469 984.208068847656 982.077758789062 981.245727539062 984.77001953125 975.796508789062 971.552551269531 968.917175292969 974.213012695312 974.676879882812 968.51220703125 967.141967773438 978.6494140625 972.399108886719 970.606018066406 971.687866210938 977.255310058594 978.170349121094 978.815490722656 976.965270996094
960.173156738281 956.546752929688 962.645446777344 954.098327636719 952.42724609375 950.66162109375 943.657104492188 935.750122070312 941.671142578125 943.47216796875 945.982299804688 948.655639648438 952.520385742188 960.9501953125 953.570617675781 953.872497558594 949.400329589844 947.975769042969 972.703186035156 972.400512695312 971.265930175781 965.565307617188 962.187561035156 969.500427246094 971.661193847656 965.764343261719 964.157531738281 956.5556640625 969.427917480469 970.998779296875 964.305847167969 961.394165039062 967.720275878906 969.473022460938 962.958557128906 971.159545898438 977.118225097656 973.398681640625 971.0029296875 973.32958984375 972.280090332031 976.134094238281 975.369567871094 983.567626953125 985.172424316406 986.441711425781 986.234191894531 991.188354492188 987.012268066406 992.313659667969 994.465637207031 992.811401367188 994.483459472656 991.889465332031 992.970031738281 997.2861328125 1000.77630615234 1005.93493652344 1010.54138183594 1001.41607666016 1003.80316162109 999.10400390625 994.061401367188 994.316101074219 992.610473632812 996.520874023438 996.335571289062 995.885192871094 990.308837890625 994.815979003906 988.281005859375 991.997619628906 995.02783203125 996.653930664062 998.121215820312 994.656311035156 997.716735839844 1008.66296386719 1000.24432373047 993.612548828125 989.609497070312 998.655090332031 1002.91217041016 1006.36114501953 1005.296875 1009.36950683594 1005.92724609375 1010.88403320312 1013.70184326172 1015.17144775391 1015.43023681641 1009.13903808594 1008.81945800781 1004.04553222656 1006.36291503906 1000.94738769531 1013.61181640625 1012.49871826172 1016.60131835938 1016.05346679688 1009.17852783203 1020.26135253906 1019.71423339844 1025.32763671875 1032.11877441406 1024.83923339844 1034.75830078125 1035.92333984375 1032.49096679688 1037.98022460938 1046.89135742188 1045.68896484375 1046.68981933594 1050.23291015625 1048.19616699219 1058.00866699219 1049.16955566406 1039.69970703125 1046.60803222656 1043.89794921875 1045.56921386719 1023.51190185547 1030.85485839844 1013.14331054688 1000.97912597656 1008.15496826172 999.384460449219 994.64013671875 991.056091308594 990.34423828125 990.119750976562 992.887817382812 984.342407226562 984.305541992188 995.617797851562 984.2265625 976.135375976562 965.20458984375 969.283508300781 967.502075195312 965.148620605469 958.781616210938 964.228149414062 972.35986328125 970.685180664062 970.165222167969 971.966857910156 970.577453613281 981.189514160156 970.632873535156
959.003234863281 965.313598632812 955.6591796875 957.684265136719 959.912292480469 952.582885742188 942.658935546875 943.5029296875 943.811767578125 953.357421875 946.426147460938 960.077026367188 962.548156738281 962.83447265625 956.51025390625 956.794616699219 954.188842773438 960.503479003906 968.4150390625 970.354187011719 972.143371582031 968.615905761719 970.450073242188 966.581848144531 964.652221679688 965.592224121094 959.548278808594 969.1416015625 967.310485839844 963.471984863281 962.228393554688 964.518676757812 965.183227539062 972.906555175781 972.884643554688 976.302429199219 972.902221679688 967.752868652344 960.901428222656 964.768615722656 967.76708984375 970.738891601562 968.000366210938 973.792358398438 981.311401367188 978.881042480469 981.641357421875 991.715759277344 989.772827148438 984.988403320312 990.242309570312 998.199584960938 995.894897460938 996.153503417969 997.700256347656 1008.22412109375 1013.75201416016 1007.39141845703 1012.39587402344 1008.93682861328 1014.02447509766 1012.87945556641 1008.80493164062 999.994323730469 1004.51922607422 1005.42980957031 995.149658203125 995.653869628906 994.797485351562 992.43603515625 990.095703125 996.4541015625 996.742431640625 1001.52386474609 995.976013183594 995.788879394531 998.638549804688 1010.81378173828 1007.75305175781 1007.94116210938 1001.28247070312 998.627136230469 999.133605957031 997.456420898438 993.933166503906 1001.26159667969 1007.54046630859 1016.18853759766 1007.66510009766 1015.35961914062 1015.22589111328 1007.62127685547 1001.52233886719 1003.64202880859 1008.94244384766 1015.21429443359 1009.31134033203 1015.10864257812 1009.68438720703 1011.39331054688 1015.92907714844 1020.06072998047 1032.41918945312 1029.46887207031 1028.26428222656 1024.21875 1030.25769042969 1035.595703125 1030.56420898438 1039.95776367188 1038.12683105469 1035.55090332031 1035.25866699219 1047.0849609375 1045.31677246094 1051.25561523438 1048.72521972656 1053.50268554688 1045.72521972656 1044.07470703125 1049.67614746094 1038.01049804688 1038.87622070312 1024.76098632812 1015.73718261719 1008.7001953125 1001.48071289062 996.546264648438 999.900512695312 990.769226074219 994.577819824219 989.591674804688 989.638427734375 985.865600585938 980.15673828125 984.485961914062 971.448059082031 963.560485839844 960.469116210938 969.140258789062 961.3232421875 965.759582519531 968.262573242188 977.906127929688 974.352844238281 974.563659667969 975.780700683594 969.789428710938 967.183349609375 967.816833496094
963.7509765625 962.608520507812 968.517883300781 955.857116699219 946.016845703125 954.037841796875 951.456909179688 950.765808105469 954.361450195312 955.671508789062 951.538391113281 956.7490234375 974.990966796875 964.35302734375 964.59228515625 969.404296875 962.485778808594 963.526000976562 966.342224121094 969.288513183594 973.94970703125 973.98291015625 969.383728027344 964.681884765625 963.145935058594 956.693420410156 961.579284667969 967.583984375 968.891052246094 968.614501953125 956.844787597656 957.507019042969 958.03857421875 969.318969726562 963.885803222656 965.9716796875 977.649047851562 968.917053222656 964.264221191406 958.611511230469 956.230834960938 963.402160644531 956.623291015625 965.049011230469 968.428161621094 977.802978515625 977.135986328125 985.280639648438 982.946228027344 989.595947265625 993.214050292969 1003.50421142578 1005.12280273438 1000.28778076172 1005.13055419922 1011.76293945312 1003.94287109375 1006.59478759766 1008.90795898438 1006.08319091797 1019.85791015625 1026.21850585938 1028.97729492188 1018.92395019531 1009.38043212891 1000.65734863281 993.769592285156 992.137329101562 999.170227050781 994.099182128906 994.4306640625 993.421936035156 996.843078613281 1006.98834228516 1005.83367919922 997.30224609375 1005.068359375 1003.14685058594 1004.31689453125 998.892150878906 990.094543457031 992.426635742188 989.678649902344 1002.75543212891 1000.63250732422 1001.47882080078 1009.4169921875 1012.65057373047 1012.09100341797 1013.08154296875 1012.80126953125 1008.71606445312 1006.28594970703 1009.53430175781 1019.65588378906 1015.01873779297 1015.16455078125 1015.46234130859 1017.15655517578 1016.72808837891 1016.60137939453 1022.7509765625 1033.03247070312 1024.59094238281 1030.93530273438 1033.30444335938 1039.48596191406 1032.46398925781 1036.31945800781 1038.52856445312 1041.44702148438 1037.63659667969 1036.84924316406 1038.1123046875 1047.88720703125 1050.0166015625 1050.28979492188 1045.09533691406 1042.91186523438 1038.04113769531 1038.2470703125 1040.47302246094 1041.42102050781 1031.412109375 1026.17260742188 1012.84356689453 1011.00402832031 998.816833496094 993.98828125 990.222839355469 992.302795410156 995.671691894531 997.798400878906 980.10498046875 975.290405273438 968.649047851562 972.096435546875 968.432800292969 959.436401367188 958.622497558594 959.384338378906 968.649475097656 966.890258789062 965.229431152344 977.549987792969 975.67138671875 965.69140625 969.9609375 972.117858886719 965.688415527344
963.960144042969 965.751525878906 968.303527832031 951.866943359375 951.425415039062 949.5283203125 950.802978515625 958.172790527344 946.943359375 949.717163085938 953.126892089844 961.508850097656 981.516235351562 971.707092285156 973.9541015625 977.463928222656 968.724975585938 967.481750488281 961.641479492188 964.638793945312 977.195861816406 971.19189453125 973.863891601562 967.077575683594 963.527099609375 963.513916015625 962.951965332031 964.858581542969 965.7109375 973.828186035156 958.258117675781 962.316711425781 958.775756835938 967.157287597656 966.240966796875 972.209228515625 977.736511230469 976.662536621094 966.481201171875 965.320251464844 970.648315429688 968.914367675781 969.273681640625 976.2373046875 971.380493164062 974.318176269531 975.676452636719 981.076110839844 980.884155273438 986.771484375 994.251708984375 997.968078613281 1008.23760986328 1001.17724609375 1005.57006835938 1009.97454833984 1010.71435546875 1014.23376464844 1013.05889892578 1013.28765869141 1022.19573974609 1029.79516601562 1014.86029052734 1015.93023681641 1005.49536132812 997.719604492188 996.246459960938 992.288208007812 1003.3271484375 998.535400390625 1002.38696289062 1000.81762695312 994.587219238281 1001.98065185547 999.975219726562 1000.02429199219 1001.46057128906 1006.60705566406 999.139953613281 995.677185058594 994.242431640625 1000.76654052734 985.309020996094 989.966613769531 998.511535644531 1003.30023193359 1001.26306152344 1005.87249755859 1004.93432617188 1013.92437744141 1010.78106689453 1012.30902099609 1009.66918945312 1011.21319580078 1016.07263183594 1023.19500732422 1020.44378662109 1015.38690185547 1016.27557373047 1016.32202148438 1021.29962158203 1021.29333496094 1020.85150146484 1025.02758789062 1033.52880859375 1024.73815917969 1038.236328125 1032.5302734375 1029.62377929688 1039.62548828125 1036.7373046875 1043.09887695312 1039.71948242188 1035.57861328125 1037.65490722656 1042.34289550781 1052.60961914062 1040.38232421875 1041.2998046875 1038.68200683594 1037.28271484375 1036.63024902344 1040.31274414062 1029.97875976562 1031.7548828125 1013.37670898438 1006.54656982422 1004.12139892578 995.825988769531 999.0810546875 988.845153808594 987.081787109375 984.699951171875 986.563903808594 975.064392089844 975.700866699219 970.141967773438 962.459045410156 959.814147949219 955.930236816406 961.813293457031 955.575561523438 952.758728027344 972.971374511719 975.255187988281 970.5302734375 965.157165527344 958.052673339844 956.781677246094 962.416076660156
957.725646972656 958.513488769531 963.622497558594 956.304016113281 960.849182128906 956.577575683594 951.115478515625 945.174865722656 942.311462402344 955.195068359375 965.720947265625 961.270629882812 962.940734863281 972.237854003906 972.08056640625 987.146728515625 969.646545410156 973.281494140625 971.530212402344 967.07275390625 969.778198242188 975.360473632812 978.242126464844 970.353698730469 967.798706054688 968.927368164062 967.026611328125 975.412780761719 966.097473144531 964.738098144531 956.361328125 959.278503417969 961.056823730469 968.926025390625 973.455871582031 978.102844238281 978.943176269531 976.192077636719 969.796936035156 975.347839355469 977.724548339844 978.465393066406 981.326904296875 978.475402832031 969.5 974.061218261719 969.073974609375 970.315612792969 971.905395507812 982.199401855469 982.481506347656 1001.52557373047 995.337158203125 995.012084960938 1004.22979736328 1005.48156738281 1008.36987304688 1011.76287841797 1011.88403320312 1021.33306884766 1022.45391845703 1017.02203369141 1014.17572021484 1007.29809570312 1007.68267822266 1005.45935058594 994.590515136719 1001.63677978516 998.263122558594 997.775512695312 1000.10198974609 1001.62219238281 1004.79650878906 998.100830078125 999.740478515625 1007.15893554688 999.506225585938 1000.70751953125 995.148681640625 995.509826660156 993.964721679688 988.704650878906 991.917175292969 992.745056152344 999.707275390625 1000.57818603516 1004.41528320312 1003.66967773438 1008.46789550781 1005.29711914062 1011.30639648438 1014.39477539062 1013.20397949219 1013.79992675781 1012.97674560547 1016.52062988281 1016.14227294922 1022.54595947266 1024.73120117188 1027.947265625 1031.01953125 1038.76477050781 1024.4482421875 1037.9912109375 1036.83276367188 1027.01293945312 1033.66186523438 1036.36059570312 1031.69543457031 1032.66333007812 1049.02270507812 1041.42785644531 1039.46301269531 1039.9970703125 1036.0556640625 1041.97924804688 1041.83410644531 1042.64965820312 1043.97619628906 1037.43310546875 1028.8125 1034.55615234375 1033.66101074219 1033.38073730469 1023.63494873047 1012.96051025391 1005.19506835938 1005.99243164062 1003.38970947266 1001.59197998047 991.912475585938 986.681213378906 982.532592773438 974.683471679688 970.043701171875 966.25341796875 959.219116210938 958.591430664062 963.798645019531 956.610778808594 960.102111816406 954.869018554688 946.910766601562 963.409729003906 969.773315429688 968.652526855469 960.95654296875 957.612426757812 961.671630859375 949.592407226562
941.429321289062 946.406860351562 955.922119140625 962.151245117188 964.500732421875 958.901306152344 951.011962890625 949.000671386719 952.480834960938 954.018432617188 952.301513671875 964.465637207031 964.115295410156 965.898986816406 972.316772460938 980.910400390625 968.580505371094 974.140319824219 971.470520019531 973.034423828125 973.803283691406 968.41650390625 967.222290039062 970.453125 966.19482421875 975.024780273438 972.996887207031 970.512512207031 966.061462402344 967.7177734375 966.252990722656 960.929870605469 959.095886230469 972.774963378906 973.466125488281 979.167663574219 983.956359863281 979.88037109375 984.112915039062 978.287719726562 984.641296386719 982.831481933594 978.9091796875 976.598937988281 978.252563476562 972.57275390625 979.436340332031 977.140686035156 973.022827148438 978.217468261719 978.562927246094 988.578796386719 991.229187011719 989.948486328125 997.5068359375 1004.30261230469 1017.10211181641 1022.12310791016 1012.62213134766 1013.90093994141 1017.38159179688 1013.52673339844 1010.03051757812 1021.11529541016 1015.63781738281 1014.13024902344 997.799438476562 1006.21057128906 996.445861816406 999.761535644531 1005.05328369141 1004.93890380859 1009.13696289062 998.479736328125 992.935791015625 1004.70471191406 1005.36114501953 1007.17242431641 995.960632324219 996.624389648438 998.508483886719 998.041137695312 996.626586914062 998.034301757812 1004.07562255859 997.591796875 996.6767578125 998.005554199219 1007.60278320312 1009.22015380859 1006.34558105469 1008.89605712891 1013.78631591797 1018.57366943359 1016.26263427734 1015.27429199219 1017.21850585938 1030.21997070312 1030.96643066406 1033.19519042969 1034.89208984375 1028.93054199219 1028.01904296875 1035.4765625 1028.83068847656 1027.08374023438 1034.26953125 1037.55065917969 1039.93859863281 1036.416015625 1044.455078125 1039.80041503906 1045.29748535156 1042.02514648438 1045.36853027344 1049.99780273438 1048.31091308594 1045.30822753906 1048.39343261719 1037.31213378906 1030.3779296875 1028.13098144531 1024.83276367188 1021.56848144531 1020.39093017578 1011.65405273438 1008.25018310547 1000.74621582031 1004.74401855469 998.403442382812 990.623168945312 980.139404296875 973.472290039062 972.720336914062 967.561950683594 972.453247070312 964.843200683594 959.346923828125 964.742553710938 959.674011230469 957.586303710938 949.106140136719 947.523010253906 955.207336425781 961.454284667969 966.075622558594 962.921691894531 961.427124023438 961.986511230469 947.391967773438
942.118103027344 937.948791503906 943.206298828125 956.580810546875 956.445556640625 951.543151855469 953.915954589844 954.333984375 949.748657226562 952.292907714844 950.612854003906 960.690795898438 972.914672851562 967.372619628906 970.427185058594 971.614807128906 969.467041015625 974.378601074219 972.348693847656 976.470031738281 969.429626464844 965.371032714844 965.9990234375 962.77001953125 963.558776855469 971.359436035156 974.987487792969 973.319030761719 966.94287109375 958.7099609375 972.4296875 965.602233886719 970.340576171875 968.946838378906 974.424072265625 975.738464355469 970.864196777344 974.472900390625 976.443786621094 977.40625 981.315368652344 976.7587890625 986.987854003906 973.644653320312 980.770629882812 979.162841796875 973.528930664062 979.090454101562 977.098022460938 970.171142578125 980.893188476562 991.885498046875 990.818420410156 990.000793457031 991.506530761719 1008.06811523438 1014.10296630859 1017.95959472656 1014.41662597656 1009.59295654297 1007.51306152344 1013.494140625 1012.15338134766 1024.65454101562 1020.51470947266 1016.43939208984 1015.71575927734 1012.52062988281 1002.47406005859 1001.91864013672 1001.54705810547 1010.97937011719 1000.33148193359 1000.24578857422 1002.73980712891 1006.41241455078 1005.10510253906 1006.28759765625 997.241943359375 998.875 1005.09246826172 1008.27276611328 1001.12731933594 1005.71038818359 1012.08502197266 1002.14526367188 1005.66192626953 1004.85015869141 1009.63256835938 1018.84521484375 1011.80413818359 1015.59185791016 1019.75933837891 1024.84326171875 1024.56237792969 1022.45001220703 1027.96850585938 1033.9716796875 1032.02685546875 1035.88305664062 1037.52258300781 1031.98559570312 1029.32055664062 1022.74694824219 1025.37902832031 1029.8798828125 1021.97467041016 1035.47595214844 1029.669921875 1036.396484375 1037.7705078125 1037.79846191406 1043.14050292969 1044.68127441406 1042.65515136719 1051.37646484375 1039.22644042969 1038.75048828125 1034.88110351562 1032.60302734375 1030.78588867188 1029.77746582031 1015.94122314453 1019.9130859375 1016.11883544922 1013.04669189453 1011.08160400391 1001.04357910156 1003.03125 990.1513671875 983.616333007812 974.665405273438 971.434875488281 961.943786621094 959.773254394531 963.3056640625 959.673156738281 955.859680175781 972.1513671875 957.169189453125 958.351440429688 959.115051269531 949.687683105469 959.761047363281 954.239013671875 965.098266601562 961.423034667969 955.811462402344 960.720031738281 951.076782226562
