NCOLS 150
NROWS 37
XLLCORNER 7394249
YLLCORNER 4842329
CELLSIZE 30
NODATA_VALUE -9999
952.717224121094 954.458435058594 952.316589355469 955.418395996094 966.937805175781 968.145446777344 965.129455566406 963.351623535156 966.094909667969 970.170104980469 977.370361328125 976.12451171875 972.376892089844 971.652526855469 977.710571289062 973.403930664062 974.809509277344 975.541687011719 967.224060058594 973.649169921875 975.922485351562 970.9189453125 966.667236328125 966.421142578125 967.322570800781 957.716857910156 958.255310058594 962.054138183594 965.397766113281 963.36328125 968.3857421875 978.039306640625 980.992248535156 979.323913574219 969.116638183594 958.719116210938 958.381774902344 963.66943359375 964.077941894531 960.710510253906 959.507202148438 949.467041015625 958.339416503906 961.749755859375 959.379150390625 952.9443359375 952.179809570312 947.114562988281 950.070617675781 947.777404785156 952.821838378906 958.003967285156 967.603515625 960.549255371094 959.79833984375 961.709106445312 962.329833984375 956.943969726562 955.611633300781 967.262817382812 965.059814453125 966.635681152344 969.7607421875 965.181091308594 963.901733398438 967.403015136719 953.0927734375 962.188598632812 960.665100097656 961.331848144531 961.795288085938 962.5205078125 966.76318359375 962.452941894531 960.152770996094 961.958679199219 965.303405761719 964.604309082031 964.151611328125 963.011779785156 961.066772460938 964.595031738281 969.068725585938 963.097534179688 965.005432128906 967.957092285156 974.132385253906 973.525695800781 963.482849121094 972.936706542969 960.923095703125 965.550231933594 972.454467773438 985.09765625 977.786682128906 978.041625976562 976.342834472656 973.968322753906 977.427124023438 979.41748046875 980.90283203125 985.114379882812 988.483703613281 985.294189453125 982.044067382812 972.88720703125 968.146179199219 970.841003417969 975.019348144531 987.480163574219 996.013000488281 991.378540039062 988.685424804688 990.707275390625 989.979187011719 992.355102539062 995.477416992188 1000.87927246094 1011.56427001953 1013.17041015625 1007.74346923828 1006.12603759766 1024.72399902344 1027.55358886719 1032.673828125 1037.69909667969 1029.79736328125 1039.39135742188 1044.23071289062 1050.72888183594 1055.2021484375 1067.65795898438 1080.01599121094 1089.71215820312 1079.84741210938 1095.44201660156 1093.22058105469 1096.80310058594 1093.23864746094 1097.67846679688 1096.5859375 1096.85095214844 1096.51123046875 1097.55615234375 1098.75354003906 1091.65966796875 1099.71545410156 1105.22644042969 1096.57177734375 1092.09497070312
961.367370605469 964.187622070312 962.589538574219 964.632873535156 974.66943359375 971.670471191406 971.763244628906 969.867858886719 964.450439453125 966.784606933594 977.51953125 976.381408691406 977.260375976562 977.085327148438 980.842834472656 976.708312988281 969.608337402344 971.6240234375 971.891845703125 982.282409667969 969.173950195312 974.134094238281 965.788269042969 960.959045410156 962.942504882812 964.29638671875 956.734558105469 957.822143554688 954.910217285156 966.399658203125 973.199157714844 975.150756835938 974.087707519531 973.678649902344 972.654296875 959.612670898438 962.073547363281 962.86328125 963.161743164062 952.097412109375 956.530029296875 955.771301269531 964.058776855469 961.201232910156 953.803527832031 940.816040039062 949.014953613281 946.030700683594 952.752380371094 946.648986816406 946.113708496094 958.139526367188 961.666442871094 954.956726074219 956.914245605469 956.28369140625 956.738464355469 960.255920410156 963.931579589844 962.754638671875 955.984741210938 953.908630371094 955.95556640625 962.925903320312 965.163330078125 958.320373535156 959.027160644531 956.360778808594 961.230529785156 954.564331054688 962.839416503906 963.008544921875 963.484619140625 958.146667480469 960.776306152344 958.300659179688 965.103393554688 967.088928222656 968.046447753906 962.898315429688 968.863159179688 970.653564453125 971.767700195312 967.740905761719 965.47998046875 971.300354003906 966.3564453125 968.763549804688 972.890014648438 972.924194335938 967.096923828125 966.792297363281 966.672668457031 975.765075683594 983.363952636719 974.018493652344 977.863525390625 976.948608398438 971.538940429688 962.796813964844 976.252746582031 986.948608398438 989.343811035156 981.651733398438 975.888244628906 975.366088867188 974.133605957031 965.6728515625 967.771789550781 984.470458984375 988.419372558594 986.731811523438 990.340759277344 981.148254394531 984.980285644531 988.512451171875 994.327514648438 1001.60882568359 1009.72583007812 1005.83837890625 1007.00872802734 1010.74530029297 1023.46472167969 1027.412109375 1032.318359375 1031.39685058594 1042.27783203125 1033.99731445312 1036.93884277344 1047.06604003906 1059.490234375 1069.83312988281 1081.02685546875 1077.6923828125 1081.49169921875 1093.26159667969 1096.60314941406 1088.91442871094 1089.52465820312 1094.77185058594 1094.54406738281 1097.62561035156 1093.33056640625 1089.42114257812 1088.68322753906 1082.72375488281 1085.07788085938 1080.71850585938 1083.01086425781 1082.74328613281
965.19384765625 964.84033203125 965.96923828125 964.835998535156 967.096618652344 976.969665527344 971.554931640625 972.932250976562 973.909423828125 964.630859375 972.301513671875 970.014282226562 983.436889648438 978.627685546875 979.994018554688 973.49609375 967.410339355469 971.937744140625 967.482788085938 974.78271484375 975.0107421875 960.89990234375 967.528564453125 961.65576171875 960.303955078125 962.266662597656 960.457397460938 967.433776855469 966.174621582031 967.799072265625 964.221252441406 962.110229492188 959.685424804688 958.569458007812 964.343688964844 960.434509277344 962.363220214844 957.547973632812 948.214721679688 951.363708496094 959.981872558594 964.187744140625 971.534423828125 956.67041015625 946.942199707031 943.775939941406 947.691040039062 951.738403320312 952.069946289062 947.192749023438 950.856506347656 952.539489746094 948.654968261719 948.542663574219 955.9228515625 955.172912597656 949.866943359375 963.8720703125 955.407531738281 961.14599609375 954.345153808594 962.791137695312 962.142456054688 955.402404785156 950.850219726562 955.078063964844 956.528198242188 959.737731933594 954.930053710938 954.137145996094 955.132385253906 951.538269042969 962.385314941406 954.769470214844 958.54443359375 961.598205566406 955.744323730469 963.190002441406 970.908142089844 968.084533691406 973.510131835938 959.013549804688 966.287719726562 971.45556640625 976.93017578125 973.491943359375 973.961547851562 966.297973632812 974.445068359375 977.322448730469 974.567138671875 972.833740234375 969.739868164062 963.244567871094 964.960693359375 970.523803710938 975.5537109375 978.750305175781 979.0087890625 971.111511230469 980.075927734375 982.574157714844 982.704406738281 980.699951171875 972.781005859375 970.6474609375 976.264404296875 974.840087890625 978.268310546875 983.62109375 989.2763671875 990.851806640625 983.359619140625 976.590454101562 977.273315429688 984.308166503906 996.104614257812 990.041870117188 993.900756835938 1000.90832519531 1005.96508789062 1012.98809814453 1025.11828613281 1022.86560058594 1033.29077148438 1038.0986328125 1044.70178222656 1032.81433105469 1034.376953125 1050.99536132812 1056.80029296875 1068.95837402344 1075.99328613281 1080.6240234375 1088.52551269531 1090.95751953125 1095.93798828125 1082.41589355469 1076.15051269531 1081.06823730469 1089.50280761719 1088.80004882812 1082.79956054688 1076.67150878906 1077.58325195312 1079.95178222656 1081.56713867188 1078.4345703125 1075.22033691406 1078.39477539062
965.879516601562 967.33056640625 972.010681152344 965.172485351562 973.975341796875 978.845153808594 969.404357910156 973.689086914062 970.663696289062 964.380187988281 965.458740234375 970.971496582031 975.52099609375 973.155212402344 967.325927734375 969.76025390625 974.342834472656 970.916809082031 966.08056640625 965.108154296875 970.25732421875 964.253479003906 951.287048339844 961.8388671875 967.791931152344 962.965087890625 963.082153320312 963.459228515625 966.275573730469 953.658752441406 963.546020507812 956.457214355469 961.061584472656 962.287170410156 960.770446777344 955.130004882812 949.540405273438 956.268005371094 954.353881835938 957.465209960938 958.367370605469 959.90869140625 965.950927734375 959.224548339844 948.720336914062 947.838012695312 945.247863769531 953.690185546875 954.39697265625 956.416381835938 950.749084472656 946.727722167969 950.44091796875 956.020935058594 960.171997070312 951.031616210938 953.674926757812 956.176879882812 957.05810546875 951.3837890625 964.257751464844 965.983459472656 957.04638671875 957.988525390625 954.784606933594 953.46826171875 955.647155761719 961.792419433594 948.218078613281 947.446044921875 956.632202148438 955.778930664062 960.276306152344 961.020446777344 954.81689453125 956.648071289062 954.986267089844 958.883911132812 963.943603515625 960.376892089844 963.839477539062 959.200744628906 964.7568359375 966.254211425781 974.718811035156 980.715881347656 977.947875976562 968.613342285156 968.743408203125 968.964782714844 973.329467773438 971.509643554688 964.844787597656 969.431274414062 976.571594238281 972.805297851562 966.221740722656 972.969482421875 984.161437988281 976.277770996094 975.393798828125 979.78662109375 981.868774414062 977.30224609375 970.834289550781 976.826293945312 974.459411621094 978.195983886719 978.5439453125 986.508239746094 991.253662109375 994.630065917969 981.346496582031 968.708435058594 968.725524902344 980.479614257812 986.068359375 989.572326660156 998.388122558594 992.062133789062 993.137573242188 1013.95886230469 1015.21624755859 1017.150390625 1022.20385742188 1032.69921875 1034.3662109375 1040.31372070312 1048.79650878906 1060.4521484375 1054.41955566406 1059.60961914062 1071.36181640625 1079.45947265625 1081.45593261719 1088.36315917969 1085.03332519531 1076.23596191406 1071.35180664062 1066.73681640625 1076.23657226562 1074.53491210938 1071.04956054688 1067.19689941406 1073.39343261719 1068.97351074219 1073.92761230469 1073.37805175781 1065.53723144531 1072.63684082031
960.4892578125 965.977294921875 969.132141113281 968.150634765625 974.517700195312 980.349243164062 971.364624023438 977.263427734375 969.45361328125 963.069152832031 973.432739257812 975.309143066406 978.765258789062 970.070129394531 965.15869140625 980.518249511719 964.52978515625 972.845092773438 968.835632324219 964.845275878906 966.632446289062 963.835815429688 967.178833007812 952.269897460938 959.829833984375 971.229614257812 959.847351074219 954.832336425781 948.033569335938 959.09130859375 971.30419921875 965.932067871094 962.365844726562 947.582763671875 957.783630371094 959.938903808594 952.336547851562 945.916687011719 950.21533203125 952.942077636719 956.695251464844 963.193054199219 966.431091308594 960.824829101562 955.277709960938 957.548950195312 954.801147460938 953.718444824219 958.375793457031 953.272277832031 950.903076171875 947.292785644531 951.996643066406 955.417114257812 954.575378417969 951.792175292969 951.101379394531 954.538391113281 952.950073242188 956.704528808594 955.729919433594 965.465698242188 963.105163574219 957.864624023438 959.056945800781 957.816711425781 956.423645019531 957.530578613281 955.522521972656 952.89501953125 952.3525390625 949.484313964844 959.009338378906 961.217712402344 956.607055664062 959.157592773438 956.882385253906 964.670166015625 956.172668457031 959.354553222656 961.278381347656 962.644775390625 965.222473144531 964.560913085938 969.172729492188 957.798522949219 966.908813476562 956.52587890625 959.739624023438 963.907836914062 961.890319824219 964.558776855469 967.389831542969 977.781494140625 974.738830566406 964.698303222656 965.676513671875 978.835632324219 985.8984375 982.278686523438 972.6298828125 970.862365722656 978.158142089844 973.595947265625 978.176086425781 977.895324707031 977.023132324219 979.798522949219 982.369812011719 982.348266601562 986.614990234375 994.782165527344 990.436706542969 980.440673828125 982.193298339844 987.227111816406 987.835388183594 983.966552734375 986.792114257812 990.466857910156 997.505920410156 1008.68518066406 1019.17321777344 1016.79742431641 1016.02081298828 1026.64624023438 1033.48596191406 1044.68798828125 1048.73864746094 1056.63269042969 1055.54907226562 1061.28576660156 1066.17321777344 1067.86315917969 1075.57556152344 1081.12084960938 1083.65966796875 1078.19812011719 1070.97509765625 1062.9384765625 1059.94458007812 1061.13659667969 1055.40490722656 1061.81713867188 1061.11767578125 1066.71154785156 1068.06640625 1069.15612792969 1051.95458984375 1056.169921875
967.332885742188 964.59716796875 963.121948242188 968.494567871094 971.052795410156 967.79296875 974.955139160156 977.124206542969 966.014282226562 969.163208007812 975.043029785156 964.583190917969 965.869262695312 966.774658203125 966.714599609375 975.953796386719 973.914367675781 971.60400390625 966.770324707031 969.862426757812 966.204406738281 968.165283203125 959.8798828125 958.618774414062 958.90966796875 957.739379882812 952.863464355469 952.433288574219 956.705871582031 964.45458984375 974.894226074219 967.668640136719 960.960754394531 958.55908203125 956.039855957031 955.233459472656 955.424072265625 956.05224609375 952.604309082031 954.316467285156 957.203918457031 959.204162597656 956.03173828125 954.106384277344 955.371765136719 959.466796875 957.582885742188 958.337768554688 956.700866699219 955.120056152344 954.843444824219 961.665893554688 960.572387695312 956.81982421875 950.596313476562 945.166381835938 954.972717285156 954.506164550781 953.768310546875 947.11474609375 953.773376464844 960.432250976562 960.894104003906 961.680541992188 952.711730957031 960.397583007812 961.986755371094 959.893127441406 959.951232910156 957.255737304688 956.537780761719 955.200927734375 956.64892578125 953.969177246094 958.474792480469 959.900695800781 967.167114257812 975.703430175781 965.969299316406 967.674621582031 963.249267578125 970.8681640625 968.688171386719 957.546691894531 962.211791992188 962.093811035156 966.294616699219 957.474487304688 958.208923339844 963.451232910156 969.761596679688 968.022033691406 973.076171875 978.631774902344 982.449645996094 973.179809570312 981.324829101562 976.728759765625 977.834045410156 979.801879882812 978.577392578125 969.060729980469 973.693054199219 976.377685546875 975.304260253906 977.038818359375 988.436828613281 980.323852539062 987.804870605469 984.076354980469 987.453430175781 987.626586914062 989.705078125 994.953430175781 988.587707519531 989.4453125 992.016845703125 987.184265136719 975.482482910156 985.059814453125 988.946533203125 1009.71368408203 1008.79620361328 1012.20617675781 1020.58557128906 1030.2109375 1039.67565917969 1049.5869140625 1054.31164550781 1055.24597167969 1059.39514160156 1054.85754394531 1061.68542480469 1069.78491210938 1074.07238769531 1082.72546386719 1080.33471679688 1078.49865722656 1057.55017089844 1059.41052246094 1045.93041992188 1039.09191894531 1043.4970703125 1051.5693359375 1059.33068847656 1055.71447753906 1058.81604003906 1053.55749511719 1053.94543457031 1052.02136230469
968.569763183594 972.690124511719 963.536193847656 972.224304199219 964.371765136719 959.099060058594 969.679321289062 973.734619140625 964.239440917969 968.143188476562 965.018920898438 963.341552734375 963.403686523438 960.311645507812 962.953002929688 966.398132324219 970.802795410156 976.129333496094 966.184631347656 971.159301757812 964.46533203125 973.2900390625 963.918518066406 960.966979980469 961.114318847656 955.809387207031 949.392211914062 949.262329101562 958.039672851562 963.176635742188 964.221740722656 959.526306152344 951.096862792969 958.884948730469 958.083068847656 954.681030273438 953.009033203125 957.499755859375 951.703735351562 954.012268066406 961.332946777344 960.498779296875 952.966918945312 949.378723144531 958.715515136719 961.875061035156 953.331359863281 952.304504394531 957.225891113281 954.650207519531 963.952575683594 962.257263183594 958.020324707031 947.39990234375 949.312255859375 952.656188964844 954.672546386719 957.848449707031 957.204833984375 955.533935546875 958.358947753906 960.526428222656 968.732299804688 960.761901855469 960.356750488281 953.640258789062 956.862854003906 956.83935546875 958.641052246094 950.294738769531 958.577758789062 959.35986328125 961.718322753906 955.099975585938 954.658874511719 958.467651367188 967.822937011719 968.653625488281 964.299133300781 965.307739257812 966.014343261719 966.553955078125 965.238342285156 956.715270996094 961.177612304688 959.936889648438 967.566223144531 961.175170898438 960.313720703125 958.450927734375 978.681945800781 980.840087890625 975.560791015625 974.954406738281 982.86865234375 980.509765625 976.95751953125 984.30712890625 978.057739257812 977.1123046875 970.020263671875 971.779174804688 986.696960449219 986.376770019531 976.971618652344 977.043090820312 986.0107421875 982.932678222656 983.104553222656 993.17041015625 993.768859863281 987.459899902344 989.789184570312 995.838623046875 990.755554199219 994.367980957031 990.633544921875 980.438537597656 983.054992675781 986.29541015625 990.434692382812 1008.92535400391 1007.12884521484 1006.85888671875 1027.86828613281 1029.52453613281 1040.12255859375 1051.56604003906 1048.64453125 1056.43432617188 1061.71484375 1067.82629394531 1074.87243652344 1069.74536132812 1068.83752441406 1083.63427734375 1072.38415527344 1071.4765625 1057.61242675781 1055.35827636719 1043.28466796875 1035.23486328125 1036.38854980469 1040.69409179688 1038.767578125 1048.37548828125 1050.97106933594 1052.48767089844 1048.18505859375 1053.36328125
968.18408203125 971.192260742188 974.821044921875 963.416931152344 966.585998535156 968.836547851562 970.920104980469 977.300415039062 963.486145019531 974.800659179688 960.551452636719 955.723937988281 955.192443847656 951.906982421875 958.937744140625 967.990173339844 977.22021484375 974.631652832031 964.3388671875 967.050476074219 966.185546875 963.671691894531 967.523864746094 962.565307617188 951.39599609375 951.685119628906 950.000122070312 946.119262695312 960.082153320312 963.698120117188 966.671997070312 960.624267578125 958.27197265625 957.348388671875 960.599365234375 947.875793457031 947.726379394531 955.156982421875 954.189025878906 950.101928710938 947.52001953125 955.262512207031 952.700500488281 949.737060546875 950.823303222656 956.746032714844 957.757080078125 957.5908203125 949.191284179688 959.146545410156 963.4853515625 960.049621582031 956.879699707031 949.886901855469 956.968933105469 949.421936035156 946.892944335938 947.811462402344 959.3828125 964.080871582031 967.407653808594 956.028259277344 967.973083496094 966.290466308594 958.072143554688 964.982116699219 958.50146484375 958.5947265625 961.831787109375 960.821228027344 961.683166503906 964.470642089844 961.241271972656 959.056640625 962.926208496094 962.433959960938 970.080261230469 974.765441894531 963.845886230469 961.081848144531 963.735412597656 966.341369628906 959.313842773438 957.628051757812 965.627136230469 960.194946289062 970.006713867188 961.244445800781 963.512756347656 968.282287597656 970.683532714844 971.430053710938 969.719909667969 971.322631835938 977.752868652344 980.710510253906 977.319091796875 978.453369140625 975.757995605469 974.762878417969 979.606201171875 985.564453125 983.928771972656 991.723022460938 983.634521484375 981.120178222656 975.356018066406 984.161193847656 999.661315917969 999.787170410156 1000.04046630859 991.581848144531 995.324279785156 996.675537109375 997.302368164062 1001.13787841797 997.827514648438 999.660217285156 980.010803222656 995.162048339844 998.853149414062 1005.92279052734 1007.12078857422 1006.93804931641 1017.72808837891 1022.412109375 1033.76013183594 1037.27648925781 1050.69995117188 1052.82507324219 1066.16369628906 1069.58227539062 1073.4072265625 1070.48608398438 1071.478515625 1070.78356933594 1073.01623535156 1068.77661132812 1053.89672851562 1043.56689453125 1040.70764160156 1041.38171386719 1035.37805175781 1037.43688964844 1039.16931152344 1047.04565429688 1054.20483398438 1060.193359375 1062.76098632812 1063.78015136719
972.457885742188 973.737915039062 971.403991699219 964.188659667969 966.576171875 969.967224121094 975.950988769531 977.61865234375 973.546691894531 970.559753417969 972.013854980469 962.260314941406 964.267456054688 955.09765625 957.287048339844 972.533874511719 968.365295410156 969.087829589844 959.846496582031 967.543029785156 967.606384277344 962.717102050781 956.007629394531 956.388549804688 957.335632324219 954.194946289062 951.823608398438 949.010803222656 955.581909179688 951.326782226562 957.768371582031 959.029724121094 960.560852050781 954.043395996094 951.411499023438 946.794738769531 951.944152832031 953.513122558594 951.845336914062 947.694274902344 942.863952636719 948.893493652344 957.031860351562 954.033630371094 951.333801269531 950.884460449219 955.047729492188 949.398254394531 946.535461425781 952.7763671875 954.205627441406 951.874389648438 950.722473144531 956.960083007812 953.423889160156 952.605163574219 953.690979003906 949.070129394531 959.64599609375 956.813232421875 959.343688964844 966.5947265625 963.614624023438 965.289184570312 955.800842285156 964.759094238281 968.105407714844 964.377319335938 961.784301757812 962.77001953125 965.683532714844 964.042114257812 967.752990722656 962.080261230469 966.573852539062 969.342590332031 968.09375 969.821411132812 959.348693847656 966.385864257812 970.804992675781 960.3701171875 968.559509277344 958.234191894531 973.279052734375 974.768432617188 972.265747070312 966.7529296875 961.533081054688 967.075256347656 971.020202636719 970.383117675781 970.958251953125 971.593322753906 970.628112792969 972.751831054688 976.545837402344 976.567810058594 974.973754882812 974.447937011719 978.212036132812 982.154846191406 990.199523925781 986.22509765625 983.398193359375 975.981262207031 982.078430175781 990.985656738281 1006.52136230469 1016.58227539062 1006.61956787109 994.107788085938 998.652954101562 993.536865234375 997.936401367188 1004.38482666016 1006.39794921875 1002.28991699219 998.611572265625 996.333618164062 1004.96325683594 1000.25115966797 1000.36627197266 996.711364746094 1001.52233886719 1013.85083007812 1033.96166992188 1031.43273925781 1032.14440917969 1042.49230957031 1052.67004394531 1066.09155273438 1063.51513671875 1069.76196289062 1069.24572753906 1068.71606445312 1061.11572265625 1059.35815429688 1050.59033203125 1047.68811035156 1039.17785644531 1033.78503417969 1031.96252441406 1031.73315429688 1037.068359375 1051.08666992188 1048.10180664062 1051.50830078125 1060.78356933594 1055.72155761719
983.215942382812 964.694946289062 964.509033203125 959.006774902344 971.1982421875 974.049255371094 969.709289550781 972.918151855469 972.289245605469 964.036315917969 968.350158691406 969.336059570312 956.345886230469 961.883972167969 959.377380371094 956.185913085938 959.223083496094 963.1279296875 949.621398925781 954.295043945312 959.456665039062 956.74462890625 958.838073730469 951.452941894531 950.396057128906 961.520324707031 957.796142578125 951.96484375 944.185119628906 954.499206542969 949.635925292969 949.089599609375 946.678161621094 961.304748535156 958.189575195312 959.618530273438 951.796630859375 953.841186523438 944.054504394531 942.847106933594 950.908630371094 941.490295410156 949.796875 945.387084960938 945.478820800781 950.197387695312 956.20361328125 954.995971679688 959.410461425781 957.781311035156 952.990051269531 955.75537109375 950.987670898438 947.03955078125 954.783325195312 960.300048828125 954.567626953125 959.779174804688 958.807922363281 963.083251953125 964.73828125 967.91748046875 956.85693359375 955.064270019531 957.952697753906 956.452392578125 964.174011230469 961.338989257812 965.261840820312 959.015625 959.943786621094 967.336791992188 970.809936523438 967.744873046875 968.931579589844 963.800476074219 962.917541503906 967.649169921875 969.363586425781 975.134216308594 971.590759277344 959.321044921875 966.916320800781 967.036804199219 971.462646484375 969.072143554688 976.610717773438 971.03076171875 973.133178710938 972.562194824219 967.59423828125 966.411315917969 965.607055664062 964.104919433594 967.302429199219 973.0888671875 975.30322265625 974.434265136719 971.835510253906 972.100463867188 974.658142089844 977.3037109375 986.26953125 979.948547363281 980.084106445312 980.384094238281 975.998046875 993.432006835938 1001.59027099609 998.448852539062 1002.44427490234 991.732604980469 995.015502929688 993.676879882812 1008.10614013672 1005.19488525391 997.4287109375 1003.37432861328 1006.64178466797 1007.12872314453 1007.76129150391 1005.55181884766 1000.41693115234 1002.25109863281 1006.92077636719 1016.33312988281 1015.67602539062 1024.92468261719 1028.16235351562 1026.47546386719 1040.84338378906 1048.83251953125 1046.91967773438 1059.24755859375 1057.10534667969 1059.60791015625 1059.54858398438 1049.57446289062 1051.39416503906 1058.17346191406 1040.91369628906 1038.13830566406 1027.72351074219 1036.24816894531 1038.11486816406 1042.12255859375 1046.33666992188 1045.21862792969 1043.85668945312 1051.85009765625
983.662841796875 969.341247558594 961.764953613281 960.543090820312 975.137023925781 959.36328125 963.349731445312 965.828063964844 971.395629882812 962.992431640625 963.962890625 957.074951171875 954.830871582031 951.032897949219 952.638305664062 957.912475585938 950.056823730469 944.707763671875 939.204284667969 941.238342285156 949.174499511719 961.319519042969 955.656311035156 952.743408203125 944.601989746094 954.746032714844 952.861633300781 949.76953125 951.356811523438 953.033813476562 944.415832519531 948.155639648438 944.560913085938 949.56103515625 949.645935058594 955.078552246094 955.145874023438 944.618957519531 950.435974121094 946.683471679688 947.907897949219 951.310546875 953.207763671875 943.190246582031 945.857543945312 948.869873046875 957.307800292969 953.276977539062 958.446472167969 962.520935058594 957.069152832031 951.167602539062 960.267456054688 961.602905273438 961.71484375 958.912963867188 971.570922851562 964.445434570312 965.441223144531 967.566223144531 959.667907714844 958.076904296875 953.193176269531 959.773559570312 953.415588378906 960.206420898438 960.456665039062 956.505249023438 964.302612304688 963.051696777344 969.460693359375 977.033752441406 974.378051757812 973.422119140625 971.111938476562 968.120361328125 975.016296386719 978.043395996094 970.421142578125 969.148376464844 971.673156738281 969.166076660156 969.173583984375 969.302978515625 970.398376464844 965.169311523438 974.832336425781 975.289855957031 972.236572265625 964.365783691406 972.798217773438 962.534545898438 972.2939453125 960.757995605469 966.059875488281 967.062072753906 979.84716796875 972.044067382812 970.298217773438 982.573181152344 988.440368652344 990.226440429688 1002.28503417969 999.879333496094 986.666381835938 979.885009765625 986.84521484375 995.090881347656 994.103088378906 992.560607910156 993.342529296875 989.706970214844 996.523742675781 1000.87615966797 1003.43273925781 999.597778320312 997.287475585938 997.259460449219 1009.52905273438 1009.927734375 1016.25189208984 1014.67553710938 1007.67755126953 1019.14605712891 1015.06903076172 1019.29425048828 1019.32092285156 1018.45263671875 1020.56536865234 1025.77221679688 1035.00964355469 1041.3916015625 1039.673828125 1048.65759277344 1053.27087402344 1050.17907714844 1056.49230957031 1050.9013671875 1046.30261230469 1041.05773925781 1041.47399902344 1030.24047851562 1035.39404296875 1035.50390625 1025.52404785156 1026.14428710938 1042.02514648438 1043.35583496094 1037.40490722656 1050.37084960938
969.932006835938 965.197814941406 957.054077148438 962.131469726562 962.454162597656 963.73681640625 963.623718261719 959.763488769531 972.433654785156 962.385864257812 956.256896972656 950.486694335938 943.618957519531 946.542053222656 944.924377441406 943.596496582031 944.376159667969 933.114501953125 933.271606445312 941.880065917969 938.915649414062 952.410278320312 961.051635742188 960.64501953125 948.093627929688 944.992309570312 954.182983398438 946.911193847656 954.849060058594 958.436828613281 948.856140136719 944.147583007812 956.918334960938 945.696838378906 941.498413085938 950.730041503906 959.110046386719 950.867370605469 946.144775390625 947.784790039062 955.134643554688 953.040710449219 945.149719238281 945.6435546875 945.008850097656 956.054748535156 954.916259765625 955.598815917969 959.179931640625 963.200256347656 967.293579101562 970.767456054688 969.190368652344 969.707275390625 974.219482421875 971.922180175781 962.735778808594 967.448608398438 964.1455078125 967.98291015625 961.599975585938 959.844543457031 959.562927246094 967.5576171875 963.671142578125 954.565490722656 956.753967285156 961.539611816406 962.353515625 967.649353027344 975.457092285156 981.556701660156 975.238647460938 968.804321289062 964.540283203125 971.840637207031 971.69140625 970.771301269531 972.272094726562 967.924865722656 971.034240722656 973.451843261719 975.310974121094 973.910827636719 982.667297363281 976.346740722656 976.313659667969 979.426330566406 971.629638671875 971.52783203125 970.549133300781 973.279357910156 971.086364746094 966.913513183594 973.798400878906 968.435363769531 970.889526367188 973.526428222656 980.770629882812 987.148193359375 995.232788085938 1011.38732910156 1009.67669677734 1002.80847167969 995.339721679688 995.106323242188 992.046813964844 1002.779296875 1000.68212890625 1001.59246826172 993.904541015625 988.465209960938 998.566101074219 997.407775878906 1005.60125732422 999.5595703125 1000.28100585938 1009.81188964844 1010.35888671875 1012.87359619141 1020.36053466797 1010.29077148438 1013.99975585938 1016.71563720703 1019.57275390625 1015.34362792969 1018.779296875 1023.15313720703 1021.7529296875 1023.23815917969 1029.76135253906 1026.45532226562 1032.09106445312 1044.15014648438 1047.00573730469 1040.12829589844 1047.30297851562 1041.29956054688 1032.3564453125 1032.17602539062 1024.82788085938 1027.07092285156 1030.64880371094 1030.53161621094 1023.80578613281 1031.64892578125 1043.23425292969 1034.76062011719 1030.86279296875 1046.599609375
960.880310058594 966.033630371094 963.47314453125 960.527526855469 956.758178710938 962.933349609375 962.49462890625 957.142883300781 960.609985351562 956.205444335938 952.142028808594 945.271118164062 947.729553222656 947.470642089844 944.364135742188 947.097045898438 956.615417480469 944.130920410156 945.489562988281 944.359497070312 947.130126953125 941.44189453125 940.916259765625 941.3369140625 945.549194335938 944.503723144531 938.181457519531 944.743957519531 950.958618164062 960.284362792969 953.104919433594 952.198852539062 957.760620117188 949.320922851562 941.527587890625 946.468383789062 954.838928222656 948.046081542969 949.690856933594 950.730895996094 957.5791015625 952.502990722656 953.816528320312 956.117309570312 958.618286132812 961.188049316406 960.449645996094 954.966735839844 964.475341796875 967.274291992188 970.261413574219 976.942626953125 975.791564941406 975.560302734375 969.291870117188 964.318359375 965.542602539062 958.591918945312 955.817443847656 969.116943359375 962.7529296875 961.764343261719 959.142822265625 960.752990722656 968.633056640625 963.959777832031 958.795654296875 969.220275878906 977.625915527344 975.889282226562 971.618530273438 983.024475097656 978.836547851562 977.703674316406 973.869445800781 972.084533691406 976.714477539062 975.573547363281 969.739868164062 980.500732421875 972.362854003906 981.21240234375 979.142517089844 984.398193359375 978.179809570312 979.015625 979.761169433594 978.531860351562 978.224914550781 973.901000976562 975.893371582031 964.385803222656 964.541015625 968.56787109375 965 976.859680175781 975.810424804688 976.075500488281 982.259460449219 994.327209472656 998.492919921875 1006.06713867188 1006.15118408203 1000.02325439453 991.070007324219 996.170776367188 995.817260742188 1002.81042480469 1008.69787597656 1003.08239746094 1001.17083740234 1001.00445556641 997.422729492188 991.062377929688 1005.94323730469 1007.01873779297 1007.57788085938 1006.34381103516 1011.63494873047 1013.87194824219 1012.01629638672 1015.26080322266 1017.43493652344 1018.7763671875 1021.21160888672 1022.21752929688 1017.91497802734 1021.42248535156 1018.41107177734 1014.86126708984 1022.16345214844 1016.83306884766 1027.07824707031 1041.78955078125 1039.50720214844 1035.32348632812 1041.21203613281 1034.89526367188 1039.60852050781 1026.87573242188 1019.92559814453 1023.25695800781 1019.75390625 1024.07873535156 1021.36376953125 1025.67785644531 1038.41064453125 1029.23083496094 1026.07946777344 1030.98510742188
958.604736328125 958.091430664062 953.316040039062 959.250854492188 964.994750976562 956.622009277344 957.494995117188 954.742248535156 956.393188476562 955.241821289062 946.322937011719 948.245910644531 942.884826660156 945.253784179688 942.34228515625 940.699890136719 941.51953125 941.915771484375 944.635314941406 938.311889648438 945.902526855469 940.383544921875 946.996826171875 946.620666503906 948.322937011719 945.056701660156 941.599365234375 945.788452148438 951.069519042969 958.5166015625 960.523376464844 957.922973632812 956.752746582031 945.048400878906 943.447814941406 946.2880859375 947.913208007812 950.795837402344 945.182983398438 953.821350097656 966.933654785156 959.463806152344 959.727478027344 963.254638671875 958.912475585938 959.998718261719 964.016357421875 961.630249023438 960.053466796875 963.513549804688 972.848083496094 976.198852539062 981.1845703125 977.845703125 964.843872070312 968.970642089844 967.720764160156 966.596496582031 964.699890136719 970.643981933594 970.160705566406 962.540344238281 953.785583496094 957.481140136719 963.271423339844 960.04248046875 963.950012207031 970.740173339844 977.580444335938 981.671569824219 982.63232421875 979.151916503906 981.282348632812 977.702270507812 982.571472167969 976.375671386719 971.356140136719 975.315307617188 975.987426757812 971.281494140625 977.870483398438 977.067687988281 977.130004882812 985.547241210938 977.449401855469 980.473327636719 983.358459472656 979.470458984375 983.675170898438 981.980224609375 977.890747070312 972.075866699219 968.747619628906 971.360961914062 972.976684570312 984.807800292969 984.264831542969 978.704162597656 988.581970214844 997.4609375 1006.23468017578 1002.50775146484 1004.17230224609 1004.52105712891 993.081848144531 990.392639160156 986.886901855469 995.284912109375 1004.35217285156 1005.97705078125 1007.84436035156 1010.48028564453 1012.87036132812 1010.501953125 1007.54052734375 1010.24163818359 1020.48284912109 1019.55511474609 1017.92993164062 1017.29406738281 1021.71502685547 1026.70812988281 1012.78582763672 1017.06353759766 1020.25854492188 1028.24353027344 1023.24835205078 1021.76019287109 1021.3623046875 1015.17852783203 1014.6572265625 1012.89770507812 1020.24743652344 1030.78247070312 1033.34143066406 1035.46728515625 1032.43371582031 1036.83520507812 1025.76831054688 1031.22766113281 1024.18786621094 1019.51544189453 1015.69018554688 1021.98913574219 1011.13531494141 1018.77893066406 1026.48059082031 1026.52197265625 1027.4853515625 1027.70520019531
964.666687011719 959.666015625 955.211791992188 948.326049804688 959.837768554688 949.073547363281 945.827758789062 948.408020019531 947.044250488281 946.84814453125 939.600708007812 938.511535644531 940.776916503906 939.804809570312 945.846496582031 941.442199707031 945.958312988281 944.261108398438 946.367309570312 938.698913574219 945.588256835938 946.883605957031 952.70654296875 951.435607910156 945.447448730469 944.848876953125 941.746215820312 943.537109375 949.265502929688 953.054321289062 957.828308105469 952.94775390625 955.970520019531 954.179626464844 953.966979980469 948.473754882812 953.522094726562 954.716857910156 956.12255859375 954.679016113281 964.748474121094 964.813049316406 966.04736328125 960.008850097656 962.689697265625 966.714782714844 960.717834472656 962.68115234375 966.311767578125 965.945678710938 984.516052246094 980.042846679688 981.514404296875 968.409973144531 973.176879882812 973.74755859375 970.512390136719 976.870422363281 977.182861328125 969.017700195312 964.385681152344 965.967163085938 959.501220703125 959.57763671875 954.793029785156 963.435729980469 965.514709472656 976.661804199219 977.290649414062 973.104553222656 981.18505859375 984.474304199219 976.065185546875 981.357666015625 979.592224121094 971.530822753906 971.843017578125 973.7578125 978.564147949219 970.684204101562 976.821655273438 971.961608886719 977.988464355469 981.229370117188 982.329650878906 980.159790039062 979.259094238281 979.782470703125 977.653747558594 977.846252441406 971.749084472656 972.518676757812 973.382141113281 975.61962890625 977.318786621094 982.562377929688 987.482299804688 995.964660644531 994.20361328125 1005.32983398438 1011.73327636719 1005.18048095703 999.364807128906 994.013916015625 994.010437011719 993.041381835938 1000.72644042969 996.56689453125 999.106140136719 1005.72216796875 1013.08233642578 1020.62860107422 1019.82830810547 1016.89758300781 1007.53576660156 1010.30706787109 1013.517578125 1020.41259765625 1013.83483886719 1031.06433105469 1034.11169433594 1031.76135253906 1028.41833496094 1029.34814453125 1035.34020996094 1027.75671386719 1027.42980957031 1020.17718505859 1014.67761230469 1013.42364501953 1010.25805664062 1017.26495361328 1019.59075927734 1028.89123535156 1029.22448730469 1030.3203125 1020.43127441406 1019.15863037109 1026.89892578125 1029.58032226562 1024.2265625 1012.5986328125 1018.17596435547 1013.96368408203 1013.61602783203 1012.69134521484 1010.96435546875 1021.72668457031 1023.73822021484 1026.28247070312
964.970764160156 957.687316894531 957.863403320312 953.050354003906 965.594604492188 960.743469238281 951.691223144531 941.399780273438 944.974182128906 940.367736816406 936.394775390625 944.0537109375 945.137268066406 944.836547851562 948.280151367188 945.146118164062 950.028930664062 954.120788574219 945.179992675781 942.586608886719 946.428283691406 952.382751464844 961.758117675781 950.817260742188 949.988586425781 946.979064941406 950.090393066406 955.157775878906 956.223022460938 962.045654296875 954.56982421875 955.257629394531 947.863708496094 948.470031738281 946.332885742188 950.824523925781 951.690002441406 961.171875 955.923828125 961.424011230469 968.312927246094 962.826843261719 957.203918457031 964.336181640625 966.941284179688 968.340637207031 974.080932617188 970.007080078125 975.97314453125 979.673828125 983.719299316406 985.288696289062 986.752380371094 977.759521484375 978.875 976.216613769531 974.544677734375 976.531616210938 974.9638671875 972.707275390625 966.438232421875 969.075866699219 976.466491699219 971.229248046875 964.35400390625 970.176574707031 974.985534667969 975.7763671875 977.246826171875 979.107055664062 973.205993652344 981.779235839844 980.827453613281 986.501403808594 980.78076171875 976.501098632812 968.95703125 973.577880859375 982.003540039062 984.592712402344 985.465148925781 976.25439453125 976.5810546875 980.106140136719 988.320373535156 989.308288574219 988.133422851562 979.527099609375 975.527770996094 977.628723144531 989.148071289062 982.757385253906 978.091613769531 986.22705078125 978.584167480469 984.620544433594 988.678955078125 997.370056152344 1008.12469482422 1012.61364746094 1016.99945068359 1010.79772949219 997.363464355469 997.99853515625 988.779846191406 999.995178222656 1000.27587890625 1002.08422851562 1005.14923095703 1010.025390625 1013.58123779297 1021.37225341797 1030.08520507812 1017.07995605469 1011.48565673828 1018.23699951172 1021.52679443359 1027.23767089844 1032.16979980469 1038.77990722656 1043.21789550781 1043.86901855469 1038.84899902344 1038.861328125 1040.82763671875 1034.76867675781 1030.27600097656 1021.15795898438 1018.30615234375 1013.619140625 1014.80438232422 1011.29821777344 1018.06579589844 1022.52966308594 1020.44439697266 1023.46337890625 1024.08996582031 1020.62921142578 1030.21838378906 1028.71337890625 1023.61956787109 1022.35955810547 1013.28173828125 1022.55816650391 1012.04699707031 1006.80352783203 1011.67376708984 1013.77630615234 1014.70513916016 1022.43078613281
958.229248046875 950.643859863281 950.899597167969 951.825866699219 955.881042480469 962.562561035156 950.711975097656 935.7021484375 935.802124023438 934.268920898438 946.045227050781 944.908569335938 942.66552734375 947.994262695312 955.135803222656 954.946044921875 956.72412109375 958.185302734375 953.668701171875 957.119689941406 955.006469726562 961.900573730469 956.33837890625 949.370666503906 959.938720703125 948.210021972656 953.771179199219 958.739868164062 953.17578125 964.243591308594 963.783203125 950.990539550781 957.336364746094 952.538391113281 949.363342285156 952.852233886719 952.953491210938 957.944274902344 958.799499511719 959.269470214844 961.350219726562 960.645324707031 965.02392578125 968.523254394531 974.044982910156 972.718688964844 977.168029785156 973.455078125 977.090759277344 988.548461914062 986.073669433594 994.554626464844 985.523315429688 986.262756347656 981.794982910156 971.220031738281 973.431457519531 979.47998046875 978.559387207031 979.202392578125 972.849853515625 973.156372070312 973.802062988281 973.888061523438 963.654357910156 973.5361328125 973.739685058594 970.752624511719 977.913330078125 975.659912109375 969.11865234375 978.001403808594 981.433959960938 977.762329101562 979.165588378906 978.383178710938 972.105895996094 977.076721191406 985.787048339844 987.490173339844 975.694580078125 977.002136230469 978.471435546875 982.423828125 987.630065917969 986.5244140625 979.170104980469 977.521545410156 978.617736816406 972.971984863281 986.973205566406 980.608276367188 989.777038574219 987.355346679688 984.234252929688 982.674499511719 991.947448730469 1008.7880859375 1010.76647949219 1016.41229248047 1008.67126464844 1011.99481201172 1002.81396484375 993.278747558594 985.731262207031 991.356079101562 1000.10491943359 1005.32794189453 1012.81365966797 1014.04656982422 1023.46807861328 1025.02734375 1026.70434570312 1020.2529296875 1025.16589355469 1027.41491699219 1040.40795898438 1034.16625976562 1039.60290527344 1054.62927246094 1039.68676757812 1049.54943847656 1047.28698730469 1040.66174316406 1045.00244140625 1036.42590332031 1028.41967773438 1021.02484130859 1015.04461669922 1024.0615234375 1021.76812744141 1016.92144775391 1023.15618896484 1019.74542236328 1014.55938720703 1012.6806640625 1018.98815917969 1023.84722900391 1020.64514160156 1024.47863769531 1025.11535644531 1015.17889404297 1012.00695800781 1015.16754150391 1010.72918701172 1007.353515625 1005.02752685547 1008.68542480469 1008.92553710938 1019.44183349609
958.572937011719 954.419555664062 956.490905761719 944.046813964844 953.594482421875 950.644165039062 936.349914550781 935.389526367188 927.236328125 939.385559082031 950.052795410156 954.213684082031 951.093017578125 955.401245117188 951.641906738281 956.370422363281 950.083618164062 954.334899902344 955.393493652344 959.02294921875 968.521789550781 971.298095703125 958.249572753906 956.313049316406 961.973815917969 951.579162597656 955.559753417969 952.520812988281 957.484985351562 953.362670898438 952.87451171875 954.951416015625 956.070739746094 956.675048828125 957.864868164062 956.072937011719 953.5234375 960.7373046875 966.250793457031 966.003051757812 969.646240234375 965.39990234375 963.639343261719 981.265502929688 980.997009277344 984.310974121094 982.80322265625 976.088317871094 984.561096191406 988.365417480469 986.064147949219 992.823547363281 987.465637207031 982.062377929688 983.027954101562 981.292419433594 982.196411132812 980.832397460938 983.095275878906 977.002014160156 975.269897460938 967.986206054688 971.643920898438 976.666748046875 970.351623535156 973.168701171875 971.196960449219 975.083374023438 974.141723632812 980.863891601562 972.959167480469 974.94482421875 981.120239257812 975.340148925781 972.422912597656 973.48291015625 968.260070800781 980.072143554688 978.089111328125 981.924987792969 976.191101074219 974.644226074219 978.480346679688 978.365356445312 986.990783691406 988.710815429688 983.539367675781 977.879028320312 969.796325683594 973.614074707031 983.919067382812 979.574523925781 992.977661132812 992.578308105469 982.973083496094 988.543579101562 999.797180175781 1003.27075195312 1008.05902099609 1015.64666748047 997.867736816406 996.336486816406 998.237548828125 994.771423339844 984.048034667969 987.337097167969 1002.12524414062 1006.45739746094 1023.69598388672 1018.20318603516 1014.55981445312 1021.39624023438 1025.24084472656 1026.40441894531 1025.12048339844 1026.79650878906 1038.40295410156 1036.720703125 1042.65686035156 1042.60473632812 1046.62976074219 1042.95751953125 1036.5771484375 1033.63525390625 1040.36376953125 1037.875 1027.78601074219 1017.76190185547 1022.46276855469 1022.90557861328 1023.86883544922 1019.20458984375 1008.56530761719 1012.86810302734 1012.71392822266 1006.51782226562 1010.63848876953 1016.13201904297 1021.22650146484 1025.07275390625 1020.23571777344 1020.32983398438 1011.08666992188 1015.9423828125 1002.22717285156 994.751831054688 1000.53155517578 1007.33624267578 1011.55981445312 1015.54205322266
956.035461425781 951.680236816406 946.261047363281 944.306762695312 948.957641601562 948.187438964844 941.930541992188 951.075500488281 944.114685058594 940.848388671875 946.006042480469 957.314819335938 964.575927734375 964.646667480469 965.971496582031 962.023132324219 957.591796875 960.898986816406 959.640075683594 961.785766601562 970.815124511719 970.210632324219 956.307678222656 949.29248046875 960.9931640625 960.093078613281 957.607788085938 950.980285644531 953.608032226562 948.456604003906 948.437805175781 945.816284179688 957.906799316406 965.623962402344 966.36376953125 961.857788085938 962.045349121094 962.508544921875 975.167236328125 970.063354492188 977.5859375 975.867919921875 975.626159667969 982.661315917969 986.144165039062 990.806274414062 982.502563476562 990.782043457031 984.828002929688 993.340270996094 990.716064453125 992.931884765625 990.402770996094 984.66455078125 992.683410644531 980.433166503906 978.559326171875 983.156799316406 979.260986328125 973.263488769531 970.523193359375 971.362426757812 966.418884277344 970.138732910156 977.748168945312 973.572265625 965.860046386719 979.804931640625 979.925720214844 981.824768066406 984.850036621094 980.464660644531 981.623840332031 975.168762207031 972.27783203125 969.251281738281 976.594970703125 991.366760253906 989.568298339844 980.151611328125 979.657104492188 983.260986328125 982.656494140625 989.30810546875 981.659484863281 988.406066894531 992.223083496094 975.496337890625 979.053344726562 982.433044433594 984.333862304688 986.275817871094 983.087341308594 986.009216308594 988.660827636719 995.892517089844 999.619812011719 1013.66723632812 1008.08074951172 1016.5166015625 1005.09521484375 1003.71752929688 998.518798828125 997.159729003906 996.251525878906 993.82470703125 1001.69512939453 1003.89514160156 1020.21752929688 1020.71240234375 1022.86334228516 1027.75537109375 1022.09527587891 1029.26989746094 1027.74877929688 1027.87622070312 1036.83825683594 1040.34924316406 1034.97607421875 1043.90832519531 1047.79504394531 1039.01794433594 1034.14770507812 1037.88439941406 1042.77172851562 1031.74499511719 1031.51806640625 1025.86242675781 1019.74243164062 1026.55554199219 1018.86083984375 1012.47491455078 1014.74035644531 1011.70379638672 1010.68530273438 1014.68310546875 1023.22216796875 1017.05523681641 1022.02215576172 1015.85815429688 1014.42156982422 1006.47406005859 1006.05383300781 999.450500488281 995.416748046875 995.70263671875 999.243957519531 999.977844238281 1000.31750488281 1010.72863769531
949.481628417969 951.204528808594 941.521545410156 942.891662597656 942.98583984375 938.921936035156 943.747924804688 946.268676757812 944.56494140625 950.162231445312 960.2431640625 955.881958007812 962.669006347656 973.986206054688 966.649353027344 972.24462890625 967.209838867188 960.405395507812 960.531799316406 964.139099121094 976.193908691406 973.029846191406 963.146911621094 958.310485839844 961.391357421875 951.525451660156 957.1259765625 954.025634765625 953.014404296875 951.446594238281 952.007080078125 949.922119140625 959.678039550781 964.762939453125 955.705505371094 967.284423828125 968.918090820312 978.703491210938 972.549072265625 967.41357421875 976.544006347656 979.544860839844 982.941711425781 987.548278808594 992.89404296875 992.622009277344 995.639831542969 1004.40563964844 998.558776855469 991.956481933594 991.584594726562 995.333068847656 994.238220214844 988.744934082031 984.294311523438 979.616577148438 974.469360351562 986.351623535156 983.743347167969 976.210571289062 974.333435058594 971.340454101562 964.536926269531 964.567810058594 972.611328125 972.837890625 972.756286621094 969.234436035156 976.139587402344 976.887329101562 975.422058105469 977.290161132812 984.685546875 977.423400878906 971.057739257812 976.955078125 989.683898925781 1001.01403808594 992.329528808594 987.007873535156 985.164672851562 991.958557128906 989.653381347656 988.829467773438 980.652221679688 980.961608886719 989.616943359375 984.696533203125 988.340148925781 978.809204101562 986.054016113281 985.737182617188 984.674560546875 989.943176269531 989.254272460938 987.252624511719 991.669738769531 1001.32421875 1000.05346679688 1007.91326904297 1005.89727783203 1006.88165283203 999.357299804688 1007.09692382812 1004.02709960938 1010.12951660156 1010.44158935547 1014.13269042969 1010.51818847656 1015.32043457031 1022.13653564453 1033.95629882812 1033.01196289062 1027.87756347656 1024.87268066406 1032.43017578125 1035.89953613281 1040.42529296875 1037.57165527344 1045.07141113281 1038.20446777344 1042.81115722656 1031.2470703125 1043.82495117188 1036.33374023438 1027.93054199219 1029.65173339844 1021.35430908203 1016.48248291016 1014.43389892578 1010.51806640625 1010.61932373047 1015.0390625 1012.99298095703 1015.23553466797 1018.01416015625 1026.51330566406 1019.54919433594 1014.47534179688 1013.11364746094 1006.17395019531 1003.02020263672 996.735534667969 996.769409179688 998.914916992188 1001.34197998047 1004.95568847656 995.323608398438 994.663330078125 1008.2236328125
945.541809082031 936.129516601562 939.565124511719 934.53466796875 936.994201660156 932.62646484375 945.350402832031 952.69775390625 958.11767578125 950.056518554688 955.967956542969 959.996704101562 966.717346191406 968.763977050781 971.144287109375 976.946228027344 980.53759765625 977.288635253906 971.941284179688 975.598876953125 979.159912109375 971.818237304688 970.381469726562 974.232604980469 961.934509277344 957.267456054688 952.287719726562 956.825256347656 958.425964355469 958.486511230469 955.546325683594 960.91455078125 961.451049804688 952.878295898438 960.709411621094 975.107360839844 979.712890625 981.59033203125 970.585327148438 986.292053222656 984.296447753906 991.423461914062 987.653564453125 984.009521484375 992.687255859375 1001.06268310547 998.020874023438 993.365051269531 1004.20971679688 1004.61535644531 1002.39068603516 1005.08636474609 996.667114257812 994.702087402344 979.555847167969 979.688415527344 978.716125488281 977.887573242188 975.627990722656 976.626770019531 980.436401367188 973.798583984375 973.102722167969 970.407897949219 977.843688964844 977.523071289062 980.422180175781 975.905151367188 985.47412109375 982.76025390625 967.241821289062 983.16259765625 980.362854003906 982.323913574219 968.751953125 978.404479980469 993.549865722656 1003.68170166016 994.214416503906 990.472290039062 986.171997070312 985.683837890625 992.360534667969 992.612915039062 984.685119628906 987.708862304688 992.413208007812 982.716369628906 983.984985351562 985.0712890625 986.35986328125 989.022399902344 983.385437011719 986.622314453125 994.148193359375 995.2958984375 1000.83782958984 1003.615234375 1001.8837890625 1003.42126464844 1003.27990722656 1008.97259521484 1003.00756835938 1003.40740966797 1009.47442626953 1010.97192382812 1019.93078613281 1024.01525878906 1023.17749023438 1012.86761474609 1023.68249511719 1026.0517578125 1028.60961914062 1022.44750976562 1028.76220703125 1036.05285644531 1036.41870117188 1031.99877929688 1037.52319335938 1037.65673828125 1036.74353027344 1045.67395019531 1041.98120117188 1029.84301757812 1028.23303222656 1022.76751708984 1020.94616699219 1016.81793212891 1003.93194580078 1009.85955810547 1008.29968261719 1008.41448974609 1018.63958740234 1009.98718261719 1014.63250732422 1018.51202392578 1013.74615478516 1014.36267089844 1013.81579589844 1004.140625 1001.3076171875 994.40625 990.041625976562 992.778503417969 999.986572265625 998.035400390625 1003.69818115234 994.083862304688 991.955017089844 998.957824707031
938.320068359375 927.228149414062 931.072509765625 931.897399902344 936.904174804688 930.84765625 934.13818359375 937.560485839844 940.797302246094 953.043823242188 959.44384765625 960.236938476562 957.546081542969 967.403076171875 968.915893554688 976.727966308594 980.578369140625 980.007446289062 976.225769042969 989.58203125 985.292175292969 982.077575683594 975.411193847656 974.646911621094 966.885620117188 966.224182128906 955.104064941406 959.855285644531 966.107299804688 966.10205078125 960.291015625 965.418518066406 969.974914550781 959.35693359375 971.937805175781 977.0458984375 982.183471679688 982.474426269531 981.145568847656 983.536071777344 989.405822753906 1000.92901611328 994.750427246094 988.813659667969 996.924987792969 1000.45703125 999.245483398438 996.077819824219 1005.62084960938 1010.82940673828 1007.26049804688 1002.96051025391 994.466491699219 998.948852539062 985.849060058594 986.200622558594 984.188293457031 979.227722167969 973.629760742188 978.957458496094 982.881958007812 975.21728515625 970.185852050781 972.148742675781 970.989868164062 975.818115234375 984.69921875 985.396911621094 981.662048339844 988.254089355469 979.1328125 985.202209472656 981.679992675781 978.368530273438 985.55712890625 983.548156738281 993.013061523438 993.316040039062 990.516174316406 987.045349121094 984.172729492188 991.931884765625 990.532104492188 992.767456054688 984.863464355469 984.602844238281 985.363220214844 990.235412597656 982.76904296875 979.165832519531 984.987609863281 987.018981933594 991.995666503906 990.477233886719 1001.10540771484 1001.69482421875 1003.21447753906 1001.69543457031 1008.62664794922 1008.96124267578 1011.26806640625 1000.74090576172 1001.1015625 1006.18670654297 1005.78356933594 1013.91595458984 1020.22515869141 1026.02734375 1029.76965332031 1026.95617675781 1032.02172851562 1034.791015625 1030.841796875 1025.92883300781 1033.88354492188 1031.66162109375 1031.44860839844 1036.56652832031 1043.49328613281 1032.60717773438 1036.98364257812 1037.67517089844 1033.265625 1034.38403320312 1032.93591308594 1020.0498046875 1019.85906982422 1008.29595947266 1000.17523193359 1016.08062744141 1005.09490966797 1013.64660644531 1018.55474853516 1015.60534667969 1020.12573242188 1014.0947265625 1015.78594970703 1017.27746582031 1016.08233642578 1008.00433349609 999.226623535156 992.082153320312 989.528930664062 994.366882324219 999.56396484375 997.922485351562 996.430786132812 991.37890625 991.047241210938 991.583374023438
934.147277832031 928.646301269531 932.846313476562 937.560363769531 941.153747558594 939.222900390625 935.138488769531 946.575500488281 947.479858398438 952.318908691406 961.006774902344 956.765502929688 960.796569824219 967.314331054688 984.137329101562 986.505493164062 980.83544921875 989.955017089844 995.771362304688 995.497802734375 992.052185058594 990.291320800781 980.475952148438 974.443481445312 966.249328613281 961.586303710938 953.837768554688 955.105224609375 962.609619140625 964.23193359375 970.983642578125 973.62255859375 974.403747558594 973.037902832031 976.536804199219 985.044799804688 984.175903320312 991.23583984375 983.243774414062 987.741088867188 990.10546875 998.1376953125 996.415222167969 997.117980957031 1002.56341552734 1003.79333496094 1005.5498046875 997.208557128906 1003.42816162109 1011.12219238281 1002.82220458984 1009.990234375 999.572265625 988.026428222656 988.414489746094 990.010314941406 980.045227050781 977.561767578125 978.621398925781 988.463562011719 976.505065917969 973.133056640625 965.794677734375 971.051086425781 971.304077148438 982.61572265625 988.630187988281 988.373779296875 985.159545898438 990.596923828125 986.417602539062 983.279907226562 984.322998046875 990.728393554688 989.073791503906 989.955505371094 993.207641601562 985.770812988281 987.586242675781 989.928833007812 990.975708007812 990.697937011719 986.489379882812 987.600830078125 983.195068359375 977.427673339844 976.039367675781 973.916015625 983.169921875 988.085815429688 980.280517578125 985.940368652344 986.915649414062 985.257385253906 995.671203613281 1006.3662109375 999.961547851562 999.860290527344 998.031372070312 999.466003417969 1006.49230957031 1001.44061279297 1004.94146728516 1009.40380859375 1010.89794921875 1013.3935546875 1025.82141113281 1027.45861816406 1026.18225097656 1033.05358886719 1034.79528808594 1037.96630859375 1038.93237304688 1030.40625 1030.20227050781 1029.57177734375 1026.98950195312 1023.20007324219 1030.61755371094 1026.32397460938 1029.43225097656 1034.57470703125 1033.72436523438 1022.76458740234 1020.78173828125 1018.13104248047 1015.45861816406 1002.04138183594 1009.08453369141 1012.46447753906 1008.73333740234 1011.72711181641 1008.72930908203 1020.64984130859 1014.80035400391 1017.63555908203 1018.97387695312 1024.14758300781 1011.82995605469 1003.41076660156 999.247314453125 993.889526367188 989.144592285156 990.498352050781 984.5908203125 998.012451171875 997.549621582031 996.909301757812 987.058288574219 986.995727539062
934.729736328125 926.568725585938 925.580749511719 936.373046875 939.255615234375 935.530822753906 937.804992675781 934.497863769531 953.194519042969 951.890319824219 958.420776367188 955.134948730469 967.139038085938 972.176208496094 980.741516113281 990.193481445312 988.7197265625 990.343994140625 1001.65142822266 1007.73382568359 998.939697265625 995.382629394531 987.37841796875 975.240417480469 967.462097167969 962.087158203125 961.649719238281 963.919738769531 964.50634765625 960.690551757812 972.900756835938 976.859130859375 975.690185546875 986.506164550781 989.932739257812 986.126525878906 993.692565917969 990.923034667969 988.272033691406 991.039428710938 992.795288085938 998.832153320312 991.727783203125 993.207946777344 1007.85205078125 1009.22985839844 1003.11224365234 1001.30230712891 998.199890136719 1013.41070556641 1006.93780517578 1008.04797363281 999.95068359375 991.010009765625 984.286193847656 986.453247070312 980.765502929688 977.238586425781 986.173095703125 983.095764160156 976.407592773438 971.078979492188 970.12646484375 968.446960449219 972.175109863281 977.875915527344 975.862976074219 989.131652832031 997.607666015625 985.901123046875 991.332275390625 991.233642578125 990.039123535156 987.926452636719 987.4970703125 988.700927734375 994.902160644531 987.154602050781 992.116516113281 990.608825683594 992.063049316406 987.357849121094 987.445861816406 995.479431152344 984.168334960938 983.763366699219 978.087829589844 972.716735839844 978.074951171875 988.9853515625 978.7197265625 981.783630371094 978.389099121094 986.369140625 993.0712890625 997.438781738281 994.066772460938 995.90966796875 990.626342773438 988.240844726562 997.591979980469 999.690551757812 1003.28149414062 1005.98657226562 1015.56256103516 1018.51647949219 1028.70959472656 1030.85681152344 1029.92028808594 1035.58056640625 1037.69885253906 1039.759765625 1027.18872070312 1029.91296386719 1025.20227050781 1021.41723632812 1015.12078857422 1013.7919921875 1021.86370849609 1026.87133789062 1030.41381835938 1038.57641601562 1032.43786621094 1019.99407958984 1023.57269287109 1017.92932128906 1012.02093505859 1011.87585449219 1009.76171875 1009.93585205078 1009.16461181641 1003.673828125 1008.48785400391 1019.85986328125 1007.47076416016 1020.33819580078 1018.72149658203 1027.43811035156 1012.4609375 1001.958984375 996.175842285156 990.462158203125 987.483093261719 994.541931152344 987.291076660156 981.201965332031 993.026977539062 996.741455078125 997.399536132812 1007.53338623047
926.357727050781 925.425659179688 935.485290527344 931.381286621094 932.528503417969 931.733459472656 943.220092773438 936.839538574219 952.512939453125 959.426025390625 956.290832519531 956.81396484375 961.5908203125 973.265502929688 975.039489746094 980.365173339844 987.744812011719 999.712341308594 1005.06909179688 1004.92327880859 1006.158203125 1004.70648193359 990.310241699219 982.132934570312 964.287963867188 962.716186523438 962.72216796875 972.822326660156 959.954833984375 964.490600585938 964.621887207031 972.076965332031 978.627685546875 984.464294433594 987.396606445312 994.626770019531 993.107666015625 997.263549804688 999.304077148438 1004.60595703125 1009.55389404297 1006.11315917969 999.247253417969 994.808837890625 1001.271484375 1006.89001464844 999.849792480469 1012.45422363281 1007.14404296875 1002.30609130859 993.859924316406 1008.21801757812 1002.00494384766 995.325927734375 992.6328125 986.003845214844 981.551574707031 973.45166015625 988.388793945312 987.323852539062 980.395874023438 979.441040039062 970.822875976562 974.113464355469 974.626525878906 981.272827148438 976.699951171875 982.450927734375 992.924865722656 990.517272949219 993.025146484375 991.246337890625 986.838989257812 987.523010253906 989.814514160156 985.041564941406 993.76318359375 990.217834472656 996.09521484375 998.320678710938 1007.98980712891 1000.03259277344 1000.00518798828 1000.40496826172 993.428588867188 991.515014648438 975.23583984375 976.520812988281 969.473388671875 978.338745117188 988.371704101562 980.430908203125 981.8154296875 978.135925292969 983.088806152344 997.952209472656 991.140441894531 994.552734375 996.922912597656 998.014099121094 997.726379394531 1003.01171875 999.119079589844 1008.21832275391 1018.67370605469 1022.33862304688 1024.30627441406 1033.66650390625 1032.96447753906 1034.06726074219 1034.87158203125 1038.06726074219 1032.88244628906 1026.05053710938 1024.95251464844 1018.62841796875 1018.42138671875 1023.51434326172 1026.20812988281 1027.90783691406 1035.96008300781 1034.16149902344 1038.45983886719 1029.1142578125 1029.49682617188 1019.25274658203 1007.23486328125 1004.39880371094 1004.18383789062 1012.65087890625 1005.95190429688 1004.26818847656 1009.64813232422 1008.90875244141 1012.78790283203 1010.67517089844 1012.35290527344 1014.654296875 1008.05560302734 998.176147460938 990.661865234375 992.758483886719 993.901550292969 978.302490234375 988.800476074219 984.960144042969 985.303283691406 989.605834960938 1000.22521972656 1004.60223388672
925.98486328125 931.883911132812 929.970336914062 931.950622558594 939.282104492188 936.133972167969 940.778564453125 945.162475585938 951.343688964844 956.313659667969 961.703369140625 958.728698730469 964.161437988281 977.464660644531 975.613891601562 982.166442871094 986.75634765625 988.617553710938 997.392700195312 1002.55364990234 1007.29473876953 999.618896484375 992.579345703125 985.248168945312 977.954528808594 971.589233398438 974.741577148438 974.181701660156 965.268127441406 975.286865234375 970.485595703125 978.308288574219 978.313537597656 975.586669921875 987.552368164062 987.17822265625 990.110717773438 995.177734375 1001.74090576172 1010.94671630859 1012.53784179688 1004.91729736328 999.752624511719 1006.30487060547 1005.46417236328 1007.12005615234 1013.7373046875 1014.58850097656 1008.55126953125 1010.22698974609 1012.33752441406 1002.03253173828 995.266479492188 998.431823730469 994.339477539062 993.428161621094 984.101867675781 983.699523925781 984.377380371094 988.145263671875 986.156799316406 980.54052734375 978.744506835938 972.655334472656 975.800476074219 977.899291992188 979.907470703125 981.576293945312 981.925170898438 987.304748535156 987.877624511719 991.645690917969 986.054382324219 985.835815429688 994.679809570312 999.56005859375 999.154602050781 997.022583007812 997.464294433594 1004.5185546875 1010.64831542969 1006.06805419922 1004.73767089844 999.190490722656 990.349365234375 984.715759277344 976.255310058594 978.611938476562 980.807434082031 987.320678710938 989.203735351562 989.777893066406 992.544982910156 992.525329589844 988.817932128906 997.074035644531 1004.68756103516 997.3720703125 996.68310546875 1006.51007080078 1000.88983154297 1009.30578613281 1003.71655273438 1006.41766357422 1008.759765625 1017.51647949219 1011.98754882812 1024.55603027344 1018.03741455078 1028.54467773438 1032.98181152344 1036.01635742188 1026.52722167969 1022.95745849609 1018.03692626953 1019.47448730469 1020.79754638672 1020.66259765625 1038.89575195312 1034.59106445312 1041.16796875 1034.31298828125 1033.89123535156 1035.10339355469 1025.94897460938 1017.72735595703 1009.04357910156 1000.12426757812 996.138122558594 1000.24676513672 1005.37341308594 1011.04339599609 1015.99920654297 1005.59423828125 1011.15924072266 1002.13647460938 1007.66375732422 1002.18511962891 1001.27648925781 993.720397949219 987.846130371094 994.491760253906 994.770935058594 990.492248535156 996.258972167969 990.705993652344 978.218444824219 985.147155761719 991.905029296875 991.692504882812
921.342102050781 923.630310058594 934.331604003906 930.354248046875 939.753601074219 942.064147949219 939.543518066406 957.793029785156 951.118286132812 965.361022949219 964.484619140625 964.568237304688 967.940734863281 979.237365722656 986.955383300781 982.710571289062 981.8779296875 991.084533691406 1000.93737792969 1001.61395263672 997.642639160156 989.533569335938 992.419616699219 991.473937988281 970.619140625 977.172729492188 979.90234375 979.677062988281 973.169006347656 970.221740722656 980.277282714844 982.080078125 984.674011230469 986.23486328125 985.012329101562 992.190734863281 988.991516113281 988.493041992188 1003.15454101562 1005.61853027344 1010.06457519531 1003.90612792969 1004.75219726562 1013.33422851562 1005.4287109375 1004.11529541016 1000.01947021484 1002.28118896484 1008.69885253906 1002.85614013672 1006.79553222656 1006.34521484375 1001.44360351562 1000.36468505859 987.298889160156 982.297485351562 983.746887207031 983.986877441406 983.691467285156 984.373229980469 990.026672363281 986.146179199219 991.278625488281 983.530334472656 979.437683105469 979.248962402344 985.101501464844 981.089721679688 972.565856933594 979.686767578125 983.604431152344 996.191833496094 995.148864746094 985.50537109375 994.326416015625 992.339294433594 995.048950195312 992.922424316406 996.452026367188 1008.40368652344 1010.90655517578 1005.3837890625 1002.28948974609 1001.86535644531 995.943725585938 992.349792480469 987.820129394531 988.235717773438 987.232421875 989.929077148438 987.734375 985.755065917969 983.218444824219 984.928955078125 993.611694335938 988.766479492188 997.318603515625 1000.58337402344 1005.26806640625 1004.53118896484 1016.30560302734 1011.9052734375 1011.92138671875 1004.77600097656 1004.88226318359 1014.34417724609 1014.5224609375 1023.59759521484 1012.17266845703 1026.12707519531 1036.33117675781 1036.88916015625 1025.27404785156 1023.43811035156 1025.87524414062 1030.1630859375 1025.68615722656 1019.42840576172 1035.53601074219 1036.4521484375 1035.1669921875 1031.07263183594 1032.38537597656 1022.17810058594 1009.73712158203 1015.64202880859 1009.86773681641 1001.76983642578 995.720764160156 996.935363769531 995.753540039062 1000.32604980469 1011.1494140625 1004.85388183594 1004.55419921875 1000.55621337891 1002.65124511719 1001.77709960938 996.61279296875 989.265319824219 988.188903808594 996.098327636719 998.8828125 995.199340820312 992.876586914062 987.652160644531 989.058410644531 990.994079589844 994.191528320312 1002.03533935547
932.621337890625 938.344421386719 928.467956542969 934.663940429688 933.152770996094 938.4169921875 942.822509765625 963.025817871094 961.902404785156 968.905517578125 964.763977050781 966.475952148438 976.785888671875 977.123046875 975.536254882812 971.229370117188 980.520263671875 986.226928710938 998.00390625 999.674072265625 993.805908203125 986.239501953125 988.739440917969 990.457641601562 983.90478515625 983.35791015625 992.390808105469 991.607177734375 985.892333984375 981.895874023438 981.529907226562 978.74755859375 978.671630859375 984.964294433594 987.552062988281 987.93896484375 988.559814453125 996.788696289062 994.775939941406 1007.48614501953 1011.81774902344 1008.64147949219 996.674865722656 1002.58972167969 1008.34155273438 1003.55090332031 991.8974609375 997.627502441406 993.459106445312 996.689514160156 1005.26800537109 1006.61737060547 996.097351074219 995.711120605469 992.937683105469 996.590087890625 991.147888183594 988.815490722656 988.853271484375 986.285400390625 990.915283203125 989.4189453125 984.606567382812 988.462585449219 988.169921875 973.804504394531 983.719177246094 983.478698730469 977.054504394531 977.322143554688 976.540222167969 987.991882324219 988.764770507812 987.618835449219 985.311462402344 984.629943847656 989.816589355469 995.714416503906 1005.07037353516 997.152282714844 1004.45288085938 1004.77911376953 1002.68353271484 993.668762207031 1002.19573974609 999.781860351562 993.436706542969 987.336120605469 990.807250976562 990.20703125 990.610046386719 989.720825195312 993.726257324219 990.719543457031 994.232727050781 988.948669433594 987.051513671875 995.864929199219 992.947143554688 1013.71710205078 1018.52777099609 1011.03771972656 1004.04498291016 1007.44927978516 1004.689453125 1012.017578125 1014.96130371094 1017.43267822266 1015.06109619141 1031.62438964844 1043.09033203125 1035.4560546875 1034.87170410156 1028.38452148438 1027.69445800781 1021.693359375 1024.78442382812 1031.62451171875 1033.84106445312 1035.37670898438 1026.47241210938 1021.61907958984 1032.41528320312 1003.83068847656 1003.84869384766 1008.53448486328 1013.64709472656 1007.25164794922 1001.68286132812 998.16357421875 989.376647949219 998.613708496094 1005.50140380859 1011.98333740234 995.665405273438 1001.23822021484 1004.6533203125 996.279907226562 997.797180175781 991.353515625 989.348754882812 997.087341308594 999.53857421875 993.456481933594 990.181884765625 985.572814941406 987.184509277344 993.5166015625 1003.05810546875 1014.70971679688
938.2841796875 945.453979492188 938.948120117188 937.60498046875 944.902282714844 940.457763671875 945.760559082031 953.924499511719 957.740783691406 960.335632324219 968.357971191406 982.981994628906 983.008728027344 977.660461425781 976.447082519531 970.709777832031 969.279663085938 980.220581054688 978.629211425781 991.511291503906 985.568481445312 984.5302734375 985.162963867188 988.665466308594 986.975830078125 993.570556640625 990.616516113281 984.819519042969 978.102783203125 982.079467773438 985.517333984375 976.337341308594 972.793273925781 979.401000976562 987.9521484375 986.919250488281 988.347961425781 994.803100585938 991.777221679688 1004.18536376953 1004.17718505859 995.389770507812 997.576416015625 996.234680175781 996.75439453125 988.794067382812 996.11669921875 992.910827636719 998.626953125 1008.11712646484 1004.24255371094 1002.16973876953 1010.08306884766 1005.93255615234 1000.18841552734 996.234252929688 994.129577636719 988.473754882812 983.54833984375 985.001220703125 972.083984375 984.698425292969 985.272033691406 975.277770996094 984.153442382812 984.312866210938 980.210754394531 981.987243652344 983.325378417969 979.229736328125 976.620483398438 986.499633789062 989.689575195312 986.155944824219 986.762512207031 994.40234375 994.551940917969 999.633483886719 994.476196289062 1005.18231201172 1001.18817138672 1001.48510742188 1005.32745361328 1004.63861083984 1007.28631591797 1005.33111572266 996.802307128906 999.929138183594 991.974365234375 988.674987792969 986.584899902344 993.887939453125 988.701232910156 979.840209960938 982.428894042969 986.439453125 987.212280273438 992.362060546875 999.373779296875 1004.52355957031 1010.36492919922 1007.61785888672 1011.02770996094 1007.29644775391 1001.44989013672 1009.16546630859 1016.53625488281 1024.23400878906 1021.43414306641 1025.72241210938 1038.33081054688 1045.53869628906 1031.8115234375 1035.58154296875 1030.56335449219 1026.24487304688 1034.91296386719 1025.06848144531 1034.70153808594 1030.56811523438 1030.31396484375 1029.32202148438 1017.24340820312 1012.00634765625 1009.23022460938 999.267333984375 1004.40942382812 1005.22271728516 1006.82293701172 1001.82604980469 994.334228515625 993.443176269531 989.089538574219 998.898010253906 998.36865234375 1001.65209960938 999.842224121094 991.307373046875 992.497314453125 992.338195800781 978.821899414062 989.500183105469 981.29736328125 976.558410644531 982.324096679688 988.381103515625 993.064880371094 1001.81890869141 1012.64575195312 1016.28265380859
954.82666015625 953.134155273438 939.088806152344 943.004211425781 939.121643066406 936.691711425781 939.885864257812 948.343139648438 963.234497070312 961.67041015625 975.259643554688 983.579467773438 976.557434082031 982.598693847656 980.777099609375 962.714660644531 972.8505859375 972.008728027344 967.712768554688 966.070617675781 972.728088378906 982.197265625 983.323425292969 985.294860839844 976.791198730469 978.913940429688 981.996337890625 983.342041015625 984.095275878906 982.64453125 984.198425292969 986.093444824219 986.627075195312 977.660034179688 980.0927734375 981.823486328125 976.622924804688 986.899475097656 1008.37658691406 1003.36608886719 1001.47698974609 995.280456542969 994.032897949219 993.542236328125 994.1376953125 994.135559082031 991.293395996094 997.3125 999.780212402344 1004.78070068359 1002.33868408203 998.331115722656 1006.52801513672 1005.52606201172 1004.39233398438 999.339599609375 998.864013671875 997.695739746094 994.56591796875 991.018005371094 979.169982910156 979.755065917969 985.233032226562 987.415954589844 989.134826660156 984.590454101562 979.617370605469 978.953491210938 973.563049316406 979.512573242188 984.257141113281 988.636169433594 983.889831542969 991.056518554688 986.875366210938 996.431396484375 999.479064941406 1002.98999023438 998.518493652344 995.684143066406 1000.19049072266 1011.45867919922 1008.79864501953 1004.63110351562 1000.06390380859 1001.06634521484 1006.74761962891 1000.18103027344 993.681457519531 997.143615722656 998.320556640625 994.132507324219 990.062744140625 995.801818847656 997.122497558594 991.006225585938 984.3125 989.259948730469 1000.59094238281 995.823669433594 1010.85638427734 1006.14086914062 1001.90594482422 1004.11614990234 1006.88079833984 1014.88311767578 1018.1044921875 1029.47131347656 1021.56390380859 1026.32739257812 1034.64660644531 1045.04748535156 1041.58471679688 1034.15661621094 1031.18078613281 1034.21423339844 1032.85119628906 1034.75952148438 1038.84057617188 1026.36206054688 1021.76885986328 1021.15814208984 1019.91833496094 1018.60162353516 1007.35467529297 993.437377929688 996.162170410156 991.347717285156 999.6455078125 997.201477050781 992.844970703125 994.031188964844 983.423095703125 993.525451660156 987.989624023438 996.072265625 995.094787597656 987.842407226562 988.179748535156 987.017578125 981.685424804688 969.771362304688 974.090515136719 977.57763671875 972.291809082031 981.051574707031 992.983947753906 1009.72302246094 1003.66912841797 1012.78979492188
952.423095703125 948.807495117188 955.217163085938 947.440490722656 940.344665527344 935.966674804688 937.540466308594 941.313842773438 954.947692871094 963.355651855469 968.78076171875 971.038330078125 980.511535644531 988.806396484375 977.502868652344 972.520568847656 959.985229492188 957.507446289062 956.194763183594 953.1533203125 969.001281738281 976.483459472656 977.000671386719 974.328369140625 989.091186523438 978.23681640625 975.571472167969 984.868713378906 978.452758789062 983.121215820312 989.775512695312 981.510681152344 979.137573242188 971.203796386719 968.437316894531 971.837951660156 980.73876953125 984.558288574219 994.87939453125 987.791015625 988.766662597656 994.344055175781 985.374450683594 987.995361328125 980.734375 986.374328613281 987.517517089844 995.997741699219 990.104675292969 994.473937988281 1001.83813476562 1001.94641113281 1004.05444335938 1004.68658447266 996.040832519531 999.770874023438 997.443176269531 994.849243164062 985.48974609375 983.212951660156 979.708251953125 982.891479492188 978.912536621094 982.957641601562 986.652038574219 986.643798828125 982.130126953125 983.384460449219 980.134338378906 987.924255371094 986.001708984375 984.978515625 987.105773925781 981.014831542969 987.875915527344 992.791748046875 997.339660644531 1003.75537109375 996.437744140625 998.641052246094 1002.78112792969 999.230346679688 1000.79357910156 1004.14190673828 1008.91101074219 1009.67309570312 1004.05322265625 997.264953613281 1000.8525390625 991.546936035156 995.773986816406 997.914978027344 998.988891601562 993.295166015625 993.085632324219 1005.42144775391 992.958740234375 991.474243164062 989.288757324219 997.474975585938 1011.01776123047 1007.95959472656 1005.26611328125 999.763122558594 1009.89270019531 1013.28198242188 1020.7626953125 1023.29089355469 1031.99108886719 1029.72387695312 1040.49304199219 1038.41455078125 1043.27844238281 1048.18603515625 1044.72839355469 1043.66625976562 1043.09045410156 1042.69677734375 1037.53955078125 1030.90246582031 1026.11755371094 1023.70776367188 1015.01586914062 1018.35418701172 1008.30902099609 992.605224609375 991.405578613281 991.490478515625 990.292358398438 986.591979980469 980.991455078125 981.141357421875 976.335144042969 987.379760742188 987.304260253906 987.528625488281 989.688232421875 989.113708496094 992.721557617188 988.890441894531 978.429016113281 974.248229980469 974.934448242188 971.331420898438 974.186645507812 976.199523925781 983.047729492188 993.234313964844 998.163635253906 999.246215820312
958.068115234375 959.103271484375 954.306091308594 948.842224121094 937.747497558594 934.711547851562 937.0224609375 944.866271972656 947.044250488281 956.879455566406 963.234680175781 967.191589355469 969.880676269531 972.743591308594 970.100769042969 963.447570800781 958.869445800781 953.684204101562 961.914733886719 957.817016601562 962.97314453125 964.580139160156 960.901123046875 967.194702148438 979.324584960938 974.5283203125 979.297180175781 981.102111816406 976.493713378906 979.00634765625 976.752258300781 983.406982421875 979.628173828125 963.473083496094 969.152526855469 970.895080566406 979.804382324219 992.474853515625 991.954345703125 991.693420410156 990.641479492188 987.598571777344 980.115844726562 987.625732421875 983.143249511719 985.128479003906 984.456665039062 987.254760742188 994.499267578125 1000.947265625 999.58740234375 1004.37683105469 1007.10198974609 995.370300292969 1003.32366943359 1001.51708984375 994.083679199219 990.854797363281 981.091613769531 982.546203613281 977.031982421875 982.762451171875 984.356323242188 982.072021484375 979.919128417969 983.900329589844 981.334289550781 979.602416992188 980.682006835938 987.6826171875 985.956298828125 986.502319335938 981.613037109375 984.131103515625 976.013488769531 993.128967285156 990.312255859375 997.197692871094 1000.25817871094 998.59765625 1001.48895263672 1008.63507080078 1003.64276123047 1007.13861083984 999.252380371094 1007.68395996094 1001.18603515625 997.071533203125 993.892761230469 1003.55249023438 1001.30950927734 1004.01794433594 1002.56164550781 997.612915039062 995.743896484375 1002.49554443359 1000.50866699219 998.592163085938 1004.29187011719 995.955444335938 1008.52325439453 1008.13629150391 1006.40948486328 1003.10046386719 1012.03991699219 1018.95269775391 1018.86260986328 1029.04162597656 1038.42236328125 1033.88195800781 1034.53540039062 1047.41516113281 1052.97204589844 1050.2333984375 1043.92028808594 1049.15576171875 1041.86291503906 1040.40222167969 1035.67150878906 1027.61169433594 1022.54699707031 1015.96429443359 1010.83294677734 1011.70928955078 994.420043945312 989.411743164062 983.580383300781 982.35888671875 985.877990722656 983.606201171875 985.129211425781 976.617431640625 986.815368652344 979.054321289062 973.211975097656 974.357604980469 984.36279296875 986.327087402344 985.654541015625 987.930603027344 975.408386230469 973.302795410156 977.667724609375 970.135681152344 963.3466796875 977.343933105469 983.269836425781 982.013427734375 983.560668945312 992.040222167969
960.862426757812 954.145935058594 953.10595703125 945.092590332031 941.139221191406 943.385009765625 943.169860839844 948.169982910156 955.911865234375 953.24609375 964.416870117188 966.804870605469 971.91162109375 967.717041015625 957.966186523438 951.268615722656 956.807189941406 958.631408691406 961.179870605469 954.271240234375 953.965270996094 964.798828125 956.144104003906 965.425659179688 967.575012207031 979.498840332031 976.25048828125 976.03857421875 976.173400878906 975.541320800781 980.457092285156 976.960327148438 976.283020019531 969.101928710938 968.252563476562 971.261047363281 982.302307128906 993.908935546875 987.340087890625 993.374389648438 987.845458984375 980.266052246094 978.225524902344 990.197387695312 975.183532714844 984.546936035156 981.022644042969 979.521789550781 992.015014648438 1001.10070800781 1002.16973876953 1002.76116943359 994.764526367188 1000.96520996094 1002.67431640625 1000.64935302734 997.182067871094 989.290344238281 978.335083007812 977.058471679688 987.856689453125 982.963806152344 983.251586914062 979.881469726562 986.005737304688 975.249938964844 975.841369628906 978.269409179688 977.258728027344 990.676879882812 992.313415527344 988.315490722656 989.770751953125 990.037719726562 990.990295410156 992.775817871094 986.805541992188 999.819213867188 999.875305175781 992.332885742188 1005.19384765625 1004.43432617188 1001.41052246094 1000.52386474609 998.749145507812 1007.70471191406 1000.58721923828 992.615844726562 995.022399902344 1001.12078857422 997.271240234375 1000.80590820312 1004.9912109375 1007.65618896484 999.380920410156 1004.10089111328 1003.29376220703 1004.75274658203 1002.37658691406 1009.23614501953 1009.75952148438 1016.99688720703 1007.23266601562 1009.07745361328 1006.66949462891 1009.45025634766 1017.91723632812 1022.20562744141 1038.3828125 1036.29309082031 1042.05358886719 1052.57263183594 1056.07653808594 1055.15380859375 1057.42822265625 1061.49987792969 1053.10986328125 1032.13659667969 1024.55969238281 1022.67858886719 1017.54437255859 1011.92443847656 1011.50463867188 1009.84649658203 991.079528808594 983.404663085938 985.113891601562 986.055480957031 981.908996582031 981.604187011719 981.912841796875 978.275695800781 973.974365234375 981.838562011719 979.689270019531 972.96533203125 976.37548828125 988.590698242188 991.148559570312 988.674499511719 981.021057128906 977.228271484375 975.485534667969 965.574340820312 965.722412109375 962.456848144531 972.352783203125 979.500122070312 983.260681152344 990.345642089844
968.620483398438 959.910400390625 955.452026367188 946.514404296875 935.380187988281 947.243957519531 952.398986816406 954.555603027344 954.097534179688 954.352478027344 955.758666992188 961.719970703125 969.107238769531 962.474243164062 952.3974609375 955.938659667969 952.723937988281 957.11083984375 957.414184570312 958.41162109375 957.876586914062 954.669616699219 954.490051269531 961.169372558594 964.866577148438 967.376220703125 963.92333984375 966.261596679688 965.190856933594 968.466613769531 970.225769042969 970.798706054688 967.533996582031 982.932067871094 980.467712402344 985.021545410156 978.67578125 986.11669921875 979.712341308594 982.998840332031 980.348571777344 983.836364746094 984.277282714844 985.685485839844 981.007934570312 978.711242675781 985.742980957031 977.997741699219 994.518798828125 994.087768554688 984.794311523438 999.954528808594 1000.35028076172 1001.05163574219 1000.89300537109 1002.28179931641 990.687622070312 981.392761230469 980.851013183594 984.994934082031 983.437805175781 985.099792480469 981.792846679688 982.752380371094 988.074340820312 986.480285644531 978.128295898438 980.021545410156 981.726623535156 983.01904296875 987.815246582031 992.913818359375 994.885131835938 993.024108886719 992.122253417969 988.433715820312 984.079162597656 989.759338378906 995.504577636719 993.373840332031 999.935607910156 995.993408203125 1000.87353515625 996.000427246094 1012.08160400391 1006.50744628906 1003.38256835938 989.982727050781 999.909790039062 1002.00872802734 999.557312011719 999.36181640625 997.5400390625 1001.1259765625 1001.89624023438 1012.03356933594 1014.09088134766 1005.97985839844 1006.62561035156 1010.36926269531 1018.841796875 1019.55328369141 1013.5341796875 1014.70709228516 1007.41131591797 1008.28491210938 1022.96215820312 1027.48071289062 1033.982421875 1044.01623535156 1056.5556640625 1046.10412597656 1056.43774414062 1057.37243652344 1062.333984375 1053.19079589844 1055.38757324219 1042.7197265625 1037.75610351562 1027.3642578125 1024.09826660156 1014.23480224609 1017.48510742188 1005.01586914062 996.157409667969 991.273071289062 992.408264160156 981.993713378906 979.214294433594 979.800109863281 980.733947753906 980.264099121094 973.241821289062 975.384521484375 975.921813964844 969.091735839844 967.662780761719 973.048889160156 980.167663574219 984.694274902344 980.196960449219 975.797058105469 977.085388183594 974.484191894531 964.733764648438 965.268798828125 970.932922363281 983.79833984375 991.14306640625 979.016296386719
957.792358398438 958.585266113281 949.274658203125 942.682250976562 938.628295898438 940.310546875 947.649291992188 950.593627929688 957.993103027344 952.790466308594 941.894653320312 948.912048339844 949.927368164062 948.419128417969 951.968811035156 951.458557128906 961.689636230469 951.337768554688 956.631896972656 955.471130371094 954.642333984375 948.804077148438 953.583740234375 955.098083496094 953.798706054688 959.022033691406 958.813842773438 962.838928222656 965.806579589844 957.651977539062 963.145568847656 967.703857421875 973.544189453125 981.932861328125 980.301879882812 975.309753417969 974.12255859375 973.888977050781 971.933532714844 975.328125 975.710815429688 983.208312988281 977.246276855469 982.44140625 987.622009277344 982.48876953125 994.42431640625 989.198669433594 992.483032226562 1000.58508300781 993.924621582031 1001.68414306641 1003.85107421875 997.11474609375 1002.41168212891 999.28515625 994.825805664062 998.534362792969 992.121887207031 992.178649902344 986.702270507812 986.865051269531 982.117126464844 990.39794921875 988.245300292969 985.165771484375 977.608703613281 983.367370605469 988.491577148438 984.293701171875 978.576354980469 985.823852539062 990.47705078125 991.917297363281 994.428344726562 985.095275878906 978.347839355469 990.871276855469 992.80517578125 999.950988769531 1002.95477294922 1001.40789794922 999.520202636719 1011.68658447266 1007.69219970703 1000.39678955078 1008.6318359375 991.426452636719 991.905334472656 1004.31030273438 995.52490234375 1003.19598388672 997.298034667969 996.16259765625 999.747985839844 1011.79730224609 1015.61322021484 1016.12237548828 1002.77966308594 1016.01916503906 1024.42797851562 1014.28588867188 1016.95678710938 1020.25378417969 1016.55139160156 1024.86987304688 1022.56781005859 1028.88305664062 1038.55871582031 1053.14770507812 1057.27722167969 1050.72570800781 1063.52270507812 1059.74877929688 1066.79248046875 1064.77868652344 1056.75024414062 1050.16943359375 1042.47766113281 1031.22302246094 1025.16467285156 1018.68273925781 1006.02325439453 1001.16101074219 996.401916503906 999.298889160156 996.410461425781 989.903991699219 984.820068359375 978.748168945312 979.076904296875 983.807250976562 977.103637695312 970.433776855469 970.5078125 969.503112792969 972.891906738281 968.905578613281 974.649963378906 979.1357421875 972.281005859375 968.880554199219 979.451538085938 970.687316894531 969.288452148438 975.400329589844 967.749084472656 979.000854492188 979.626770019531 979.169128417969
956.323974609375 952.877624511719 948.685302734375 948.17919921875 943.533813476562 938.851013183594 941.376770019531 940.879577636719 946.816101074219 953.733642578125 948.099182128906 948.807250976562 939.031494140625 944.377197265625 952.619506835938 953.233764648438 957.83056640625 961.973327636719 949.966125488281 957.732971191406 960.325378417969 961.826416015625 958.221740722656 953.931396484375 959.982299804688 952.901794433594 959.358154296875 960.325500488281 956.147888183594 957.382385253906 963.40673828125 961.940979003906 969.053161621094 982.00048828125 973.207092285156 967.67236328125 962.517395019531 967.477294921875 965.536743164062 971.923522949219 979.265075683594 976.659057617188 971.564270019531 973.473510742188 988.023071289062 989.229125976562 992.881469726562 990.741271972656 991.473754882812 998.210815429688 1002.12780761719 1009.78747558594 998.352966308594 1000.21746826172 994.976135253906 1003.94232177734 996.325317382812 1004.03076171875 1008.04174804688 1003.91064453125 990.061645507812 985.338500976562 993.647583007812 999.783142089844 1006.88452148438 1000.53094482422 989.167602539062 991.930541992188 989.518005371094 984.044616699219 989.470397949219 989.699768066406 992.283447265625 991.824340820312 995.531860351562 981.832763671875 985.284545898438 987.719848632812 991.014526367188 1001.59777832031 1005.35052490234 1000.45727539062 1004.21325683594 1004.88446044922 1009.79455566406 1012.07421875 1011.19445800781 1003.67016601562 1005.26129150391 1003.64990234375 1003.41455078125 999.1845703125 996.457763671875 1002.84552001953 1003.75823974609 1011.87371826172 1013.87017822266 1012.31170654297 1015.18359375 1018.26354980469 1016.09753417969 1011.32824707031 1022.48645019531 1024.97119140625 1020.98620605469 1020.62780761719 1021.14538574219 1031.81433105469 1034.59802246094 1046.93237304688 1064.94860839844 1057.0390625 1065.12048339844 1065.95812988281 1072.2783203125 1068.36962890625 1066.05908203125 1054.96081542969 1042.85217285156 1041.15441894531 1041.90966796875 1023.86157226562 1017.23919677734 1003.40466308594 998.327087402344 1003.63555908203 1000.20690917969 987.229919433594 990.234436035156 989.577026367188 983.473510742188 981.038269042969 982.9365234375 973.639953613281 966.043823242188 963.882263183594 969.213623046875 979.654541015625 973.821533203125 967.68505859375 968.421630859375 981.223815917969 983.748901367188 971.774108886719 967.854187011719 967.893676757812 974.351501464844 976.879516601562 978.439392089844 972.935668945312
956.307861328125 957.520080566406 956.45703125 950.46923828125 940.419738769531 938.707214355469 938.829284667969 932.479431152344 939.828186035156 954.106323242188 950.6826171875 945.660278320312 941.502807617188 943.484375 943.105651855469 950.119995117188 960.315551757812 955.727966308594 961.02880859375 963.3154296875 965.502685546875 964.048583984375 957.509338378906 956.774108886719 961.072326660156 968.329650878906 969.552490234375 962.050659179688 966.545227050781 963.840515136719 955.934143066406 967.524536132812 959.52197265625 960.715026855469 967.518615722656 969.405578613281 966.608642578125 965.20849609375 967.032958984375 969.723083496094 971.649047851562 968.298583984375 968.1904296875 974.148681640625 980.972595214844 985.255493164062 998.940856933594 989.675415039062 979.121643066406 989.264038085938 997.118286132812 1005.46795654297 1000.90948486328 1003.44299316406 1002.35864257812 1000.82769775391 1008.04351806641 1010.23980712891 1012.58520507812 1003.99560546875 1002.11578369141 1000.45678710938 994.294799804688 998.926330566406 1007.34674072266 994.009582519531 996.478820800781 998.347900390625 993.696044921875 992.308166503906 983.221008300781 982.077270507812 991.153564453125 992.676330566406 994.43798828125 984.841003417969 983.136657714844 1000.49835205078 996.948791503906 999.14990234375 997.283752441406 998.035827636719 1006.53503417969 1002.25244140625 1013.50573730469 1012.36846923828 1013.12048339844 1007.61199951172 1003.51611328125 1001.85229492188 996.527038574219 997.4296875 995.9208984375 1003.08984375 1003.75109863281 1003.68267822266 1010.19207763672 1012.55078125 1017.24261474609 1011.40386962891 1016.67486572266 1015.08630371094 1022.05780029297 1019.08563232422 1023.28692626953 1019.84246826172 1025.53601074219 1036.37341308594 1039.10632324219 1048.36657714844 1062.38305664062 1069.84899902344 1062.94555664062 1062.77587890625 1067.71130371094 1070.71936035156 1060.67517089844 1051.07971191406 1048.5517578125 1051.12927246094 1048.93371582031 1036.87194824219 1026.35595703125 1012.0029296875 1006.15570068359 1003.31732177734 1003.60235595703 996.102478027344 994.843688964844 984.085815429688 986.733825683594 988.347534179688 979.206481933594 975.748474121094 961.818786621094 960.580932617188 972.932861328125 983.983642578125 968.0966796875 969.331909179688 964.769348144531 965.69091796875 978.174865722656 973.123352050781 970.858215332031 970.846984863281 968.255737304688 975.210388183594 979.292175292969 973.960327148438
