NCOLS 150
NROWS 37
XLLCORNER 7394249
YLLCORNER 4842239
CELLSIZE 30
NODATA_VALUE -9999
963.851745605469 964.414428710938 961.030822753906 966.526794433594 964.032043457031 967.024597167969 966.790893554688 968.434204101562 970.095153808594 965.624938964844 968.09033203125 966.846740722656 974.817077636719 973.007141113281 976.960266113281 975.479125976562 973.292663574219 977.017944335938 968.708068847656 973.684997558594 975.708251953125 965.481323242188 959.109313964844 964.145324707031 961.97119140625 963.403991699219 961.527526855469 966.83056640625 967.889953613281 969.401672363281 958.923400878906 947.832092285156 947.656921386719 952.477355957031 962.787902832031 968.06494140625 956.399108886719 958.938293457031 960.310424804688 966.573913574219 957.433898925781 958.466857910156 961.000793457031 959.515197753906 958.748046875 954.435180664062 956.213073730469 952.951110839844 947.14453125 949.684997558594 950.643188476562 943.927490234375 958.627868652344 963.730041503906 955.270446777344 960.516174316406 951.828796386719 950.94775390625 948.823059082031 952.353698730469 959.337951660156 965.577941894531 964.769775390625 956.283142089844 957.145446777344 958.184387207031 953.527893066406 955.614929199219 951.190979003906 953.9072265625 964.940063476562 961.51416015625 963.587463378906 960.950744628906 962.277893066406 954.830749511719 948.32763671875 949.672546386719 960.279418945312 968.548828125 965.675720214844 963.212524414062 959.738952636719 957.940246582031 970.202514648438 968.657531738281 976.651306152344 973.070739746094 964.328125 973.52587890625 973.158081054688 973.676940917969 975.649230957031 972.556213378906 971.972473144531 971.926940917969 967.412658691406 966.457641601562 970.364868164062 971.11962890625 977.295532226562 968.461486816406 978.796081542969 987.873229980469 985.587829589844 983.435974121094 971.390075683594 976.512512207031 979.632934570312 979.996704101562 988.342590332031 988.377685546875 991.562316894531 992.607543945312 991.908813476562 993.020935058594 994.62353515625 1003.83148193359 1005.55206298828 1012.47088623047 1003.41094970703 1009.35974121094 1011.65631103516 1008.40814208984 1006.03656005859 1012.328125 1018.04058837891 1034.40063476562 1038.59680175781 1050.33959960938 1056.15539550781 1069.81616210938 1080.50402832031 1076.2216796875 1083.80725097656 1087.552734375 1090.25036621094 1093.36022949219 1084.791015625 1080.37097167969 1077.78967285156 1068.66491699219 1065.62329101562 1067.18530273438 1074.78601074219 1072.900390625 1076.28527832031 1088.73986816406 1088.19262695312 1089.40270996094
962.297180175781 964.380004882812 961.355590820312 959.951477050781 969.448791503906 969.355285644531 971.702880859375 974.868469238281 964.949462890625 962.135070800781 962.478515625 970.057067871094 969.80712890625 978.415405273438 968.44287109375 966.962646484375 963.740295410156 964.323669433594 969.54345703125 968.607727050781 970.341186523438 963.270568847656 966.134521484375 962.463317871094 961.685607910156 958.387756347656 959.343383789062 964.787048339844 960.160766601562 957.068542480469 957.722900390625 961.20947265625 949.894470214844 949.90380859375 962.546569824219 967.152893066406 956.377502441406 953.091735839844 956.718200683594 960.4580078125 957.486755371094 962.477416992188 960.332153320312 960.568420410156 956.73876953125 954.347473144531 951.5205078125 945.931884765625 945.954406738281 944.941833496094 947.01806640625 942.48828125 953.013427734375 956.608703613281 957.809020996094 954.50341796875 956.157287597656 954.738098144531 963.640258789062 956.319763183594 954.741271972656 961.57861328125 963.7939453125 959.342407226562 955.613525390625 956.477478027344 954.180603027344 955.913757324219 951.261291503906 965.517150878906 961.101745605469 964.30908203125 970.415588378906 964.536193847656 958.49853515625 958.884399414062 958.623657226562 955.935913085938 963.791931152344 966.869750976562 957.970581054688 957.982238769531 961.851196289062 966.220092773438 966.947692871094 967.980712890625 967.53662109375 970.464416503906 974.732238769531 971.165405273438 964.917419433594 970.135070800781 973.024719238281 972.795532226562 965.560424804688 971.587524414062 962.321960449219 965.311157226562 975.8076171875 973.070922851562 969.791198730469 973.857727050781 979.358703613281 978.732177734375 991.112609863281 976.159118652344 975.045593261719 969.920288085938 983.905090332031 992.098083496094 996.336975097656 987.577209472656 989.360290527344 992.846496582031 994.976135253906 993.463989257812 994.518615722656 998.956726074219 1005.54211425781 1010.42230224609 1008.02996826172 1010.71557617188 1004.49523925781 1005.60998535156 1006.03021240234 1015.30340576172 1018.68005371094 1035.45617675781 1036.43176269531 1044.31689453125 1062.63354492188 1068.02587890625 1071.56213378906 1079.66552734375 1082.67700195312 1087.91271972656 1087.72534179688 1085.64404296875 1085.62866210938 1087.6455078125 1080.63671875 1071.15771484375 1058.80969238281 1058.41345214844 1060.68103027344 1060.56420898438 1068.87683105469 1079.50085449219 1083.21447753906 1087.20227050781
966.886352539062 966.580261230469 965.074096679688 963.449584960938 972.350341796875 982.822631835938 976.001953125 962.97314453125 959.30810546875 948.236572265625 956.880432128906 965.650939941406 965.682678222656 974.689392089844 976.490234375 966.048889160156 964.606628417969 967.462646484375 967.007446289062 968.343444824219 963.184448242188 960.379699707031 955.936706542969 961.02294921875 958.2724609375 962.382263183594 954.851257324219 955.632019042969 955.771118164062 960.154357910156 953.447937011719 953.671813964844 956.530639648438 959.539245605469 958.69873046875 951.651306152344 961.719848632812 961.191467285156 954.305603027344 953.989013671875 957.561767578125 957.096313476562 952.769897460938 956.857849121094 957.920471191406 952.451293945312 949.7138671875 947.37939453125 952.452880859375 948.106811523438 950.091003417969 948.241760253906 951.780212402344 960.236083984375 956.073059082031 948.59423828125 956.47900390625 949.140075683594 961.934631347656 960.446228027344 950.23828125 960.926574707031 958.98583984375 955.287780761719 957.218017578125 950.671569824219 961.718139648438 962.3720703125 950.413696289062 966.827697753906 971.013793945312 965.168884277344 963.981567382812 955.295288085938 962.781799316406 957.916625976562 957.950805664062 962.562255859375 970.419738769531 970.40185546875 964.427673339844 964.516479492188 968.557922363281 968.327453613281 977.176574707031 967.942443847656 966.845947265625 977.688110351562 973.819519042969 977.860900878906 970.253784179688 974.684692382812 972.191955566406 978.891723632812 972.554809570312 971.04638671875 970.794128417969 978.603820800781 983.409301757812 978.533813476562 982.16796875 980.186706542969 979.60693359375 981.231262207031 983.511779785156 981.466430664062 975.690551757812 970.072082519531 971.149536132812 993.708801269531 1006.24365234375 1002.34558105469 988.192810058594 994.651977539062 1001.52386474609 994.042785644531 996.980041503906 998.432006835938 1001.72088623047 1010.95703125 1004.23669433594 1004.95855712891 1002.53088378906 1010.67614746094 1014.92254638672 1016.43328857422 1019.69915771484 1029.32727050781 1039.12707519531 1040.63415527344 1054.37341308594 1055.64538574219 1071.876953125 1072.2666015625 1070.8466796875 1086.61120605469 1078.64306640625 1084.31921386719 1081.74523925781 1076.85949707031 1075.79089355469 1061.98645019531 1046.53198242188 1047.40368652344 1052.80615234375 1062.36755371094 1060.44177246094 1066.09313964844 1080.78930664062 1081.98193359375
974.075317382812 966.242614746094 961.795593261719 968.419799804688 972.752563476562 982.131896972656 971.719482421875 961.871948242188 960.256164550781 952.824035644531 952.899841308594 954.608825683594 953.949890136719 964.01904296875 974.176574707031 970.467102050781 966.24072265625 964.039733886719 962.96484375 962.832946777344 955.995971679688 959.884094238281 956.838562011719 956.691528320312 954.942016601562 957.946899414062 957.95068359375 952.50439453125 957.529174804688 952.533020019531 948.620849609375 953.496948242188 958.124450683594 960.550720214844 956.983276367188 949.075561523438 947.946533203125 959.731323242188 955.68115234375 954.027221679688 953.158569335938 951.041381835938 954.6728515625 959.456604003906 954.175476074219 953.859252929688 954.858642578125 955.208251953125 953.728332519531 950.199829101562 953.825012207031 949.093566894531 958.720581054688 952.183654785156 952.684753417969 958.096130371094 950.446472167969 949.336120605469 951.954956054688 957.078552246094 943.127014160156 949.543273925781 951.623352050781 955.837158203125 956.323913574219 957.609497070312 956.838623046875 965.096374511719 953.482055664062 962.668518066406 973.127746582031 961.367431640625 956.138488769531 956.626037597656 949.456848144531 948.790710449219 954.865844726562 964.225219726562 959.442687988281 961.470092773438 963.82177734375 967.74365234375 964.900634765625 967.469970703125 971.459289550781 978.219055175781 971.242492675781 970.385192871094 982.899780273438 972.454956054688 975.319152832031 982.097290039062 985.253540039062 976.63134765625 975.282531738281 980.527587890625 980.332946777344 985.278442382812 978.129089355469 980.632080078125 975.75830078125 983.160461425781 983.190002441406 982.550476074219 982.409545898438 991.900329589844 987.055358886719 985.839172363281 981.021179199219 988.509826660156 999.243103027344 1002.38751220703 1000.03631591797 993.595092773438 999.057800292969 991.752380371094 992.5654296875 1000.28887939453 1000.38061523438 1001.6357421875 1003.5927734375 1011.63702392578 1017.66931152344 1013.92260742188 1019.86022949219 1016.55053710938 1022.31024169922 1030.06726074219 1040.23449707031 1041.55029296875 1047.50354003906 1064.36608886719 1061.43591308594 1070.07897949219 1079.19360351562 1076.89270019531 1074.36657714844 1073.66540527344 1076.49914550781 1065.64038085938 1057.66955566406 1048.44775390625 1048.53381347656 1035.89343261719 1039.45056152344 1055.26208496094 1050.9375 1050.58752441406 1062.27575683594 1070.40795898438
977.574768066406 972.310791015625 965.560668945312 972.859436035156 979.762573242188 972.192077636719 967.164733886719 947.625366210938 959.718078613281 956.375427246094 951.624877929688 949.723327636719 953.157836914062 955.476501464844 960.429016113281 970.054321289062 964.886657714844 965.913330078125 964.935424804688 954.018859863281 955.780639648438 947.149658203125 960.9775390625 955.251525878906 952.483337402344 950.312744140625 952.242492675781 953.737609863281 952.525329589844 956.825500488281 953.7138671875 960.848388671875 952.775268554688 947.522644042969 953.847778320312 943.918701171875 947.477355957031 948.722351074219 948.598571777344 954.39697265625 950.957641601562 954.546997070312 944.932067871094 949.612854003906 944.530151367188 957.444213867188 954.205810546875 956.221130371094 958.043701171875 953.684997558594 946.949157714844 951.300231933594 949.955871582031 955.040954589844 952.028442382812 954.296630859375 957.986999511719 955.453125 964.162475585938 963.174438476562 957.214172363281 960.271240234375 953.19482421875 952.88134765625 954.770324707031 964.301940917969 963.29638671875 967.245483398438 964.384094238281 962.830200195312 965.075378417969 955.350036621094 950.685302734375 960.472351074219 954.58740234375 951.03759765625 960.311950683594 961.20166015625 964.069213867188 964.009887695312 959.062133789062 967.030822753906 960.414916992188 971.036376953125 969.951171875 971.685180664062 969.729064941406 959.818359375 977.508056640625 976.579650878906 975.450317382812 975.136352539062 980.771362304688 979.649597167969 983.685241699219 974.758422851562 979.561462402344 979.651611328125 976.765991210938 980.903686523438 988.449890136719 985.226135253906 976.777587890625 981.131103515625 981.175964355469 984.415588378906 980.388549804688 980.933837890625 990.305053710938 983.530029296875 1001.64202880859 1002.03179931641 994.251037597656 997.839111328125 1004.31591796875 1001.22326660156 997.292846679688 1000.74444580078 1002.95452880859 1004.32629394531 997.487243652344 1006.30157470703 1007.19873046875 1011.16143798828 1016.46697998047 1018.2197265625 1020.50616455078 1020.93469238281 1031.81481933594 1046.17126464844 1054.54162597656 1058.96057128906 1065.88073730469 1065.92114257812 1069.77758789062 1077.96606445312 1069.68322753906 1069.5107421875 1065.99499511719 1062.61950683594 1049.67797851562 1040.89294433594 1034.33618164062 1037.54577636719 1036.18322753906 1045.1162109375 1048.73950195312 1049.29248046875 1053.61962890625 1061.80017089844
969.686706542969 972.526672363281 980.965515136719 975.574340820312 976.756652832031 977.455810546875 963.40771484375 960.480651855469 961.197509765625 956.325988769531 938.836791992188 953.783630371094 957.403381347656 951.690002441406 962.122314453125 966.36083984375 964.446960449219 962.234313964844 959.717407226562 954.55419921875 956.749572753906 948.742309570312 952.17529296875 947.668518066406 950.109558105469 948.855651855469 946.348510742188 948.195617675781 950.828369140625 952.85498046875 953.293212890625 948.644714355469 952.818420410156 954.466979980469 951.479309082031 946.148132324219 950.042175292969 946.564392089844 942.930969238281 953.919250488281 947.017700195312 947.191101074219 938.029846191406 947.246520996094 952.830200195312 951.930786132812 958.125610351562 956.214294433594 959.070434570312 952.38232421875 952.423706054688 952.754943847656 953.440979003906 952.429382324219 959.87890625 956.688903808594 960.344299316406 963.110046386719 966.067687988281 967.013427734375 967.351318359375 956.535339355469 951.543518066406 942.545288085938 948.222900390625 959.243041992188 960.482604980469 959.720947265625 959.818054199219 967.498596191406 961.339233398438 958.546142578125 960.975341796875 963.032531738281 955.417175292969 951.657775878906 966.689819335938 961.277099609375 962.566345214844 966.440246582031 954.468383789062 966.673828125 960.212646484375 967.868103027344 975.0390625 974.98291015625 969.445617675781 961.775207519531 968.180603027344 972.778259277344 972.962707519531 973.103698730469 975.981567382812 976.859130859375 972.013122558594 978.320373535156 978.507202148438 974.325012207031 978.088500976562 979.472106933594 974.7841796875 979.917724609375 987.537414550781 984.244140625 984.417175292969 977.664733886719 984.880187988281 972.402526855469 989.98388671875 994.01123046875 997.260986328125 1001.16076660156 1000.38226318359 1002.57403564453 1009.83483886719 1006.78277587891 1008.80920410156 1014.22247314453 1010.94769287109 1015.02478027344 1000.68676757812 999.77294921875 1005.27380371094 1009.73205566406 1014.50347900391 1017.73571777344 1015.90832519531 1019.17718505859 1032.65124511719 1045.7353515625 1052.69323730469 1057.80151367188 1053.64916992188 1070.68823242188 1073.66967773438 1074.95056152344 1066.24365234375 1051.73193359375 1052.4970703125 1049.23559570312 1045.85241699219 1034.29809570312 1027.0166015625 1030.32824707031 1034.38952636719 1050.08374023438 1047.81140136719 1046.70739746094 1050.44470214844 1051.14880371094
973.34765625 972.437927246094 981.681701660156 979.573303222656 983.853942871094 972.32470703125 968.195861816406 966.499877929688 970.172546386719 964.178588867188 949.576599121094 945.057189941406 948.227966308594 950.178405761719 962.903564453125 967.552001953125 957.979370117188 961.708923339844 958.628784179688 964.492309570312 953.301940917969 951.872741699219 944.354431152344 942.801635742188 944.944213867188 949.867797851562 942.037048339844 939.374755859375 946.893798828125 953.600708007812 952.380554199219 951.005798339844 951.065307617188 956.944030761719 956.123413085938 949.423522949219 949.715515136719 958.895935058594 950.295837402344 944.79931640625 950.116943359375 945.113525390625 935.347229003906 939.75732421875 945.771118164062 951.092590332031 952.879211425781 965.491149902344 965.11962890625 962.673950195312 956.126159667969 952.888122558594 948.441284179688 951.754333496094 954.320678710938 956.519287109375 963.229553222656 969.991149902344 966.471008300781 964.68603515625 970.2294921875 961.5244140625 951.48388671875 951.216918945312 954.31298828125 953.515991210938 962.7197265625 966.669616699219 966.381042480469 967.709045410156 965.057556152344 967.134948730469 969.127746582031 975.426574707031 955.255249023438 954.136169433594 962.0400390625 964.091247558594 958.563659667969 957.709533691406 958.2109375 969.565002441406 958.547790527344 968.334106445312 968.585876464844 968.993347167969 974.604675292969 971.758911132812 973.010009765625 977.786804199219 970.279968261719 974.3759765625 971.481994628906 971.830993652344 979.352722167969 979.101013183594 971.28857421875 969.917358398438 977.383239746094 983.37451171875 981.915588378906 989.886657714844 985.665893554688 982.975036621094 984.684265136719 978.612365722656 982.200073242188 984.093627929688 982.900085449219 986.113830566406 987.858276367188 1003.51928710938 1012.29241943359 1020.13330078125 1017.99310302734 1013.52917480469 1012.38751220703 1009.97454833984 1006.25360107422 1003.42816162109 1000.42120361328 1003.64398193359 1008.56213378906 1011.42572021484 1008.62530517578 1017.86138916016 1017.80700683594 1018.56555175781 1029.345703125 1049.35363769531 1059.71081542969 1053.79968261719 1056.8212890625 1056.04309082031 1063.40979003906 1066.30505371094 1056.24243164062 1052.22326660156 1049.49011230469 1043.34790039062 1029.63037109375 1028.14575195312 1037.31762695312 1036.26379394531 1032.61340332031 1033.92504882812 1030.93603515625 1032.18395996094 1033.17468261719 1041.49011230469
965.2216796875 967.09423828125 966.778564453125 978.970581054688 977.874389648438 975.554077148438 971.951416015625 966.782592773438 966.734313964844 965.423461914062 955.664306640625 953.758361816406 948.840454101562 957.569458007812 960.1337890625 950.802551269531 955.675415039062 959.385192871094 962.106567382812 960.12451171875 943.694213867188 948.017395019531 943.294738769531 942.99853515625 942.012817382812 946.975891113281 946.652221679688 937.823364257812 936.731018066406 943.056945800781 956.552001953125 959.934020996094 964.567626953125 954.299377441406 955.203369140625 954.194946289062 947.122009277344 945.814758300781 949.136413574219 946.391906738281 947.746032714844 948.758666992188 947.835083007812 940.274536132812 946.966552734375 946.87841796875 964.942077636719 968.171813964844 970.430969238281 966.442260742188 960.61962890625 947.510375976562 952.224487304688 948.498107910156 956.89892578125 965.396057128906 971.724792480469 976.939147949219 973.362731933594 964.913208007812 962.957153320312 966.816101074219 961.067138671875 966.326904296875 961.233703613281 961.942199707031 959.154541015625 970.67919921875 963.598571777344 974.960510253906 965.316223144531 974.255126953125 965.7294921875 969.459289550781 957.9755859375 961.884704589844 962.6025390625 963.114013671875 963.505310058594 965.474670410156 969.425964355469 981.085693359375 974.155883789062 971.817626953125 973.100219726562 968.214538574219 972.88720703125 978.60888671875 981.126892089844 973.887268066406 973.892944335938 979.622924804688 970.324401855469 975.376770019531 973.3212890625 974.799560546875 981.474609375 981.344787597656 979.391723632812 988.342346191406 987.229736328125 1003.60583496094 1002.22534179688 990.564697265625 988.417724609375 989.348693847656 993.545532226562 988.273620605469 991.308898925781 988.055603027344 995.804626464844 1001.35711669922 1019.39978027344 1025.03491210938 1026.19653320312 1024.4287109375 1019.61865234375 1019.51184082031 1012.22943115234 1009.50567626953 1016.44586181641 1025.93237304688 1022.43908691406 1010.87188720703 1011.91796875 1012.34606933594 1003.037109375 1009.38696289062 1017.32781982422 1033.12463378906 1047.11645507812 1046.79150390625 1043.37585449219 1053.39001464844 1059.73266601562 1056.94104003906 1050.1171875 1051.46118164062 1044.85021972656 1041.26879882812 1031.20141601562 1032.87170410156 1032.38842773438 1031.74597167969 1027.84045410156 1027.40148925781 1021.48406982422 1027.63684082031 1024.13952636719 1033.12768554688
963.009887695312 965.437561035156 961.663757324219 966.246948242188 967.040466308594 968.86669921875 974.415466308594 966.0966796875 962.9228515625 960.86669921875 954.559448242188 948.588745117188 949.810363769531 952.596862792969 947.623901367188 939.724853515625 950.285583496094 956.65673828125 950.200927734375 945.656005859375 941.353576660156 943.156005859375 939.086608886719 943.849731445312 948.649353027344 945.980834960938 940.303466796875 929.660095214844 935.008911132812 938.965637207031 946.077575683594 951.203247070312 955.964965820312 949.918273925781 955.497497558594 958.919921875 951.498962402344 942.140808105469 946.771545410156 949.143005371094 940.84912109375 948.066772460938 942.302978515625 937.993835449219 945.496704101562 948.695556640625 950.618469238281 958.514404296875 968.239624023438 972.865112304688 964.404052734375 954.027709960938 956.672302246094 949.752136230469 956.254333496094 960.195129394531 961.685913085938 974.277770996094 971.955505371094 972.25 972.758666992188 973.494995117188 969.765380859375 962.322631835938 961.114807128906 964.811767578125 956.698486328125 953.073791503906 967.695739746094 971.547912597656 968.161010742188 973.626342773438 970.234558105469 967.937072753906 967.816955566406 972.76123046875 962.516723632812 956.421081542969 970.414794921875 977.284301757812 974.231506347656 975.926452636719 976.154907226562 981.716430664062 978.382995605469 972.749084472656 976.579345703125 980.925659179688 979.590576171875 982.218688964844 971.063293457031 975.745483398438 970.861877441406 971.297302246094 967.812377929688 975.3642578125 981.705139160156 982.234985351562 983.556884765625 988.033630371094 993.584045410156 999.065673828125 998.3330078125 998.112548828125 1000.30651855469 995.54150390625 983.98046875 984.972412109375 987.704528808594 989.610778808594 984.424072265625 1003.14532470703 1017.67858886719 1027.13439941406 1019.21154785156 1014.67059326172 1021.03179931641 1022.92083740234 1026.61743164062 1005.88751220703 1016.99475097656 1023.42883300781 1028.29016113281 1020.04486083984 1023.44421386719 1019.57525634766 998.519714355469 1011.41265869141 1017.06915283203 1027.75817871094 1031.671875 1033.55480957031 1040.85791015625 1043.60607910156 1049.36975097656 1046.81042480469 1042.51049804688 1040.92468261719 1040.44897460938 1041.65832519531 1041.48791503906 1034.84716796875 1042.02844238281 1035.04809570312 1025.20739746094 1018.26507568359 1026.62927246094 1024.89245605469 1021.99810791016 1021.24652099609
967.645874023438 961.623291015625 960.70947265625 955.617919921875 967.027770996094 963.518798828125 956.822509765625 963.490295410156 963.584594726562 956.013244628906 954.134033203125 946.951904296875 950.365661621094 940.871520996094 946.267456054688 941.484924316406 949.42333984375 950.16162109375 945.852966308594 944.565185546875 946.843872070312 944.009643554688 938.825256347656 940.902893066406 949.647216796875 943.526000976562 932.767883300781 931.790893554688 945.552673339844 940.259399414062 944.994079589844 945.288146972656 946.5859375 951.265441894531 947.464050292969 950.422485351562 950.060791015625 950.790222167969 949.464599609375 949.641235351562 946.155700683594 940.231811523438 940.040100097656 950.612670898438 946.117980957031 951.589599609375 959.670532226562 954.115783691406 969.515747070312 971.677673339844 966.862426757812 966.635620117188 961.78271484375 957.929748535156 955.857177734375 958.213256835938 958.621948242188 959.438415527344 969.833129882812 968.725036621094 976.428039550781 966.989807128906 964.483947753906 961.947204589844 960.305236816406 963.333801269531 960.197570800781 963.753967285156 965.211120605469 964.567016601562 966.200012207031 977.0693359375 983.846252441406 980.581909179688 972.887878417969 969.655822753906 958.011169433594 960.974670410156 965.902404785156 975.004638671875 978.764465332031 984.142761230469 982.2109375 984.650024414062 980.684753417969 975.709106445312 976.797668457031 979.839721679688 979.554748535156 983.924377441406 972.349426269531 974.278869628906 970.835754394531 973.789916992188 974.034606933594 977.815185546875 986.585754394531 985.845947265625 983.470947265625 993.800170898438 991.737060546875 993.982788085938 1001.88897705078 1002.61145019531 1009.16979980469 1002.35699462891 980.333129882812 988.78759765625 993.891845703125 994.029418945312 1000.52752685547 1005.04327392578 1016.61657714844 1025.36254882812 1025.08068847656 1021.02362060547 1023.19952392578 1029.78845214844 1027.84313964844 1026.46215820312 1029.23999023438 1026.96337890625 1037.65893554688 1027.31042480469 1025.16345214844 1019.92529296875 1011.10699462891 1007.43731689453 1016.17468261719 1020.07751464844 1019.96142578125 1030.32983398438 1041.80908203125 1048.04382324219 1041.16052246094 1039.99780273438 1031.33483886719 1036.0654296875 1046.0625 1041.14562988281 1032.03588867188 1030.89868164062 1029.927734375 1026.09851074219 1020.06896972656 1017.61938476562 1020.9130859375 1018.48968505859 1017.00665283203 1007.20355224609
959.712951660156 955.72607421875 953.799499511719 955.302307128906 954.912048339844 959.222351074219 955.120910644531 955.032531738281 945.502685546875 942.924194335938 952.335510253906 951.624206542969 951.168334960938 940.436706542969 951.231567382812 941.780578613281 945.236877441406 941.368041992188 943.14599609375 953.14306640625 938.826965332031 936.181213378906 932.470031738281 938.2197265625 947.172668457031 941.489013671875 939.690185546875 943.915161132812 947.952392578125 949.618286132812 953.327270507812 956.238708496094 950.681091308594 945.949096679688 945.188598632812 940.293640136719 949.701171875 958.020751953125 945.943725585938 949.17724609375 957.826354980469 957.579284667969 955.794189453125 956.735656738281 955.297058105469 953.10205078125 949.367065429688 961.572326660156 972.923034667969 975.72509765625 979.581420898438 969.801208496094 959.780700683594 967.127014160156 970.784057617188 960.518127441406 957.825805664062 965.822387695312 971.056091308594 975.748474121094 978.848388671875 976.158020019531 966.552673339844 970.321533203125 965.030090332031 959.074829101562 966.662780761719 969.818176269531 968.696594238281 972.925598144531 974.261474609375 973.602294921875 977.340209960938 974.095397949219 971.970031738281 969.626098632812 957.098266601562 965.068481445312 969.674499511719 972.5458984375 984.256591796875 985.145446777344 980.39013671875 982.087463378906 981.569030761719 985.145690917969 975.873718261719 979.393615722656 976.003967285156 979.874328613281 973.173400878906 969.747375488281 973.662841796875 977.456970214844 979.528381347656 980.687683105469 986.220458984375 982.480224609375 986.391357421875 989.030578613281 992.180419921875 988.877563476562 992.315490722656 994.371154785156 1000.93603515625 995.238586425781 999.601440429688 993.263305664062 996.207336425781 999.0947265625 1000.84954833984 1011.05700683594 1016.18829345703 1018.42919921875 1019.2783203125 1026.14172363281 1022.56817626953 1033.36584472656 1033.82153320312 1027.11804199219 1029.92260742188 1036.03308105469 1035.24694824219 1033.40808105469 1028.82446289062 1020.73870849609 1013.71923828125 1014.24322509766 1020.82769775391 1022.74670410156 1023.17120361328 1027.6640625 1043.87512207031 1045.00500488281 1045.24255371094 1037.17053222656 1030.97436523438 1030.92651367188 1035.9853515625 1030.33459472656 1025.63171386719 1026.41345214844 1026.54553222656 1019.22344970703 1016.95220947266 1012.28845214844 1011.81555175781 1020.21484375 1013.44012451172 1008.38928222656
950.006286621094 946.328735351562 963.549682617188 962.28076171875 956.925170898438 949.612609863281 956.965454101562 950.42333984375 944.860290527344 942.818603515625 942.94482421875 952.994201660156 956.369689941406 955.459106445312 942.791687011719 945.366516113281 936.68017578125 945.153991699219 942.929504394531 941.859497070312 935.492553710938 936.787048339844 941.457214355469 948.601196289062 947.743225097656 949.183654785156 950.718566894531 952.882751464844 953.714599609375 949.714904785156 957.254272460938 961.79248046875 947.366394042969 943.085693359375 948.886657714844 956.026062011719 950.220520019531 964.206298828125 953.285217285156 954.154052734375 956.051147460938 960.427368164062 956.803955078125 963.577697753906 957.240173339844 956.521423339844 962.525024414062 966.733276367188 971.153747558594 983.910522460938 982.091125488281 981.294555664062 971.542541503906 966.3369140625 972.669372558594 968.985229492188 967.096313476562 970.133850097656 969.445007324219 972.668029785156 985.553405761719 979.962890625 974.339782714844 971.014282226562 971.32373046875 969.415466308594 948.989074707031 966.067138671875 969.821411132812 971.968017578125 982.788757324219 975.567749023438 979.146606445312 984.627258300781 981.260681152344 978.6318359375 966.949523925781 973.005493164062 977.40185546875 977.539978027344 980.412109375 980.566772460938 972.270751953125 976.321838378906 982.037414550781 974.622314453125 979.968078613281 981.167785644531 981.553039550781 968.54736328125 973.271789550781 974.5107421875 982.609191894531 986.233093261719 988.686828613281 998.448547363281 991.221313476562 987.50439453125 988.066345214844 989.958190917969 991.714660644531 986.244934082031 987.708801269531 990.772338867188 981.715209960938 986.260375976562 993.905029296875 1002.27410888672 1004.39978027344 999.947509765625 1001.30895996094 1008.42620849609 1011.90570068359 1019.46740722656 1016.23785400391 1021.97088623047 1029.82739257812 1037.9228515625 1028.55773925781 1029.84997558594 1036.29956054688 1040.82666015625 1029.87219238281 1034.81799316406 1037.25744628906 1025.12316894531 1014.60278320312 1018.66009521484 1029.61901855469 1025.27697753906 1022.05511474609 1020.13153076172 1036.61303710938 1038.3134765625 1039.93395996094 1031.82592773438 1029.44860839844 1029.56872558594 1024.13500976562 1030.59741210938 1025.75061035156 1029.994140625 1028.5087890625 1024.81774902344 1018.26171875 1013.20581054688 1014.42962646484 1018.73876953125 1007.513671875 1000.22216796875
950.771179199219 944.839782714844 946.548034667969 949.31005859375 942.425598144531 941.677612304688 943.297302246094 944.501831054688 937.797912597656 939.200134277344 934.303833007812 944.914733886719 950.606872558594 950.1455078125 944.227722167969 940.818481445312 940.191345214844 935.94580078125 947.679077148438 942.465637207031 942.718994140625 947.844421386719 939.70068359375 944.17626953125 953.3603515625 948.780944824219 950.672607421875 952.665771484375 960.472473144531 963.908264160156 962.58642578125 960.750854492188 949.873291015625 949.671203613281 954.832885742188 960.237487792969 953.139770507812 960.307312011719 961.344299316406 965.956848144531 966.25634765625 968.828979492188 964.1142578125 955.527526855469 954.505065917969 952.817504882812 966.782409667969 976.485046386719 976.197631835938 988.846801757812 989.450439453125 994.652221679688 968.310302734375 971.682861328125 973.000732421875 969.181701660156 968.011962890625 965.602478027344 971.521545410156 979.113037109375 980.394226074219 972.839599609375 968.859680175781 962.910095214844 960.643493652344 964.541625976562 959.905639648438 961.167724609375 964.784973144531 966.752197265625 979.531311035156 978.895263671875 987.0927734375 990.413208007812 983.963745117188 984.575378417969 975.648132324219 970.093688964844 970.626586914062 980.183959960938 984.494812011719 981.421813964844 976.60498046875 976.030029296875 986.405883789062 982.021667480469 989.986083984375 987.655700683594 983.717651367188 974.367919921875 975.386535644531 975.2060546875 981.108520507812 984.162536621094 988.127319335938 997.876831054688 990.339904785156 992.831176757812 986.513061523438 990.2275390625 988.173950195312 987.85009765625 990.507446289062 985.892395019531 986.781494140625 987.590637207031 1001.41082763672 1014.42218017578 1008.34582519531 1005.22625732422 1010.40484619141 1018.73278808594 1012.40606689453 1021.41778564453 1022.54669189453 1022.45025634766 1026.15832519531 1033.58459472656 1036.80456542969 1039.84851074219 1036.84851074219 1033.02966308594 1037.07153320312 1034.13403320312 1028.01379394531 1024.8779296875 1018.87298583984 1023.83428955078 1020.15765380859 1025.05493164062 1021.93957519531 1023.83819580078 1036.62023925781 1036.58251953125 1035.77758789062 1031.2529296875 1018.89385986328 1021.20092773438 1021.85198974609 1020.23211669922 1026.486328125 1023.27087402344 1019.72784423828 1028.52758789062 1014.50122070312 1010.78259277344 1001.55981445312 1009.61566162109 995.964416503906 993.547058105469
955.462463378906 953.04833984375 943.237854003906 945.838500976562 941.853149414062 940.236022949219 940.9736328125 937.122497558594 939.513977050781 934.49658203125 942.478820800781 941.912170410156 941.071105957031 950.423950195312 954.102844238281 951.33642578125 950.393310546875 957.816467285156 955.925048828125 950.427490234375 947.57177734375 945.895935058594 946.434448242188 940.869201660156 948.904968261719 953.712646484375 953.208129882812 956.981323242188 972.607421875 969.921691894531 967.429748535156 960.081481933594 956.018676757812 965.635925292969 955.819030761719 957.598388671875 954.945678710938 949.39697265625 955.126586914062 963.792114257812 971.718200683594 971.279846191406 961.573852539062 956.959167480469 955.023864746094 961.08935546875 964.514709472656 979.467529296875 983.688171386719 986.703186035156 984.828796386719 992.269409179688 974.972045898438 976.715148925781 976.273315429688 970.507446289062 958.756164550781 966.733154296875 976.819763183594 969.744445800781 972.334350585938 971.627746582031 970.018310546875 967.711059570312 965.683410644531 967.079284667969 969.317138671875 970.875854492188 966.833801269531 969.687622070312 970.557495117188 977.900268554688 991.619140625 982.852294921875 985.732116699219 976.406860351562 969.989074707031 980.173400878906 977.329040527344 983.763122558594 986.661376953125 979.127624511719 982.244750976562 980.423645019531 982.188293457031 978.692016601562 986.286987304688 987.452697753906 975.587158203125 974.365112304688 974.870239257812 972.900085449219 974.756958007812 985.219543457031 987.721557617188 993.000305175781 985.552551269531 999.1201171875 985.496887207031 987.449035644531 981.610717773438 985.491027832031 986.003784179688 983.818969726562 993.918212890625 1004.19525146484 1016.12872314453 1017.24859619141 1020.4970703125 1012.85729980469 1017.42645263672 1020.03155517578 1020.89477539062 1024.21618652344 1029.4638671875 1035.68395996094 1044.40405273438 1042.18676757812 1038.69250488281 1038.02685546875 1043.34692382812 1045.44201660156 1044.93017578125 1032.50073242188 1029.75231933594 1024.68530273438 1016.40771484375 1022.9267578125 1026.21618652344 1014.49835205078 1013.28668212891 1027.95593261719 1030.05920410156 1022.62738037109 1014.01617431641 1020.01794433594 1026.42993164062 1022.59655761719 1024.42138671875 1022.51971435547 1019.93127441406 1022.78381347656 1020.70184326172 1017.78173828125 1011.73333740234 1004.84674072266 1005.55212402344 1001.57830810547 997.474914550781 986.268432617188
955.487121582031 947.121887207031 950.448059082031 950.282958984375 947.947326660156 935.625366210938 935.422485351562 933.103210449219 932.987548828125 946.142761230469 951.271606445312 950.281494140625 949.65673828125 953.058471679688 961.932250976562 966.329467773438 961.04443359375 958.997436523438 954.697021484375 949.07275390625 948.501831054688 950.372741699219 958.108093261719 956.257263183594 958.225952148438 957.447692871094 954.07763671875 957.329650878906 970.404418945312 970.048278808594 964.490356445312 964.044799804688 953.341613769531 955.557434082031 956.444152832031 963.844299316406 957.076904296875 955.619262695312 968.491882324219 972.553833007812 971.468811035156 971.581970214844 971.980407714844 958.171203613281 958.711975097656 974.234069824219 985.316955566406 987.160095214844 982.330505371094 982.081298828125 979.001220703125 986.980041503906 985.595275878906 982.134826660156 982.784240722656 973.555847167969 976.159362792969 975.109252929688 970.794616699219 971.621948242188 972.332946777344 975.474487304688 970.328979492188 966.693969726562 965.242004394531 960.237182617188 972.963073730469 980.631958007812 972.736206054688 973.399658203125 975.382568359375 984.106140136719 985.191589355469 985.141784667969 986.461364746094 978.152221679688 977.985961914062 986.684936523438 984.817443847656 978.476684570312 985.164367675781 982.906433105469 978.29736328125 976.845336914062 976.60205078125 980.900329589844 982.418762207031 983.345520019531 975.474670410156 976.7392578125 968.701477050781 967.562438964844 968.466491699219 979.887390136719 987.239929199219 990.368469238281 994.732727050781 989.499816894531 981.469116210938 986.751525878906 992.1025390625 988.504516601562 988.940368652344 991.75244140625 996.034973144531 999.481628417969 1004.57092285156 1008.54180908203 1021.57592773438 1023.13751220703 1024.298828125 1026.89428710938 1029.42150878906 1029.61193847656 1033.58374023438 1038.21862792969 1054.31726074219 1051.4384765625 1040.08068847656 1034.25170898438 1042.84582519531 1046.41223144531 1042.341796875 1039.37854003906 1029.29052734375 1031.05688476562 1021.80316162109 1013.52935791016 1022.28472900391 1020.38946533203 1018.36437988281 1023.08959960938 1019.53991699219 1028.3232421875 1018.01733398438 1022.11700439453 1021.13458251953 1030.287109375 1030.92663574219 1028.447265625 1017.1904296875 1022.41839599609 1010.67156982422 1004.32092285156 998.346984863281 994.111572265625 1003.00665283203 1004.22222900391 999.724609375 994.392578125
950.651306152344 956.128723144531 949.401000976562 952.440856933594 939.088012695312 937.85791015625 943.915100097656 936.565795898438 947.404479980469 957.86328125 953.948425292969 958.733703613281 954.62548828125 969.623718261719 966.401977539062 962.487854003906 963.784606933594 969.920837402344 971.673156738281 968.177490234375 961.252685546875 954.765502929688 960.188171386719 959.335083007812 962.680419921875 959.984558105469 958.91748046875 965.879028320312 971.402709960938 967.712524414062 962.588073730469 965.391845703125 966.675415039062 966.387939453125 966.76611328125 972.727478027344 968.173522949219 975.118713378906 970.506896972656 982.905822753906 964.109680175781 978.163940429688 976.748413085938 972.475280761719 973.32177734375 974.700439453125 989.532348632812 990.687622070312 982.656005859375 980.380187988281 991.102722167969 998.992614746094 995.396179199219 993.52490234375 985.703857421875 982.406860351562 970.949401855469 967.986328125 973.9833984375 972.819152832031 970.623107910156 970.475646972656 973.02685546875 967.695556640625 970.791870117188 972.621215820312 976.764221191406 980.427856445312 977.963317871094 980.212646484375 979.220825195312 985.45751953125 978.28369140625 985.586608886719 983.760131835938 984.245483398438 985.073303222656 978.646057128906 982.574890136719 977.172729492188 981.63623046875 978.527954101562 973.676513671875 979.220397949219 982.789245605469 987.262634277344 990.841064453125 981.785461425781 983.494079589844 971.949584960938 980.378479003906 982.370361328125 975.477783203125 979.992248535156 990.981262207031 988.112365722656 1000.68896484375 991.727722167969 994.618896484375 995.057312011719 996.495971679688 1000.45050048828 997.487365722656 993.805908203125 993.982360839844 1004.39398193359 1002.19012451172 1008.88647460938 1016.70104980469 1026.82446289062 1030.01245117188 1023.9853515625 1032.3134765625 1029.77978515625 1033.96936035156 1036.08056640625 1043.1552734375 1052.8330078125 1060.41418457031 1044.58898925781 1039.85119628906 1042.60998535156 1040.63110351562 1035.47277832031 1037.92443847656 1034.26196289062 1029.87341308594 1017.71295166016 1017.65875244141 1025.16381835938 1015.74884033203 1022.50140380859 1027.80883789062 1025.16955566406 1023.09295654297 1019.58349609375 1022.31072998047 1027.43371582031 1028.30603027344 1020.73553466797 1024.55688476562 1020.7060546875 1011.90655517578 1003.56146240234 992.097045898438 998.861999511719 987.494018554688 992.165283203125 1001.900390625 992.720520019531
954.680725097656 949.2314453125 949.339599609375 942.637451171875 943.426452636719 936.460510253906 935.096801757812 932.774047851562 952.652648925781 959.287414550781 952.824157714844 946.902038574219 950.386047363281 962.209289550781 971.71923828125 967.450134277344 965.564270019531 974.561279296875 976.464111328125 970.420776367188 971.105407714844 968.239318847656 960.791259765625 954.724487304688 958.477416992188 960.273803710938 961.790954589844 962.904479980469 965.335998535156 962.640441894531 961.050415039062 963.707702636719 968.25830078125 980.008666992188 971.750427246094 967.917297363281 973.641845703125 975.224975585938 980.319946289062 986.869934082031 981.6708984375 986.645812988281 983.272583007812 988.096069335938 984.300720214844 984.521728515625 998.680725097656 998.160766601562 995.113098144531 990.958068847656 990.758605957031 988.596252441406 991.1201171875 983.65380859375 984.812622070312 983.650329589844 978.049621582031 977.712280273438 967.451477050781 973.637573242188 968.154174804688 969.433227539062 970.001098632812 969.744995117188 966.687133789062 976.178161621094 981.599609375 980.586364746094 979.353515625 972.188354492188 973.30859375 982.452209472656 983.136657714844 986.407104492188 979.071716308594 983.596862792969 982.860961914062 981.117919921875 979.176574707031 977.051940917969 970.932189941406 971.714172363281 979.599304199219 991.877990722656 988.743591308594 990.072937011719 995.91552734375 991.190124511719 991.351318359375 988.733703613281 976.810668945312 975.48046875 975.22900390625 978.111389160156 984.82666015625 993.632629394531 988.649536132812 998.867736816406 993.830444335938 992.644836425781 995.270385742188 1002.49291992188 1004.17791748047 995.755004882812 1000.21704101562 996.665161132812 1001.38006591797 1005.40069580078 1016.50469970703 1019.95428466797 1017.58349609375 1026.37377929688 1028.54138183594 1032.36083984375 1037.1083984375 1036.05944824219 1039.81750488281 1043.990234375 1043.20666503906 1051.04028320312 1041.51245117188 1032.96313476562 1031.87622070312 1028.00744628906 1037.97973632812 1037.08923339844 1029.39453125 1020.76220703125 1012.17224121094 1019.63348388672 1031.28088378906 1029.22668457031 1017.36553955078 1019.45513916016 1018.69964599609 1019.93402099609 1023.95129394531 1020.89807128906 1028.91345214844 1025.98669433594 1024.0419921875 1014.88372802734 1008.11352539062 1004.51214599609 997.303894042969 998.310180664062 999.089233398438 995.788696289062 990.224609375 999.861694335938
949.430236816406 938.382629394531 937.206298828125 936.584838867188 937.418701171875 932.002868652344 938.837585449219 944.673706054688 952.902099609375 947.802795410156 947.250244140625 953.879333496094 959.23291015625 961.901428222656 973.178894042969 972.706970214844 971.120056152344 972.778869628906 968.756164550781 971.283752441406 967.276916503906 964.412902832031 961.656555175781 956.3125 961.403991699219 966.198181152344 966.58837890625 957.282653808594 961.345886230469 959.674743652344 962.6484375 976.092224121094 975.848937988281 985.314575195312 972.060974121094 971.971862792969 973.120300292969 977.042602539062 977.617004394531 983.028015136719 984.649475097656 992.203063964844 990.2138671875 991.243530273438 985.992126464844 988.466369628906 996.033630371094 998.597900390625 988.691040039062 995.280090332031 992.794616699219 991.807861328125 982.597534179688 986.720703125 985.41015625 988.250854492188 983.469909667969 983.463928222656 973.283142089844 982.802551269531 972.741394042969 971.623474121094 966.903686523438 969.00048828125 972.853759765625 965.83349609375 970.115478515625 984.062133789062 978.44384765625 980.985168457031 975.861206054688 984.741088867188 988.502136230469 988.616760253906 985.397216796875 980.799255371094 989.143371582031 992.111083984375 987.243408203125 976.250305175781 974.303283691406 978.027404785156 979.051635742188 989.687683105469 985.397399902344 995.874084472656 996.272033691406 989.592712402344 989.09716796875 980.424072265625 977.477600097656 974.830749511719 981.54150390625 981.363708496094 981.59716796875 996.379150390625 997.551574707031 990.353210449219 998.088012695312 1002.31732177734 1001.22320556641 1004.98693847656 1010.64099121094 1002.30505371094 998.288208007812 997.467895507812 1003.01452636719 1003.42980957031 1011.95172119141 1022.28973388672 1024.24389648438 1025.79138183594 1020.93322753906 1031.37963867188 1036.99963378906 1035.02709960938 1031.78039550781 1039.99255371094 1037.83728027344 1036.64001464844 1029.82897949219 1030.76892089844 1030.78393554688 1031.34533691406 1029.48669433594 1030.54370117188 1025.53198242188 1014.96032714844 1019.78021240234 1021.57141113281 1023.63305664062 1024.6962890625 1019.35095214844 1020.44201660156 1017.88061523438 1020.89801025391 1017.17156982422 1018.48474121094 1024.65478515625 1029.89819335938 1013.35021972656 1018.1416015625 1001.00439453125 1000.04486083984 1001.78979492188 997.377990722656 993.933959960938 994.769653320312 1001.52587890625 996.057250976562
953.767333984375 936.119934082031 940.340942382812 934.338989257812 937.95849609375 935.329040527344 938.327026367188 941.032348632812 948.371459960938 939.080200195312 946.820129394531 960.219482421875 970.887573242188 974.981506347656 973.072692871094 973.099182128906 973.388244628906 974.076904296875 979.766235351562 973.340393066406 968.94189453125 965.216735839844 968.21875 965.524169921875 965.998474121094 976.652770996094 977.150756835938 965.974548339844 965.1787109375 964.134948730469 973.690490722656 980.487976074219 980.344970703125 984.917602539062 982.36962890625 979.535827636719 972.720031738281 982.840087890625 986.72412109375 978.580932617188 980.272277832031 986.715393066406 997.544189453125 995.73095703125 996.480773925781 993.744689941406 1006.42883300781 1000.21569824219 999.671630859375 995.538269042969 986.482299804688 990.965454101562 982.568054199219 980.315124511719 989.191955566406 992.179748535156 995.997131347656 984.229248046875 977.653564453125 976.501892089844 971.9384765625 971.703552246094 955.600463867188 961.136047363281 965.3896484375 965.25 973.277221679688 976.813354492188 986.737854003906 973.10888671875 980.6455078125 979.958251953125 990.534729003906 986.282287597656 997.594177246094 990.743286132812 991.890563964844 999.480773925781 992.202331542969 983.437133789062 980.744750976562 987.982116699219 993.396728515625 998.12353515625 992.308166503906 990.834655761719 993.902648925781 982.923034667969 986.067565917969 985.263488769531 981.76123046875 976.201354980469 981.171264648438 975.473937988281 979.207702636719 989.237609863281 1002.33068847656 994.929565429688 999.387573242188 1006.79730224609 998.456359863281 999.382446289062 1005.49584960938 1009.96661376953 1008.40203857422 1004.50256347656 1010.20928955078 1014.02728271484 1015.16296386719 1024.34155273438 1032.25939941406 1032.025390625 1029.54467773438 1033.75537109375 1043.13269042969 1031.13000488281 1034.21875 1029.07189941406 1027.36828613281 1031.70373535156 1023.75329589844 1035.72827148438 1027.49755859375 1018.84747314453 1022.26690673828 1024.04663085938 1021.62194824219 1016.70855712891 1014.45715332031 1022.65185546875 1017.10723876953 1020.802734375 1020.07568359375 1017.68731689453 1026.27233886719 1015.10107421875 1017.62939453125 1017.50830078125 1015.30432128906 1013.35125732422 1007.53076171875 1001.12408447266 995.803833007812 1003.71258544922 1000.80450439453 989.464538574219 982.528259277344 990.429443359375 992.082092285156 1001.06842041016
945.472961425781 932.829528808594 929.273376464844 934.966979980469 937.227722167969 931.878356933594 934.106079101562 942.997375488281 944.411254882812 951.141479492188 956.257690429688 962.814880371094 964.894470214844 976.277038574219 975.26220703125 977.901062011719 975.184265136719 979.067687988281 985.196960449219 976.731140136719 973.039489746094 977.319946289062 982.052185058594 975.017822265625 973.301391601562 976.425842285156 987.449645996094 980.47265625 973.313110351562 970.032775878906 975.124755859375 985.240234375 984.587219238281 983.280090332031 980.392333984375 991.673706054688 982.775634765625 984.27978515625 990.934753417969 988.20654296875 994.212585449219 989.115905761719 995.171081542969 998.135559082031 997.692199707031 1007.08258056641 1007.61486816406 1009.34130859375 1004.78948974609 992.174621582031 986.456970214844 984.066528320312 982.468872070312 982.334411621094 988.074157714844 988.47412109375 990.505554199219 977.056579589844 976.893615722656 977.698486328125 980.9189453125 974.146545410156 971.871276855469 971.474060058594 973.398864746094 977.409729003906 984.384216308594 976.912719726562 975.876342773438 984.04736328125 985.138854980469 982.4169921875 998.571472167969 1002.42706298828 1004.50665283203 997.453430175781 1000.97827148438 996.488159179688 989.467468261719 988.408996582031 989.165588378906 993.466247558594 992.461853027344 999.234619140625 995.87646484375 988.682434082031 994.831665039062 989.013977050781 985.70849609375 981.78369140625 977.2939453125 981.8486328125 974.900085449219 982.376098632812 993.150085449219 1000.24682617188 1000.29840087891 996.655029296875 1003.97998046875 1001.55145263672 1008.20422363281 1004.43328857422 1010.88549804688 1011.66888427734 1009.61395263672 1013.66009521484 1011.67083740234 1017.38073730469 1023.25372314453 1019.35827636719 1027.68579101562 1032.96704101562 1034.12451171875 1034.74487304688 1031.52099609375 1024.43420410156 1023.49468994141 1023.56188964844 1030.81811523438 1025.45129394531 1025.65930175781 1030.9677734375 1024.10607910156 1023.27911376953 1016.33245849609 1023.75994873047 1017.40264892578 1014.42736816406 1009.11090087891 1007.88275146484 1012.15454101562 1020.27587890625 1021.65930175781 1019.51159667969 1014.88702392578 1021.01885986328 1018.45874023438 1015.89953613281 1012.08337402344 1004.11010742188 997.231079101562 994.3603515625 985.0185546875 988.10302734375 993.644226074219 987.939147949219 980.5087890625 987.027526855469 997.603759765625 1006.74859619141
941.118041992188 932.878967285156 916.589782714844 929.139038085938 936.807983398438 944.110412597656 942.180908203125 943.6142578125 950.845825195312 960.33154296875 964.08544921875 969.148864746094 970.879333496094 968.081604003906 973.545104980469 983.340026855469 980.4443359375 985.245178222656 978.209838867188 975.054016113281 981.810241699219 987.829956054688 980.912780761719 988.797668457031 982.900512695312 981.124938964844 981.034118652344 981.644226074219 972.572570800781 976.734985351562 981.433898925781 982.683471679688 984.068542480469 981.096435546875 980.979187011719 994.300476074219 981.484680175781 980.713989257812 986.775512695312 990.449645996094 996.402770996094 993.662109375 995.656494140625 1006.98614501953 1009.96148681641 1009.81921386719 1009.75091552734 1019.13592529297 1006.86657714844 999.232666015625 990.853637695312 988.657348632812 984.736755371094 984.797424316406 983.118225097656 984.266235351562 979.130676269531 982.328552246094 979.2880859375 973.861083984375 971.344055175781 967.60009765625 977.692626953125 969.9072265625 975.482421875 978.739135742188 977.590393066406 975.748901367188 975.228881835938 983.322692871094 978.655456542969 981.699951171875 991.860168457031 1010.20428466797 1003.06201171875 1000.87145996094 1008.62200927734 1007.49432373047 993.603698730469 992.090026855469 1005.04455566406 999.737670898438 992.76123046875 987.438232421875 993.552185058594 997.080200195312 999.504272460938 992.90478515625 991.69775390625 989.928649902344 984.90234375 973.737182617188 977.2900390625 984.452819824219 990.416748046875 996.545593261719 996.842529296875 1003.8896484375 999.8466796875 1002.228515625 1007.15142822266 1015.2216796875 1013.85205078125 1017.74359130859 1015.35723876953 1009.58685302734 1015.39031982422 1027.77709960938 1030.021484375 1032.98315429688 1031.89086914062 1030.06616210938 1035.58996582031 1034.47509765625 1020.50500488281 1013.70397949219 1016.24053955078 1017.11053466797 1021.7607421875 1028.20678710938 1026.70129394531 1025.90319824219 1027.38647460938 1021.94476318359 1023.77600097656 1019.85430908203 1014.86370849609 1005.73620605469 1004.27319335938 1004.86492919922 999.239990234375 1012.27258300781 1014.86309814453 1016.72998046875 1011.03411865234 1018.16955566406 1022.54541015625 1021.23602294922 1008.73547363281 995.550476074219 982.018981933594 982.453002929688 979.118774414062 991.439453125 989.390563964844 979.439514160156 974.430725097656 988.751281738281 1001.25134277344 1009.39410400391
932.936950683594 935.330749511719 934.550659179688 938.594055175781 937.648254394531 949.563537597656 950.790100097656 950.977111816406 953.434387207031 960.617431640625 969.196533203125 972.273742675781 971.431518554688 981.226440429688 972.589294433594 977.275146484375 982.928833007812 981.474609375 981.159973144531 976.110595703125 987.443481445312 993.862060546875 996.265197753906 989.105773925781 994.768249511719 986.429565429688 985.583251953125 984.992919921875 978.92822265625 967.468872070312 974.676025390625 978.178039550781 990.045532226562 982.082336425781 984.525024414062 988.259399414062 988.171936035156 993.951416015625 995.898010253906 1001.55230712891 1012.13641357422 1002.10833740234 1006.06536865234 1015.98046875 1009.99987792969 1013.24011230469 1006.74792480469 1006.89056396484 1008.54693603516 1008.47680664062 1004.43682861328 995.963623046875 991.530090332031 989.342590332031 984.5244140625 975.338562011719 980.059814453125 985.890319824219 979.253356933594 969.9736328125 972.104370117188 978.30322265625 972.996887207031 969.71484375 967.238952636719 976.035583496094 975.449401855469 978.658752441406 977.873657226562 987.588684082031 983.494384765625 982.55029296875 989.449279785156 998.933349609375 1007.35284423828 1007.38598632812 1012.16613769531 1002.09802246094 995.154296875 996.355834960938 1001.29370117188 989.328552246094 991.047973632812 995.463317871094 997.941772460938 998.195434570312 1004.82183837891 1003.92150878906 991.33447265625 987.591918945312 985.589050292969 974.982727050781 980.421264648438 984.241943359375 995.160949707031 999.182678222656 1000.44494628906 1004.95739746094 1006.59143066406 1003.56585693359 1008.80316162109 1007.27044677734 1004.40600585938 1009.18725585938 1012.70153808594 1015.46374511719 1027.03015136719 1030.36645507812 1034.04650878906 1035.1494140625 1025.79125976562 1033.29028320312 1034.6279296875 1026.79052734375 1013.12738037109 1017.57104492188 1019.02252197266 1020.37048339844 1024.40893554688 1025.2353515625 1024.1669921875 1019.26605224609 1026.60778808594 1024.70983886719 1024.3642578125 1016.87768554688 1016.09649658203 1014.33306884766 997.122314453125 1004.03784179688 998.594482421875 998.851806640625 1004.44177246094 1000.3740234375 1012.09533691406 1016.91436767578 1011.47778320312 1016.42791748047 1013.94348144531 995.855346679688 989.263122558594 995.302429199219 989.621948242188 981.601135253906 986.747497558594 978.900146484375 979.352233886719 982.715576171875 989.798889160156 989.448974609375
937.172668457031 944.268127441406 943.175415039062 937.886901855469 937.5888671875 949.415161132812 948.010803222656 955.544616699219 947.574035644531 964.12939453125 964.426452636719 973.577392578125 975.470275878906 977.032470703125 976.473449707031 984.870788574219 976.212829589844 980.639770507812 978.64697265625 974.580749511719 988.703002929688 994.900146484375 989.909240722656 988.584838867188 986.695251464844 992.537170410156 978.293151855469 986.95068359375 974.502990722656 974.261474609375 975.247802734375 978.824645996094 981.626159667969 982.208374023438 987.002075195312 993.5537109375 991.286376953125 1003.95623779297 1003.46026611328 1006.91564941406 1006.01129150391 1012.08868408203 1013.73559570312 1014.42926025391 1012.58978271484 1011.32879638672 1012.09289550781 1020.31115722656 1014.21618652344 1005.14440917969 998.565856933594 999.894165039062 996.845642089844 985.367614746094 987.580444335938 988.767211914062 982.9306640625 983.782165527344 978.212768554688 976.406799316406 971.243591308594 977.623718261719 977.629028320312 979.361389160156 978.317504882812 973.371154785156 985.240234375 982.043395996094 983.725219726562 992.830444335938 989.130126953125 987.966064453125 997.73291015625 1004.07214355469 1007.68359375 1014.07879638672 1017.48876953125 1012.35498046875 1003.34008789062 998.010986328125 995.098693847656 993.432495117188 991.869018554688 1001.65399169922 1004.40026855469 997.123718261719 1002.54852294922 998.051879882812 991.215637207031 987.340087890625 975.732116699219 980.841064453125 987.350891113281 990.540954589844 991.552062988281 995.705871582031 997.082275390625 1011.57495117188 1007.29632568359 1009.80126953125 1005.96234130859 1010.43908691406 1005.74609375 1012.39398193359 1023.40808105469 1019.20831298828 1031.6337890625 1029.52954101562 1036.09851074219 1036.22924804688 1025.38452148438 1027.35864257812 1036.66284179688 1027.34838867188 1016.76483154297 1019.48040771484 1025.22778320312 1026.75671386719 1027.83129882812 1025.21899414062 1028.86840820312 1019.16790771484 1007.49377441406 1011.88061523438 1017.44860839844 1024.30297851562 1013.17718505859 1011.92407226562 1005.56097412109 1001.68798828125 997.831420898438 998.195251464844 1000.4599609375 1005.66809082031 1004.98944091797 1009.20397949219 1014.24365234375 1006.44866943359 1004.68469238281 989.566955566406 993.496765136719 997.900085449219 990.111511230469 977.760009765625 984.093322753906 987.251647949219 987.430541992188 979.3134765625 975.310424804688 974.694152832031
942.989135742188 948.866088867188 951.068908691406 947.475952148438 943.943969726562 940.592163085938 944.69921875 951.20068359375 949.545104980469 956.143493652344 965.207824707031 972.624694824219 974.666748046875 973.897338867188 971.678344726562 976.420715332031 976.861267089844 975.775024414062 981.281799316406 978.556335449219 983.9970703125 986.858825683594 983.980895996094 979.7890625 983.166015625 988.856811523438 980.739929199219 980.398742675781 972.882141113281 974.846984863281 976.397338867188 981.57421875 982.605529785156 986.632202148438 989.913940429688 992.548767089844 1000.49719238281 1000.85198974609 997.845458984375 1000.08825683594 1009.70294189453 1012.45104980469 1012.95361328125 1012.44592285156 1016.92669677734 1006.34063720703 1020.52276611328 1013.55535888672 1007.98712158203 1005.87005615234 1009.65484619141 1003.47369384766 997.074645996094 985.282165527344 990.012268066406 995.503784179688 987.919738769531 983.015502929688 979.227294921875 982.88525390625 979.596374511719 975.718078613281 979.335693359375 979.709350585938 974.799743652344 970.155578613281 971.913024902344 979.065979003906 981.833190917969 992.523864746094 987.794311523438 987.989196777344 990.656433105469 998.645263671875 994.379760742188 1004.8330078125 1014.88116455078 1014.60803222656 1010.50457763672 1005.24151611328 1004.05603027344 997.233520507812 994.585754394531 1007.31628417969 1007.37408447266 1007.87731933594 1002.94348144531 1004.86364746094 994.322143554688 991.106201171875 987.832214355469 987.165588378906 984.271850585938 992.781066894531 993.367431640625 996.163452148438 999.250183105469 993.063110351562 996.729309082031 995.399108886719 1002.3076171875 1007.67572021484 1012.48864746094 1012.64605712891 1012.84313964844 1018.39508056641 1029.22290039062 1033.26281738281 1034.88671875 1032.56567382812 1033.06311035156 1025.03625488281 1037.67993164062 1026.53527832031 1027.484375 1021.53509521484 1027.62121582031 1025.97106933594 1020.29370117188 1023.08996582031 1016.91577148438 1018.72241210938 1025.20764160156 1007.28900146484 1012.85467529297 1015.93414306641 1016.38323974609 1009.54742431641 1010.79052734375 1003.14593505859 995.193908691406 996.569213867188 995.6484375 996.457946777344 994.565490722656 1003.10949707031 994.711486816406 1001.89178466797 992.356750488281 985.016845703125 991.2421875 991.33544921875 980.119323730469 979.090393066406 983.358825683594 989.293334960938 979.358154296875 968.183959960938 970.897888183594 969.411376953125
942.298217773438 937.601013183594 946.217895507812 945.507873535156 947.605712890625 934.643310546875 936.402954101562 944.949096679688 959.779602050781 948.301452636719 962.583801269531 965.131774902344 973.306335449219 975.588745117188 968.363037109375 973.404968261719 975.328918457031 983.384887695312 980.685607910156 987.664611816406 991.189453125 984.040771484375 991.514709472656 987.274841308594 981.790588378906 986.545471191406 980.752075195312 969.68505859375 976.883666992188 975.513122558594 982.062438964844 988.139343261719 983.647155761719 982.732238769531 986.991943359375 991.375793457031 998.438598632812 1004.09075927734 997.107666015625 1007.31463623047 1008.60717773438 1005.87994384766 1003.69757080078 1010.25158691406 1011.193359375 1013.18884277344 1012.83245849609 1004.10748291016 1001.62768554688 1006.94653320312 1006.82775878906 1003.32983398438 1001.32684326172 995.88525390625 980.110717773438 985.4013671875 986.442504882812 979.988647460938 979.921020507812 987.413391113281 980.536010742188 971.920043945312 983.828308105469 972.611083984375 975.475158691406 971.628295898438 971.934875488281 973.53076171875 982.91357421875 993.080261230469 986.214416503906 986.748901367188 994.715209960938 990.563171386719 992.046264648438 989.528625488281 996.922058105469 1009.24047851562 1021.84478759766 1015.18664550781 1010.35247802734 1005.11224365234 998.693115234375 1006.48931884766 1002.27142333984 1004.86682128906 1004.00305175781 1001.17840576172 1008.22003173828 1001.41180419922 994.503540039062 985.711120605469 994.612243652344 989.930969238281 991.470947265625 1003.10083007812 1003.18176269531 999.69970703125 1001.4580078125 1009.18591308594 1007.43994140625 1003.75445556641 1004.45880126953 1011.92535400391 1009.08166503906 1013.54425048828 1026.83642578125 1035.67358398438 1026.71887207031 1039.65319824219 1041.89916992188 1031.94360351562 1034.83178710938 1028.29223632812 1031.82836914062 1035.69970703125 1032.48840332031 1025.17321777344 1018.17419433594 1020.0361328125 1027.51098632812 1024.75927734375 1016.76727294922 1009.24359130859 1014.98327636719 1023.47686767578 1013.39685058594 1008.45776367188 1004.05560302734 1002.77563476562 994.191345214844 997.466491699219 995.824951171875 991.040832519531 993.582946777344 996.706787109375 999.536315917969 999.681335449219 999.983276367188 993.023803710938 990.560424804688 993.977844238281 980.116149902344 968.514465332031 981.583312988281 982.582763671875 979.640197753906 971.813659667969 978.424682617188 962.848815917969
948.973205566406 947.394348144531 958.9248046875 957.1044921875 945.95458984375 941.059143066406 944.494140625 946.104248046875 955.265808105469 960.089599609375 964.339294433594 969.052795410156 970.888061523438 975.856750488281 970.556335449219 971.894775390625 976.533752441406 981.036315917969 987.7734375 987.886474609375 994.135864257812 987.299743652344 992.904113769531 997.879150390625 996.040222167969 991.179443359375 991.483703613281 988.399047851562 977.679443359375 975.509460449219 982.2236328125 984.928527832031 989.392944335938 995.90087890625 992.641906738281 991.218017578125 987.280639648438 987.5166015625 1004.70532226562 1006.80651855469 1012.44818115234 1003.07507324219 996.569641113281 1004.06976318359 1009.28619384766 1016.08911132812 1008.94537353516 997.582397460938 1003.58544921875 1007.20941162109 997.958190917969 1002.01702880859 992.799377441406 988.351928710938 985.2626953125 985.4423828125 976.605285644531 982.697448730469 976.113586425781 982.433471679688 972.1484375 967.597839355469 973.397644042969 974.562866210938 971.503479003906 972.48876953125 975.56689453125 973.97412109375 974.257629394531 981.324829101562 990.557189941406 983.456481933594 990.653625488281 982.305419921875 982.856262207031 986.452026367188 994.778137207031 1000.24810791016 1011.13208007812 1017.22320556641 1012.69830322266 1009.39825439453 998.454284667969 1006.39306640625 1009.06530761719 1003.07653808594 1004.00744628906 998.115173339844 1001.98657226562 996.173217773438 994.670043945312 993.441528320312 993.279602050781 994.018676757812 996.362365722656 998.376342773438 991.055114746094 993.170349121094 1006.37841796875 1013.01495361328 1009.73309326172 1005.83752441406 1000.70849609375 1006.25756835938 1023.30432128906 1025.44519042969 1023.29333496094 1028.31091308594 1027.20568847656 1036.47229003906 1041.32653808594 1041.32495117188 1042.74890136719 1031.92321777344 1031.45080566406 1036.42041015625 1032.17895507812 1025.37219238281 1025.4638671875 1021.04089355469 1024.14416503906 1021.06823730469 1014.47387695312 1002.90203857422 1002.77008056641 1015.68011474609 1008.63055419922 1006.732421875 1006.92517089844 1009.00268554688 994.727233886719 994.651306152344 988.089538574219 993.195251464844 992.086608886719 993.1884765625 989.970153808594 1002.74554443359 992.954711914062 996.913818359375 1002.34735107422 992.472534179688 976.790161132812 969.122375488281 971.703552246094 971.573547363281 967.747802734375 962.318725585938 962.543334960938 962.920532226562
945.66943359375 946.189208984375 955.791870117188 952.397766113281 942.623718261719 943.599060058594 942.665588378906 946.891296386719 951.106262207031 955.65966796875 963.278991699219 975.29150390625 975.433471679688 977.314819335938 971.905029296875 978.498291015625 973.185913085938 972.592651367188 982.190673828125 985.374084472656 981.564758300781 983.316101074219 984.524169921875 997.371032714844 988.771057128906 984.419067382812 981.514526367188 987.762634277344 979.575561523438 974.806762695312 981.337280273438 974.5771484375 984.9619140625 986.700805664062 996.360107421875 998.551025390625 986.5439453125 989.893371582031 992.360778808594 997.769592285156 997.483032226562 997.423217773438 998.92529296875 992.149841308594 1004.48901367188 1012.47326660156 1002.47076416016 1003.86383056641 1002.564453125 999.032409667969 1000.41876220703 1007.73175048828 996.752563476562 991.881652832031 1002.33270263672 991.313110351562 979.931213378906 978.188598632812 977.937805175781 978.622985839844 974.064147949219 973.034240722656 973.567565917969 970.630737304688 960.609680175781 963.656127929688 975.49755859375 979.228942871094 977.258728027344 977.769287109375 976.693237304688 983.024597167969 989.6142578125 990.247314453125 978.977905273438 985.293334960938 991.708862304688 995.269287109375 1003.49444580078 1005.86120605469 1004.83532714844 1004.75988769531 1014.84765625 1006.94555664062 1003.42010498047 1003.44018554688 1001.27587890625 989.268920898438 998.311584472656 994.265502929688 999.432312011719 1000.43475341797 988.875183105469 993.329406738281 994.137756347656 994.787475585938 1001.18188476562 995.991577148438 1000.53552246094 1006.95330810547 1007.03570556641 1006.32238769531 997.130859375 1008.466796875 1009.3193359375 1014.47094726562 1012.00567626953 1018.08703613281 1025.65368652344 1034.07958984375 1048.79516601562 1053.35876464844 1043.35424804688 1052.50891113281 1044.49377441406 1036.31518554688 1033.83972167969 1033.3359375 1022.05584716797 1035.50146484375 1026.35131835938 1019.60083007812 1007.14459228516 998.607543945312 994.039184570312 989.433227539062 992.870910644531 994.175903320312 999.941345214844 1001.05340576172 994.996398925781 998.28515625 987.948486328125 988.726379394531 991.066833496094 1001.98657226562 1002.70751953125 1001.21441650391 998.021118164062 995.30078125 1001.42864990234 1001.57904052734 982.493713378906 973.498291015625 978.308227539062 971.277038574219 971.961730957031 970.716369628906 968.477722167969 962.551818847656
939.093322753906 939.010559082031 939.312561035156 932.204284667969 932.753601074219 932.5234375 937.812194824219 947.093383789062 948.225280761719 956.446960449219 968.039184570312 974.499145507812 978.368408203125 971.67529296875 971.408630371094 965.078674316406 955.998596191406 964.6611328125 967.347717285156 980.318908691406 972.724548339844 987.67529296875 987.372436523438 991.214050292969 984.428527832031 974.422912597656 973.452697753906 976.225219726562 982.689697265625 974.123657226562 971.591735839844 976.181091308594 984.302734375 984.918762207031 988.573120117188 992.628112792969 993.566223144531 991.537292480469 989.373229980469 987.9130859375 983.141723632812 995.030944824219 991.384765625 992.081481933594 1000.34973144531 1007.37652587891 1011.18139648438 1016.19183349609 1000.78784179688 1001.26623535156 1003.80395507812 997.300964355469 994.562927246094 993.907470703125 993.085876464844 999.970092773438 995.22265625 994.111206054688 987.7138671875 978.248962402344 979.000549316406 988.369750976562 975.044189453125 979.110961914062 970.795776367188 968.346130371094 980.882568359375 979.4931640625 978.71728515625 979.42236328125 981.752136230469 984.37255859375 993.697265625 989.112121582031 985.22900390625 985.284545898438 987.359619140625 994.129333496094 994.185668945312 1000.97985839844 1009.24676513672 1011.31823730469 1006.16864013672 1001.83135986328 995.360656738281 998.284606933594 998.777160644531 993.412170410156 991.952819824219 996.716430664062 998.272705078125 998.791198730469 992.843566894531 995.146606445312 994.055419921875 992.842834472656 994.733703613281 1002.40417480469 1002.80255126953 1007.82562255859 1001.25128173828 1008.51489257812 1008.0595703125 998.213134765625 1005.50006103516 1011.54711914062 1003.53552246094 1015.65014648438 1021.77874755859 1033.14709472656 1045.54711914062 1054.49816894531 1048.94982910156 1052.74047851562 1046.59045410156 1042.04235839844 1041.9599609375 1036.93151855469 1040.75708007812 1034.70874023438 1032.60498046875 1015.65313720703 1006.52178955078 1003.85083007812 991.817932128906 990.42822265625 1003.35852050781 987.246032714844 992.537841796875 987.625 983.902160644531 993.323486328125 987.786865234375 985.226501464844 990.137084960938 996.546081542969 1002.26654052734 996.97705078125 990.961730957031 989.758605957031 992.570678710938 999.665100097656 987.405578613281 978.247131347656 972.401428222656 969.199279785156 974.575805664062 983.22900390625 975.842224121094 964.953125
935.609802246094 936.165893554688 933.3427734375 940.681579589844 942.803344726562 931.840759277344 943.449401855469 949.294555664062 950.152160644531 951.408203125 955.707336425781 960.663208007812 964.619750976562 956.837890625 965.058410644531 957.995727539062 955.414611816406 965.850769042969 966.998840332031 963.584594726562 963.61572265625 974.879272460938 980.611694335938 983.468139648438 979.929138183594 974.109985351562 964.137817382812 965.363098144531 974.790405273438 975.85400390625 971.667724609375 986.052185058594 983.467590332031 987.065734863281 997.095764160156 996.485534667969 994.635986328125 995.805114746094 990.376647949219 980.934814453125 981.729064941406 991.505920410156 983.914916992188 991.055236816406 996.999877929688 1002.72802734375 1008.74700927734 1011.59350585938 1015.14105224609 1004.89739990234 1008.29632568359 1007.49011230469 997.916381835938 988.527648925781 1004.85717773438 991.397216796875 990.285522460938 988.742797851562 986.058898925781 971.783447265625 977.830383300781 984.423400878906 981.577880859375 974.964294433594 981.497619628906 982.741027832031 976.093994140625 978.636840820312 982.660949707031 982.413635253906 988.395141601562 985.107299804688 982.390869140625 986.1884765625 994.106689453125 988.345764160156 978.900085449219 990.171447753906 992.910461425781 996.836303710938 1002.43811035156 1009.54541015625 1005.31689453125 1003.58575439453 999.79638671875 993.732788085938 995.779663085938 997.144226074219 989.917175292969 996.970947265625 997.507751464844 994.829040527344 1001.88891601562 1006.49407958984 1005.84045410156 1002.07629394531 997.152160644531 998.208984375 995.495544433594 1004.9951171875 998.08056640625 1000.07885742188 1007.28155517578 1010.33734130859 1010.90911865234 1009.15496826172 1006.42437744141 1015.57073974609 1028.19543457031 1036.92980957031 1039.00207519531 1054.705078125 1056.18786621094 1055.64245605469 1053.02673339844 1053.89123535156 1046.6640625 1037.83837890625 1037.95739746094 1043.79479980469 1025.48657226562 1016.92456054688 1004.14825439453 1006.13342285156 995.04052734375 992.327697753906 996.465148925781 985.760375976562 984.635009765625 983.888122558594 985.107177734375 981.473083496094 976.442565917969 975.914489746094 989.948059082031 990.136291503906 988.634643554688 987.020690917969 977.713684082031 982.456665039062 988.091552734375 995.153930664062 991.871276855469 971.809692382812 969.406860351562 975.628723144531 978.917297363281 980.702697753906 980.46435546875 965.5380859375
938.060668945312 947.984252929688 938.196044921875 935.255004882812 941.913146972656 933.648376464844 932.132629394531 949.280944824219 951.114624023438 947.53466796875 941.540405273438 952.263427734375 959.469421386719 949.634826660156 952.522277832031 954.700134277344 956.743591308594 961.500427246094 949.713073730469 947.300109863281 956.258117675781 960.501342773438 962.120788574219 966.589233398438 967.223022460938 969.815612792969 965.028991699219 966.0166015625 969.828796386719 973.478515625 972.187194824219 985.511108398438 982.189025878906 980.498840332031 988.899475097656 992.493530273438 995.193359375 994.009826660156 989.989929199219 981.319458007812 983.279663085938 987.388732910156 988.471069335938 982.928833007812 990.413635253906 996.674560546875 999.593933105469 1011.53393554688 1011.46667480469 1003.64337158203 1002.82781982422 1002.33203125 998.3232421875 995.712280273438 988.572265625 992.255004882812 991.171203613281 987.934387207031 985.847534179688 973.396667480469 976.562561035156 976.611572265625 976.953491210938 983.311462402344 987.388977050781 979.164367675781 978.81103515625 977.731323242188 985.508728027344 987.643920898438 989.984191894531 988.960571289062 983.058715820312 982.887878417969 989.611755371094 991.5712890625 991.758850097656 999.211120605469 996.25390625 989.519104003906 995.748779296875 1000.95318603516 1008.26318359375 1003.02764892578 996.703063964844 996.679626464844 995.787780761719 1005.29559326172 1004.06860351562 994.141967773438 998.244995117188 999.281066894531 998.931457519531 1003.44964599609 996.879455566406 998.250366210938 995.080444335938 1002.904296875 1008.7001953125 1011.64868164062 1008.35504150391 1007.96179199219 1007.72351074219 1010.00317382812 1014.00054931641 1010.34899902344 1012.85607910156 1022.19158935547 1032.65393066406 1043.71252441406 1049.49145507812 1059.8408203125 1058.7646484375 1061.64038085938 1053.07971191406 1065.0322265625 1052.48364257812 1053.080078125 1039.75708007812 1032.3720703125 1027.11376953125 1024.70764160156 1011.38812255859 1008.81457519531 999.966369628906 989.690124511719 986.559692382812 982.745727539062 982.595825195312 983.069702148438 968.719970703125 973.404296875 967.367614746094 971.76953125 979.574951171875 986.907409667969 985.851196289062 971.507141113281 967.2177734375 979.298583984375 981.969604492188 993.060668945312 978.252014160156 975.814331054688 968.890319824219 970.328369140625 968.39208984375 968.852722167969 979.816284179688 981.302612304688
946.092529296875 942.647827148438 944.405029296875 936.868835449219 947.600952148438 944.256286621094 938.46728515625 937.683837890625 938.963500976562 938.544494628906 947.343811035156 945.792358398438 946.252624511719 951.542297363281 950.516357421875 953.17333984375 957.298217773438 956.590087890625 951.876892089844 952.160888671875 955.115844726562 951.522521972656 961.611328125 957.305786132812 961.853454589844 963.281616210938 963.746887207031 961.638244628906 957.541564941406 959.742980957031 975.151306152344 974.152954101562 976.912414550781 979.337768554688 979.139282226562 986.066711425781 981.228637695312 978.8837890625 972.779357910156 977.852966308594 980.512329101562 981.46728515625 986.261657714844 988.446594238281 986.588928222656 991.841552734375 996.3896484375 989.455810546875 1003.470703125 1001.03472900391 1009.74176025391 1004.02825927734 991.839965820312 983.716735839844 985.369995117188 991.890258789062 991.658325195312 982.930603027344 984.906555175781 979.152099609375 992.062622070312 976.479797363281 973.510070800781 992.426147460938 996.442443847656 986.615295410156 987.938537597656 987.69921875 980.451904296875 986.000183105469 995.720397949219 988.492126464844 980.601928710938 986.298583984375 993.507019042969 988.571228027344 987.038818359375 991.276000976562 998.993408203125 999.627075195312 998.755065917969 1002.47064208984 1002.51086425781 1006.13342285156 1004.10687255859 997.820251464844 1004.93481445312 997.207214355469 1000.04260253906 1002.74176025391 1000.30297851562 1001.28942871094 992.958557128906 998.402099609375 1009.69146728516 1006.12921142578 1001.85778808594 1011.21258544922 1006.09448242188 1011.12457275391 1010.63861083984 1006.89752197266 1010.38952636719 1012.39410400391 1015.09008789062 1017.81970214844 1022.29516601562 1031.44787597656 1039.10314941406 1052.81225585938 1062.71765136719 1060.06567382812 1065.44287109375 1069.30834960938 1070.04931640625 1063.43005371094 1056.0234375 1055.23413085938 1050.24487304688 1039.62976074219 1034.61267089844 1025.31262207031 1011.34265136719 1000.09655761719 1000.11010742188 988.995666503906 979.476440429688 979.473449707031 984.996887207031 986.969604492188 986.828857421875 972.241516113281 962.71923828125 975.507934570312 978.434265136719 974.180114746094 967.975219726562 971.280456542969 964.289916992188 975.311218261719 978.227416992188 984.073364257812 975.808044433594 977.162109375 968.034057617188 970.798583984375 972.984191894531 976.240051269531 983.347961425781 985.003234863281
954.192504882812 950.549560546875 950.963684082031 948.614379882812 953.431823730469 944.988586425781 936.793762207031 936.608215332031 940.882873535156 938.936889648438 943.619567871094 946.093688964844 940.709167480469 943.938842773438 946.707214355469 946.19921875 952.195739746094 956.233825683594 954.672119140625 953.448852539062 959.059997558594 956.145874023438 959.7998046875 960.761169433594 958.558471679688 958.120056152344 958.678161621094 957.281921386719 956.453979492188 955.767211914062 968.332702636719 970.908142089844 971.357055664062 972.291442871094 974.608947753906 972.992614746094 967.302612304688 974.917785644531 971.131896972656 977.931335449219 977.689392089844 987.964904785156 990.020690917969 993.149108886719 988.886108398438 985.206848144531 994.943908691406 997.496948242188 1003.1611328125 1003.27679443359 1003.02239990234 998.074951171875 998.243957519531 993.364624023438 989.294067382812 994.947937011719 998.858093261719 996.13330078125 990.131286621094 984.359069824219 982.573852539062 984.306701660156 984.608276367188 998.732421875 993.967407226562 990.166015625 996.213073730469 983.611938476562 981.431030273438 987.603149414062 988.496887207031 980.515441894531 982.34765625 987.955749511719 990.480712890625 990.105346679688 995.786376953125 987.786743164062 996.288513183594 1000.15875244141 1004.89019775391 1010.34820556641 1006.61846923828 1007.98950195312 1006.07476806641 1005.447265625 1003.06585693359 1001.81878662109 1003.33087158203 1003.10473632812 1002.07000732422 996.141845703125 999.230773925781 1001.18731689453 1008.61138916016 1011.08489990234 1015.98156738281 1011.93664550781 1006.48284912109 1007.84326171875 1012.33978271484 1013.70477294922 1012.52935791016 1011.25823974609 1012.24163818359 1018.23297119141 1029.19567871094 1036.86499023438 1040.54052734375 1056.82043457031 1071.25402832031 1066.73010253906 1073.16101074219 1078.62145996094 1071.70690917969 1059.35668945312 1051.87683105469 1045.17077636719 1049.97265625 1041.89929199219 1035.65832519531 1028.81970214844 1015.87213134766 1006.07598876953 1003.20538330078 989.504943847656 977.885864257812 979.055114746094 979.23681640625 986.849792480469 984.060546875 973.21875 980.821044921875 975.198852539062 976.808715820312 979.850280761719 970.368408203125 970.90625 964.652648925781 971.227966308594 968.027465820312 973.431396484375 969.367309570312 982.402770996094 975.347900390625 961.967956542969 966.213684082031 983.080810546875 978.632446289062 981.94580078125
962.789306640625 958.439270019531 950.627075195312 945.153137207031 947.404602050781 943.548217773438 935.514526367188 937.980773925781 951.116516113281 950.387573242188 946.412841796875 943.293151855469 945.391479492188 943.032897949219 945.451354980469 949.528625488281 949.909484863281 956.857238769531 956.89501953125 955.359619140625 966.478210449219 960.485107421875 953.412841796875 952.839294433594 956.026000976562 956.589904785156 964.06787109375 954.69140625 953.854736328125 958.862976074219 958.332153320312 969.928649902344 971.593200683594 970.716247558594 966.841735839844 959.202514648438 964.878112792969 963.531005859375 969.806884765625 968.754943847656 970.091125488281 977.938537597656 981.55908203125 991.63134765625 990.602661132812 988.557067871094 991.714233398438 1001.58947753906 1006.3408203125 1006.09704589844 989.869445800781 1003.5693359375 1000.37829589844 997.814270019531 996.7666015625 997.461486816406 993.914184570312 1002.67175292969 1001.64611816406 992.88525390625 992.208190917969 991.333251953125 993.939331054688 991.179321289062 990.674743652344 993.320556640625 991.778991699219 982.651733398438 975.011047363281 982.263427734375 990.498291015625 990.942810058594 990.068176269531 990.869262695312 994.532836914062 991.29296875 991.555541992188 996.255554199219 995.843872070312 993.688598632812 992.922729492188 1000.45959472656 1004.78839111328 1007.42315673828 1012.90930175781 1009.58319091797 1009.35040283203 1008.47973632812 1009.32196044922 1000.86175537109 999.758972167969 998.7265625 1002.84954833984 1002.02783203125 1002.10858154297 1008.73767089844 1008.49169921875 1004.65783691406 1011.72967529297 1013.66033935547 1022.865234375 1015.61932373047 1014.47320556641 1017.79809570312 1019.17370605469 1020.97399902344 1027.36083984375 1038.43872070312 1049.93139648438 1058.31811523438 1060.482421875 1064.96557617188 1073.25073242188 1075.0302734375 1070.71813964844 1062.93310546875 1053.10986328125 1047.95690917969 1052.03039550781 1050.13732910156 1033.86779785156 1025.07507324219 1016.23486328125 1016.29577636719 995.663208007812 988.73779296875 985.762268066406 982.638244628906 988.114929199219 985.837707519531 994.05810546875 981.221557617188 975.309692382812 980.884399414062 982.126159667969 981.326904296875 972.132995605469 967.994262695312 961.979370117188 962.18359375 972.65966796875 968.579406738281 964.235473632812 969.648315429688 968.298217773438 962.674133300781 971.635314941406 977.584899902344 975.450134277344 984.759704589844
961.131652832031 960.6318359375 956.970031738281 955.522277832031 950.945617675781 940.509338378906 935.594482421875 936.171752929688 944.885437011719 955.091247558594 955.372009277344 947.206359863281 944.473999023438 945.073608398438 949.2783203125 941.650085449219 952.8427734375 947.663208007812 954.996948242188 962.307312011719 958.093994140625 956.118896484375 957.464721679688 964.813049316406 955.025939941406 962.612182617188 970.247741699219 964.569885253906 959.817077636719 965.481140136719 959.588806152344 971.436645507812 969.806457519531 975.421875 973.730407714844 967.911071777344 967.63134765625 960.130920410156 962.775207519531 970.997253417969 965.1513671875 963.924377441406 963.984069824219 980.263549804688 988.141662597656 989.323608398438 994.197387695312 1007.2333984375 1015.84661865234 1014.79315185547 997.752014160156 990.320251464844 1007.76586914062 1005.23596191406 999.626892089844 988.688903808594 996.179138183594 1002.57373046875 1008.38696289062 1004.36242675781 1004.02270507812 992.008178710938 993.529418945312 990.885070800781 990.749816894531 998.593566894531 991.912414550781 989.501037597656 988.486206054688 983.656311035156 989.941955566406 988.544189453125 988.600219726562 985.795715332031 994.831665039062 995.215576171875 987.294982910156 985.441040039062 990.21142578125 996.192504882812 996.300231933594 999.3583984375 995.860717773438 1004.65570068359 1009.68914794922 1009.60943603516 1011.55444335938 1004.72222900391 1009.23120117188 1000.37469482422 1000.15777587891 1007.67211914062 1006.15020751953 1004.05841064453 998.512573242188 1003.61688232422 1008.79711914062 1010.77844238281 1016.10681152344 1020.46392822266 1017.04760742188 1022.94244384766 1028.39294433594 1028.26513671875 1027.62182617188 1028.41882324219 1033.90209960938 1041.83911132812 1042.53894042969 1045.70373535156 1057.58557128906 1063.49572753906 1068.8984375 1059.50244140625 1064.61462402344 1060.7978515625 1054.19946289062 1049.43371582031 1055.80358886719 1052.12512207031 1033.40368652344 1021.70672607422 1015.11901855469 1009.87890625 997.481994628906 991.839050292969 992.180603027344 993.88525390625 991.258178710938 982.614685058594 977.588500976562 975.485656738281 981.106628417969 974.809265136719 977.194946289062 984.701477050781 967.9853515625 969.985778808594 960.028991699219 959.229064941406 964.131103515625 976.822875976562 975.911010742188 974.707153320312 973.268432617188 965.186218261719 971.845642089844 971.786315917969 971.380737304688 980.479187011719
964.806030273438 964.750671386719 956.183654785156 961.044006347656 952.109741210938 940.547241210938 935.037414550781 933.362548828125 934.270935058594 948.981811523438 951.679748535156 949.77978515625 955.406372070312 950.977355957031 945.582702636719 947.128356933594 949.567077636719 944.827331542969 962.287353515625 958.462463378906 955.140197753906 955.771423339844 959.993041992188 962.293029785156 964.673828125 962.985168457031 970.594360351562 969.197265625 963.646789550781 959.822509765625 963.558349609375 970.640625 972.520935058594 975.36572265625 970.517761230469 969.284545898438 968.117492675781 966.394592285156 961.744323730469 960.947570800781 960.663696289062 966.882080078125 957.2431640625 975.265197753906 975.393249511719 982.492309570312 989.850952148438 993.528015136719 1003.54467773438 1004.93176269531 1003.94067382812 993.70849609375 1000.61688232422 1001.71569824219 1008.02874755859 1005.021484375 999.451171875 996.943481445312 1011.65905761719 1007.91259765625 1004.09613037109 997.831176757812 1007.59906005859 997.199584960938 999.230773925781 995.169494628906 996.415161132812 990.093627929688 988.007263183594 989.741516113281 995.150329589844 993.818115234375 986.143493652344 986.724487304688 987.684265136719 991.102844238281 990.117553710938 993.597290039062 990.539123535156 991.604614257812 991.91357421875 1000.4521484375 1001.39587402344 999.745483398438 1004.8271484375 1003.79992675781 1006.50701904297 1003.60748291016 1007.53186035156 1002.69561767578 1005.56610107422 1006.72296142578 1006.77709960938 1003.33703613281 1003.30261230469 999.590637207031 1012.45263671875 1023.55297851562 1013.75500488281 1015.22302246094 1015.22015380859 1017.20538330078 1031.16638183594 1031.5556640625 1029.3935546875 1038.74865722656 1038.06127929688 1033.4169921875 1041.22229003906 1053.45983886719 1053.28466796875 1054.990234375 1063.00085449219 1057.80334472656 1055.69921875 1052.44555664062 1047.73681640625 1061.29528808594 1058.36950683594 1052.28503417969 1043.95678710938 1027.07434082031 1024.29699707031 1016.35217285156 1010.08074951172 995.581420898438 991.07275390625 1001.82391357422 996.612487792969 987.613403320312 982.145141601562 975.578857421875 976.806518554688 978.113159179688 978.316589355469 976.956970214844 977.230773925781 969.267639160156 963.968811035156 959.668090820312 966.750305175781 973.319091796875 973.049377441406 977.925903320312 972.433166503906 974.51611328125 974.315551757812 966.092834472656 971.802307128906 979.269226074219
972.752563476562 965.19970703125 963.003540039062 953.171936035156 955.376892089844 947.374572753906 935.168090820312 935.002746582031 942.813110351562 957.697509765625 957.501220703125 956.7763671875 963.524536132812 956.266418457031 948.05615234375 955.395263671875 942.883483886719 954.185913085938 957.717346191406 956.056030273438 947.591186523438 957.455871582031 957.211730957031 964.257141113281 966.441528320312 962.669921875 959.994934082031 962.51220703125 967.850524902344 958.3359375 947.654663085938 962.088439941406 974.830932617188 973.780944824219 959.424682617188 964.28466796875 967.287048339844 968.188903808594 966.472778320312 969.409606933594 961.383422851562 962.789855957031 967.680908203125 975.751403808594 979.453491210938 982.986755371094 984.583251953125 989.910339355469 998.505432128906 988.943664550781 994.025817871094 998.769714355469 1001.54699707031 999.601379394531 1005.88482666016 1006.02966308594 1005.85308837891 1010.75067138672 1010.20825195312 1007.93560791016 1010.5439453125 999.493774414062 1008.63525390625 1004.68823242188 997.978698730469 988.587829589844 993.481994628906 991.251831054688 988.072204589844 993.110290527344 1002.48858642578 1000.85241699219 995.940002441406 991.231262207031 995.229309082031 994.826965332031 999.421752929688 996.054077148438 998.435791015625 995.495300292969 995.619079589844 992.280395507812 996.5625 1002.81744384766 1010.05963134766 999.871337890625 999.830322265625 1001.33905029297 1008.83325195312 999.877380371094 1008.85168457031 1005.47778320312 1006.57104492188 1008.72485351562 1013.96105957031 1016.95074462891 1010.92938232422 1017.51666259766 1021.36297607422 1016.13110351562 1005.96142578125 1008.56890869141 1024.78991699219 1024.96533203125 1032.02368164062 1035.88391113281 1034.61364746094 1030.67419433594 1037.91528320312 1041.21337890625 1047.43786621094 1049.18151855469 1053.82641601562 1054.83972167969 1055.65124511719 1044.49560546875 1058.67858886719 1065.18957519531 1053.08862304688 1045.76196289062 1040.89282226562 1034.70776367188 1031.41345214844 1024.77587890625 1005.50964355469 1006.33111572266 996.880798339844 1001.51837158203 992.244262695312 985.776977539062 982.612426757812 974.927856445312 977.838562011719 981.489929199219 976.0703125 971.052124023438 967.586608886719 960.320007324219 961.698547363281 956.596008300781 952.080871582031 958.5751953125 966.736694335938 972.492004394531 969.702087402344 982.072021484375 977.200500488281 966.080139160156 966.475646972656 968.089965820312
974.83056640625 965.165588378906 962.2509765625 955.759399414062 959.164611816406 948.973266601562 942.345520019531 937.123718261719 943.654418945312 954.070129394531 960.260314941406 960.357971191406 960.314514160156 950.6708984375 951.680236816406 953.619873046875 949.713684082031 949.188781738281 948.932556152344 949.639404296875 951.619995117188 956.107055664062 957.492126464844 966.393737792969 965.28564453125 968.455200195312 967.827758789062 968.119812011719 958.958862304688 957.087097167969 954.900939941406 964.740844726562 969.568786621094 969.871215820312 965.753295898438 967.498352050781 970.037963867188 971.471984863281 968.843933105469 968.369567871094 959.023010253906 971.584167480469 975.236572265625 976.942504882812 975.508911132812 979.551635742188 978.785339355469 988.447204589844 984.608032226562 986.827941894531 984.786010742188 997.912658691406 1004.66247558594 1000.88177490234 999.661499023438 997.855041503906 998.253662109375 1017.96929931641 1015.96136474609 1013.00341796875 1007.99926757812 1006.04791259766 1011.95776367188 1008.94390869141 1011.44018554688 1002.99761962891 1002.08758544922 1001.80560302734 991.340270996094 997.122802734375 998.061340332031 997.47021484375 999.115966796875 994.914978027344 996.447021484375 995.461364746094 989.380676269531 993.912353515625 998.937377929688 997.122253417969 990.489013671875 982.894165039062 992.030090332031 1000.86865234375 999.600280761719 1000.62091064453 999.76904296875 1012.75988769531 1011.65985107422 1015.24346923828 1009.60809326172 1013.63256835938 1015.73583984375 1017.81298828125 1022.88061523438 1026.27819824219 1017.76959228516 1015.64611816406 1011.83123779297 1012.83044433594 1012.90979003906 1015.33703613281 1015.29925537109 1023.98333740234 1033.71008300781 1021.12408447266 1022.70544433594 1033.7763671875 1030.99645996094 1044.84704589844 1049.57067871094 1049.30529785156 1051.23828125 1053.42724609375 1056.97985839844 1051.97534179688 1058.78051757812 1054.59204101562 1049.38830566406 1050.50964355469 1046.87536621094 1036.994140625 1026.91979980469 1029.78332519531 1025.72314453125 1008.28076171875 1008.41357421875 1007.25982666016 999.610229492188 980.456237792969 980.16845703125 976.745178222656 980.048522949219 973.693298339844 969.230285644531 969.243469238281 968.586303710938 969.473571777344 958.661010742188 950.696899414062 952.940612792969 960.33935546875 964.929077148438 967.983581542969 966.404235839844 969.900756835938 976.234130859375 964.701110839844 965.14208984375 966.346618652344
