NCOLS 150
NROWS 37
XLLCORNER 7394249
YLLCORNER 4842779
CELLSIZE 30
NODATA_VALUE -9999
948.800231933594 945.336669921875 958.4599609375 959.523620605469 968.306213378906 971.339782714844 971.304382324219 967.740844726562 970.859497070312 970.868469238281 965.860900878906 963.618835449219 961.587341308594 959.134643554688 974.105163574219 973.341796875 967.847290039062 977.635620117188 980.981262207031 980.833679199219 979.590515136719 981.543212890625 975.80908203125 971.438232421875 961.596801757812 962.054565429688 974.10986328125 979.60791015625 980.143188476562 969.099060058594 965.07763671875 964.690856933594 964.764404296875 973.671752929688 976.619506835938 978.332153320312 975.431701660156 979.778381347656 979.318298339844 969.199462890625 974.063781738281 973.208923339844 971.359558105469 969.633361816406 964.178833007812 971.597839355469 978.402526855469 984.884460449219 985.45703125 972.536315917969 974.400146484375 974.941223144531 980.857238769531 975.308837890625 980.047058105469 970.612548828125 977.773620605469 962.521911621094 975.473754882812 973.490173339844 970.287292480469 972.745178222656 973.806396484375 971.444763183594 971.231506347656 974.272888183594 971.391906738281 974.851684570312 986.605163574219 981.391235351562 967.374877929688 967.353515625 971.527954101562 971.397399902344 960.628112792969 964.31689453125 977.816162109375 972.099853515625 985.752746582031 988.273681640625 990.362731933594 997.624084472656 997.939697265625 1005.90509033203 1012.62860107422 1007.15295410156 999.439147949219 997.67919921875 996.717529296875 1004.97082519531 1009.52185058594 1010.47930908203 1006.66522216797 1008.25384521484 993.300048828125 1002.59741210938 992.104919433594 1001.23077392578 997.458435058594 993.967834472656 996.162719726562 1000.37530517578 995.408752441406 991.518493652344 983.309265136719 983.871032714844 992.433532714844 993.084228515625 986.941284179688 990.977294921875 992.762084960938 996.091796875 1002.55969238281 1002.00964355469 995.64990234375 1001.67163085938 999.927795410156 1001.57440185547 1000.38421630859 996.081115722656 989.089538574219 987.225646972656 994.869873046875 997.142456054688 1008.74865722656 997.959106445312 1001.23870849609 1009.857421875 1010.73956298828 1012.49798583984 1012.81732177734 1004.08776855469 1012.97729492188 1016.29052734375 1016.25561523438 1016.08978271484 1026.38720703125 1046.4189453125 1056.64001464844 1055.08044433594 1070.44030761719 1081.0068359375 1092.04907226562 1094.86413574219 1099.16271972656 1104.35034179688 1114.82165527344 1101.21301269531 1101.59106445312 1105.58764648438
961.807373046875 959.036193847656 966.154602050781 967.662536621094 967.268798828125 970.51904296875 973.760864257812 973.972900390625 975.04833984375 968.546997070312 961.799011230469 960.950439453125 965.7939453125 970.632202148438 976.717834472656 978.548706054688 979.315490722656 978.535888671875 981.5166015625 980.316772460938 977.830627441406 977.639282226562 969.63232421875 975.243591308594 971.955444335938 970.986083984375 973.005126953125 975.254211425781 974.997497558594 969.565612792969 971.454833984375 974.182312011719 976.494018554688 983.531799316406 984.290771484375 975.90283203125 974.059204101562 973.891479492188 976.893798828125 971.127868652344 971.3515625 972.317199707031 968.166809082031 964.801513671875 965.2001953125 971.612548828125 968.564819335938 977.334106445312 983.560913085938 975.010437011719 973.089660644531 973.995483398438 980.189819335938 972.46630859375 975.283264160156 969.596069335938 974.811767578125 974.445617675781 977.518737792969 968.572631835938 967.202453613281 971.017761230469 971.994567871094 961.409545898438 972.19921875 966.208923339844 974.664245605469 983.813720703125 985.450927734375 987.168151855469 978.439147949219 976.355590820312 963.749633789062 969.260620117188 968.559448242188 966.915161132812 977.922546386719 977.632202148438 974.661987304688 987.39404296875 981.004760742188 993.889526367188 993.122619628906 1002.97485351562 1005.05407714844 1007.7734375 1003.61572265625 995.588317871094 996.676452636719 1000.30780029297 1008.39709472656 1003.16052246094 998.88525390625 1001.40093994141 997.564758300781 997.826477050781 992.275085449219 991.350524902344 989.156921386719 976.605102539062 992.343994140625 993.723205566406 992.081970214844 994.107543945312 993.528198242188 992.243957519531 984.92578125 989.904418945312 992.123352050781 990.232971191406 993.892700195312 994.150817871094 1005.44989013672 1002.93817138672 999.587890625 1003.0146484375 995.518493652344 999.829528808594 996.625305175781 992.739196777344 993.095947265625 990.026794433594 990.129089355469 1001.97668457031 1003.56030273438 1000.10516357422 1000.61529541016 1004.49053955078 1008.38171386719 1017.28552246094 1020.0224609375 1018.16198730469 1015.33026123047 1030.17761230469 1017.37115478516 1026.63452148438 1036.6640625 1051.71899414062 1061.70825195312 1061.76013183594 1071.25671386719 1085.94897460938 1096.56579589844 1095.23132324219 1108.8857421875 1115.37121582031 1114.49914550781 1116.47875976562 1114.34375 1109.11560058594
963.403930664062 969.298034667969 973.831787109375 968.011840820312 967.466735839844 974.233520507812 965.191467285156 971.391052246094 970.580810546875 963.359191894531 966.583068847656 965.50341796875 972.421875 975.122253417969 974.941284179688 973.747619628906 975.619873046875 975.33349609375 978.716064453125 970.270935058594 980.564575195312 977.256408691406 971.152954101562 964.701782226562 983.085632324219 972.429626464844 970.189697265625 970.459167480469 966.223693847656 971.885131835938 976.661254882812 979.326721191406 988.103637695312 990.312683105469 982.879150390625 973.528381347656 978.348937988281 977.683532714844 966.786254882812 966.926452636719 964.993041992188 964.819091796875 966.2578125 961.914184570312 972.264953613281 974.937744140625 970.949157714844 971.501037597656 977.807983398438 985.754943847656 978.799560546875 974.382568359375 972.573486328125 969.848510742188 982.419799804688 970.0908203125 970.63134765625 964.381286621094 966.87744140625 972.054138183594 976.795104980469 973.347717285156 975.0263671875 972.622619628906 964.486206054688 965.041564941406 974.0244140625 980.916198730469 984.933959960938 981.760559082031 980.940185546875 972.016296386719 969.672302246094 975.746154785156 972.804443359375 971.704711914062 964.319458007812 978.257568359375 979.578308105469 981.981140136719 982.051635742188 985.268432617188 995.245849609375 998.927612304688 1004.5732421875 999.583374023438 995.634582519531 985.411193847656 986.315368652344 997.393920898438 999.819580078125 997.080749511719 996.04833984375 994.607849121094 995.771789550781 1001.78662109375 989.582580566406 984.069641113281 988.780944824219 982.892150878906 998.341796875 998.111694335938 1000.95837402344 992.070983886719 989.527465820312 989.292114257812 984.117065429688 978.992553710938 992.594909667969 993.310546875 993.862854003906 992.111511230469 1002.77398681641 1005.96551513672 994.882080078125 998.874877929688 997.156555175781 997.716369628906 997.422485351562 987.407348632812 991.909973144531 989.645812988281 992.651550292969 999.635864257812 1006.13580322266 995.998352050781 1004.98858642578 1013.33428955078 1017.69488525391 1020.03594970703 1025.10205078125 1021.73706054688 1025.88684082031 1025.54711914062 1029.12219238281 1040.3154296875 1044.99658203125 1053.58386230469 1058.55053710938 1069.13598632812 1078.72534179688 1087.80651855469 1093.69213867188 1095.14025878906 1109.21594238281 1122.75866699219 1123.85668945312 1128.67211914062 1122.04870605469 1125.39025878906
960.582336425781 962.378051757812 959.578735351562 969.074523925781 971.675476074219 969.969970703125 967.971740722656 973.693969726562 966.123168945312 963.971008300781 970.028259277344 976.284729003906 972.081481933594 961.8681640625 966.280883789062 969.389770507812 977.414672851562 982.408752441406 964.498596191406 970.233947753906 971.039367675781 968.161804199219 965.660888671875 969.330017089844 971.743103027344 974.163513183594 975.076354980469 979.825439453125 971.825012207031 974.454833984375 977.272033691406 986.644409179688 992.825378417969 990.99609375 991.115417480469 978.552978515625 978.237243652344 977.0712890625 963.062377929688 967.072998046875 965.705322265625 967.948303222656 967.64208984375 967.243591308594 974.546325683594 982.384155273438 977.727172851562 986.992980957031 985.118103027344 983.253845214844 980.634826660156 978.026977539062 973.650512695312 970.9736328125 968.773864746094 971.190856933594 971.617309570312 964.418395996094 963.307739257812 973.324523925781 984.039672851562 984.135314941406 977.339782714844 972.776977539062 964.8369140625 966.105407714844 973.341430664062 978.563049316406 986.52197265625 988.471313476562 981.270385742188 970.999328613281 964.778015136719 975.016845703125 980.026733398438 967.900268554688 967.709411621094 965.663330078125 969.512878417969 979.171081542969 974.563537597656 985.700378417969 990.610595703125 998.736389160156 998.306518554688 1000.33044433594 994.153686523438 981.181762695312 982.948181152344 988.50537109375 994.903747558594 996.903015136719 992.056945800781 995.084777832031 995.222534179688 999.333984375 994.680114746094 991.434753417969 988.466369628906 990.660400390625 996.361267089844 1003.9287109375 1000.29241943359 994.667602539062 977.469055175781 983.670166015625 991.565185546875 984.611511230469 981.551025390625 984.598876953125 987.91015625 992.642395019531 986.669311523438 993.22265625 990.69287109375 995.117309570312 992.959228515625 1000.03149414062 1005.21643066406 995.6025390625 1001.80285644531 998.3759765625 989.774658203125 998.716735839844 1002.92401123047 999.969421386719 1008.8583984375 1024.32421875 1018.69781494141 1016.89410400391 1020.41540527344 1023.50482177734 1023.62542724609 1024.58435058594 1037.73681640625 1041.05505371094 1046.34497070312 1052.13269042969 1054.42724609375 1070.82641601562 1075.07421875 1088.84680175781 1099.75622558594 1109.47875976562 1123.75439453125 1131.67309570312 1133.27404785156 1135.63647460938 1136.35400390625 1134.62841796875
956.07861328125 947.583679199219 951.379150390625 957.507507324219 967.127807617188 962.026428222656 962.672973632812 958.413208007812 957.752624511719 958.718200683594 958.214050292969 968.844299316406 972.827941894531 967.402526855469 976.485900878906 981.168640136719 977.837951660156 977.9765625 965.568359375 974.713806152344 975.553771972656 973.114440917969 970.788696289062 965.854064941406 968.964660644531 965.857788085938 974.167907714844 974.003295898438 968.384338378906 973.861328125 979.806457519531 986.947448730469 992.765808105469 985.048034667969 979.703063964844 978.636901855469 977.255126953125 974.341247558594 976.959289550781 971.823669433594 966.496215820312 964.620666503906 966.974487304688 968.907470703125 977.382873535156 974.941650390625 977.718078613281 982.25244140625 981.661071777344 978.82568359375 978.949584960938 978.030029296875 972.014587402344 976.134704589844 969.920837402344 959.016479492188 964.228332519531 963.482666015625 968.688659667969 971.712951660156 980.83740234375 989.597290039062 982.943542480469 974.928894042969 972.481384277344 965.631530761719 969.92578125 977.844787597656 984.528686523438 987.67578125 978.338989257812 981.884216308594 971.884216308594 968.930358886719 977.749633789062 982.983825683594 975.683349609375 969.256286621094 972.461059570312 974.078430175781 983.915344238281 983.115356445312 992.238220214844 996.450012207031 990.781372070312 991.35302734375 991.3310546875 990.38916015625 984.010803222656 986.460754394531 989.358093261719 993.9091796875 991.911254882812 993.740661621094 994.215759277344 992.993957519531 989.401184082031 997.782897949219 988.392517089844 995.160949707031 994.133850097656 1002.28326416016 1005.91796875 987.792114257812 981.780700683594 988.62109375 980.656555175781 980.33544921875 984.168823242188 986.783569335938 986.91552734375 982.948974609375 982.252624511719 981.329223632812 987.829406738281 987.705810546875 992.539916992188 994.513000488281 993.189880371094 982.817260742188 995.974426269531 1001.62286376953 1001.28918457031 1003.45532226562 1002.24450683594 1008.23559570312 1014.71789550781 1025.50561523438 1024.68640136719 1020.56262207031 1023.22033691406 1033.23852539062 1031.0615234375 1032.51354980469 1040.60070800781 1041.06909179688 1051.51611328125 1064.99011230469 1068.87573242188 1078.3466796875 1084.17016601562 1101.84167480469 1116.89270019531 1126.19323730469 1140.41955566406 1148.52160644531 1140.95739746094 1135.16687011719 1139.63977050781 1128.77026367188
946.914733886719 944.793701171875 956.731079101562 957.245544433594 959.255004882812 949.647583007812 955.621765136719 960.228759765625 955.369140625 951.489624023438 958.505920410156 966.989868164062 982.00927734375 969.650573730469 972.95703125 979.079772949219 978.684326171875 977.53271484375 979.122497558594 974.809448242188 966.656311035156 964.658203125 963.814331054688 968.020446777344 967.342895507812 963.056701660156 971.806213378906 966.829406738281 962.624877929688 972.240844726562 975.829711914062 984.129333496094 986.134216308594 984.154174804688 971.967163085938 967.123840332031 976.981689453125 973.966369628906 975.878295898438 971.077697753906 962.855163574219 965.827819824219 964.404235839844 967.737915039062 971.432434082031 969.599060058594 963.154907226562 972.749938964844 973.825622558594 972.597229003906 968.218078613281 965.15478515625 967.580810546875 964.020202636719 963.242431640625 967.329895019531 969.223999023438 971.854675292969 971.997680664062 974.567199707031 982.354370117188 985.476989746094 978.559265136719 976.3837890625 978.492309570312 967.882873535156 969.750793457031 979.114013671875 984.861450195312 987.388488769531 978.905822753906 980.282287597656 967.209777832031 967.947082519531 964.388305664062 970.751525878906 978.603332519531 969.694274902344 972.012329101562 976.671264648438 974.810791015625 975.064575195312 978.903076171875 994.652160644531 987.532653808594 993.841186523438 991.444885253906 987.913452148438 991.023376464844 992.861755371094 989.433349609375 988.164672851562 985.229797363281 997.870056152344 987.131591796875 986.875366210938 988.234069824219 993.477966308594 990.688720703125 990.705200195312 995.49365234375 989.615600585938 993.770690917969 987.044738769531 981.486450195312 971.033874511719 980.294067382812 980.476684570312 982.097778320312 989.599975585938 981.974792480469 983.309326171875 986.256591796875 988.950317382812 988.649291992188 996.862548828125 989.75 989.207885742188 988.160400390625 991.807678222656 1000.42199707031 995.731994628906 1002.64880371094 1006.20892333984 1009.8740234375 1009.59637451172 1022.69189453125 1025.33325195312 1024.73791503906 1024.04052734375 1030.86376953125 1035.22534179688 1037.3701171875 1038.54455566406 1045.38415527344 1053.99096679688 1057.26794433594 1078.23596191406 1086.40148925781 1081.78295898438 1098.16076660156 1107.42712402344 1129.07104492188 1133.87756347656 1146.66882324219 1156.49206542969 1154.46826171875 1154.09594726562 1150.86499023438 1141.44226074219
947.586181640625 952.891479492188 954.976257324219 959.545654296875 947.490539550781 953.6181640625 956.765625 961.968566894531 962.197570800781 968.542785644531 957.252380371094 970.646667480469 980.92626953125 976.350830078125 970.298706054688 977.407958984375 975.749877929688 976.8916015625 974.166625976562 971.456848144531 972.291687011719 965.988952636719 969.878967285156 967.346984863281 966.0224609375 962.949645996094 976.994018554688 970.330017089844 970.31884765625 970.066345214844 984.768920898438 982.230895996094 981.208129882812 971.037719726562 974.353637695312 970.928039550781 975.301147460938 980.745483398438 978.7861328125 980.3759765625 955.782592773438 959.740173339844 969.298217773438 965.939208984375 971.859375 967.819885253906 968.235961914062 971.627685546875 974.750305175781 975.362548828125 972.46435546875 968.000610351562 973.464721679688 964.380981445312 968.880676269531 967.342163085938 971.632080078125 972.331176757812 972.045593261719 972.46630859375 983.375 983.041748046875 983.947998046875 970.489135742188 975.706176757812 976.329528808594 970.268249511719 979.3759765625 976.300048828125 981.999084472656 980.311157226562 984.5517578125 977.791259765625 963.217590332031 963.400512695312 970.143859863281 969.708312988281 970.67333984375 976.422424316406 976.212280273438 974.536865234375 975.52685546875 979.612548828125 983.926086425781 980.50537109375 984.635986328125 988.269775390625 981.412658691406 982.559936523438 994.518920898438 990.104614257812 987.279541015625 987.85302734375 984.80224609375 982.855651855469 990.470581054688 987.398986816406 990.218811035156 991.492248535156 991.029357910156 993.654174804688 982.343200683594 977.509521484375 974.090942382812 975.783264160156 975.561889648438 986.068115234375 984.662536621094 987.663757324219 991.192260742188 986.150451660156 987.835205078125 993.429321289062 987.329528808594 991.990844726562 988.637756347656 992.880615234375 995.835876464844 1002.060546875 990.612915039062 991.8505859375 993.097290039062 1005.86669921875 1012.83752441406 1005.82867431641 1006.46801757812 1014.99731445312 1020.93298339844 1025.34704589844 1028.65197753906 1037.51818847656 1032.43322753906 1043.74658203125 1048.32934570312 1059.1826171875 1064.7763671875 1072.16784667969 1074.35192871094 1087.33825683594 1100.80187988281 1110.99243164062 1115.28381347656 1126.19384765625 1134.68640136719 1138.47143554688 1152.05187988281 1162.25134277344 1157.00634765625 1157.41784667969 1146.04418945312
946.591613769531 953.321166992188 947.575866699219 943.294616699219 944.841613769531 954.218627929688 951.121704101562 956.30810546875 961.798095703125 959.597412109375 961.61181640625 962.502990722656 970.088928222656 972.092529296875 973.836242675781 982.101501464844 978.127563476562 979.331237792969 978.318542480469 971.516662597656 973.566833496094 966.725463867188 964.143920898438 957.330749511719 972.970703125 964.276306152344 968.465148925781 968.647033691406 967.937438964844 970.344116210938 979.666442871094 990.57373046875 975.280944824219 972.086059570312 970.361083984375 976.228576660156 972.770324707031 981.517150878906 977.314697265625 974.831726074219 968.307861328125 969.398254394531 959.281311035156 961.97021484375 962.554809570312 960.168701171875 966.45263671875 966.014038085938 968.304748535156 973.873168945312 971.755798339844 973.978820800781 973.938598632812 970.050170898438 975.146728515625 975.765075683594 981.656860351562 982.517822265625 969.144714355469 974.498840332031 974.143920898438 974.752807617188 980.6865234375 980.687072753906 976.376831054688 972.731018066406 975.195251464844 976.269226074219 977.2314453125 974.1630859375 978.502136230469 975.867736816406 965.340454101562 964.995910644531 968.572814941406 966.850036621094 971.959533691406 976.499389648438 973.890258789062 968.283325195312 966.153930664062 971.987731933594 972.217529296875 973.620971679688 972.424438476562 983.47802734375 976.138000488281 984.714721679688 979.499450683594 982.450012207031 987.786376953125 984.2216796875 978.339721679688 982.620666503906 981.579956054688 983.581726074219 990.501831054688 996.795471191406 990.577331542969 988.352844238281 986.454223632812 979.358215332031 975.053100585938 978.960083007812 976.644226074219 981.74267578125 992.457458496094 999.931213378906 989.789306640625 993.486450195312 998.301574707031 995.659118652344 991.117553710938 990.58935546875 988.825378417969 995.959899902344 1004.93310546875 1000.14935302734 998.637451171875 993.933410644531 992.22265625 991.020385742188 1006.08666992188 1007.49810791016 997.846008300781 1006.81842041016 1008.20141601562 1020.87689208984 1038.4345703125 1040.96154785156 1036.31872558594 1033.89965820312 1047.40234375 1049.85510253906 1058.88659667969 1067.65808105469 1080.38793945312 1084.87463378906 1092.58740234375 1109.31018066406 1120.0283203125 1122.84875488281 1128.28479003906 1134.00793457031 1145.20446777344 1153.646484375 1164.85717773438 1170.12023925781 1158.91223144531 1147.07177734375
941.975708007812 943.752014160156 951.198791503906 954.6533203125 956.131652832031 958.405639648438 955.118347167969 955.902282714844 970.11279296875 960.777893066406 952.641662597656 956.78173828125 968.105895996094 968.30517578125 971.215393066406 976.803100585938 978.550354003906 980.27783203125 969.250854492188 978.571228027344 975.434753417969 966.078369140625 971.881103515625 960.962158203125 964.603271484375 967.414672851562 968.502868652344 969.557006835938 964.498413085938 970.123901367188 978.458801269531 978.832580566406 970.725708007812 974.56494140625 970.985107421875 974.620788574219 967.807922363281 977.478454589844 980.554809570312 975.203857421875 969.513793945312 967.760803222656 964.488830566406 965.820922851562 969.802978515625 967.198913574219 961.603393554688 964.029602050781 969.0029296875 975.159851074219 972.275939941406 969.046447753906 972.590454101562 967.0634765625 974.281066894531 975.761047363281 980.488525390625 976.86083984375 974.475280761719 985.877685546875 969.327209472656 975.35400390625 979.213928222656 980.706298828125 970.503234863281 969.099609375 968.007446289062 961.008850097656 968.629516601562 972.976806640625 974.71044921875 975.05615234375 964.9599609375 961.147155761719 955.509948730469 968.21337890625 965.989501953125 972.0205078125 977.594360351562 969.364013671875 970.661193847656 969.252380371094 974.650634765625 964.299011230469 966.808837890625 969.971130371094 983.45458984375 985.484252929688 988.153137207031 981.37939453125 983.417358398438 977.907348632812 979.661804199219 987.035705566406 975.705688476562 982.560546875 982.881103515625 985.828063964844 988.762939453125 990.842834472656 981.047607421875 988.609680175781 982.578430175781 984.819152832031 986.454772949219 993.015014648438 993.577941894531 1003.42626953125 1008.13397216797 1007.56677246094 1005.97430419922 1004.8671875 998.045104980469 1000.7041015625 998.18212890625 1000.87329101562 1007.60998535156 998.104675292969 996.857971191406 988.791442871094 1001.58569335938 1002.27465820312 1008.19091796875 1006.34973144531 1002.17224121094 1002.16412353516 1013.14794921875 1016.11938476562 1030.79638671875 1044.14379882812 1040.84338378906 1045.23364257812 1055.20642089844 1053.05041503906 1060.57568359375 1071.81176757812 1084.31579589844 1098.45458984375 1105.46057128906 1118.08569335938 1117.53576660156 1119.83618164062 1129.86987304688 1126.16101074219 1148.88598632812 1156.86755371094 1163.84411621094 1171.068359375 1158.27026367188 1150.73120117188
949.896606445312 944.5576171875 960.871704101562 963.286254882812 958.549865722656 956.444030761719 952.273742675781 956.676452636719 971.234924316406 961.940002441406 954.975341796875 962.849792480469 973.366149902344 966.583435058594 967.697570800781 967.636474609375 971.408569335938 976.330444335938 986.028564453125 979.518127441406 971.807800292969 963.294677734375 968.201843261719 965.924926757812 962.16943359375 962.6650390625 970.678161621094 969.269897460938 970.193664550781 972.934631347656 972.753479003906 980.078918457031 976.372985839844 971.246215820312 980.569519042969 966.059143066406 967.749328613281 970.50830078125 968.708557128906 968.229736328125 974.645629882812 971.596130371094 963.618530273438 964.764099121094 963.247192382812 957.069091796875 959.239868164062 961.630615234375 966.309692382812 968.995239257812 968.07177734375 966.634582519531 966.678344726562 963.9384765625 974.991455078125 973.905151367188 968.82666015625 965.584594726562 972.285705566406 984.145629882812 972.061157226562 969.715087890625 969.5859375 976.498413085938 974.123229980469 965.779541015625 964.003173828125 960.431335449219 965.724609375 972.758544921875 971.291442871094 968.931884765625 960.433898925781 960.235717773438 961.103698730469 973.83154296875 969.573181152344 973.050903320312 977.986999511719 969.647155761719 972.696594238281 968.51708984375 967.267211914062 975.677917480469 976.234191894531 979.814819335938 976.061950683594 973.293579101562 972.426696777344 979.624206542969 982.092102050781 975.931457519531 977.174194335938 974.622680664062 969.429016113281 976.586547851562 987.382446289062 977.3544921875 992.987365722656 979.503051757812 981.869262695312 985.722412109375 991.10986328125 987.706298828125 993.397644042969 996.047668457031 994.669128417969 992.490844726562 995.730041503906 1012.69281005859 999.7275390625 997.154602050781 1000.05456542969 1001.80224609375 1001.451171875 1004.00720214844 1007.88409423828 1006.67535400391 1003.88494873047 997.443176269531 1004.99676513672 1011.47839355469 1007.18255615234 1014.97296142578 1017.09771728516 1021.76727294922 1029.57263183594 1022.19873046875 1036.81958007812 1049.54125976562 1039.10607910156 1041.68078613281 1049.23059082031 1059.60375976562 1065.1533203125 1076.34216308594 1090.86535644531 1093.84838867188 1105.18273925781 1115.76843261719 1126.63049316406 1119.5166015625 1124.90661621094 1130.13208007812 1141.65148925781 1148.5595703125 1151.98425292969 1165.0595703125 1164.45263671875 1163.93115234375
959.997863769531 954.795715332031 960.288146972656 958.461608886719 959.838073730469 964.468078613281 965.140197753906 963.93408203125 962.624145507812 959.207092285156 960.566955566406 967.757873535156 974.734375 967.693664550781 970.724548339844 965.434875488281 973.782836914062 987.475708007812 985.634765625 974.078125 971.483154296875 962.819763183594 963.94140625 954.598449707031 962.114807128906 966.505310058594 974.169982910156 973.980651855469 969.672485351562 976.217041015625 977.276000976562 981.060485839844 977.082702636719 971.749328613281 967.236511230469 962.5146484375 971.089294433594 974.407775878906 965.508728027344 973.630737304688 966.989196777344 966.451416015625 958.500915527344 961.580017089844 965.832458496094 965.298767089844 958.510986328125 958.355773925781 966.716369628906 965.995300292969 965.096313476562 959.107849121094 955.314392089844 958.61083984375 963.992126464844 963.449584960938 967.513427734375 965.818115234375 970.128540039062 973.293334960938 976.062561035156 966.920837402344 963.706298828125 969.107788085938 966.344360351562 964.499328613281 963.306396484375 960.233215332031 961.671752929688 963.526306152344 977.503723144531 968.25341796875 964.836364746094 962.715393066406 969.128723144531 978.087341308594 973.784912109375 969.592834472656 969.587463378906 964.595397949219 970.173583984375 965.615356445312 967.350646972656 976.047668457031 985.045349121094 969.623474121094 975.550598144531 978.248413085938 977.036071777344 982.42626953125 977.533508300781 971.473388671875 973.577514648438 971.755859375 977.580078125 982.26611328125 986.021789550781 987.353881835938 980.498474121094 977.931579589844 986.011169433594 986.860961914062 986.158386230469 994.674926757812 994.594665527344 994.868896484375 988.833740234375 994.927673339844 991.334350585938 1005.75799560547 998.2412109375 993.421630859375 995.842834472656 1001.82202148438 1007.00280761719 1006.69146728516 1004.70202636719 1012.44403076172 1007.80932617188 1015.25378417969 1014.25524902344 1025.46350097656 1018.97729492188 1022.96936035156 1020.85638427734 1029.83422851562 1031.40832519531 1024.59948730469 1036.56591796875 1042.12023925781 1042.17822265625 1046.44348144531 1047.74499511719 1058.46752929688 1077.30578613281 1085.59301757812 1093.00756835938 1106.09741210938 1110.25158691406 1107.99450683594 1124.33386230469 1125.66589355469 1127.65673828125 1135.80529785156 1146.51428222656 1150.37976074219 1148.93530273438 1153.09228515625 1159.98486328125 1157.15808105469
952.580627441406 951.515441894531 956.315185546875 956.775756835938 957.022888183594 964.089416503906 963.891662597656 967.4931640625 970.534423828125 968.57763671875 965.91259765625 976.561401367188 971.594787597656 973.423706054688 974.746276855469 981.741516113281 980.62841796875 984.848083496094 983.766784667969 979.639282226562 966.596313476562 958.128662109375 961.368225097656 956.671997070312 959.766479492188 964.365173339844 967.351440429688 972.5830078125 969.871948242188 976.407104492188 972.90576171875 978.812072753906 970.276428222656 968.772644042969 975.009948730469 962.633361816406 968.210815429688 965.036804199219 974.911254882812 970.718811035156 967.008544921875 966.656616210938 961.077453613281 963.666931152344 959.908203125 961.696105957031 959.394592285156 959.611450195312 970.093444824219 963.657043457031 959.561645507812 954.4580078125 956.382751464844 962.192993164062 959.559814453125 965.398376464844 968.889282226562 969.803100585938 971.051635742188 966.286499023438 968.352416992188 962.2744140625 958.896301269531 965.713317871094 963.842895507812 958.578491210938 960.317687988281 959.934875488281 953.423645019531 964.8662109375 974.395568847656 967.106628417969 964.271240234375 973.505859375 968.032165527344 968.723815917969 965.570129394531 961.674560546875 961.522827148438 964.152587890625 961.997863769531 969.137756347656 969.548522949219 972.70263671875 982.691711425781 972.511413574219 970.698486328125 979.499633789062 979.973022460938 984.949096679688 977.754577636719 971.910095214844 979.863220214844 982.940795898438 983.501892089844 988.500305175781 986.810852050781 975.684509277344 968.620971679688 976.315246582031 977.748474121094 981.33642578125 987.440063476562 990.620849609375 1001.20092773438 992.310974121094 993.105346679688 988.236328125 982.611083984375 996.443237304688 997.555603027344 993.10009765625 987.684692382812 996.590942382812 1006.46667480469 1002.25280761719 999.175109863281 1009.6787109375 1013.53863525391 1013.29089355469 1019.65405273438 1029.61389160156 1032.33569335938 1017.22406005859 1027.31982421875 1037.19372558594 1032.52209472656 1036.44189453125 1036.04614257812 1048.50939941406 1046.70947265625 1054.69812011719 1054.88525390625 1063.65881347656 1082.90185546875 1093.62829589844 1097.44445800781 1097.91516113281 1099.81115722656 1105.41760253906 1107.48522949219 1121.64624023438 1131.62670898438 1134.4814453125 1142.05114746094 1138.97583007812 1137.123046875 1149.5 1152.3662109375 1156.99096679688
958.640930175781 954.339050292969 951.338012695312 960.958374023438 957.150207519531 966.208679199219 973.833068847656 971.91064453125 971.062866210938 976.601196289062 968.9482421875 981.312683105469 981.16259765625 981.682739257812 985.65478515625 984.635620117188 976.697875976562 979.286926269531 979.121826171875 975.772338867188 976.278137207031 965.229858398438 960.418762207031 962.745300292969 963.225646972656 957.859252929688 959.20166015625 956.090515136719 956.307067871094 968.113586425781 968.088500976562 970.62939453125 969.220886230469 963.815734863281 970.013793945312 970.444946289062 960.344360351562 966.929870605469 971.734985351562 960.55419921875 959.487365722656 961.904541015625 962.038208007812 960.418701171875 958.146911621094 959.832275390625 958.430358886719 959.478088378906 962.091552734375 960.828125 960.654296875 960.867919921875 955.8818359375 958.869018554688 965.031555175781 961.254272460938 962.299438476562 967.557189941406 971.75439453125 958.436584472656 960.9580078125 954.939453125 959.959289550781 964.120727539062 955.963500976562 954.905517578125 963.320922851562 959.170227050781 947.385803222656 955.021606445312 965.068176269531 962.596923828125 961.66357421875 967.27197265625 973.817138671875 974.529113769531 969.288879394531 962.533935546875 962.592834472656 965.358276367188 960.465881347656 966.015502929688 968.549682617188 959.007202148438 968.621765136719 975.359802246094 970.781616210938 970.91357421875 971.489379882812 979.624877929688 974.027648925781 974.279296875 972.792053222656 972.970886230469 976.479675292969 979.80859375 976.022338867188 977.158386230469 972.029602050781 973.836120605469 976.189147949219 983.223754882812 989.281005859375 989.141479492188 996.978332519531 996.992248535156 989.476440429688 979.824157714844 984.463195800781 986.171203613281 990.440734863281 991.247131347656 992.258117675781 988.196105957031 1002.31872558594 1007.85119628906 1006.4208984375 1013.20806884766 1016.06408691406 1020.43548583984 1017.8701171875 1025.38806152344 1015.99780273438 1019.88848876953 1030.376953125 1032.11450195312 1039.34020996094 1040.96447753906 1034.40466308594 1045.94482421875 1049.45544433594 1055.65344238281 1059.64880371094 1070.05456542969 1076.96264648438 1083.5732421875 1087.89025878906 1085.9833984375 1095.87182617188 1096.89916992188 1103.83520507812 1117.88452148438 1135.65515136719 1127.96215820312 1133.94934082031 1138.40307617188 1145.02197265625 1145.39685058594 1145.90185546875 1151.4228515625
952.312377929688 957.076965332031 961.7470703125 961.885864257812 973.160766601562 971.726440429688 969.898132324219 970.32861328125 974.379211425781 980.558227539062 975.535522460938 975.981811523438 973.007568359375 984.343811035156 981.341979980469 977.319274902344 975.021179199219 974.044799804688 971.157592773438 974.017395019531 975.56201171875 970.646667480469 966.904357910156 963.452514648438 961.811950683594 965.644836425781 958.956115722656 954.994140625 965.332702636719 971.628112792969 969.339172363281 973.142517089844 963.84619140625 955.684387207031 963.847229003906 965.697937011719 963.826965332031 966.007202148438 965.576416015625 957.027587890625 959.784545898438 952.028564453125 968.936706542969 961.425170898438 958.312377929688 963.957580566406 966.000427246094 959.151672363281 958.762084960938 962.004272460938 967.875549316406 959.2353515625 958.327087402344 963.169311523438 957.007202148438 956.168701171875 959.504333496094 967.365844726562 964.111511230469 961.964904785156 963.447448730469 961.231140136719 961.319213867188 962.063537597656 961.548583984375 954.576904296875 961.427978515625 958.235717773438 946.976013183594 949.259338378906 955.781921386719 959.292541503906 963.55126953125 968.670227050781 965.779663085938 963.316589355469 966.418151855469 954.861083984375 961.001892089844 961.048828125 958.171081542969 956.483032226562 957.378479003906 962.367797851562 967.853454589844 971.661499023438 979.954956054688 977.629455566406 967.100891113281 969.89453125 972.691650390625 973.824035644531 972.955688476562 971.163269042969 968.599365234375 971.179870605469 974.463989257812 981.296813964844 974.745422363281 978.593872070312 984.188171386719 983.660766601562 989.220275878906 989.943786621094 989.033142089844 990.162292480469 981.863952636719 971.591186523438 975.888793945312 989.20166015625 990.77978515625 990.943786621094 994.068969726562 993.090393066406 995.551879882812 998.31298828125 1009.23126220703 1018.86175537109 1016.42718505859 1014.59484863281 1021.18676757812 1029.23803710938 1030.15380859375 1024.19396972656 1032.10778808594 1038.16027832031 1039.66027832031 1040.61791992188 1036.25366210938 1041.37902832031 1044.28161621094 1046.02941894531 1058.31628417969 1067.54223632812 1070.33410644531 1069.83557128906 1080.41064453125 1086.14770507812 1092.18786621094 1095.45068359375 1095.06884765625 1116.47937011719 1124.64294433594 1130.99682617188 1126.16479492188 1135.44323730469 1132.794921875 1132.21411132812 1141.16857910156 1134.86828613281
959.897277832031 960.778442382812 964.268188476562 969.988647460938 964.437072753906 966.413146972656 970.475463867188 973.348876953125 974.1328125 978.593017578125 977.008850097656 980.246520996094 977.360778808594 980.16064453125 975.470825195312 976.799926757812 975.083984375 972.939147949219 965.679992675781 976.131652832031 979.294128417969 971.942626953125 972.552917480469 965.525085449219 961.433044433594 959.780212402344 962.491577148438 953.803283691406 956.866088867188 973.407897949219 971.286376953125 977.653686523438 966.470764160156 965.271911621094 965.967895507812 966.894165039062 964.12451171875 967.085754394531 971.007751464844 957.231140136719 957.646118164062 960.370239257812 965.243286132812 967.691711425781 966.052307128906 967.577941894531 967.889770507812 972.25439453125 959.059265136719 950.964965820312 962.967407226562 955.01025390625 966.619567871094 968.571594238281 965.340637207031 955.191467285156 959.469909667969 964.299011230469 956.451354980469 960.087524414062 959.792846679688 960.456665039062 957.005981445312 965.248168945312 971.571228027344 962.562561035156 955.067810058594 952.289306640625 945.289672851562 949.667785644531 945.451599121094 959.383056640625 965.16796875 964.652160644531 972.469604492188 967.318908691406 964.420715332031 960.446228027344 967.906677246094 961.810180664062 956.070983886719 947.935668945312 956.634582519531 966.456665039062 973.342712402344 976.637634277344 972.146545410156 968.764770507812 970.071228027344 965.814025878906 969.259033203125 976.120849609375 976.568786621094 975.210205078125 971.264831542969 975.572387695312 976.857238769531 976.66796875 975.2470703125 985.290649414062 982.538818359375 983.075378417969 981.390930175781 977.8203125 987.675598144531 981.107727050781 984.283325195312 977.4111328125 968.967041015625 979.978454589844 983.760925292969 990.000793457031 988.619567871094 981.098083496094 987.21240234375 998.807800292969 1009.24151611328 1007.62200927734 1012.83734130859 1011.09393310547 1012.06463623047 1025.74975585938 1031.16174316406 1033.60827636719 1033.88256835938 1036.43420410156 1041.81579589844 1037.57434082031 1031.8212890625 1031.53198242188 1042.83471679688 1041.30236816406 1053.58654785156 1054.52416992188 1062.39526367188 1067.3916015625 1075.46667480469 1084.27795410156 1091.330078125 1097.13208007812 1098.69396972656 1109.76135253906 1118.08947753906 1123.74926757812 1112.51879882812 1128.77648925781 1125.53796386719 1127.43493652344 1122.53283691406 1132.63061523438
965.237609863281 965.316528320312 973.805236816406 964.704040527344 967.110595703125 970.633605957031 977.078857421875 972.133728027344 978.566589355469 982.257690429688 979.982727050781 977.692565917969 978.672241210938 981.737731933594 980.259582519531 982.751953125 971.481384277344 973.744995117188 959.696411132812 970.226440429688 970.221862792969 971.212463378906 968.939636230469 959.519897460938 963.170593261719 956.517150878906 957.227661132812 960.425842285156 959.491760253906 961.464782714844 968.257385253906 973.682189941406 958.534973144531 968.052490234375 978.436950683594 974.465576171875 965.915832519531 967.553588867188 965.666137695312 963.291198730469 960.908325195312 958.159362792969 963.884094238281 958.316223144531 960.539123535156 967.313720703125 969.651733398438 972.916015625 966.294799804688 959.259338378906 959.75048828125 959.800109863281 956.796691894531 958.800659179688 959.844116210938 962.522155761719 954.485595703125 959.508361816406 954.633178710938 949.398864746094 952.540222167969 960.709655761719 959.604248046875 972.876159667969 966.872009277344 963.0322265625 964.286376953125 958.087707519531 951.067504882812 951.470642089844 954.077819824219 955.729675292969 963.736694335938 962.92626953125 964.514709472656 966.065856933594 968.830993652344 957.916015625 968.437622070312 957.942687988281 951.92529296875 956.726135253906 961.162292480469 969.464416503906 982.428161621094 977.018981933594 977.513244628906 967.426391601562 968.935119628906 971.156799316406 969.737060546875 975.976806640625 982.606872558594 970.911682128906 967.917907714844 973.822631835938 981.663146972656 973.382202148438 973.466064453125 973.3212890625 973.487548828125 981.509521484375 983.999816894531 975.800720214844 981.031066894531 980.188110351562 981.359069824219 977.786437988281 980.496887207031 979.362670898438 979.820495605469 983.120788574219 982.69775390625 977.699523925781 993.408081054688 999.041748046875 1000.67303466797 1005.22827148438 1010.79339599609 1015.87841796875 1019.90570068359 1022.10455322266 1027.00317382812 1029.9130859375 1033.47009277344 1040.99890136719 1035.27868652344 1036.95446777344 1029.14086914062 1028.24987792969 1036.56860351562 1038.96557617188 1048.80078125 1056.26281738281 1065.27758789062 1071.4921875 1078.75732421875 1088.12829589844 1094.81652832031 1100.44897460938 1092.49975585938 1102.58679199219 1105.68786621094 1125.26354980469 1114.494140625 1125.29907226562 1105.08605957031 1115.12622070312 1119.99255371094 1113.1904296875
972.931884765625 968.146545410156 966.628051757812 967.363586425781 969.681884765625 968.474426269531 971.228088378906 971.442565917969 974.901672363281 978.144470214844 973.183410644531 976.610473632812 970.935180664062 974.606872558594 979.009948730469 979.618225097656 971.244689941406 967.223022460938 970.524291992188 962.808898925781 960.283203125 963.207275390625 965.093444824219 956.146789550781 958.260986328125 948.090759277344 954.367126464844 961.199523925781 966.549560546875 966.493225097656 964.63818359375 968.978454589844 967.16650390625 963.634643554688 972.532104492188 969.939819335938 967.324951171875 968.569763183594 949.344177246094 954.007202148438 947.729309082031 964.855407714844 955.802124023438 954.959106445312 962.457153320312 959.902282714844 962.533569335938 961.421325683594 960.363037109375 966.989562988281 960.804443359375 964.022033691406 957.515075683594 951.225646972656 956.185363769531 957.009460449219 955.459838867188 959.51904296875 957.867614746094 961.656188964844 950.483642578125 955.812622070312 961.397399902344 960.562744140625 963.004699707031 970.182250976562 964.058288574219 956.852966308594 959.68408203125 964.88671875 962.66455078125 966.099853515625 963.084533691406 957.622253417969 964.868774414062 962.050537109375 965.545043945312 965.494262695312 960.552062988281 967.826782226562 958.763244628906 959.805603027344 966.491821289062 982.087768554688 989.161560058594 985.321350097656 978.123596191406 972.368896484375 968.4521484375 969.277404785156 972.861572265625 979.783386230469 979.997924804688 967.744567871094 971.053039550781 967.703735351562 975.560852050781 967.440002441406 968.028747558594 971.075073242188 974.238586425781 978.654479980469 974.912658691406 980.796020507812 977.760314941406 984.332092285156 979.2890625 976.731079101562 972.172241210938 979.150512695312 978.881225585938 980.853271484375 976.572937011719 983.878234863281 992.389099121094 997.872863769531 1003.07574462891 1010.66046142578 1006.80297851562 1015.29083251953 1015.10375976562 1021.60052490234 1031.69494628906 1031.78601074219 1036.05187988281 1043.99084472656 1038.42236328125 1032.69445800781 1021.529296875 1025.04382324219 1028.88916015625 1024.91564941406 1036.20581054688 1049.7353515625 1064.2001953125 1070.65222167969 1091.89953613281 1089.56127929688 1088.80810546875 1092.9736328125 1091.83679199219 1091.17333984375 1103.18872070312 1107.63269042969 1110.73510742188 1107.90710449219 1101.82922363281 1102.3828125 1102.71411132812 1096.22436523438
966.319396972656 970.040222167969 971.950378417969 971.886352539062 971.70556640625 976.487609863281 971.838317871094 972.989868164062 969.33935546875 974.125061035156 972.076538085938 970.018188476562 964.653991699219 972.607360839844 983.497985839844 979.897705078125 976.820678710938 971.388122558594 966.242492675781 952.683227539062 962.29638671875 971.419921875 970.627380371094 964.149169921875 950.912048339844 951.416137695312 956.24755859375 953.9794921875 967.372985839844 969.923706054688 964.215270996094 957.371826171875 959.102783203125 958.789672851562 964.111694335938 965.213012695312 965.834411621094 968.288391113281 952.024719238281 948.597534179688 947.30078125 963.261413574219 958.963256835938 959.198303222656 957.362915039062 951.290710449219 953.195129394531 951.864379882812 955.153442382812 955.165161132812 959.518310546875 954.466979980469 955.077453613281 952.857727050781 952.780029296875 960.607849121094 953.352844238281 967.168640136719 961.456848144531 953.498291015625 963.211975097656 956.332153320312 957.044555664062 956.239074707031 958.384582519531 963.929870605469 966.780334472656 961.546569824219 963.886352539062 964.641784667969 966.595886230469 963.367980957031 964.2021484375 961.455871582031 967.621459960938 963.333618164062 962.178161621094 958.975952148438 955.992736816406 964.189758300781 967.16064453125 968.984069824219 965.518249511719 977.40185546875 984.401306152344 980.505249023438 968.300964355469 971.862548828125 964.020446777344 963.60498046875 976.147277832031 979.9794921875 978.551452636719 972.866027832031 970.163330078125 972.470031738281 983.746520996094 969.748168945312 967.654052734375 967.997375488281 971.553161621094 973.705200195312 973.283752441406 978.809204101562 974.739440917969 971.190063476562 975.455261230469 971.255493164062 976.016723632812 974.21875 977.11962890625 982.450134277344 981.702270507812 980.431640625 998.388549804688 1003.90301513672 996.574829101562 999.761291503906 1005.76287841797 1011.51373291016 1017.98132324219 1022.96600341797 1034.66430664062 1039.00146484375 1042.06372070312 1044.50793457031 1040.31091308594 1030.55310058594 1024.91101074219 1031.82727050781 1026.4228515625 1024.65368652344 1042.3212890625 1059.89758300781 1062.05786132812 1073.58862304688 1090.33703613281 1091.34753417969 1085.33435058594 1083.17260742188 1090.36767578125 1096.04406738281 1106.63317871094 1108.35192871094 1107.63623046875 1105.44348144531 1098.19702148438 1085.85217285156 1086.19689941406 1096.18249511719
967.233459472656 967.829406738281 972.170166015625 977.034912109375 979.803039550781 964.212951660156 964.537170410156 966.363464355469 964.185607910156 970.569641113281 967.301147460938 972.722839355469 968.495361328125 975.177062988281 974.739196777344 971.815246582031 974.621276855469 969.630432128906 965.145812988281 962.210876464844 972.047973632812 969.9150390625 972.135498046875 968.387023925781 948.705993652344 943.841613769531 948.292175292969 956.386291503906 952.382934570312 953.069519042969 962.101501464844 962.065612792969 954.235961914062 951.73681640625 958.527526855469 968.947692871094 962.852478027344 960.724975585938 949.565002441406 952.954040527344 953.104187011719 962.685241699219 963.5859375 962.422668457031 954.928039550781 954.670654296875 952.504577636719 955.703735351562 955.667846679688 947.094604492188 944.994201660156 950.239807128906 952.325866699219 942.1865234375 953.133728027344 963.74462890625 958.8193359375 968.352661132812 959.362121582031 959.672180175781 960.607116699219 963.627319335938 956.245178222656 954.524658203125 962.033752441406 958.868774414062 956.208923339844 959.740173339844 965.075866699219 960.306518554688 962.543884277344 953.972229003906 960.795532226562 961.012878417969 958.121520996094 964.72998046875 960.480712890625 964.763427734375 966.669067382812 967.49951171875 963.015380859375 964.8125 971.563415527344 973.322448730469 970.973022460938 969.278869628906 976.757629394531 969.514099121094 960.687377929688 958.153442382812 974.017578125 977.042785644531 972.544189453125 973.200622558594 975.831970214844 976.929809570312 979.945495605469 978.0009765625 971.3115234375 973.544921875 977.658447265625 979.139404296875 983.699768066406 977.515075683594 969.739990234375 967.542663574219 984.617004394531 980.954040527344 975.447448730469 980.4248046875 981.311218261719 980.108947753906 980.488037109375 988.209411621094 995.987243652344 1002.74505615234 1001.65649414062 990.596984863281 1008.41387939453 1012.42712402344 1025.09899902344 1033.37951660156 1035.44213867188 1037.2119140625 1035.00512695312 1049.30725097656 1044.77600097656 1027.73999023438 1019.51745605469 1033.64733886719 1034.21423339844 1035.08422851562 1040.7763671875 1057.49145507812 1070.81091308594 1086.54467773438 1087.67126464844 1090.43774414062 1092.5185546875 1089.83703613281 1086.42565917969 1096.21875 1099.71752929688 1092.623046875 1096.87316894531 1096.42297363281 1085.52221679688 1078.16772460938 1079.87255859375 1085.75268554688
970.198486328125 967.896179199219 967.440246582031 973.400390625 979.401428222656 968.101684570312 965.103149414062 971.60107421875 970.867614746094 973.450866699219 958.156555175781 958.989624023438 965.940063476562 959.620178222656 972.8740234375 967.10791015625 965.099914550781 962.649963378906 968.236267089844 964.128112792969 967.864990234375 974.974670410156 966.902709960938 964.018005371094 955.756896972656 949.836059570312 942.350952148438 948.449462890625 955.225219726562 963.728759765625 965.9931640625 964.28173828125 955.368957519531 954.439514160156 957.802429199219 970.928405761719 965.554321289062 958.622863769531 947.0673828125 946.571838378906 948.388427734375 959.190795898438 953.901000976562 964.230590820312 953.360107421875 955.478942871094 956.444213867188 948.281372070312 951.428405761719 943.150817871094 949.384399414062 950.477966308594 949.780517578125 955.917785644531 964.31494140625 967.055053710938 956.182983398438 964.055236816406 960.132568359375 959.00244140625 956.190307617188 960.906372070312 963.398864746094 956.306701660156 962.871643066406 952.619201660156 954.893432617188 965.399963378906 973.730285644531 964.438781738281 958.926147460938 954.53466796875 959.837768554688 958.704833984375 955.992309570312 957.041564941406 961.58984375 960.913513183594 959.8349609375 960.944946289062 961.487121582031 957.387817382812 958.987487792969 959.558349609375 966.543090820312 969.846435546875 969.317565917969 967.567687988281 962.301818847656 956.348205566406 968.917297363281 972.313110351562 975.0107421875 977.874572753906 978.243408203125 970.3193359375 978.738159179688 980.752746582031 974.604309082031 974.486694335938 981.1474609375 981.752685546875 988.288024902344 977.792785644531 971.899169921875 972.358276367188 992.184814453125 980.387817382812 990.443298339844 984.4111328125 982.761474609375 985.255676269531 990.481323242188 995.703674316406 999.146362304688 997.512939453125 997.2021484375 999.42236328125 1002.37622070312 1009.43756103516 1025.70556640625 1029.30017089844 1037.94140625 1031.25927734375 1047.1181640625 1041.0615234375 1033.13195800781 1033.443359375 1028.10302734375 1041.5029296875 1038.90368652344 1038.58386230469 1057.18481445312 1056.14953613281 1071.85754394531 1094.33337402344 1087.97314453125 1083.31994628906 1081.59521484375 1083.990234375 1088.43933105469 1087.1806640625 1080.37121582031 1080.56872558594 1094.73449707031 1084.78356933594 1075.22961425781 1081.87609863281 1075.52770996094 1083.70251464844
969.518127441406 970.596618652344 976.877990722656 976.804016113281 969.472106933594 962.107727050781 967.118286132812 971.465637207031 966.587280273438 959.922668457031 954.694274902344 960.35009765625 970.509216308594 969.183166503906 970.605163574219 970.094177246094 969.316528320312 962.046569824219 973.648864746094 968.320861816406 962.239807128906 971.271423339844 965.544799804688 963.743713378906 953.456970214844 947.798828125 950.158020019531 948.001831054688 951.336608886719 954.4052734375 957.513793945312 955.465698242188 953.641845703125 947.803283691406 959.493225097656 967.069213867188 960.262268066406 961.391723632812 962.525817871094 960.739807128906 961.900146484375 957.011352539062 954.08740234375 951.816589355469 953.835327148438 963.364440917969 953.798950195312 935.187683105469 948.254211425781 957.78271484375 956.172973632812 956.201599121094 961.515014648438 962.635986328125 964.750915527344 957.095336914062 957.74609375 959.338562011719 951.477600097656 952.447387695312 958.01806640625 963.393798828125 965.994201660156 962.494445800781 962.28955078125 959.327453613281 962.927429199219 966.006896972656 974.846862792969 962.61572265625 955.89892578125 958.602905273438 964.595581054688 959.96337890625 957.354431152344 950.99755859375 954.525451660156 955.435913085938 959.951599121094 958.887268066406 959.343872070312 964.572143554688 963.328063964844 957.459533691406 959.2734375 966.892456054688 967.210998535156 977.436401367188 965.460693359375 968.788696289062 969.533996582031 973.240783691406 968.318115234375 976.3173828125 979.402282714844 968.718505859375 982.213012695312 977.298400878906 981.4931640625 987.912963867188 983.506530761719 977.747619628906 983.555541992188 974.453918457031 982.693603515625 976.342895507812 980.670654296875 986.502868652344 992.518371582031 989.8876953125 990.107055664062 990.856201171875 1004.40405273438 996.48974609375 1001.01934814453 997.747253417969 995.514404296875 1005.22735595703 1004.39562988281 1004.58709716797 1010.32958984375 1015.04217529297 1026.64916992188 1028.98107910156 1025.80358886719 1025.26623535156 1034.91076660156 1039.05859375 1033.31665039062 1035.53161621094 1037.80200195312 1047.77978515625 1059.88134765625 1064.60485839844 1071.76623535156 1078.76586914062 1092.13806152344 1079.90515136719 1078.30065917969 1082.54675292969 1087.80700683594 1071.50500488281 1061.72119140625 1067.62255859375 1075.95397949219 1078.50439453125 1068.64807128906 1069.01940917969 1075.84326171875 1069.19567871094
967.803100585938 980.636840820312 983.904541015625 981.39306640625 969.936950683594 971.716430664062 968.976318359375 969.136474609375 966.48486328125 961.967041015625 954.430480957031 965.038330078125 960.616760253906 976.6142578125 974.874938964844 975.865234375 967.728698730469 964.834899902344 963.513488769531 966.331359863281 962.947631835938 960.93994140625 967.1845703125 965.854919433594 952.44873046875 947.14990234375 950.209350585938 951.2939453125 946.477905273438 948.345275878906 954.182250976562 959.794616699219 951.687255859375 951.041076660156 955.330444335938 963.736206054688 955.5595703125 957.364013671875 957.666625976562 955.6015625 960.910400390625 951.757629394531 947.587646484375 945.216613769531 943.739990234375 943.993530273438 948.576843261719 938.5078125 950.451965332031 961.2724609375 961.8251953125 951.174255371094 963.209045410156 956.666381835938 960.441650390625 958.483520507812 955.997802734375 955.738220214844 954.0009765625 952.880249023438 946.970458984375 958.590393066406 969.434936523438 962.787414550781 962.084838867188 963.218322753906 966.155822753906 973.521179199219 965.660522460938 953.094299316406 950.831604003906 960.394653320312 959.677673339844 952.388488769531 959.425048828125 957.370544433594 954.465698242188 958.077880859375 968.196594238281 966.578369140625 962.422546386719 951.844421386719 955.595520019531 959.697814941406 953.732116699219 956.134521484375 956.602416992188 973.818542480469 969.41357421875 973.345581054688 974.742858886719 976.216491699219 978.813537597656 982.205505371094 974.064392089844 976.951538085938 969.815307617188 972.677734375 977.148315429688 978.112426757812 985.382263183594 982.460083007812 982.637878417969 987.005432128906 980.798278808594 982.259460449219 983.678833007812 990.298583984375 992.274963378906 999.878479003906 999.840393066406 989.284912109375 995.723937988281 1000.94311523438 996.118713378906 996.195495605469 1003.46539306641 1006.67047119141 1007.06530761719 1005.34857177734 1015.79302978516 1009.54644775391 1005.32135009766 1013.04937744141 1023.83258056641 1025.11938476562 1030.01513671875 1029.16625976562 1030.7861328125 1025.24694824219 1036.15014648438 1045.80627441406 1063.90991210938 1060.31555175781 1065.09497070312 1069.30065917969 1074.56677246094 1073.1689453125 1066.21337890625 1065.34924316406 1073.45776367188 1060.85192871094 1054.69299316406 1055.06030273438 1063.21789550781 1069.17370605469 1068.56677246094 1063.90930175781 1067.27514648438 1061.64929199219
967.279479980469 979.09130859375 987.528137207031 983.497375488281 991.493408203125 976.699523925781 969.747314453125 979.3427734375 969.873291015625 970.8359375 959.853698730469 955.804138183594 963.262451171875 966.771179199219 968.318664550781 963.766662597656 963.8505859375 961.795654296875 967.508911132812 966.495666503906 967.229553222656 964.3447265625 971.307250976562 956.491882324219 947.69970703125 950.999816894531 941.894897460938 948.74072265625 947.296752929688 944.025695800781 955.205322265625 953.976745605469 954.029541015625 949.055053710938 950.153137207031 954.475036621094 949.525512695312 947.551574707031 954.686401367188 956.78564453125 951.989807128906 954.013549804688 947.416015625 951.118469238281 943.557373046875 935.650146484375 943.06787109375 937.246948242188 949.799865722656 955.279357910156 955.702697753906 954.690368652344 946.399475097656 954.492797851562 941.024047851562 950.370544433594 962.504943847656 960.524841308594 962.989807128906 957.806762695312 955.430236816406 966.485717773438 968.303588867188 968.834106445312 964.475280761719 967.950378417969 962.428161621094 959.758361816406 959.660278320312 963.301513671875 959.727111816406 959.578063964844 958.62158203125 958.520141601562 961.267456054688 961.867065429688 965.870727539062 959.856140136719 964.078369140625 958.494934082031 956.531555175781 954.644897460938 957.837768554688 957.224731445312 957.507934570312 955.60400390625 953.069519042969 958.973205566406 968.765869140625 979.998229980469 977.073669433594 982.545593261719 992.050415039062 982.590393066406 977.543212890625 982.355651855469 973.708435058594 975.831909179688 974.451538085938 977.099304199219 982.064270019531 978.711242675781 983.742736816406 987.662475585938 991.300354003906 987.181701660156 997.975830078125 995.594177246094 993.442077636719 1001.69769287109 998.692626953125 1005.7373046875 1006.93579101562 1001.90319824219 1001.54412841797 1005.60339355469 1006.05999755859 1005.67181396484 999.840454101562 1005.64495849609 1010.80981445312 1008.64215087891 1011.06121826172 1007.02587890625 1013.21832275391 1023.57391357422 1025.55725097656 1027.91723632812 1024.39318847656 1024.23400878906 1036.79711914062 1046.27099609375 1058.89135742188 1061.41003417969 1056.15319824219 1054.06262207031 1052.96716308594 1051.47509765625 1054.88330078125 1048.36254882812 1051.42944335938 1047.44006347656 1038.19641113281 1038.10144042969 1047.22973632812 1049.98449707031 1054.77490234375 1057.51806640625 1063.03576660156 1060.59643554688
965.718383789062 970.402954101562 970.594604492188 988.22119140625 982.886779785156 979.347229003906 976.176391601562 976.88623046875 962.377075195312 964.402404785156 956.807983398438 957.72265625 955.632385253906 962.0556640625 963.71337890625 962.121643066406 961.283386230469 967.77587890625 961.055114746094 962.245727539062 969.326293945312 965.843078613281 959.861022949219 945.567504882812 935.901733398438 942.220397949219 943.988952636719 940.644592285156 946.971923828125 946.572998046875 955.088806152344 948.873229980469 949.781982421875 952.843139648438 944.048217773438 949.468994140625 954.183349609375 947.284484863281 952.421813964844 957.192504882812 959.348999023438 955.335998535156 952.431701660156 955.657287597656 942.565551757812 954.035461425781 949.133666992188 948.354187011719 948.202819824219 951.760620117188 955.728576660156 955.735168457031 957.268310546875 950.579895019531 952.747924804688 951.801574707031 956.351135253906 959.641845703125 967.129516601562 968.09521484375 969.031372070312 963.780822753906 966.238098144531 967.060180664062 974.742797851562 965.329040527344 967.598083496094 967.753845214844 961.773071289062 957.024230957031 964.574523925781 972.367736816406 968.481872558594 963.498596191406 969.304077148438 973.373901367188 974.667419433594 962.545715332031 963.087158203125 964.652587890625 965.274597167969 961.646911621094 964.72314453125 970.061645507812 969.070190429688 961.188659667969 965.972534179688 969.188354492188 972.101806640625 978.447937011719 981.22900390625 977.981140136719 976.972290039062 973.969482421875 972.409423828125 974.397216796875 970.481018066406 972.224609375 969.140869140625 977.546081542969 977.958923339844 976.660217285156 981.691650390625 988.038391113281 991.470397949219 991.442138671875 996.878662109375 1000.58850097656 1001.03198242188 1006.90338134766 1005.52661132812 1003.73461914062 1015.80206298828 1013.96362304688 1007.62475585938 1004.40728759766 996.236022949219 997.054016113281 1007.63800048828 1011.32025146484 1002.36920166016 1004.64831542969 1006.90124511719 1006.15948486328 1012.85687255859 1018.41870117188 1021.69921875 1023.35266113281 1016.38537597656 1022.35461425781 1037.076171875 1044.46801757812 1053.47119140625 1045.57287597656 1048.15563964844 1049.7705078125 1044.06420898438 1048.64147949219 1043.55810546875 1041.86071777344 1042.69848632812 1037.22973632812 1029.181640625 1027.04565429688 1033.09716796875 1044.29272460938 1052.45227050781 1052.1025390625 1051.52563476562 1050.45275878906
969.719787597656 969.320922851562 967.253723144531 975.990417480469 973.469970703125 974.629455566406 966.161071777344 957.659301757812 968.168884277344 958.52880859375 967.148986816406 962.340637207031 958.911743164062 959.101379394531 961.166076660156 949.146423339844 956.385375976562 960.344177246094 963.698425292969 961.405395507812 962.438842773438 954.302429199219 953.1337890625 936.720642089844 941.796203613281 942.336181640625 943.925537109375 943.498962402344 948.499389648438 958.705139160156 964.231567382812 957.717529296875 950.031372070312 948.547241210938 950.526672363281 947.749389648438 963.185913085938 953.627197265625 945.097595214844 960.443725585938 958.926025390625 953.316345214844 951.295104980469 947.940673828125 949.365356445312 956.0859375 958.088073730469 958.832641601562 957.544555664062 961.694946289062 956.858032226562 958.219848632812 962.264709472656 959.337585449219 956.795227050781 962.282531738281 963.4716796875 964.612609863281 969.533874511719 970.289306640625 964.640563964844 971.334899902344 971.225952148438 972.885131835938 969.727844238281 972.077758789062 963.962341308594 965.696105957031 963.778869628906 959.6044921875 962.883605957031 968.58349609375 969.977905273438 963.663696289062 961.239990234375 962.0615234375 968.215270996094 965.151123046875 966.669189453125 967.03759765625 964.849365234375 963.667053222656 970.962524414062 974.979187011719 977.541748046875 970.223083496094 969.266906738281 970.536437988281 977.438537597656 977.975036621094 972.714782714844 971.450439453125 975.488098144531 972.426208496094 967.550720214844 972.687194824219 976.717712402344 971.901123046875 973.895202636719 975.589233398438 972.472045898438 976.615600585938 979.450012207031 989.751708984375 991.424926757812 994.913391113281 998.333374023438 1007.22528076172 1000.95098876953 1011.56585693359 1021.43707275391 1017.3935546875 1006.52124023438 1012.67102050781 1009.81127929688 1012.25262451172 1008.79736328125 1007.0224609375 1009.62371826172 1016.19360351562 1005.77581787109 1001.31939697266 1018.03393554688 1016.34332275391 1018.99676513672 1013.36956787109 1016.63684082031 1020.17883300781 1033.02380371094 1035.93041992188 1032.87829589844 1040.85656738281 1049.19140625 1041.33740234375 1041.34594726562 1037.75134277344 1039.51379394531 1038.1005859375 1040.392578125 1036.05810546875 1039.57006835938 1038.01599121094 1026.46496582031 1024.50439453125 1025.36340332031 1027.93615722656 1044.49987792969 1039.51611328125 1037.47534179688 1030.64294433594
955.726867675781 971.249633789062 968.052917480469 964.195922851562 961.759948730469 962.304382324219 957.959655761719 958.6025390625 962.171630859375 963.397399902344 959.155151367188 959.493286132812 955.150756835938 954.182250976562 949.337768554688 948.198852539062 950.993347167969 954.050659179688 950.245239257812 946.944030761719 942.389099121094 955.916442871094 956.474792480469 942.242431640625 947.62353515625 945.693542480469 938.9736328125 938.929382324219 941.026000976562 952.248901367188 955.591186523438 951.182861328125 947.667907714844 948.582702636719 956.140258789062 958.276733398438 960.958129882812 950.53271484375 951.124877929688 961.371948242188 954.727783203125 948.43505859375 948.669738769531 946.835388183594 945.118041992188 961.656372070312 964.281860351562 956.7158203125 956.166931152344 949.725646972656 953.115356445312 956.948852539062 961.648010253906 964.994262695312 962.928466796875 962.066467285156 965.863647460938 967.3740234375 965.576171875 962.69384765625 975.333435058594 972.47998046875 964.878845214844 962.320556640625 968.530578613281 961.668762207031 965.813049316406 960.500122070312 965.37890625 970.128234863281 968.084167480469 969.478088378906 966.795471191406 967.973205566406 970.36865234375 964.976318359375 972.259582519531 967.2314453125 963.176452636719 969.030639648438 976.077514648438 970.625305175781 971.794494628906 971.734558105469 975.558410644531 978.523315429688 982.697692871094 974.608642578125 980.219116210938 970.982788085938 967.100891113281 963.408508300781 963.428771972656 972.258605957031 977.450256347656 982.401123046875 972.190612792969 974.276306152344 978.055297851562 965.023254394531 958.859191894531 967.5595703125 980.928466796875 991.514282226562 989.014770507812 990.183959960938 994.270812988281 1008.38232421875 1011.44671630859 1012.92120361328 1015.73559570312 1019.21325683594 1023.72204589844 1024.67028808594 1012.98498535156 1015.55828857422 1015.54907226562 1013.80035400391 1013.59698486328 1012.72607421875 1011.83551025391 1008.1767578125 1020.38549804688 1024.5888671875 1027.78845214844 1024.03662109375 1019.37445068359 1027.54919433594 1037.87902832031 1032.21313476562 1034.32153320312 1033.20764160156 1045.01818847656 1034.02490234375 1040.77453613281 1037.98767089844 1032.53430175781 1032.71557617188 1035.158203125 1026.04907226562 1027.44250488281 1033.48254394531 1031.484375 1030.40808105469 1029.21154785156 1030.83471679688 1037.16613769531 1029.32116699219 1024.09802246094 1019.60540771484
951.389587402344 957.185180664062 953.553955078125 962.904663085938 956.502197265625 953.315063476562 957.280578613281 959.035461425781 958.354248046875 958.71826171875 946.796691894531 952.646301269531 952.425659179688 948.93310546875 946.642639160156 944.278015136719 950.908447265625 945.631896972656 943.999450683594 944.190734863281 949.518981933594 946.339416503906 942.848205566406 944.818481445312 947.029357910156 946.09619140625 938.265625 937.015747070312 932.074829101562 934.980651855469 954.629272460938 950.472473144531 941.763854980469 952.79443359375 956.759399414062 955.526123046875 958.799987792969 948.762573242188 955.864135742188 947.718627929688 954.544616699219 943.207336425781 953.607360839844 957.808532714844 953.529418945312 964.542541503906 963.760559082031 962.422424316406 965.669494628906 965.913269042969 964.084533691406 959.852416992188 966.561706542969 966.967712402344 967.365478515625 962.218444824219 966.72412109375 959.69287109375 965.200256347656 962.494201660156 971.096008300781 979.841918945312 967.609375 962.141662597656 963.896240234375 969.388366699219 960.798095703125 962.10595703125 966.978576660156 962.332275390625 967.298156738281 965.479125976562 965.216064453125 970.143005371094 973.425048828125 964.938293457031 965.27685546875 965.713684082031 970.053833007812 966.720947265625 972.840393066406 974.856079101562 973.070983886719 981.901672363281 978.078674316406 972.765075683594 978.806213378906 974.796142578125 975.597045898438 968.717468261719 960.275146484375 963.964965820312 961.675415039062 965.027770996094 971.14892578125 979.610290527344 975.509826660156 979.843322753906 968.832275390625 963.020568847656 969.669250488281 971.166076660156 980.806884765625 980.214416503906 985.083068847656 983.37451171875 993.355102539062 1009.69323730469 1009.12103271484 1008.49957275391 1017.66333007812 1020.78802490234 1021.40545654297 1018.83227539062 1021.49139404297 1025.21350097656 1015.43334960938 1013.62908935547 1007.21496582031 1007.64404296875 1015.43585205078 1022.84130859375 1020.54962158203 1027.68432617188 1032.68774414062 1017.95556640625 1020.7705078125 1018.70819091797 1022.36047363281 1021.09613037109 1028.96887207031 1030.63757324219 1042.88928222656 1039.25671386719 1038.30798339844 1029.677734375 1027.99475097656 1036.30102539062 1026.04895019531 1029.37475585938 1026.029296875 1033.41589355469 1026.2490234375 1023.32336425781 1031.79748535156 1019.64819335938 1029.02478027344 1026.80249023438 1022.88342285156 1021.13427734375
953.97216796875 955.072875976562 955.131103515625 956.89794921875 947.632873535156 948.128295898438 957.666442871094 956.680358886719 957.022216796875 947.859985351562 948.219116210938 952.680480957031 954.229187011719 946.653259277344 947.653381347656 943.910888671875 947.467163085938 947.700561523438 941.487976074219 949.341613769531 942.300537109375 942.907836914062 939.409606933594 937.796813964844 937.887268066406 946.095336914062 941.057922363281 936.963562011719 939.883117675781 938.704345703125 949.842895507812 950.479248046875 942.737731933594 950.043518066406 952.333618164062 949.455688476562 959.624938964844 946.677001953125 940.782287597656 948.049438476562 955.127380371094 953.426513671875 951.568725585938 953.676635742188 957.032775878906 963.58251953125 973.725769042969 973.699462890625 972.306396484375 972.533386230469 973.830383300781 978.256774902344 980.942260742188 961.067810058594 969.120361328125 969.995910644531 963.875793457031 956.361511230469 971.878295898438 970.577575683594 972.804748535156 971.40966796875 969.379943847656 977.726989746094 968.701110839844 966.818176269531 969.591918945312 970.173095703125 965.420471191406 965.096252441406 968.1298828125 966.89404296875 960.895629882812 969.296997070312 971.647521972656 969.827392578125 973.084655761719 966.505981445312 965.82763671875 958.410217285156 977.586547851562 985.592224121094 976.033630371094 986.141540527344 977.211853027344 977.910034179688 973.052612304688 981.038940429688 975.333740234375 973.715270996094 968.632080078125 964.750122070312 962.963623046875 971.269836425781 966.700561523438 971.358703613281 973.850219726562 975.086364746094 974.142517089844 969.260559082031 964.3564453125 974.878723144531 979.876403808594 978.537841796875 991.944763183594 993.970092773438 989.306762695312 1008.54443359375 1013.47528076172 1015.17816162109 1012.53509521484 1010.9443359375 1021.85711669922 1014.47924804688 1019.85217285156 1024.33251953125 1020.58142089844 1021.99743652344 1012.390625 1012.22320556641 1013.84362792969 1024.37744140625 1022.39886474609 1034.4169921875 1033.5771484375 1017.7939453125 1017.62390136719 1022.82598876953 1017.82702636719 1016.71954345703 1019.44787597656 1033.61950683594 1026.09094238281 1032.77856445312 1031.27465820312 1023.34143066406 1026.05151367188 1024.55505371094 1022.49468994141 1031.40185546875 1029.31652832031 1022.91943359375 1018.95611572266 1022.33129882812 1018.39703369141 1022.15972900391 1021.75616455078 1025.41186523438 1024.19946289062 1016.10382080078
947.015014648438 957.96435546875 955.49560546875 956.187622070312 954.169494628906 954.676696777344 955.917297363281 959.1376953125 950.709716796875 949.673400878906 946.112487792969 946.073913574219 948.733337402344 943.579650878906 947.985107421875 936.91357421875 938.314697265625 940.85302734375 936.119812011719 949.079650878906 949.348571777344 944.240783691406 943.10400390625 938.268493652344 937.698547363281 935.894104003906 938.296447753906 944.964111328125 951.134155273438 953.534912109375 943.934265136719 952.8232421875 948.535095214844 942.251586914062 947.811096191406 942.031982421875 940.8701171875 940.966552734375 952.024230957031 960.328552246094 958.885437011719 950.222290039062 944.299560546875 948.730346679688 952.715148925781 954.124145507812 961.778564453125 966.427856445312 979.283630371094 979.465393066406 970.980529785156 973.665222167969 977.4990234375 967.432067871094 965.423645019531 955.23583984375 952.624877929688 959.35693359375 965.712585449219 967.275756835938 973.667602539062 963.166687011719 969.438842773438 975.843383789062 960.087463378906 969.563842773438 971.502563476562 960.951843261719 957.207641601562 959.191589355469 966.837341308594 968.3974609375 966.7587890625 970.384399414062 982.414001464844 978.610412597656 969.776794433594 961.038391113281 964.694885253906 971.605041503906 976.872375488281 985.38330078125 979.879089355469 986.205139160156 984.633178710938 987.486511230469 978.299499511719 975.8818359375 982.692504882812 972.213439941406 968.443908691406 963.324340820312 968.777709960938 968.126525878906 972.222473144531 978.302856445312 981.319274902344 975.625671386719 977.812744140625 973.698791503906 978.781616210938 981.124206542969 983.533935546875 985.808959960938 987.011352539062 988.927612304688 997.246032714844 1008.7685546875 1013.17413330078 1012.962890625 1014.51330566406 1018.20989990234 1016.20758056641 1013.22662353516 1020.59912109375 1036.93273925781 1034.66186523438 1030.21508789062 1022.37701416016 1019.05206298828 1034.73559570312 1037.73583984375 1030.88781738281 1043.79858398438 1041.40307617188 1021.38836669922 1023.38433837891 1030.27270507812 1024.11401367188 1029.70288085938 1027.30163574219 1021.61767578125 1019.10717773438 1022.85980224609 1026.01184082031 1031.99157714844 1029.81481933594 1024.98876953125 1023.59112548828 1024.52917480469 1031.314453125 1018.75122070312 1017.43334960938 1020.20397949219 1017.98968505859 1018.466796875 1019.49609375 1017.18853759766 1023.64996337891 1020.12951660156
949.989196777344 960.339294433594 961.858276367188 951.484619140625 959.1318359375 960.383117675781 955.057800292969 950.976684570312 944.070922851562 943.067504882812 939.125244140625 935.842407226562 942.239379882812 949.895263671875 951.872009277344 950.118774414062 943.121765136719 948.774597167969 946.848510742188 948.837646484375 952.326721191406 948.578002929688 944.643798828125 942.897583007812 943.0595703125 941.201416015625 937.928100585938 951.526184082031 940.850036621094 948.197631835938 947.176879882812 947.821716308594 948.758422851562 948.653198242188 953.448608398438 945.028564453125 936.195373535156 938.173828125 954.875427246094 966.729431152344 966.485412597656 955.559936523438 954.602783203125 950.946350097656 957.00048828125 955.725463867188 960.481323242188 973.079956054688 971.939819335938 979.876708984375 975.822937011719 976.087951660156 971.612548828125 961.565612792969 965.575256347656 955.809814453125 965.159545898438 956.396362304688 968.508850097656 978.229187011719 974.229125976562 967.800354003906 974.877746582031 969.688720703125 967.965576171875 968.019165039062 966.377014160156 961.375793457031 965.914489746094 967.053039550781 969.815979003906 974.288208007812 979.327453613281 973.501281738281 977.2880859375 977.901123046875 972.364440917969 970.857788085938 970.846496582031 961.155090332031 973.400268554688 979.182189941406 977.224426269531 982.08642578125 980.517700195312 980.63720703125 977.080261230469 980.611145019531 974.85009765625 971.19677734375 969.479736328125 970.504943847656 973.921569824219 977.138122558594 970.803894042969 979.871398925781 984.765869140625 979.503784179688 982.760070800781 987.158081054688 985.196533203125 991.505859375 982.462158203125 988.072265625 990.331604003906 1002.58697509766 1004.36340332031 1016.25006103516 1014.21301269531 1017.51867675781 1019.60754394531 1020.33239746094 1021.53540039062 1029.46057128906 1038.8876953125 1039.0380859375 1040.52478027344 1038.51708984375 1032.89575195312 1021.23669433594 1028.34973144531 1035.67553710938 1038.15307617188 1031.91906738281 1027.46569824219 1029.34814453125 1030.15295410156 1038.2265625 1024.01013183594 1023.95068359375 1020.85400390625 1016.28149414062 1019.46252441406 1019.73956298828 1024.68566894531 1022.9951171875 1021.10089111328 1024.248046875 1031.49670410156 1036.71423339844 1027.69189453125 1025.11962890625 1029.16015625 1017.13806152344 1018.06451416016 1014.40063476562 1016.14172363281 1010.01202392578 1018.16796875 1021.01770019531
959.590148925781 955.500366210938 956.135009765625 949.571960449219 952.525695800781 957.8623046875 941.2861328125 944.143005371094 946.171081542969 938.536865234375 935.141235351562 937.452209472656 933.825805664062 945.424682617188 956.410095214844 953.389038085938 954.4580078125 954.871765136719 949.5712890625 949.334594726562 955.761474609375 955.866088867188 953.670349121094 950.612609863281 945.618041992188 945.552612304688 946.181945800781 944.971435546875 943.89208984375 946.428527832031 941.556030273438 946.351379394531 950.039123535156 947.540161132812 953.791015625 952.9599609375 935.365173339844 940.916320800781 953.950500488281 966.275085449219 966.063659667969 955.6767578125 965.292175292969 960.98828125 957.3212890625 961.962280273438 962.539489746094 963.311889648438 981.093200683594 975.87353515625 973.28955078125 974.635681152344 970.424926757812 972.023986816406 963.162780761719 956.979797363281 959.735961914062 965.906982421875 976.024719238281 975.681762695312 970.878479003906 971.43310546875 965.178649902344 974.84228515625 976.080871582031 971.104675292969 968.929748535156 965.731994628906 970.968872070312 974.139343261719 979.610229492188 983.576721191406 980.926086425781 980.320434570312 976.330261230469 971.529296875 966.152893066406 972.856506347656 975.522583007812 978.020202636719 976.60009765625 977.072082519531 989.908447265625 986.2841796875 982.596130371094 978.461242675781 984.017028808594 979.177795410156 979.487670898438 974.545288085938 965.906677246094 975.316101074219 978.9765625 978.518310546875 975.314880371094 974.605651855469 980.358337402344 977.199584960938 989.613098144531 998.485168457031 1002.08746337891 989.620788574219 992.934875488281 996.813415527344 995.53466796875 1000.18231201172 1001.55773925781 1009.75262451172 1009.19586181641 1011.96667480469 1012.9970703125 1020.94848632812 1031.2578125 1026.31262207031 1037.8173828125 1041.23449707031 1038.69860839844 1045.98120117188 1042.69506835938 1034.61413574219 1037.66027832031 1046.36633300781 1038.23095703125 1037.72021484375 1030.36389160156 1034.580078125 1033.03564453125 1033.96423339844 1024.4599609375 1022.87908935547 1013.87066650391 1015.71118164062 1022.84808349609 1026.24597167969 1028.39538574219 1018.88665771484 1026.42370605469 1023.75347900391 1028.40893554688 1027.74548339844 1018.58380126953 1024.01440429688 1029.625 1016.37219238281 1014.36785888672 1013.61578369141 1014.50775146484 1011.89398193359 1006.29162597656 1006.00537109375
962.3984375 950.064270019531 955.622192382812 945.696044921875 951.881408691406 948.203430175781 941.399658203125 948.225219726562 944.4306640625 944.852478027344 944.120300292969 948.177429199219 951.27783203125 953.88623046875 957.556457519531 959.95458984375 959.574645996094 956.228881835938 952.486450195312 961.320617675781 954.053833007812 949.825744628906 953.535888671875 942.455688476562 950.368225097656 951.46923828125 954.813354492188 949.013427734375 953.788818359375 951.429626464844 944.932678222656 954.186340332031 956.193542480469 952.394104003906 955.925354003906 949.996643066406 946.853271484375 946.517395019531 958.977783203125 967.835388183594 964.268249511719 961.032104492188 968.111877441406 971.363830566406 973.674987792969 979.356994628906 977.755310058594 975.95361328125 970.947387695312 980.629638671875 981.557922363281 976.9296875 969.295532226562 974.681213378906 962.385803222656 965.82666015625 967.696899414062 970.1513671875 966.069274902344 969.287231445312 971.479309082031 974.898559570312 979.409606933594 969.606506347656 977.481018066406 974.540344238281 978.490539550781 970.985778808594 974.335815429688 970.728759765625 977.477294921875 978.359497070312 985.544677734375 982.964233398438 977.223449707031 979.805725097656 972.86376953125 976.155395507812 979.905151367188 986.297546386719 991.4794921875 984.014831542969 987.676086425781 986.224975585938 987.097595214844 985.509704589844 990.04150390625 987.19482421875 978.479309082031 971.131652832031 971.737365722656 977.326782226562 980.946533203125 985.170959472656 978.903686523438 983.533813476562 987.167236328125 991.6025390625 995.079162597656 1000.33612060547 1012.48217773438 1002.99139404297 997.635070800781 995.774658203125 1000.65570068359 1005.71453857422 1009.11047363281 1009.55487060547 1008.59216308594 1010.47381591797 1010.10479736328 1016.33740234375 1015.10656738281 1020.69152832031 1023.33160400391 1036.08386230469 1044.38256835938 1037.80346679688 1038.07727050781 1047.18225097656 1040.51843261719 1045.59460449219 1034.70227050781 1034.1611328125 1025.99133300781 1026.33825683594 1025.84167480469 1020.08355712891 1018.94860839844 1025.55737304688 1021.14654541016 1025.2421875 1022.22320556641 1026.04699707031 1027.03857421875 1023.52862548828 1016.76092529297 1019.68688964844 1029.31042480469 1025.94812011719 1023.10113525391 1016.12609863281 1021.15930175781 1016.79455566406 1012.25695800781 1009.21472167969 1014.21417236328 1013.91357421875 999.025695800781 1003.96264648438
948.302124023438 952.925537109375 948.161682128906 945.358642578125 942.380798339844 942.50830078125 939.23095703125 938.101013183594 945.630981445312 954.426208496094 958.673889160156 960.699951171875 960.587707519531 957.417358398438 960.854858398438 968.634216308594 964.134155273438 963.372802734375 965.710083007812 963.010925292969 963.129516601562 956.520080566406 952.5302734375 950.2958984375 951.415893554688 961.1328125 960.508483886719 953.264892578125 959.116455078125 946.288757324219 961.478881835938 955.221130371094 957.983276367188 955.150207519531 952.633178710938 959.347045898438 962.28125 962.7109375 961.599060058594 971.487060546875 969.548034667969 968.602233886719 959.283081054688 970.1611328125 973.947387695312 978.986145019531 978.558166503906 986.218872070312 977.666015625 980.659729003906 985.575378417969 986.197814941406 987.247863769531 984.408264160156 976.435546875 978.036254882812 979.367431640625 973.812866210938 962.972839355469 958.869995117188 970.667419433594 967.731140136719 970.972290039062 968.312255859375 976.073974609375 973.860412597656 973.532653808594 984.682312011719 982.220703125 978.520935058594 976.616333007812 975.013854980469 980.416870117188 981.052490234375 974.037902832031 984.446228027344 980.906616210938 980.050231933594 980.748840332031 981.994812011719 982.529968261719 987.653015136719 990.872314453125 988.522155761719 993.188537597656 992.318298339844 981.485473632812 983.936401367188 978.715270996094 975.785339355469 974.673217773438 986.741943359375 989.462097167969 986.102783203125 990.651184082031 1000.82397460938 986.206604003906 998.910461425781 1004.36785888672 1003.474609375 1011.14642333984 1007.81115722656 1006.71453857422 1006.6162109375 1010.66326904297 1006.82678222656 1003.7998046875 1004.28796386719 1014.04040527344 1023.72100830078 1015.4189453125 1019.53192138672 1018.74273681641 1024.97045898438 1025.5537109375 1029.36755371094 1024.82824707031 1033.92980957031 1038.60974121094 1042.71887207031 1043.84521484375 1041.74243164062 1036.97729492188 1032.65661621094 1028.87487792969 1020.73846435547 1024.54467773438 1012.99261474609 1019.63336181641 1018.23278808594 1020.70397949219 1028.23059082031 1034.86218261719 1027.16687011719 1020.14147949219 1022.95172119141 1019.92584228516 1022.52593994141 1021.34594726562 1026.87731933594 1019.07855224609 1013.52252197266 1004.29644775391 1006.69189453125 1007.58306884766 1012.25048828125 1008.64141845703 1007.49688720703 1009.96697998047 1000.10565185547
946.781005859375 941.223693847656 950.129150390625 958.837707519531 951.081176757812 942.644226074219 947.4521484375 942.200256347656 954.427307128906 961.734619140625 966.399658203125 967.403625488281 971.65576171875 970.52685546875 970.337646484375 978.880676269531 971.490783691406 963.791137695312 970.207458496094 965.689392089844 967.035339355469 956.078430175781 953.174499511719 943.20947265625 956.618713378906 964.017456054688 957.902954101562 956.463012695312 961.274230957031 958.021057128906 961.054443359375 961.336242675781 966.161987304688 961.197326660156 961.168151855469 963.424560546875 976.234375 961.905944824219 967.795104980469 970.46875 979.635009765625 966.649353027344 969.672607421875 969.220581054688 966.794067382812 977.129211425781 986.524047851562 989.910827636719 995.181274414062 994.143615722656 992.449462890625 993.030456542969 992.531311035156 994.120361328125 989.348999023438 982.544067382812 985.079467773438 979.530578613281 964.129760742188 959.59814453125 969.531433105469 965.886413574219 967.416687011719 970.941589355469 974.46435546875 976.574340820312 975.885803222656 977.545104980469 986.834228515625 971.725891113281 962.9599609375 969.717346191406 979.303161621094 985.26513671875 982.565490722656 984.195861816406 983.350341796875 984.291015625 980.041442871094 982.899475097656 981.802307128906 983.725830078125 987.431823730469 993.995422363281 990.155456542969 984.276489257812 981.85888671875 987.461730957031 978.354370117188 979.406372070312 972.443969726562 983.251892089844 984.190979003906 990.535461425781 987.940795898438 997.089294433594 994.310363769531 999.837097167969 1011.34490966797 1013.60534667969 1016.76129150391 1019.05969238281 1011.68896484375 1014.97686767578 1012.93585205078 1015.833984375 1013.95703125 1011.23626708984 1014.60784912109 1020.27386474609 1023.17120361328 1028.44348144531 1027.55004882812 1027.11938476562 1027.45422363281 1029.03723144531 1033.484375 1035.53759765625 1039.19860839844 1044.21337890625 1052.96704101562 1049.26135253906 1046.38464355469 1040.45031738281 1028.814453125 1021.08422851562 1018.73651123047 1014.96655273438 1014.96307373047 1017.73382568359 1014.28552246094 1025.62438964844 1028.41174316406 1020.50250244141 1018.55725097656 1021.83966064453 1017.56854248047 1012.89739990234 1020.86145019531 1008.99645996094 1011.18115234375 1008.68579101562 1002.55139160156 1004.60284423828 1006.06610107422 1007.69470214844 1002.91979980469 996.6123046875 999.415161132812 1012.36395263672
954.753112792969 950.186218261719 954.853881835938 953.097229003906 945.622436523438 952.106018066406 949.246215820312 961.017395019531 957.058837890625 961.78369140625 964.511413574219 965.945190429688 972.820373535156 985.74169921875 980.896240234375 978.465576171875 984.515563964844 976.052490234375 970.569152832031 965.524353027344 967.848815917969 959.046936035156 950.0009765625 953.294128417969 963.472351074219 966.227966308594 964.214172363281 965.8603515625 960.48828125 958.963500976562 955.028259277344 969.48291015625 978.697265625 969.800720214844 965.295288085938 968.024108886719 973.856689453125 971.447265625 975.220092773438 973.869323730469 973.888000488281 974.525634765625 969.835327148438 980.207336425781 976.699584960938 985.76220703125 994.289367675781 997.590209960938 991.707214355469 993.682495117188 1001.35827636719 997.932861328125 993.770751953125 996.619506835938 997.149963378906 981.6923828125 980.046264648438 981.612487792969 972.197631835938 964.083557128906 973.664489746094 969.012329101562 966.672119140625 969.165893554688 972.419250488281 975.163879394531 983.619812011719 988.6435546875 971.8095703125 968.601501464844 972.684936523438 979.626403808594 980.707946777344 979.777465820312 984.991516113281 988.366333007812 975.609985351562 970.546752929688 976.679504394531 981.783874511719 979.821350097656 980.255065917969 980.532287597656 992.455810546875 986.349365234375 984.296020507812 983.52099609375 979.175842285156 982.959350585938 987.726745605469 974.146118164062 975.525512695312 988.495239257812 989.509887695312 980.241088867188 981.657470703125 995.14111328125 1002.00659179688 1016.17596435547 1017.46643066406 1015.68414306641 1022.32977294922 1008.15490722656 1010.9716796875 1016.65612792969 1016.47882080078 1009.390625 1013.86877441406 1008.58770751953 1015.37927246094 1019.85479736328 1027.7197265625 1031.67199707031 1022.98510742188 1029.90185546875 1024.87573242188 1027.16223144531 1035.2451171875 1043.63830566406 1048.53698730469 1050.93798828125 1049.61364746094 1038.01452636719 1040.79077148438 1027.6748046875 1024.81994628906 1020.65747070312 1014.50543212891 1011.17797851562 1011.73889160156 1015.32507324219 1023.01330566406 1027.75122070312 1019.39422607422 1015.41790771484 1008.55712890625 1009.42211914062 1009.85864257812 1011.43035888672 1004.220703125 1006.94482421875 1007.54858398438 1001.02655029297 1009.79858398438 1001.63555908203 1004.87261962891 999.884948730469 991.692321777344 999.951232910156 998.184631347656
952.834045410156 957.138732910156 954.380126953125 952.58837890625 946.03125 946.426574707031 941.643188476562 943.22705078125 950.190979003906 958.78759765625 964.342651367188 970.739562988281 976.822021484375 980.637145996094 978.155456542969 979.572937011719 980.853881835938 979.746337890625 975.410339355469 970.925415039062 970.508422851562 961.053466796875 958.899108886719 959.077392578125 965.791687011719 968.0234375 965.144287109375 964.721008300781 967.355102539062 964.255310058594 972.537292480469 974.672485351562 972.501770019531 969.807556152344 965.847106933594 967.061279296875 967.578369140625 966.412048339844 972.706420898438 984.576965332031 985.814636230469 980.751831054688 977.882629394531 979.447570800781 983.394287109375 994.005981445312 991.9013671875 1001.48486328125 994.646911621094 1000.24298095703 1000.61883544922 999.741027832031 1010.92926025391 997.751281738281 998.476440429688 986.711853027344 978.602966308594 968.08349609375 976.065551757812 980.281188964844 977.677978515625 972.442993164062 973.49755859375 976.514465332031 968.8837890625 970.944702148438 975.79345703125 985.157470703125 980.441711425781 973.179382324219 987.065795898438 986.381286621094 985.555847167969 989.985717773438 988.850769042969 990.503784179688 983.236572265625 979.006042480469 984.795288085938 982.145202636719 982.026000976562 982.475952148438 991.753601074219 990.746704101562 999.090759277344 992.662109375 982.327087402344 983.552001953125 983.992492675781 982.593078613281 987.849609375 989.802307128906 986.258605957031 991.933166503906 989.398986816406 992.617004394531 996.948913574219 1006.12237548828 1017.09301757812 1019.85473632812 1018.48950195312 1016.84246826172 1013.02197265625 1010.94757080078 1016.99914550781 1017.39190673828 1013.20690917969 1019.90582275391 1022.63970947266 1019.65765380859 1024.95129394531 1027.447265625 1025.9580078125 1030.23425292969 1027.38513183594 1033.29370117188 1034.68359375 1043.38610839844 1041.23461914062 1034.85168457031 1035.83044433594 1036.15161132812 1037.9345703125 1032.53259277344 1031.64514160156 1026.48681640625 1010.3447265625 1015.58331298828 1011.0615234375 1009.34906005859 1012.89801025391 1022.78283691406 1027.23645019531 1021.23541259766 1008.01599121094 1004.95135498047 1003.88549804688 999.788208007812 997.136962890625 1004.35552978516 1003.62219238281 1004.9951171875 1000.88800048828 1006.43414306641 1003.56860351562 1008.00640869141 1000.74169921875 996.694274902344 988.675720214844 991.900329589844
947.268981933594 948.146423339844 945.028015136719 938.982116699219 940.023376464844 938.891540527344 942.997985839844 936.278564453125 942.279296875 955.146362304688 962.993835449219 966.077941894531 965.466186523438 981.508911132812 981.693481445312 981.236328125 979.114318847656 980.934997558594 983.311645507812 974.423583984375 974.120239257812 966.622192382812 969.012145996094 964.981323242188 962.346801757812 961.99609375 961.276184082031 964.344482421875 974.367553710938 971.404479980469 972.519226074219 974.679931640625 972.73974609375 968.619506835938 970.483703613281 974.26904296875 974.530334472656 968.234924316406 973.892822265625 982.017150878906 975.655517578125 978.7294921875 988.048889160156 982.552062988281 987.611022949219 992.716613769531 992.400268554688 996.699035644531 1002.30450439453 999.221374511719 1006.53509521484 1002.63262939453 1003.24468994141 995.286254882812 1004.17028808594 996.118041992188 988.156860351562 979.689453125 979.430969238281 983.075134277344 978.174499511719 972.703247070312 971.89306640625 964.470092773438 967.578552246094 972.61083984375 980.983581542969 989.596374511719 977.038513183594 985.925476074219 986.107360839844 984.819030761719 983.322143554688 995.378479003906 1003.04614257812 993.909912109375 988.79443359375 982.7509765625 989.471618652344 987.595458984375 980.1748046875 984.629821777344 990.612670898438 989.005432128906 988.886840820312 981.891418457031 990.451110839844 985.648864746094 981.374633789062 983.993713378906 991.600463867188 992.322692871094 988.244079589844 991.968688964844 997.943908691406 1007.47454833984 1002.07684326172 1002.34576416016 1008.7822265625 1019.31884765625 1016.61065673828 1023.34014892578 1018.27819824219 1016.66229248047 1019.98626708984 1023.2236328125 1022.3837890625 1028.09814453125 1023.27740478516 1018.57177734375 1025.85131835938 1034.34826660156 1026.74047851562 1034.603515625 1025.50244140625 1023.73547363281 1027.88989257812 1029.61010742188 1029.39013671875 1034.66723632812 1033.90417480469 1029.14758300781 1029.10595703125 1025.4306640625 1027.87731933594 1025.44812011719 1011.30731201172 1016.68530273438 1017.44586181641 1007.71917724609 1007.92175292969 1019.79949951172 1024.44067382812 1015.70227050781 1004.35198974609 1000.90557861328 994.912414550781 1001.59368896484 988.4443359375 992.523071289062 997.153503417969 994.347839355469 1002.15026855469 1002.88500976562 1000.25042724609 1000.61468505859 993.508178710938 989.576904296875 991.654174804688 992.380004882812
