NCOLS 150
NROWS 37
XLLCORNER 7394249
YLLCORNER 4843229
CELLSIZE 30
NODATA_VALUE -9999
959.947082519531 954.439208984375 948.082397460938 934.792724609375 942.636901855469 941.543273925781 945.641418457031 953.296813964844 945.538818359375 948.5869140625 958.233703613281 953.169189453125 960.635986328125 957.491516113281 954.839050292969 953.807983398438 958.6513671875 966.435180664062 967.590942382812 972.771911621094 969.962951660156 970.7080078125 975.280212402344 979.995361328125 992.295288085938 996.221435546875 1011.22210693359 1003.18267822266 1004.00970458984 1004.09130859375 1001.857421875 1001.66247558594 1009.10046386719 1014.16088867188 1016.23217773438 1016.97076416016 1018.42291259766 1014.97198486328 1011.5166015625 1014.36273193359 1010.00048828125 1023.01605224609 1019.06060791016 1010.92004394531 1010.70733642578 1005.88659667969 1007.56530761719 1001.47711181641 1000.63427734375 1002.15625 1006.79144287109 1003.19360351562 1001.87707519531 1005.70623779297 1005.61315917969 1003.93939208984 1004.79479980469 1004.67376708984 1006.89996337891 1012.35516357422 1017.89636230469 1007.98352050781 1007.84967041016 1010.65637207031 1001.533203125 1006.92553710938 1023.43231201172 1022.79370117188 1023.28790283203 1021.00787353516 1022.21301269531 1021.2841796875 1011.95861816406 1000.46398925781 1010.62329101562 1008.68542480469 1002.5595703125 1001.10437011719 1003.23828125 1004.73425292969 1003.53527832031 1005.65289306641 1014.31689453125 1011.62487792969 1012.28186035156 1008.61614990234 1008.66998291016 1004.48425292969 1010.10534667969 1014.36529541016 1025.66052246094 1023.78533935547 1021.89086914062 1023.16168212891 1030.57177734375 1030.73986816406 1027.32092285156 1024.88952636719 1024.29748535156 1027.41442871094 1021.99334716797 1009.02398681641 1012.49609375 1011.83038330078 1008.52032470703 1010.13317871094 1009.05322265625 1011.98394775391 992.260681152344 976.611083984375 963.71484375 961.834167480469 959.645751953125 948.385437011719 946.121337890625 943.768737792969 947.791076660156 951.699340820312 958.281494140625 954.821533203125 962.29833984375 969.585205078125 982.833312988281 996.368835449219 1003.45227050781 1011.87939453125 1021.04016113281 1023.34985351562 1028.36633300781 1023.39025878906 1032.69860839844 1047.23583984375 1050.56201171875 1045.42126464844 1043.75622558594 1048.5185546875 1055.4658203125 1063.78552246094 1060.63659667969 1070.82397460938 1070.82238769531 1078.44519042969 1089.67114257812 1089.9267578125 1090.32934570312 1093.74572753906 1093.42810058594 1117.17687988281 1119.83874511719 1116.38635253906
953.663330078125 955.817810058594 944.859008789062 942.693542480469 940.103820800781 939.644714355469 938.387390136719 949.350524902344 950.582580566406 956.540344238281 958.595275878906 953.995422363281 956.442138671875 958.845825195312 955.234985351562 958.07080078125 964.267028808594 974.516540527344 974.941589355469 968.001220703125 979.030517578125 975.892517089844 979.820190429688 977.088012695312 983.757080078125 997.796630859375 1013.22711181641 1011.51947021484 1009.56146240234 998.758728027344 1004.42218017578 996.332397460938 1002.87658691406 1000.01440429688 1010.23449707031 1013.67327880859 1009.97406005859 1015.92858886719 1020.32098388672 1020.271484375 1016.61218261719 1020.96105957031 1013.8271484375 1011.02105712891 995.643493652344 1000.80773925781 995.552856445312 989.49658203125 990.454284667969 1002.92175292969 1000.81860351562 991.19580078125 998.861755371094 1002.01519775391 997.964111328125 1000.30169677734 999.397155761719 1004.79815673828 999.008605957031 1006.19390869141 1007.53228759766 1007.61669921875 1011.95385742188 1016.22216796875 1002.48638916016 1010.68292236328 1022.00024414062 1015.26379394531 1016.66955566406 1021.59936523438 1016.59765625 1009.28082275391 1010.74328613281 1006.07989501953 1008.69293212891 1014.23626708984 1007.41204833984 1005.48272705078 998.9169921875 1004.27722167969 1012.603515625 1012.79449462891 1017.70129394531 1013.34362792969 1003.33209228516 1007.68963623047 1011.67266845703 1012.16693115234 1022.20758056641 1018.48919677734 1031.63415527344 1025.89929199219 1025.97253417969 1031.66345214844 1032.45361328125 1029.84729003906 1030.51342773438 1031.85412597656 1030.63232421875 1016.85687255859 1007.40301513672 1002.62847900391 1006.67718505859 1010.83489990234 1004.09704589844 1020.92608642578 1015.79260253906 1010.46752929688 988.019958496094 972.706787109375 961.357299804688 955.5224609375 940.216125488281 936.138549804688 947.887145996094 954.789672851562 959.091918945312 952.117553710938 962.464538574219 974.63916015625 973.306274414062 981.102722167969 998.461120605469 1002.13751220703 1009.66729736328 1011.29077148438 1014.55157470703 1025.27099609375 1038.63256835938 1031.62451171875 1037.45874023438 1038.43225097656 1041.3154296875 1047.30395507812 1050.52404785156 1053.69982910156 1058.61755371094 1058.27185058594 1063.91186523438 1060.48413085938 1062.96789550781 1073.220703125 1090.53662109375 1089.90783691406 1088.49206542969 1096.111328125 1100.81298828125 1114.82360839844 1119.09436035156 1110.19067382812
952.755310058594 951.68505859375 944.073608398438 949.600036621094 945.860473632812 944.205749511719 945.510925292969 946.136108398438 958.753234863281 955.472290039062 962.100830078125 953.833435058594 954.087463378906 958.620727539062 954.942504882812 964.947082519531 971.524597167969 974.53515625 980.406311035156 974.21484375 978.637573242188 976.318786621094 976.081787109375 981.390808105469 980.890991210938 985.486877441406 997.516845703125 1000.79736328125 1007.48065185547 1004.30859375 992.486022949219 996.724487304688 990.72412109375 996.6025390625 1011.79425048828 1006.50512695312 994.467041015625 1012.96948242188 1017.34527587891 1015.068359375 1006.99206542969 1013.65588378906 1010.03021240234 1003.21759033203 997.087707519531 996.58203125 989.008483886719 986.023376464844 983.299011230469 999.004760742188 992.054565429688 996.459289550781 1000.84729003906 990.580261230469 983.802551269531 989.098693847656 1000.65307617188 1000.83337402344 1003.12603759766 996.866638183594 1005.17462158203 1001.74279785156 1009.09155273438 1010.49389648438 1006.77545166016 1006.53088378906 1012.83551025391 1012.05053710938 1014.3955078125 1018.54650878906 1013.31890869141 1010.2666015625 1002.31793212891 1004.67736816406 1009.40759277344 1007.96704101562 1007.72546386719 1009.47528076172 1001.1904296875 1001.31030273438 1008.23065185547 1014.77117919922 1021.17388916016 1002.19995117188 1005.51824951172 1009.48864746094 1006.78192138672 1004.42779541016 1004.11767578125 1014.43115234375 1020.78070068359 1029.61535644531 1023.02716064453 1031.50854492188 1034.02124023438 1025.23327636719 1031.62951660156 1030.55224609375 1016.24676513672 1014.6943359375 1004.28717041016 1001.78125 1009.87841796875 1010.87310791016 1011.84417724609 1011.92779541016 1007.6591796875 1006.66027832031 992.339233398438 976.117614746094 963.683349609375 948.709045410156 938.162902832031 946.879333496094 955.801208496094 954.48388671875 955.563232421875 954.029541015625 970.038269042969 984.42822265625 989.685119628906 995.260131835938 1013.58837890625 1018.23364257812 1010.45629882812 1011.34533691406 1015.42565917969 1030.07531738281 1031.84912109375 1036.90075683594 1035.05004882812 1046.76843261719 1041.29113769531 1041.35119628906 1041.87170410156 1048.07373046875 1056.32751464844 1053.9814453125 1064.99719238281 1068.56628417969 1075.27526855469 1080.173828125 1088.04455566406 1095.42260742188 1095.12268066406 1101.02624511719 1101.25720214844 1110.31384277344 1110.59545898438 1112.93444824219
939.773376464844 945.421142578125 941.28857421875 946.023498535156 948.830810546875 952.695678710938 955.069702148438 954.807678222656 957.91748046875 965.567321777344 961.28369140625 964.775146484375 960.729858398438 958.924438476562 957.652709960938 960.994934082031 972.644104003906 972.652404785156 968.561950683594 976.943176269531 970.701965332031 970.55322265625 979.623474121094 984.500793457031 983.797241210938 990.833984375 997.860534667969 996.049499511719 1007.18762207031 990.870483398438 999.4873046875 998.203735351562 999.900512695312 1003.30120849609 1007.34594726562 1005.35119628906 998.3701171875 1000.41796875 1005.09582519531 1010.28430175781 1007.4482421875 1011.53387451172 1003.45440673828 1001.43084716797 996.409912109375 992.680786132812 992.687927246094 994.716369628906 992.777099609375 994.176330566406 995.868347167969 996.078186035156 1000.26617431641 993.657043457031 992.747253417969 990.434204101562 998.14697265625 1000.16961669922 999.5244140625 1000.41668701172 1000.66979980469 1000.30981445312 1012.05688476562 1009.00341796875 1011.98236083984 1022.08959960938 1015.30322265625 1013.84460449219 1005.56756591797 1013.96087646484 1015.775390625 1011.71044921875 1014.13598632812 1012.89898681641 1011.34051513672 1005.1767578125 1001.50500488281 1000.05877685547 1007.1474609375 999.944763183594 1001.96173095703 1008.22906494141 1011.25280761719 1001.43585205078 1011.48675537109 1005.24157714844 1011.48687744141 1013.97589111328 1015.80291748047 1008.09979248047 1016.11364746094 1026.17858886719 1021.4931640625 1028.46508789062 1024.01440429688 1022.69647216797 1022.90484619141 1022.0986328125 1012.84973144531 1008.86700439453 1002.48272705078 994.314819335938 1012.40069580078 1006.66168212891 1010.48974609375 1014.79760742188 1013.17803955078 997.91845703125 982.91650390625 966.840515136719 958.230773925781 952.453796386719 942.549621582031 939.694458007812 950.203735351562 958.154846191406 964.897338867188 965.821533203125 974.13134765625 984.406372070312 997.121948242188 997.054931640625 1016.04150390625 1017.22680664062 1024.06201171875 1021.99176025391 1024.16137695312 1030.92236328125 1031.69458007812 1035.02380371094 1035.27270507812 1049.36999511719 1044.51867675781 1036.27233886719 1042.20288085938 1046.08325195312 1049.21350097656 1049.42175292969 1055.11047363281 1060.73791503906 1075.06262207031 1079.67468261719 1083.61083984375 1091.39306640625 1088.10278320312 1094.92041015625 1097.77185058594 1098.6865234375 1104.99572753906 1100.13500976562
933.138366699219 942.203857421875 941.829406738281 940.911071777344 939.347106933594 956.162841796875 957.866638183594 962.463989257812 964.243041992188 964.001403808594 967.34326171875 963.791870117188 963.609191894531 954.046691894531 962.716979980469 965.598510742188 969.896606445312 974.524719238281 971.721008300781 974.90576171875 979.001342773438 978.265563964844 983.88720703125 991.887878417969 1000.31695556641 990.968872070312 995.919860839844 991.641235351562 987.3701171875 994.984130859375 1001.75726318359 995.476318359375 1005.84375 997.425354003906 1002.20001220703 1005.4189453125 996.872680664062 993.292663574219 995.4599609375 1004.07012939453 1006.15118408203 1003.72967529297 998.1904296875 995.172424316406 996.809753417969 997.827819824219 997.071350097656 995.104431152344 995.299621582031 988.942077636719 992.687744140625 991.18310546875 987.876037597656 992.153991699219 992.564086914062 993.205749511719 996.814514160156 998.741394042969 1003.53735351562 1009.89862060547 1009.52099609375 1010.67803955078 999.166198730469 1008.28411865234 1008.62701416016 1016.6064453125 1010.2802734375 1008.02349853516 1008.44464111328 1008.79272460938 1009.81359863281 1011.7431640625 1012.63043212891 1014.94830322266 1007.22497558594 1003.87268066406 996.544921875 1002.38946533203 1002.30474853516 999.161560058594 1008.05999755859 1009.29656982422 1003.56121826172 997.358947753906 1000.01800537109 1003.63800048828 1017.88513183594 1018.654296875 1023.90008544922 1027.52136230469 1037.61572265625 1035.39477539062 1028.06005859375 1018.24432373047 1014.28887939453 1019.73260498047 1015.00061035156 1017.34503173828 1013.30615234375 1003.74987792969 998.53466796875 996.474060058594 999.535888671875 1003.60699462891 1008.74261474609 1005.07214355469 995.648132324219 980.22119140625 978.665161132812 970.516967773438 962.491760253906 951.738586425781 943.408020019531 943.689575195312 957.113830566406 955.416687011719 961.97021484375 965.024108886719 982.202392578125 1002.57019042969 1014.42639160156 1006.61682128906 1012.08721923828 1015.18591308594 1025.85412597656 1021.46807861328 1027.9990234375 1024.677734375 1028.7890625 1030.48974609375 1042.47326660156 1042.47827148438 1044.80749511719 1043.40649414062 1043.61254882812 1050.00964355469 1052.90954589844 1053.50891113281 1065.59143066406 1065.97180175781 1073.29052734375 1076.63134765625 1087.73852539062 1089.0771484375 1089.56396484375 1093.20239257812 1093.4716796875 1088.78137207031 1092.69848632812 1098.05822753906
941.919738769531 949.311889648438 945.38427734375 941.270629882812 954.356811523438 949.60107421875 956.168273925781 957.750732421875 960.824523925781 954.96044921875 963.304809570312 960.975158691406 961.475708007812 966.25 976.346374511719 967.86181640625 967.721801757812 970.623596191406 978.235656738281 983.625244140625 977.665283203125 978.627563476562 988.440063476562 992.981750488281 993.279174804688 998.215759277344 993.806945800781 990.992309570312 984.347534179688 990.100341796875 988.998718261719 1004.56488037109 997.355285644531 1000.19860839844 997.620849609375 987.522827148438 989.953491210938 994.861633300781 1001.30511474609 1006.47540283203 998.450012207031 991.253540039062 985.013916015625 988.723571777344 998.159057617188 998.550048828125 996.452880859375 994.022399902344 990.845153808594 990.507507324219 994.780700683594 991.400085449219 984.720581054688 981.108093261719 988.017517089844 987.682861328125 999.473693847656 1001.13751220703 1008.54034423828 1005.61279296875 1003.4580078125 1001.6318359375 1000.08941650391 996.291076660156 1012.02001953125 1010.37091064453 1010.67724609375 1007.31890869141 1007.61163330078 1007.88446044922 1011.62451171875 1008.60974121094 1008.88494873047 1010.69006347656 1007.72583007812 997.851440429688 985.313293457031 990.979614257812 990.401184082031 1002.90979003906 1001.30657958984 1001.69439697266 997.895202636719 1000.76184082031 1001.28381347656 1008.08416748047 1014.23913574219 1018.33520507812 1024.07019042969 1025.67724609375 1036.03100585938 1034.61889648438 1028.00915527344 1019.71173095703 1013.84155273438 1019.28948974609 1017.13543701172 1012.79858398438 1016.81085205078 1011.18310546875 997.489318847656 1001.63336181641 1005.95336914062 1006.0107421875 1005.89288330078 1002.69262695312 986.300842285156 990.233520507812 987.395935058594 971.751647949219 963.846313476562 955.698303222656 946.962524414062 947.319030761719 955.428588867188 953.318420410156 964.0869140625 975.138000488281 980.245056152344 995.833740234375 1003.38763427734 1011.63641357422 1014.07250976562 1023.80834960938 1022.92138671875 1016.11962890625 1030.27612304688 1026.14392089844 1020.09912109375 1031.00634765625 1031.59387207031 1034.66723632812 1040.87097167969 1041.0947265625 1035.4716796875 1045.11120605469 1044.83947753906 1050.03894042969 1060.26135253906 1063.31909179688 1067.08605957031 1074.64208984375 1084.19067382812 1096.64050292969 1100.63977050781 1091.73950195312 1089.93054199219 1097.91845703125 1097.056640625 1104.0771484375
941.459228515625 942.166320800781 944.670166015625 947.170593261719 955.214965820312 957.412109375 950.570190429688 949.839660644531 953.032165527344 950.406127929688 959.283081054688 968.205017089844 966.81396484375 973.396667480469 974.371826171875 966.721862792969 969.645629882812 978.897277832031 985.041015625 986.910766601562 985.120544433594 982.771362304688 988.710815429688 987.107421875 996.119812011719 991.961181640625 986.508483886719 991.5 984.9228515625 988.152587890625 989.440979003906 987.461059570312 994.804992675781 1007.66375732422 986.318786621094 985.637939453125 986.040161132812 987.040588378906 995.663269042969 1003.38055419922 997.076354980469 986.419006347656 993.762084960938 988.752136230469 998.507934570312 998.452209472656 995.767822265625 996.52490234375 997.654052734375 992.143859863281 988.892700195312 979.072082519531 979.527526855469 989.914306640625 985.622131347656 988.133728027344 991.796630859375 1002.61273193359 1000.80682373047 996.567260742188 998.819763183594 994.155944824219 991.968078613281 996.411865234375 1000.0673828125 1004.28839111328 1000.62115478516 994.852844238281 1006.52020263672 1004.0400390625 1010.28533935547 999.556884765625 998.596435546875 1005.34735107422 1004.13299560547 996.927001953125 992.016235351562 989.214050292969 993.21728515625 990.849975585938 993.212646484375 993.976379394531 997.35400390625 1002.22308349609 1003.83325195312 1003.33959960938 1008.67987060547 1023.09204101562 1019.18798828125 1026.38952636719 1036.57592773438 1029.35998535156 1029.1728515625 1023.14794921875 1015.24694824219 1010.85437011719 1010.25280761719 1018.62805175781 1017.41705322266 1003.5576171875 1007.46997070312 998.112121582031 1001.95886230469 1007.25982666016 1002.39154052734 1004.98712158203 987.331665039062 983.282531738281 981.721435546875 977.038513183594 962.403198242188 954.996887207031 947.367126464844 950.114501953125 955.078491210938 952.487854003906 956.021179199219 962.154052734375 974.610595703125 988.063354492188 998.381286621094 999.977111816406 1018.08129882812 1018.62530517578 1011.15350341797 1018.81652832031 1031.42736816406 1027.64184570312 1029.32055664062 1029.67687988281 1036.5966796875 1032.73388671875 1034.94689941406 1028.36865234375 1036.91491699219 1036.54284667969 1046.49182128906 1048.68432617188 1055.73559570312 1060.72424316406 1070.03466796875 1064.86254882812 1081.84069824219 1091.96057128906 1098.9267578125 1096.29138183594 1097.69250488281 1099.30676269531 1104.91979980469 1098.82299804688
946.44189453125 955.873779296875 953.560729980469 949.567993164062 956.150939941406 956.305908203125 956.946105957031 954.155212402344 960.237670898438 956.492370605469 957.576049804688 964.813049316406 965.903015136719 979.673278808594 978.242248535156 977.357543945312 976.873596191406 979.827087402344 987.868896484375 995.492980957031 983.546325683594 985.221313476562 986.557556152344 997.186828613281 998.298095703125 1000.98059082031 989.9072265625 990.911193847656 982.416076660156 983.480651855469 986.528503417969 987.208068847656 999.683837890625 995.10009765625 991.770629882812 990.330810546875 983.27685546875 995.077575683594 996.723083496094 993.617797851562 991.1123046875 989.930358886719 988.986633300781 985.400817871094 998.49072265625 994.662048339844 991.2431640625 990.265869140625 989.569030761719 994.609680175781 986.178649902344 979.654235839844 977.48828125 981.5380859375 985.79736328125 991.061462402344 996.504455566406 996.62451171875 999.958557128906 995.002746582031 998.644897460938 996.53857421875 990.744995117188 990.711364746094 995.781616210938 993.757995605469 992.312744140625 999.263488769531 994.241027832031 1006.62091064453 994.449157714844 992.754089355469 993.515869140625 1003.28460693359 997.921020507812 999.406311035156 990.285705566406 991.517272949219 989.413757324219 983.004333496094 991.456176757812 1001.28826904297 1002.30847167969 996.791259765625 997.302673339844 1001.28350830078 1004.81488037109 1017.69927978516 1021.91632080078 1028.59777832031 1036.66625976562 1024.59399414062 1023.7978515625 1015.93731689453 1013.32012939453 1016.11572265625 1013.73046875 1013.15502929688 1009.91937255859 995.773681640625 1010.57952880859 1007.73193359375 995.409484863281 1002.56396484375 1002.36682128906 1004.83331298828 997.331481933594 994.131042480469 988.565856933594 975.914184570312 970.291137695312 962.104187011719 955.178833007812 948.143798828125 948.66259765625 952.745788574219 957.178344726562 964.691040039062 969.1484375 971.762634277344 986.597106933594 997.815490722656 1007.6376953125 1012.31414794922 1015.82598876953 1014.26312255859 1014.11334228516 1016.81939697266 1031.01831054688 1033.79333496094 1031.83557128906 1031.25927734375 1031.62744140625 1027.36071777344 1037.39196777344 1032.26220703125 1042.5166015625 1042.56372070312 1050.30786132812 1055.69567871094 1056.44116210938 1069.78637695312 1076.43518066406 1085.29125976562 1084.14636230469 1094.65087890625 1102.74975585938 1102.53674316406 1099.78857421875 1094.84777832031
957.524475097656 961.675720214844 965.306274414062 956.606323242188 965.620727539062 956.499328613281 966.777160644531 962.690551757812 962.314819335938 959.951843261719 966.142578125 966.030456542969 971.187438964844 981.08642578125 990.362121582031 976.04736328125 974.144653320312 979.140075683594 988.990844726562 992.200317382812 980.543395996094 975.817321777344 990.473876953125 986.36376953125 993.007141113281 995.700378417969 985.492858886719 987.777709960938 981.61376953125 983.753356933594 985.237365722656 990.69189453125 989.442443847656 990.204162597656 996.240539550781 987.697814941406 995.503051757812 989.908569335938 984.279113769531 988.520874023438 988.537719726562 995.897827148438 996.828247070312 985.797058105469 989.029602050781 986.532348632812 984.800964355469 985.12353515625 997.171508789062 994.158996582031 987.974304199219 981.680358886719 976.884094238281 981.723754882812 977.197937011719 989.586303710938 1000.8857421875 988.582092285156 991.683471679688 991.79638671875 990.163940429688 994.117919921875 993.804809570312 983.599182128906 986.176696777344 990.726318359375 996.735046386719 987.894226074219 995.464172363281 1000.50946044922 990.892761230469 987.606201171875 989.484497070312 997.460815429688 999.244079589844 994.007690429688 997.987915039062 992.029663085938 988.0244140625 983.243591308594 990.336242675781 994.404907226562 999.673706054688 1001.97479248047 993.570007324219 999.636352539062 1008.19836425781 1010.96661376953 1011.88757324219 1017.05883789062 1023.28741455078 1018.75598144531 1012.89868164062 1019.48809814453 1012.46563720703 1013.52380371094 1009.75701904297 1004.14440917969 1010.13653564453 1008.08044433594 1012.82904052734 1007.61163330078 994.886840820312 1006.21380615234 1005.90515136719 1000.60021972656 1002.55352783203 998.161437988281 984.827209472656 982.621643066406 971.802856445312 964.486572265625 954.292724609375 946.363159179688 952.941162109375 961.32470703125 955.955932617188 956.85986328125 960.986572265625 979.231506347656 986.010192871094 994.980224609375 1001.92462158203 1005.73937988281 1017.3505859375 1011.29962158203 1009.86199951172 1016.42248535156 1026.37756347656 1034.51574707031 1036.31018066406 1025.84460449219 1020.36938476562 1019.96142578125 1018.47149658203 1027.201171875 1039.05358886719 1037.90856933594 1043.43627929688 1041.51293945312 1051.35241699219 1060.82250976562 1075.06994628906 1085.94750976562 1086.50769042969 1086.57238769531 1098.54528808594 1101.03247070312 1104.2529296875 1103.65661621094
958.825378417969 962.64697265625 967.627014160156 967.25390625 968.05419921875 964.983093261719 964.751525878906 966.135192871094 969.166442871094 973.178405761719 961.823669433594 967.794982910156 975.251831054688 987.112854003906 980.313232421875 981.600830078125 980.164916992188 975.499938964844 982.401062011719 984.19970703125 973.292419433594 986.113586425781 989.894165039062 992.286499023438 996.537841796875 989.694274902344 987.928405761719 985.935180664062 979.215942382812 983.659973144531 978.470092773438 985.702819824219 983.388061523438 986.136535644531 987.984191894531 990.965698242188 983.397583007812 986.808044433594 980.037841796875 984.599426269531 986.47802734375 988.0458984375 995.525573730469 988.270263671875 994.335632324219 994.321411132812 987.038391113281 994.891174316406 988.503479003906 992.757019042969 980.880065917969 983.741394042969 980.612548828125 975.281311035156 983.931091308594 988.376892089844 987.890319824219 987.849792480469 986.68359375 984.498901367188 981.617126464844 991.285522460938 991.028625488281 985.550415039062 982.825805664062 983.787292480469 988.084411621094 989.355224609375 997.029541015625 990.663818359375 990.716613769531 983.266174316406 991.361206054688 988.914733886719 1000.51330566406 997.540344238281 999.62109375 995.616882324219 997.336059570312 991.840698242188 993.037536621094 996.380249023438 1006.74786376953 996.150207519531 994.108459472656 992.737854003906 993.601867675781 1009.44165039062 1011.42364501953 1012.15460205078 1021.30438232422 1028.00952148438 1022.14105224609 1022.31469726562 1016.00048828125 1015.24725341797 1011.43499755859 1005.13934326172 1004.57562255859 1009.66192626953 997.674499511719 1003.84588623047 1011.84716796875 1009.15759277344 1002.84765625 998.498107910156 994.801452636719 1000.09539794922 993.047973632812 989.680603027344 977.899230957031 961.089538574219 954.1865234375 947.533752441406 943.947570800781 954.047485351562 957.822326660156 966.364807128906 969.687805175781 973.671875 983.387817382812 1001.41796875 1004.63836669922 1006.41094970703 1018.64477539062 1022.583984375 1025.34448242188 1024.23388671875 1028.80029296875 1031.57250976562 1028.91662597656 1024.083984375 1017.35815429688 1016.48895263672 1014.00598144531 1020.46575927734 1029.36010742188 1035.23071289062 1034.93249511719 1041.81201171875 1052.40319824219 1063.212890625 1068.0419921875 1079.47473144531 1081.08715820312 1089.26806640625 1096.78234863281 1098.02136230469 1108.48181152344 1103.74694824219
958.296142578125 967.431396484375 970.941528320312 973.883483886719 970.71484375 974.137268066406 978.620056152344 980.031982421875 976.296813964844 975.204650878906 967.402587890625 974.367004394531 980.991027832031 983.886657714844 980.45703125 980.751037597656 983.586608886719 972.431945800781 971.906494140625 978.015319824219 980.445068359375 991.394775390625 988.5927734375 990.729553222656 993.832885742188 988.973388671875 979.274719238281 982.859619140625 982.206604003906 975.016662597656 980.5322265625 980.496948242188 977.995910644531 982.571655273438 990.636413574219 982.218444824219 988.933959960938 989.591735839844 977.777954101562 976.978820800781 984.899963378906 975.622680664062 985.636352539062 977.312683105469 989.325012207031 987.947387695312 986.998291015625 989.327819824219 979.196044921875 980.827087402344 975.966125488281 976.408996582031 978.540954589844 979.326477050781 977.439270019531 971.745056152344 985.096435546875 984.225952148438 985.391418457031 977.500183105469 975.726135253906 988.552124023438 985.285705566406 993.808166503906 988.196105957031 982.155578613281 984.878112792969 997.846557617188 995.079284667969 1000.22497558594 1001.53259277344 988.11572265625 994.963073730469 994.550109863281 992.830017089844 996.453674316406 1000.83386230469 997.244506835938 993.375 990.778625488281 990.851928710938 993.735961914062 1000.28582763672 992.648864746094 994.931640625 1000.24157714844 997.70703125 1006.07104492188 1002.15594482422 1012.64526367188 1022.74847412109 1021.34271240234 1024.67443847656 1019.83801269531 1012.8251953125 1010.58258056641 1006.80456542969 1011.86798095703 1002.05346679688 1000.36376953125 997.788818359375 1000.65570068359 1009.25238037109 1008.4013671875 1001.697265625 989.780883789062 992.273193359375 1005.64978027344 993.455200195312 981.132751464844 982.415954589844 971.697814941406 957.754638671875 947.252136230469 951.6591796875 957.129089355469 963.603454589844 964.850280761719 969.359375 979.954895019531 991.830871582031 994.438232421875 1002.17401123047 1009.87109375 1015.82250976562 1021.15795898438 1029.52270507812 1025.09680175781 1029.12890625 1027.93286132812 1029.36938476562 1019.97027587891 1014.07556152344 1012.21813964844 1018.38592529297 1019.50616455078 1025.55578613281 1028.46069335938 1033.87622070312 1040.91967773438 1044.36889648438 1061.26098632812 1073.91967773438 1079.66467285156 1086.27099609375 1090.75659179688 1092.47253417969 1100.74487304688 1099.78845214844 1104.57666015625
945.61767578125 959.932189941406 957.701904296875 974.295104980469 969.7578125 979.496276855469 971.713256835938 975.982299804688 978.571166992188 972.883666992188 971.394836425781 978.292541503906 976.353149414062 977.998168945312 974.534545898438 976.782043457031 976.77880859375 972.844299316406 974.87841796875 973.907470703125 972.393310546875 982.439758300781 981.092895507812 981.065673828125 984.211791992188 983.590881347656 984.039916992188 980.569519042969 980.872009277344 975.946899414062 975.00244140625 978.982238769531 978.165405273438 981.333312988281 990.947326660156 984.722778320312 980.530029296875 984.233825683594 975.435302734375 976.531188964844 965.954040527344 971.458435058594 972.790344238281 985.476867675781 985.815124511719 984.586730957031 982.734313964844 985.086730957031 982.105651855469 975.331909179688 966.116516113281 973.467163085938 975.606994628906 979.30224609375 973.429321289062 971.279235839844 977.168762207031 980.865905761719 976.716674804688 973.241577148438 967.514038085938 981.068176269531 987.362976074219 984.258056640625 990.101013183594 991.451232910156 990.576354980469 990.969970703125 996.185791015625 989.613647460938 996.417053222656 995.84814453125 997.270324707031 996.771789550781 998.579711914062 988.0419921875 995.667175292969 1003.59002685547 1009.18719482422 993.37060546875 985.34912109375 991.672607421875 997.669555664062 997.752136230469 997.957702636719 1000.33978271484 1003.26684570312 1008.29803466797 1012.98760986328 1008.64337158203 1012.19805908203 1022.26940917969 1018.75402832031 1020.52758789062 1017.09130859375 1009.44616699219 1006.69488525391 1015.42803955078 1008.14831542969 998.866271972656 999.280334472656 998.464782714844 999.259399414062 1006.53356933594 999.109008789062 984.991821289062 994.463745117188 997.408386230469 992.096618652344 985.316467285156 987.403015136719 987.054748535156 969.771057128906 965.63134765625 960.116882324219 966.367248535156 967.996887207031 965.146301269531 978.362121582031 982.636474609375 990.524475097656 1005.41107177734 1006.23199462891 1004.42901611328 1017.67810058594 1021.75305175781 1033.3916015625 1025.6142578125 1032.25866699219 1023.31115722656 1011.96002197266 1012.07385253906 1019.15985107422 1011.11669921875 1016.30145263672 1018.96203613281 1016.19598388672 1019.74578857422 1022.00598144531 1033.78747558594 1044.22253417969 1059.53173828125 1068.53332519531 1075.27697753906 1075.76647949219 1083.89343261719 1099.14270019531 1096.7373046875 1097.0380859375 1103.50695800781
946.478393554688 946.074951171875 954.093322753906 964.677001953125 980.746643066406 980.918090820312 973.54345703125 975.168090820312 975.495910644531 974.511169433594 969.937194824219 972.701354980469 975.574768066406 985.078918457031 976.639404296875 974.457397460938 968.5361328125 971.851501464844 976.731994628906 969.356811523438 975.090454101562 977.557250976562 978.2060546875 981.87548828125 988.891296386719 979.565307617188 985.592224121094 972.0322265625 980.555419921875 976.531921386719 972.140502929688 982.666625976562 983.95556640625 988.458190917969 981.211547851562 983.49658203125 980.131225585938 976.622436523438 968.195190429688 978.140380859375 980.430419921875 980.709045410156 976.502197265625 977.046203613281 983.671569824219 988.395874023438 989.40087890625 983.078857421875 983.866394042969 979.572998046875 971.814025878906 971.283142089844 977.661010742188 979.544677734375 970.057250976562 968.61376953125 980.509338378906 977.942077636719 972.94921875 970.358642578125 971.154602050781 976.016967773438 977.613525390625 987.516418457031 990.365478515625 992.791931152344 993.263488769531 994.246826171875 987.261474609375 989.183898925781 990.864685058594 987.282165527344 982.708129882812 996.048400878906 995.673095703125 984.493286132812 988.36669921875 1004.11279296875 1005.57330322266 1003.89245605469 998.819580078125 998.0693359375 1004.73724365234 997.574401855469 1003.44323730469 1011.20867919922 1007.38330078125 1012.20666503906 1011.40991210938 1009.71215820312 1008.94543457031 1014.74884033203 1017.53875732422 1020.75140380859 1012.06427001953 1006.16766357422 1002.27215576172 1004.52593994141 997.925537109375 999.716735839844 998.298767089844 998.543823242188 997.935424804688 1002.80279541016 1001.72296142578 992.592041015625 996.908569335938 997.151306152344 991.825256347656 978.988098144531 992.405822753906 989.090759277344 985.048828125 983.798950195312 984.40966796875 969.649047851562 970.961303710938 967.910461425781 975.38134765625 982.389404296875 1005.41571044922 1010.27380371094 1010.76812744141 1015.86669921875 1020.8125 1022.78656005859 1032.44445800781 1024.84338378906 1027.09716796875 1022.38073730469 1011.33483886719 1014.39105224609 1008.25555419922 1018.46661376953 1018.14056396484 1014.01751708984 1022.33093261719 1017.24597167969 1026.90734863281 1042.42492675781 1044.02380371094 1058.32629394531 1070.33642578125 1070.4296875 1071.74487304688 1085.42431640625 1097.03454589844 1102.38415527344 1102.07495117188 1109.94226074219
948.999450683594 950.172485351562 953.616271972656 964.203674316406 971.159362792969 969.823852539062 972.377380371094 967.314880371094 964.530944824219 972.851379394531 969.663635253906 973.074584960938 975.689208984375 976.713562011719 976.284423828125 981.540222167969 970.130798339844 963.826232910156 969.607299804688 967.752807617188 979.923095703125 985.720397949219 986.454467773438 985.825866699219 986.518249511719 982.783264160156 981.006958007812 975.846618652344 977.859924316406 975.586120605469 980.832092285156 985.964111328125 985.132263183594 985.402038574219 988.884887695312 982.279541015625 974.104064941406 973.614562988281 969.278686523438 980.596862792969 975.453063964844 975.290954589844 984.565673828125 987.008728027344 985.997375488281 993.041748046875 991.543701171875 983.765502929688 976.743286132812 977.645446777344 980.697631835938 981.463745117188 980.489379882812 975.096923828125 976.143798828125 978.329650878906 976.062622070312 974.689025878906 973.099670410156 976.734558105469 970.227722167969 974.868041992188 986.814086914062 985.871276855469 990.303527832031 995.338134765625 993.57958984375 993.932434082031 987.132385253906 985.983215332031 987.676635742188 986.854797363281 988.141235351562 991.220825195312 986.381896972656 981.563598632812 986.390686035156 997.523742675781 1003.13562011719 998.643127441406 993.906066894531 993.981811523438 1001.46209716797 1003.96319580078 1007.99566650391 1012.42163085938 1014.70947265625 1010.61804199219 1012.4384765625 1005.953125 1010.41534423828 1009.74224853516 1010.14385986328 1012.67974853516 1017.51153564453 1010.01330566406 1003.04559326172 1003.60284423828 999.505920410156 994.472778320312 996.892272949219 992.378295898438 995.00927734375 998.730712890625 997.961853027344 994.03076171875 1005.40808105469 1002.79626464844 991.19921875 988.753967285156 991.734252929688 992.016662597656 998.894592285156 991.281372070312 985.221313476562 972.520263671875 979.491394042969 978.273254394531 973.658081054688 993.732727050781 1000.91540527344 1006.66394042969 1007.94122314453 1013.4423828125 1019.71801757812 1021.00305175781 1027.76684570312 1027.84069824219 1024.25476074219 1017.48022460938 1002.37048339844 1005.45495605469 1012.943359375 1014.12939453125 1017.06396484375 1014.70861816406 1018.37322998047 1026.03784179688 1036.76208496094 1051.51257324219 1048.30407714844 1055.60510253906 1075.32177734375 1083.06872558594 1072.81848144531 1084.80346679688 1099.53918457031 1103.18286132812 1105.67236328125 1112.63354492188
957.454040527344 969.0859375 956.681640625 965.080627441406 967.415100097656 965.882690429688 966.39208984375 974.08984375 969.850036621094 970.438171386719 970.140319824219 970.576904296875 971.719177246094 971.444091796875 973.647155761719 980.303344726562 971.985473632812 975.480041503906 964.868225097656 966.417724609375 969.627319335938 983.777954101562 983.983703613281 986.177307128906 982.588928222656 977.920104980469 976.179565429688 979.062316894531 976.958251953125 978.400207519531 987.237426757812 989.06103515625 989.398498535156 986.456787109375 981.885925292969 982.331787109375 972.697448730469 979.707885742188 976.37841796875 973.174072265625 965.504150390625 970.684448242188 971.62451171875 981.802124023438 986.600830078125 986.032897949219 987.44384765625 978.415771484375 974.781677246094 976.873962402344 971.418701171875 978.282531738281 970.603820800781 975.864868164062 976.225158691406 974.264038085938 975.177551269531 973.14990234375 966.539672851562 967.042236328125 966.703979492188 985.887390136719 984.046752929688 995.668518066406 991.572448730469 999.671997070312 989.638854980469 985.612182617188 980.705200195312 980.615173339844 979.464050292969 972.881896972656 974.601013183594 978.541931152344 982.905212402344 976.270751953125 983.974609375 990.436462402344 997.641479492188 992.581298828125 994.565673828125 994.358032226562 1003.58624267578 997.560729980469 1006.47619628906 1015.57073974609 1014.41131591797 1003.623046875 1011.86389160156 1009.09393310547 1010.73413085938 1017.39501953125 1003.95513916016 1007.41638183594 1007.38671875 1007.85021972656 1001.38861083984 997.25390625 993.812133789062 993.062072753906 988.863342285156 985.520690917969 989.470642089844 993.816467285156 994.590393066406 998.683532714844 998.241088867188 988.718811035156 990.58642578125 987.58984375 988.713073730469 993.579650878906 996.88720703125 996.457763671875 991.8955078125 987.043579101562 981.222412109375 984.974914550781 982.167846679688 992.563171386719 996.637634277344 1001.86181640625 998.875854492188 1007.84429931641 1004.41265869141 1009.62628173828 1014.19830322266 1017.12408447266 1011.57177734375 1014.04547119141 1016.04437255859 1014.60510253906 1015.07263183594 1014.86968994141 1017.00134277344 1017.38684082031 1017.32739257812 1022.69506835938 1039.53491210938 1053.19665527344 1050.82849121094 1059.11608886719 1066.08984375 1081.97729492188 1078.57531738281 1086.29284667969 1096.64050292969 1112.62377929688 1116.64331054688 1110.837890625
958.958984375 965.962158203125 961.333435058594 969.837951660156 966.315551757812 967.081481933594 968.35693359375 968.019958496094 967.149536132812 967.717651367188 965.362915039062 961.224853515625 977.908325195312 971.846923828125 970.729187011719 969.881896972656 977.997863769531 967.041625976562 975.375366210938 969.378723144531 974.319030761719 974.668823242188 978.696166992188 974.095581054688 983.102233886719 981.060302734375 979.95361328125 977.539855957031 978.052185058594 978.661010742188 981.138244628906 991.6943359375 982.42578125 980.014587402344 971.147705078125 978.619323730469 976.314392089844 979.355407714844 972.335083007812 976.383056640625 969.998657226562 966.422485351562 975.717224121094 973.80712890625 980.895629882812 986.255859375 974.932922363281 975.427490234375 979.703918457031 974.148620605469 975.93115234375 976.330444335938 973.365844726562 973.619201660156 967.29296875 974.042297363281 970.108093261719 970.247009277344 959.068420410156 972.9072265625 975.909423828125 996.620178222656 994.56640625 990.081359863281 986.832580566406 984.420837402344 986.227355957031 989.322631835938 983.382080078125 982.492492675781 976.882873535156 969.585388183594 971.563537597656 975.572570800781 970.268493652344 976.899169921875 980.1787109375 986.540710449219 1001.86975097656 993.215209960938 998.282958984375 1002.74645996094 1000.30212402344 997.672729492188 1006.267578125 1003.53619384766 1005.56573486328 1004.15582275391 1007.25982666016 999.620849609375 1004.5 1012.39886474609 999.279113769531 1000.80224609375 1001.11688232422 1000.1015625 995.783630371094 994.936462402344 993.838439941406 982.295104980469 980.913391113281 981.776306152344 994.366577148438 998.231384277344 996.2294921875 1001.92071533203 1000.05676269531 993.137939453125 990.208312988281 988.738037109375 992.072143554688 1001.26080322266 1002.61309814453 996.877563476562 1002.095703125 989.465148925781 986.902221679688 995.415893554688 996.54541015625 997.582824707031 994.694396972656 992.2763671875 1001.46380615234 997.432312011719 1001.05157470703 999.246337890625 997.432373046875 1010.27307128906 1008.19616699219 1011.09558105469 1015.66912841797 1016.16625976562 1015.98748779297 1014.92120361328 1016.81658935547 1024.66711425781 1026.18859863281 1032.97985839844 1041.82250976562 1050.015625 1055.10925292969 1059.41931152344 1070.9658203125 1071.15795898438 1079.75390625 1089.00354003906 1106.28942871094 1115.55017089844 1117.49755859375 1114.43835449219
964.047485351562 967.758911132812 964.333923339844 970.647033691406 971.854675292969 968.527587890625 968.378784179688 965.731140136719 973.621826171875 978.439392089844 967.855834960938 960.642272949219 970.053649902344 967.124267578125 972.021179199219 967.357788085938 978.987487792969 975.396606445312 977.084838867188 975.3232421875 976.252136230469 981.350463867188 978.356384277344 971.591918945312 979.398498535156 977.548095703125 970.178955078125 984.54443359375 980.544311523438 977.676574707031 977.595458984375 984.224731445312 978.31787109375 966.222900390625 981.326354980469 971.343933105469 975.190612792969 975.52978515625 975.629943847656 984.851501464844 979.1337890625 966.529052734375 969.011657714844 970.074462890625 968.127319335938 979.148010253906 968.89208984375 973.730346679688 971.372741699219 982.193664550781 978.98486328125 965.607238769531 969.69482421875 969.803466796875 963.654357910156 963.311889648438 964.485107421875 958.747436523438 965.524597167969 967.701049804688 979.564147949219 990.584411621094 1000.00787353516 987.3828125 983.849060058594 982.210144042969 985.974914550781 985.904724121094 983.580261230469 973.826416015625 975.874633789062 974.639343261719 971.196960449219 972.121398925781 970.693359375 971.623840332031 980.978698730469 994.154235839844 996.736083984375 1002.52386474609 997.553894042969 1007.7138671875 997.491027832031 998.380737304688 1007.01770019531 1007.09222412109 1000.31927490234 1004.03411865234 1004.08306884766 997.585815429688 999.491577148438 1003.49963378906 1000.46508789062 990.740783691406 999.293029785156 1000.5166015625 1004.83361816406 996.853698730469 995.061279296875 988.783569335938 990.619445800781 987.4921875 994.718139648438 1002.60693359375 1002.40539550781 997.691467285156 1002.51885986328 1002.20404052734 990.7021484375 992.87060546875 995.173950195312 1000.92547607422 1002.04071044922 1002.19329833984 994.455688476562 1000.18780517578 989.965209960938 998.240844726562 1003.30651855469 992.542724609375 995.913818359375 992.822570800781 1003.97381591797 1000.47479248047 999.985778808594 1008.23797607422 1003.16821289062 1006.36724853516 1008.50573730469 1012.49255371094 1017.65783691406 1025.80029296875 1030.58544921875 1013.43377685547 1013.86120605469 1025.77416992188 1032.43994140625 1036.79455566406 1043.37573242188 1050.69604492188 1051.94982910156 1056.66906738281 1069.18139648438 1074.92175292969 1084.39221191406 1098.44616699219 1105.32531738281 1118.81066894531 1128.45324707031 1131.34887695312
963.943481445312 965.238464355469 960.922973632812 962.130065917969 967.041870117188 975.232543945312 981.101989746094 971.360107421875 968.329895019531 966.656860351562 961.687194824219 962.254699707031 966.123413085938 972.217224121094 977.376403808594 970.026489257812 983.192932128906 982.426452636719 972.375427246094 973.275085449219 976.221923828125 983.396789550781 974.533386230469 972.062683105469 975.543823242188 983.487365722656 980.387390136719 987.038879394531 985.369262695312 972.140075683594 971.267700195312 972.059020996094 974.873413085938 974.459899902344 971.832641601562 975.031494140625 975.115051269531 971.646850585938 976.026611328125 977.591247558594 972.012268066406 964.399169921875 955.998901367188 963.783508300781 961.563659667969 962.964965820312 968.540100097656 968.867431640625 972.160522460938 972.898010253906 965.904357910156 969.207214355469 960.855407714844 966.724548339844 959.488159179688 957.997741699219 965.945129394531 961.883056640625 967.497192382812 973.262390136719 984.585571289062 994.816223144531 988.51025390625 983.721069335938 985.138244628906 984.419860839844 983.231140136719 983.964782714844 970.1806640625 966.617858886719 972.573120117188 971.191345214844 974.918640136719 975.022888183594 969.906433105469 966.122497558594 968.730224609375 975.529907226562 983.37255859375 983.725708007812 992.541625976562 995.130249023438 987.283203125 984.868408203125 996.677001953125 1004.02691650391 1000.35241699219 1000.55914306641 999.918579101562 1002.97344970703 1006.33746337891 998.819763183594 994.498474121094 989.116760253906 994.997253417969 997.382751464844 995.9501953125 994.716430664062 991.171142578125 990.778198242188 990.639099121094 997.428527832031 998.149780273438 999.802124023438 998.520568847656 995.502014160156 994.812133789062 1001.48278808594 993.864624023438 992.055480957031 998.128540039062 1004.62817382812 995.885314941406 992.569763183594 997.144714355469 1001.36871337891 995.309997558594 994.927490234375 1003.79498291016 993.807495117188 998.742004394531 988.173278808594 992.649719238281 999.690856933594 1004.35375976562 1008.01025390625 998.651306152344 1010.61566162109 1013.15032958984 1018.08917236328 1021.771484375 1019.95367431641 1020.1005859375 1025.38989257812 1022.22314453125 1023.61059570312 1033.00939941406 1036.70690917969 1044.29418945312 1052.10876464844 1051.57019042969 1055.72204589844 1077.89184570312 1089.71398925781 1097.0224609375 1102.65490722656 1111.96398925781 1125.18444824219 1135.64294433594 1139.09240722656
957.458312988281 957.127624511719 956.943359375 953.511535644531 961.195922851562 969.205505371094 973.134460449219 970.5224609375 969.539855957031 963.384643554688 962.029663085938 966.047424316406 967.335510253906 972.844482421875 973.360412597656 974.696044921875 986.946350097656 977.208435058594 971.885314941406 965.153503417969 969.371459960938 970.408813476562 969.966613769531 972.218688964844 974.73583984375 981.968322753906 983.11767578125 984.862182617188 984.794006347656 979.672119140625 972.330078125 970.532897949219 968.720703125 971.571716308594 977.415771484375 972.251770019531 973.164367675781 974.572387695312 969.383361816406 970.37353515625 970.110229492188 961.960021972656 968.630676269531 959.923889160156 967.115112304688 968.827880859375 965.898071289062 973.93701171875 978.681396484375 972.806884765625 972.310485839844 972.417175292969 965.479736328125 969.719970703125 969.500610351562 963.392822265625 970.716186523438 965.259094238281 966.396240234375 968.925048828125 988.215393066406 988.5732421875 991.879089355469 985.84716796875 980.374084472656 983.326782226562 987.536987304688 987.836547851562 979.204833984375 965.579833984375 967.762817382812 973.989562988281 979.630859375 975.553955078125 969.805358886719 960.854125976562 956.248657226562 963.293151855469 971.294677734375 970.868041992188 978.058227539062 980.463684082031 990.335998535156 985.056457519531 992.677368164062 984.365295410156 997.527099609375 989.480163574219 997.029968261719 992.009216308594 997.113952636719 993.208740234375 993.647583007812 990.303894042969 987.928100585938 987.071533203125 996.375793457031 995.834228515625 992.838500976562 995.524597167969 991.443176269531 990.718017578125 991.850158691406 993.867004394531 991.844055175781 993.14111328125 986.538879394531 993.914367675781 991.060974121094 985.165222167969 987.11572265625 990.759948730469 990.168823242188 989.643676757812 992.383605957031 992.979675292969 994.461853027344 995.312622070312 1006.01525878906 995.294067382812 997.606201171875 986.724853515625 991.518188476562 1001.25036621094 1005.34350585938 1019.97076416016 1013.59954833984 1014.52325439453 1010.90295410156 1016.10845947266 1021.384765625 1012.98980712891 1019.76623535156 1015.29638671875 1028.5380859375 1036.95556640625 1043.7919921875 1048.33776855469 1049.93200683594 1059.35913085938 1068.08178710938 1070.67468261719 1083.37756347656 1091.49035644531 1106.13940429688 1106.80773925781 1129.49768066406 1140.25891113281 1142.31127929688 1142.46301269531
957.232421875 956.617919921875 953.990966796875 948.573974609375 956.352294921875 969.310485839844 967.439392089844 963.505554199219 966.115112304688 963.684814453125 970.916076660156 973.37451171875 972.084594726562 977.941528320312 978.058837890625 975.80517578125 979.388549804688 981.527404785156 981.6796875 973.446838378906 966.960632324219 971.07568359375 970.760681152344 966.167114257812 968.856018066406 980.477294921875 975.80908203125 971.66796875 973.204040527344 970.506164550781 969.754943847656 980.36181640625 973.362182617188 969.139343261719 963.023742675781 969.901916503906 968.023132324219 979.057861328125 976.795104980469 973.231018066406 959.833129882812 964.954345703125 967.249816894531 966.843322753906 969.586669921875 970.33740234375 972.448120117188 974.8759765625 982.111633300781 980.1015625 981.904846191406 973.650756835938 970.26611328125 970.77294921875 966.666259765625 971.184143066406 967.909057617188 968.058776855469 964.415222167969 969.808532714844 984.549133300781 991.877014160156 980.971069335938 983.073486328125 987.821594238281 990.456848144531 989.576049804688 989.702392578125 978.572570800781 969.628295898438 968.688720703125 972.335632324219 971.25732421875 975.040405273438 969.570861816406 958.80810546875 968.131958007812 967.252014160156 962.183166503906 967.897216796875 974.813598632812 979.457336425781 984.86181640625 975.807556152344 978.229919433594 983.495300292969 986.918884277344 987.514709472656 993.146118164062 995.374633789062 988.932983398438 991.017333984375 988.895263671875 989.970947265625 984.404479980469 987.469848632812 988.747192382812 987.412353515625 984.189758300781 979.657409667969 976.5927734375 985.93408203125 992.942687988281 992.2548828125 994.726196289062 993.243041992188 977.640197753906 988.146362304688 992.555847167969 987.816284179688 985.029113769531 993.135925292969 992.196350097656 986.557861328125 993.154113769531 997.994201660156 993.999267578125 998.966857910156 1003.92584228516 1002.44451904297 998.294250488281 1001.68719482422 999.404113769531 999.060363769531 1003.4619140625 1007.94689941406 1017.75756835938 1016.45397949219 1017.90905761719 1023.77423095703 1023.71038818359 1025.14245605469 1026.29431152344 1027.27856445312 1038.70935058594 1040.91296386719 1049.91186523438 1053.00341796875 1057.62829589844 1069.60363769531 1072.55895996094 1082.95227050781 1090.41162109375 1103.52746582031 1113.09106445312 1121.76696777344 1140.06469726562 1147.47436523438 1157.17590332031 1154.27307128906
960.47802734375 953.152404785156 953.768310546875 955.390869140625 951.972351074219 962.423400878906 970.571716308594 961.109985351562 972.079895019531 967.515930175781 967.267150878906 983.54833984375 973.991882324219 975.0751953125 973.003173828125 974.95263671875 972.139404296875 979.392578125 970.041809082031 965.663940429688 967.216430664062 967.866027832031 961.847351074219 962.710815429688 968.069152832031 971.629028320312 978.977233886719 975.106262207031 973.9560546875 967.697937011719 971.951904296875 977.990234375 970.136291503906 962.425659179688 966.081420898438 973.081298828125 979.819152832031 981.236206054688 971.672180175781 961.859741210938 963.51025390625 968.427917480469 964.084228515625 961.880065917969 960.511413574219 968.103759765625 963.029174804688 977.800659179688 991.59326171875 989.800720214844 978.024719238281 974.38037109375 973.452941894531 966.78125 967.99755859375 976.070617675781 973.594787597656 967.224548339844 973.988830566406 972.470458984375 975.107421875 984.403991699219 973.365356445312 974.899780273438 984.783508300781 986.470092773438 994.37451171875 994.35498046875 977.758850097656 967.671997070312 976.439880371094 975.525451660156 965.123779296875 971.407958984375 972.105285644531 970.995544433594 969.89453125 962.302673339844 972.098999023438 970.051696777344 968.286010742188 982.289978027344 981.1669921875 973.234069824219 973.853088378906 984.043395996094 987.262573242188 988.805297851562 984.776977539062 987.418395996094 981.93212890625 989.296691894531 979.655456542969 974.468505859375 982.356689453125 983.617492675781 974.601013183594 977.877990722656 982.138854980469 978.584716796875 977.527587890625 978.63427734375 987.11376953125 980.989074707031 988.08203125 987.750671386719 983.467102050781 982.4619140625 979.939270019531 978.153503417969 985.58447265625 993.855224609375 996.317504882812 993.181884765625 999.053833007812 993.660400390625 990.302551269531 992.40185546875 997.814819335938 998.296020507812 1000.51263427734 1000.12677001953 994.64208984375 998.166076660156 998.751770019531 1005.10552978516 1014.37799072266 1013.62634277344 1019.88507080078 1028.89538574219 1034.95812988281 1029.84191894531 1030.9658203125 1032.84362792969 1046.00805664062 1050.18383789062 1060.41589355469 1061.92211914062 1074.36584472656 1071.04321289062 1090.72204589844 1100.6689453125 1099.97143554688 1107.17810058594 1120.83630371094 1134.75427246094 1140.2451171875 1158.32556152344 1161.35290527344 1166.60827636719
941.454528808594 950.201293945312 948.690185546875 948.855163574219 960.018676757812 953.423278808594 958.301086425781 963.259460449219 968.337585449219 970.191467285156 975.57177734375 979.636169433594 971.607666015625 972.363647460938 977.228454589844 965.102233886719 972.060852050781 979.949096679688 975.976196289062 962.98486328125 976.999206542969 966.8369140625 971.568115234375 965.47021484375 970.105773925781 970.022277832031 977.39697265625 975.054748535156 973.667053222656 968.473449707031 974.537902832031 976.623413085938 965.780395507812 969.702453613281 963.033752441406 970.055603027344 982.33251953125 973.802062988281 972.305603027344 976.881652832031 973.708190917969 970.75341796875 966.632507324219 965.487243652344 956.77783203125 969.317199707031 969.526672363281 977.262023925781 984.866516113281 979.907531738281 977.833312988281 974.223571777344 973.145690917969 971.689514160156 968.725646972656 967.526062011719 970.535949707031 973.602722167969 973.080078125 977.802124023438 977.484008789062 978.43994140625 980.699951171875 974.914733886719 975.164489746094 976.338989257812 984.455871582031 977.2939453125 966.985595703125 963.519592285156 974.817016601562 968.932678222656 969.516479492188 973.849182128906 980.371032714844 973.573364257812 968.78466796875 968.806823730469 973.89599609375 978.1787109375 978.318115234375 986.847534179688 978.351013183594 980.522033691406 983.255737304688 975.892517089844 976.735778808594 983.128479003906 980.444030761719 986.455810546875 980.708740234375 969.945007324219 984.307800292969 983.963989257812 983.743957519531 977.035034179688 970.889709472656 975.790832519531 982.400146484375 974.063354492188 973.041748046875 979.619934082031 978.728271484375 972.299072265625 986.723510742188 984.468994140625 975.156066894531 986.401916503906 984.929565429688 983.891052246094 982.594665527344 986.914794921875 983.77490234375 990.790161132812 993.484130859375 987.98583984375 988.40576171875 993.462036132812 992.964172363281 994.117553710938 987.384948730469 987.264953613281 997.069396972656 1003.86712646484 998.445373535156 1005.4619140625 1015.82165527344 1016.92395019531 1026.54431152344 1025.20715332031 1027.54919433594 1027.69787597656 1036.373046875 1040.37719726562 1042.39916992188 1054.50610351562 1074.64477539062 1073.94787597656 1078.70043945312 1090.92529296875 1098.02416992188 1104.10913085938 1111.755859375 1122.15405273438 1128.55236816406 1135.42370605469 1149.4736328125 1159.59118652344 1153.48193359375 1155.94970703125
955.966186523438 955.520812988281 948.821838378906 944.096435546875 958.470764160156 962.479919433594 960.329345703125 970.33984375 970.848022460938 967.295593261719 972.463989257812 974.509216308594 969.7041015625 972.365356445312 972.754089355469 975.88916015625 972.582092285156 972.252014160156 975.88134765625 973.752990722656 975.232421875 967.834106445312 968.195739746094 969.664367675781 975.310119628906 971.034362792969 971.405578613281 975.995422363281 981.305480957031 972.166259765625 981.785705566406 976.611206054688 978.007873535156 974.150695800781 962.373168945312 968.520629882812 972.999633789062 981.360473632812 979.792785644531 974.890747070312 970.513916015625 974.062744140625 971.481018066406 971.406982421875 965.091979980469 969.429992675781 982.306945800781 980.566833496094 981.016052246094 975.182373046875 974.24365234375 974.341186523438 963.550537109375 964.393127441406 969.244506835938 964.064819335938 963.384155273438 973.178894042969 972.526550292969 978.2265625 983.601013183594 975.639404296875 975.155883789062 962.234985351562 976.693542480469 976.201049804688 974.274108886719 977.272583007812 965.676330566406 959.3134765625 963.474731445312 959.578430175781 967.052917480469 974.989807128906 982.529968261719 980.121704101562 978.211242675781 966.368347167969 973.137634277344 967.961853027344 974.097839355469 976.848510742188 978.035705566406 976.616943359375 977.687927246094 979.635314941406 977.156860351562 977.20654296875 975.752380371094 989.077087402344 978.939697265625 984.399963378906 991.595275878906 982.8671875 981.799255371094 981.592163085938 969.359130859375 973.82958984375 979.852111816406 979.940307617188 980.82177734375 977.06640625 978.65576171875 972.784790039062 986.530456542969 980.664489746094 980.358093261719 980.817321777344 976.13525390625 986.709289550781 988.072509765625 999.47802734375 995.411743164062 992.8876953125 994.076354980469 997.1875 995.109191894531 992.415832519531 986.052307128906 991.549377441406 990.514709472656 989.836730957031 993.232299804688 1002.52215576172 1005.65118408203 1003.81579589844 1017.40924072266 1025.35791015625 1023.06628417969 1018.78369140625 1033.72375488281 1042.98937988281 1043.2373046875 1045.05493164062 1045.22058105469 1058.44177246094 1074.95703125 1085.85314941406 1092.54321289062 1101.17199707031 1103.52856445312 1112.39184570312 1124.59558105469 1138.18127441406 1137.33325195312 1145.81225585938 1157.36059570312 1163.4755859375 1158.30590820312 1160.0751953125
950.238525390625 951.856018066406 953.19580078125 955.159790039062 959.446899414062 958.70654296875 954.495849609375 963.492614746094 966.599731445312 974.545593261719 974.639038085938 972.881164550781 981.070556640625 977.480834960938 970.863403320312 974.470275878906 977.614013671875 976.597106933594 972.866760253906 981.220581054688 982.159912109375 977.358337402344 976.041381835938 967.516540527344 975.405334472656 971.567077636719 969.638793945312 981.690795898438 983.703979492188 980.779541015625 978.53173828125 981.903198242188 975.460632324219 976.142028808594 975.716064453125 974.899963378906 973.691833496094 980.867858886719 972.215454101562 980.839538574219 975.309875488281 973.384216308594 967.744934082031 962.223266601562 961.832275390625 975.273254394531 974.577331542969 970.82666015625 976.759765625 975.242126464844 972.134948730469 968.029907226562 964.482666015625 966.22998046875 965.130310058594 975.071716308594 965.942810058594 981.096313476562 981.392150878906 977.020629882812 981.798461914062 974.009338378906 968.507873535156 969.99951171875 971.367980957031 972.654357910156 975.661193847656 979.114013671875 970.420837402344 961.973449707031 960.795593261719 959.115295410156 966.804565429688 972.400695800781 977.809997558594 975.200012207031 969.019653320312 967.507019042969 977.699096679688 976.065856933594 964.165466308594 973.455444335938 972.837524414062 974.947265625 975.319152832031 975.238891601562 975.45166015625 976.536682128906 973.996948242188 976.485229492188 979.082580566406 973.842224121094 979.606567382812 988.728759765625 977.668640136719 978.479370117188 965.40673828125 976.260986328125 982.541015625 980.875305175781 986.563537597656 983.664489746094 977.625671386719 973.582580566406 982.126037597656 987.983947753906 993.469360351562 984.189636230469 986.574401855469 985.93798828125 999.164855957031 997.747131347656 994.481994628906 1000.01745605469 1001.23297119141 997.494995117188 996.635925292969 997.842407226562 997.577209472656 994.020141601562 988.537658691406 982.409790039062 992.411865234375 1003.57025146484 1000.8515625 1003.64477539062 1012.85424804688 1021.80212402344 1026.90979003906 1024.27844238281 1035.45764160156 1051.34997558594 1049.49877929688 1048.72705078125 1052.6875 1064.81384277344 1069.55993652344 1086.67456054688 1096.00109863281 1103.66137695312 1110.07141113281 1123.24584960938 1133.48059082031 1138.701171875 1146.37280273438 1153.97265625 1163.27185058594 1171.05383300781 1167.46020507812 1157.46301269531
956.258483886719 951.340148925781 946.989807128906 952.325988769531 959.9365234375 956.984558105469 952.846557617188 960.592102050781 965.1962890625 969.244323730469 968.219055175781 974.232727050781 977.979858398438 975.574340820312 968.613159179688 975.971618652344 978.047668457031 977.92919921875 975.244567871094 980.640625 980.833984375 982.991577148438 971.212036132812 971.118896484375 975.372985839844 973.052124023438 970.406433105469 984.202453613281 986.715759277344 987.148193359375 975.325805664062 970.732727050781 973.295654296875 973.893981933594 971.255920410156 965.635009765625 968.735534667969 979.479553222656 966.110961914062 973.663940429688 968.814270019531 968.714965820312 968.345092773438 967.564758300781 968.634826660156 968.792358398438 970.118530273438 969.045959472656 976.310974121094 972.0244140625 968.182373046875 970.159362792969 967.114685058594 968.4345703125 968.102905273438 968.561340332031 969.103149414062 977.275512695312 976.321655273438 980.697937011719 976.145690917969 974.70263671875 967.543212890625 964.735534667969 969.119140625 965.2646484375 972.168884277344 976.513793945312 964.581420898438 966.47216796875 967.6376953125 974.894714355469 963.057434082031 964.015502929688 967.952453613281 977.91748046875 972.258117675781 974.117065429688 976.701354980469 970.217041015625 961.228576660156 974.714050292969 969.939086914062 963.018310546875 969.62646484375 972.680297851562 975.105041503906 981.939697265625 971.788635253906 964.580444335938 977.633911132812 974.928161621094 977.611328125 982.028869628906 978.804992675781 965.702758789062 965.994995117188 967.60498046875 979.947998046875 982.733276367188 985.238159179688 976.647583007812 978.022094726562 980.074279785156 990.171691894531 992.509521484375 997.975158691406 989.826965332031 991.656188964844 992.740295410156 997.906188964844 1004.21795654297 1000.15203857422 1010.22869873047 1008.26788330078 1008.85571289062 1011.65417480469 1008.99975585938 1004.81243896484 994.969604492188 980.436279296875 989.918823242188 997.889465332031 1001.70043945312 1007.48455810547 1009.33087158203 1027.42736816406 1036.06359863281 1036.64721679688 1034.365234375 1042.50207519531 1048.04760742188 1051.67529296875 1050.01647949219 1044.09167480469 1059.50939941406 1074.1005859375 1085.58544921875 1097.07995605469 1095.71435546875 1106.73583984375 1114.30041503906 1124.05407714844 1137.59497070312 1141.52697753906 1153.5654296875 1150.451171875 1158.88549804688 1169.09118652344 1171.48254394531
953.19873046875 952.752807617188 956.117980957031 955.209289550781 963.31640625 963.080505371094 955.277526855469 956.750244140625 957.388732910156 963.186584472656 967.781372070312 975.896118164062 973.458068847656 969.183410644531 970.814147949219 978.669311523438 982.595642089844 972.239807128906 974.354431152344 981.879211425781 968.855895996094 980.966125488281 970.580749511719 965.817443847656 967.64306640625 970.758728027344 973.007202148438 971.784729003906 982.53955078125 977.121887207031 980.746276855469 979.247253417969 977.899108886719 974.042663574219 970.769653320312 972.029663085938 967.90283203125 967.144165039062 968.669555664062 960.887878417969 960.736511230469 970.011535644531 969.583374023438 968.6806640625 967.586730957031 963.734558105469 960.74267578125 970.863037109375 977.390319824219 964.024719238281 963.642761230469 972.02734375 965.2138671875 958.054077148438 953.736511230469 965.730285644531 966.659423828125 969.163208007812 973.027465820312 974.208190917969 970.471740722656 968.891967773438 969.186950683594 969.336486816406 973.657043457031 968.219177246094 973.687438964844 967.447937011719 968.888916015625 968.260925292969 971.394653320312 968.496398925781 967.656555175781 969.640686035156 965.183654785156 970.209167480469 974.2646484375 974.052795410156 971.921020507812 973.073913574219 963.295593261719 964.462585449219 977.588989257812 970.269409179688 967.863708496094 970.560668945312 966.185424804688 976.835815429688 975.94775390625 969.612426757812 972.913208007812 973.074890136719 973.476623535156 976.237182617188 978.236755371094 970.642944335938 971.531494140625 963.425109863281 976.384033203125 977.188659667969 982.337097167969 977.693359375 984.501098632812 990.085205078125 991.110473632812 995.176147460938 995.264221191406 991.404357910156 995.552612304688 993.634399414062 992.013488769531 1001.19396972656 1011.75805664062 1003.51306152344 1012.34454345703 1018.62145996094 1012.1650390625 1005.76770019531 999.094299316406 987.664611816406 989.923706054688 997.234741210938 1000.89447021484 1002.18933105469 1005.9189453125 1019.56115722656 1035.16479492188 1046.04650878906 1039.30688476562 1027.06018066406 1039.82153320312 1056.27880859375 1053.85314941406 1064.57092285156 1060.94262695312 1061.70178222656 1070.81884765625 1081.98974609375 1086.20275878906 1092.78100585938 1111.95202636719 1110.791015625 1126.10107421875 1135.16345214844 1132.79528808594 1141.02612304688 1138.24609375 1149.58117675781 1152.25708007812 1159.14990234375
953.668701171875 953.908935546875 958.849670410156 958.436889648438 967.4912109375 957.643005371094 960.859008789062 964.856262207031 960.803894042969 963.856384277344 962.466369628906 966.999450683594 963.863586425781 964.87939453125 970.777770996094 979.550659179688 979.911682128906 983.352844238281 979.506652832031 981.786743164062 973.899230957031 972.378662109375 966.964538574219 963.09228515625 958.691711425781 964.511901855469 968.767333984375 966.864807128906 976.846069335938 977.563659667969 976.642150878906 979.840393066406 977.722290039062 978.352478027344 969.048828125 968.992431640625 970.026672363281 970.093505859375 967.573181152344 963.469543457031 955.196533203125 967.466186523438 965.298217773438 963.634033203125 962.052001953125 961.183654785156 969.467224121094 968.794616699219 972.582397460938 970.230346679688 968.343505859375 965.335327148438 961.671997070312 967.864379882812 964.750793457031 959.088623046875 965.409912109375 968.147827148438 968.02099609375 972.362182617188 976.807312011719 974.743713378906 968.830444335938 961.293212890625 969.585083007812 969.244750976562 965.582458496094 970.95849609375 965.465881347656 968.224060058594 963.734497070312 961.741882324219 966.240600585938 969.707336425781 970.166809082031 960.28955078125 971.020446777344 973.102478027344 972.642700195312 961.197021484375 969.196228027344 974.236877441406 970.033508300781 968.049682617188 965.945922851562 971.551086425781 966.671081542969 973.832580566406 971.549133300781 968.155029296875 976.489562988281 974.40966796875 969.644653320312 966.533996582031 972.890686035156 976.010070800781 978.550476074219 974.530944824219 973.758361816406 971.406982421875 967.312866210938 980.4765625 981.24951171875 990.148681640625 989.127502441406 996.668518066406 992.956970214844 990.689819335938 983.321716308594 990.142822265625 992.231994628906 1002.55694580078 1009.84515380859 1005.50183105469 1006.50927734375 1012.32421875 1008.61962890625 1001.94622802734 995.194580078125 990.078002929688 986.532653808594 1004.29412841797 1011.32110595703 1016.97467041016 1021.66857910156 1024.28063964844 1037.45959472656 1044.55517578125 1043.3095703125 1037.658203125 1046.04187011719 1056.013671875 1061.11254882812 1064.69995117188 1061.32678222656 1067.88708496094 1080.09497070312 1081.93933105469 1100.87072753906 1098.10205078125 1105.650390625 1099.44934082031 1122.74633789062 1125.51220703125 1132.15686035156 1134.51220703125 1132.39685058594 1140.34545898438 1148.94213867188 1149.45056152344
947.6416015625 956.524353027344 959.765441894531 962.371887207031 959.012268066406 956.002624511719 969.68408203125 965.939392089844 961.584655761719 954.483642578125 968.110717773438 964.976379394531 967.803344726562 975.818603515625 971.728271484375 968.138916015625 973.321350097656 982.893676757812 972.346618652344 971.565002441406 968.639831542969 964.805908203125 969.421875 966.620300292969 961.766540527344 967.836486816406 963.012817382812 967.891418457031 975.761291503906 976.95849609375 967.78466796875 977.282104492188 983.684143066406 970.951049804688 968.324462890625 966.566101074219 977.431762695312 964.457275390625 957.6513671875 962.037048339844 958.877258300781 956.554809570312 961.357238769531 964.733337402344 960.265563964844 967.602722167969 961.343383789062 958.202697753906 962.618103027344 972.175231933594 964.470397949219 963.459411621094 967.045349121094 963.460571289062 969.060485839844 964.201477050781 970.223999023438 963.207092285156 958.475158691406 967.821655273438 972.612060546875 977.687622070312 973.618347167969 973.700012207031 971.400451660156 964.008911132812 955.038146972656 961.21728515625 964.767456054688 953.968933105469 962.379821777344 964.469116210938 965.719665527344 974.006958007812 969.923156738281 966.693359375 970.185363769531 973.680847167969 964.377624511719 959.8662109375 959.250061035156 968.680786132812 970.417236328125 978.507690429688 974.780883789062 977.705810546875 967.562561035156 965.355712890625 974.556518554688 975.326843261719 976.068359375 965.295166015625 964.814453125 969.151733398438 968.508728027344 970.156860351562 979.203430175781 974.676147460938 971.76953125 965.942016601562 965.727905273438 973.690063476562 983.322387695312 984.289978027344 985.552185058594 988.436096191406 981.55322265625 987.181640625 992.559387207031 996.868286132812 1000.11199951172 1002.11047363281 1003.79205322266 1018.86804199219 1009.63623046875 1014.33624267578 1017.46929931641 1010.18487548828 997.533142089844 986.91650390625 998.235168457031 1007.73046875 1017.37420654297 1031.97180175781 1036.68054199219 1033.92810058594 1031.21960449219 1037.99047851562 1040.25866699219 1029.54345703125 1042.93762207031 1047.4951171875 1061.58544921875 1063.26501464844 1063.29028320312 1066.47338867188 1078.90649414062 1090.96398925781 1095.33044433594 1109.47961425781 1107.28588867188 1119.35192871094 1122.96276855469 1125.30883789062 1126.80871582031 1125.34912109375 1129.88342285156 1134.66857910156 1139.8486328125 1132.96447753906
958.101623535156 954.29150390625 959.045227050781 964.35205078125 960.980773925781 957.809509277344 967.067077636719 971.773559570312 962.175048828125 966.823486328125 968.047729492188 973.086364746094 968.02783203125 968.24365234375 981.840881347656 978.404846191406 978.495971679688 981.962158203125 982.903259277344 980.307800292969 970.076232910156 965.844177246094 968.844787597656 970.684020996094 962.997619628906 962.174987792969 960.218322753906 960.12744140625 969.428039550781 969.18896484375 971.509216308594 962.872192382812 973.385986328125 961.096618652344 963.230651855469 969.181030273438 981.805603027344 969.830932617188 955.887756347656 959.757019042969 960.147216796875 958.735168457031 962.966918945312 969.389404296875 970.483215332031 965.204223632812 970.489440917969 966.547912597656 969.820495605469 970.247863769531 965.723266601562 961.553283691406 960.272888183594 964.128723144531 962.128601074219 963.158386230469 963.895629882812 958.502685546875 955.428894042969 964.651000976562 968.450622558594 962.90234375 969.794921875 968.085632324219 970.779296875 974.832214355469 961.942687988281 962.216003417969 961.93310546875 965.606994628906 959.572448730469 958.142639160156 965.289489746094 974.128173828125 973.686950683594 971.364990234375 976.097045898438 971.725341796875 960.570068359375 951.257751464844 954.050964355469 962.931274414062 968.089111328125 973.105285644531 968.534240722656 971.293151855469 967.197021484375 972.390563964844 970.227478027344 973.489379882812 966.550109863281 973.002197265625 967.804260253906 970.321533203125 968.726684570312 968.630493164062 973.670043945312 976.825012207031 965.555725097656 972.051513671875 980.060241699219 980.239929199219 984.402221679688 981.648681640625 980.6943359375 981.817077636719 975.917358398438 987.928161621094 985.573120117188 997.025756835938 997.695007324219 998.028503417969 999.330932617188 1010.70697021484 1012.1494140625 1008.72717285156 1010.23889160156 1005.89270019531 1003.97546386719 997.023071289062 1008.10412597656 1014.15270996094 1020.78784179688 1027.49658203125 1029.96215820312 1030.15808105469 1039.32019042969 1033.62817382812 1029.87683105469 1037.63305664062 1034.13122558594 1053.02355957031 1062.248046875 1068.15002441406 1071.3349609375 1073.17138671875 1083.30310058594 1095.00512695312 1097.16833496094 1110.43627929688 1110.90942382812 1115.30505371094 1123.76635742188 1115.72180175781 1117.54541015625 1113.21484375 1115.34240722656 1121.58471679688 1121.33276367188 1127.83044433594
962.3427734375 970.315246582031 959.144348144531 958.996887207031 958.890502929688 960.425964355469 966.474914550781 968.851684570312 972.085998535156 968.308349609375 971.952697753906 969.966674804688 979.383728027344 977.061401367188 977.43359375 984.333435058594 984.248352050781 985.400756835938 989.092529296875 977.377624511719 967.609619140625 966.2265625 977.950012207031 975.65087890625 965.344665527344 958.81591796875 963.802368164062 962.471923828125 970.46533203125 973.521179199219 963.948791503906 964.059753417969 965.538879394531 957.024291992188 966.118774414062 972.863952636719 970.840087890625 964.641357421875 961.162780761719 958.447875976562 957.576843261719 963.659790039062 964.294738769531 955.206115722656 962.280822753906 962.82958984375 967.175048828125 967.153442382812 961.210754394531 965.844665527344 970.704162597656 970.694580078125 960.126037597656 961.326293945312 962.865905761719 966.682067871094 959.044982910156 962.423156738281 959.818420410156 963.050231933594 963.441772460938 955.554443359375 962.803466796875 975.460144042969 975.149597167969 968.743103027344 962.324523925781 961.436584472656 965.094970703125 972.867248535156 965.11181640625 968.357727050781 961.934448242188 962.315673828125 968.169006347656 968.854370117188 960.91748046875 968.664916992188 957.743225097656 951.597229003906 956.490051269531 953.960144042969 967.347290039062 964.201110839844 965.848937988281 973.065368652344 967.898315429688 970.068420410156 977.015197753906 971.328552246094 975.332580566406 974.225280761719 970.039428710938 976.372436523438 966.742797851562 972.073059082031 968.006164550781 965.851013183594 972.224853515625 969.361694335938 979.611389160156 983.975402832031 986.353271484375 986.293212890625 977.49609375 981.588684082031 982.641174316406 976.244018554688 988.031921386719 988.178100585938 998.2314453125 1004.88269042969 1001.26287841797 1008.08367919922 1016.01232910156 1013.68560791016 1007.58764648438 1003.57537841797 1003.94439697266 1006.64184570312 1018.47979736328 1021.29925537109 1024.30114746094 1021.31146240234 1030.65478515625 1030.5078125 1039.05102539062 1037.810546875 1033.607421875 1032.18542480469 1041.08374023438 1047.16040039062 1060.25830078125 1070.1708984375 1070.03076171875 1079.32971191406 1090.18383789062 1097.93505859375 1101.18676757812 1106.00268554688 1112.39025878906 1118.56811523438 1113.10009765625 1114.4833984375 1104.25085449219 1104.51745605469 1112.98583984375 1108.83898925781 1106.48645019531 1117.99597167969
965.27294921875 965.237365722656 955.619445800781 952.456237792969 963.376708984375 975.981262207031 968.922668457031 969.337097167969 969.518981933594 968.358215332031 969.122497558594 978.041198730469 978.415466308594 973.570678710938 968.840148925781 982.824096679688 984.21826171875 980.773559570312 979.540100097656 979.842529296875 968.024475097656 967.167724609375 974.821533203125 972.663696289062 964.714233398438 954.200256347656 956.468994140625 955.964233398438 969.125671386719 974.379333496094 969.322204589844 962.341735839844 962.364501953125 966.648010253906 973.346496582031 973.757629394531 966.395751953125 960.034484863281 961.404968261719 962.595825195312 960.144409179688 958.860534667969 958.501342773438 954.046997070312 958.621520996094 962.341674804688 957.205322265625 962.812561035156 964.073059082031 957.36962890625 962.190856933594 963.126342773438 951.095764160156 957.930603027344 961.643371582031 956.714965820312 959.878295898438 954.066223144531 956.253540039062 951.226501464844 958.247375488281 957.599975585938 958.921203613281 963.716064453125 965.859313964844 962.489379882812 962.797302246094 959.717895507812 965.307983398438 957.644592285156 963.781860351562 960.247680664062 960.380004882812 970.506164550781 964.846069335938 965.852722167969 961.536743164062 962.149230957031 964.644775390625 960.044006347656 958.192138671875 953.01025390625 954.822387695312 951.471435546875 953.621765136719 961.294860839844 965.162475585938 966.447509765625 975.014099121094 974.970092773438 976.367431640625 971.784362792969 970.110046386719 962.578796386719 966.181823730469 968.761108398438 968.367126464844 968.68603515625 973.1103515625 974.738708496094 975.7041015625 986.791687011719 989.40478515625 985.257019042969 986.668884277344 983.681030273438 982.915283203125 989.663269042969 999.229919433594 990.840209960938 997.700500488281 1005.35797119141 1004.14526367188 1004.82604980469 1002.59930419922 1001.86511230469 1006.94152832031 1004.90698242188 1008.71423339844 1007.81475830078 1009.94714355469 1020.08636474609 1018.67028808594 1019.08093261719 1033.98254394531 1033.30322265625 1030.78015136719 1030.994140625 1033.63134765625 1037.55932617188 1040.00329589844 1048.90478515625 1058.36511230469 1056.607421875 1075.62194824219 1081.07312011719 1096.39245605469 1095.90319824219 1105.17651367188 1097.87817382812 1113.63610839844 1111.47900390625 1113.43310546875 1106.67297363281 1103.53442382812 1096.35656738281 1095.05017089844 1095.16589355469 1096.26989746094 1098.2470703125
962.056579589844 954.147399902344 947.613708496094 946.757141113281 965.266174316406 973.698608398438 967.767028808594 972.203125 972.490844726562 973.270629882812 978.814270019531 983.366516113281 988.545715332031 983.892395019531 979.662170410156 979.836669921875 980.220153808594 975.771179199219 972.654724121094 976.643676757812 968.997619628906 974.023193359375 973.980651855469 970.514892578125 956.892639160156 954.520935058594 954.065612792969 953.442321777344 959.529113769531 966.437683105469 967.207641601562 959 957.412963867188 961.031860351562 971.373168945312 972.047668457031 960.289978027344 973.054626464844 966.352905273438 957.401489257812 958.423156738281 962.152587890625 978.852966308594 965.078674316406 949.980163574219 950.070739746094 945.029663085938 940.304565429688 951.880981445312 957.301025390625 961.120971679688 951.933776855469 957.79541015625 952.099731445312 955.101501464844 949.411254882812 957.670959472656 964.936279296875 956.174072265625 957.125061035156 959.937072753906 965.60693359375 960.346740722656 962.644165039062 958.674377441406 960.391967773438 965.45703125 956.898193359375 953.749877929688 959.0234375 960.626647949219 962.415161132812 964.616149902344 962.967163085938 962.977905273438 962.405578613281 966.706115722656 970.298095703125 959.9228515625 959.910827636719 943.780151367188 942.981506347656 945.444396972656 953.583801269531 949.5 953.650329589844 960.350219726562 961.917724609375 964.54345703125 972.292602539062 977.767395019531 966.367248535156 968.574157714844 973.023498535156 971.724975585938 969.986755371094 969.0439453125 970.51611328125 969.353210449219 974.747253417969 977.67822265625 979.281555175781 989.291198730469 975.803955078125 975.284912109375 980.356323242188 981.988037109375 981.422180175781 984.478698730469 988.200439453125 996.424865722656 1007.07751464844 1005.24768066406 999.821899414062 1001.21783447266 1001.91033935547 1007.48449707031 1008.56402587891 1012.69885253906 1008.67169189453 1012.17694091797 1012.93878173828 1019.97503662109 1026.03649902344 1033.9990234375 1031.63513183594 1029.84973144531 1023.16143798828 1032.78576660156 1041.18225097656 1045.08520507812 1059.20397949219 1062.83325195312 1065.67895507812 1074.22351074219 1084.93103027344 1092.42333984375 1097.126953125 1103.03454589844 1097.11999511719 1092.1201171875 1090.30126953125 1095.16906738281 1094.76025390625 1093.02026367188 1086.47387695312 1075.43908691406 1091.14599609375 1087.81018066406 1084.16345214844
958.7353515625 956.607543945312 948.517761230469 952.744934082031 973.822998046875 969.671569824219 969.40625 972.159057617188 965.81591796875 963.01171875 981.231750488281 977.991149902344 989.169311523438 992.940612792969 981.174926757812 984.460571289062 979.216430664062 974.445556640625 969.823913574219 971.756896972656 972.763488769531 969.572265625 969.668518066406 962.373901367188 957.615112304688 959.652770996094 949.603271484375 950.177978515625 959.859558105469 969.679260253906 968.706298828125 967.279357910156 960.278625488281 959.429565429688 960.253601074219 974.657531738281 968.436462402344 965.783020019531 972.692199707031 964.678527832031 965.509948730469 966.270263671875 968.182922363281 961.384582519531 943.903442382812 949.246337890625 950.282897949219 953.662963867188 950.783874511719 958.031188964844 953.160583496094 946.489318847656 953.203979492188 954.377319335938 947.352478027344 948.145385742188 953.322570800781 951.423889160156 948.709106445312 958.728393554688 960.783813476562 964.747009277344 959.581115722656 955.624633789062 962.538391113281 957.478332519531 970.690185546875 955.834594726562 958.449035644531 954.828002929688 954.200500488281 958.756591796875 960.57568359375 958.074096679688 963.390197753906 961.329284667969 962.507507324219 970.125671386719 968.725830078125 956.242858886719 957.311096191406 951.279663085938 955.072021484375 951.67138671875 955.49658203125 949.063049316406 957.002685546875 957.475891113281 956.936340332031 966.342041015625 974.362976074219 975.920959472656 969.030517578125 971.087036132812 962.875244140625 967.695861816406 967.250854492188 974.486999511719 973.226257324219 977.207336425781 980.442077636719 971.114318847656 977.656982421875 976.428100585938 971.943786621094 981.492065429688 978.179626464844 987.350280761719 987.113037109375 989.495788574219 996.836853027344 1002.90716552734 1009.24816894531 998.912109375 1001.82684326172 998.861328125 1003.12347412109 1013.77990722656 1011.06597900391 1010.32202148438 1012.62084960938 1003.58319091797 1013.70776367188 1030.87536621094 1035.59228515625 1036.40148925781 1029.93237304688 1021.89776611328 1037.93908691406 1033.97131347656 1047.91918945312 1058.65893554688 1054.4833984375 1062.71118164062 1075.57348632812 1083.09204101562 1094.42761230469 1100.73498535156 1094.91589355469 1095.11071777344 1083.52209472656 1089.80310058594 1078.91540527344 1084.13317871094 1081.61059570312 1086.87744140625 1079.09130859375 1084.35766601562 1083.08056640625 1080.56945800781
953.048889160156 947.694091796875 945.167602539062 959.176940917969 971.550354003906 979.972045898438 983.643005371094 972.129089355469 965.89501953125 968.586120605469 971.150817871094 977.223266601562 984.079833984375 981.366882324219 982.971923828125 979.271057128906 978.012756347656 978.036682128906 976.970703125 972.4560546875 964.944519042969 971.424865722656 965.710876464844 958.650817871094 953.393615722656 956.98876953125 952.989440917969 955.629760742188 959.499389648438 960.936279296875 963.960632324219 970.665161132812 956.213439941406 954.822631835938 962.203491210938 964.185241699219 962.256103515625 961.476684570312 959.591430664062 952.595703125 962.068298339844 960.841064453125 957.461181640625 958.111633300781 953.453186035156 953.910034179688 952.663757324219 952.781921386719 951.87451171875 955.171630859375 951.777770996094 950.597534179688 950.6513671875 955.001281738281 950.136779785156 950.069519042969 950.526123046875 956.332641601562 958.931457519531 963.592834472656 958.396301269531 962.998413085938 967.972778320312 962.232849121094 961.716491699219 956.460510253906 966.321166992188 960.471069335938 962.276977539062 963.505676269531 957.802551269531 956.002014160156 961.750427246094 960.915832519531 966.755310058594 963.878845214844 969.101684570312 974.089233398438 975.496704101562 961.220031738281 956.145202636719 950.725219726562 954.996215820312 949.011535644531 955.5966796875 952.118774414062 954.823364257812 955.034423828125 954.888000488281 964.318664550781 968.704772949219 962.822692871094 974.253356933594 971.255004882812 969.006469726562 965.57763671875 964.254089355469 968.735168457031 977.209716796875 971.72607421875 974.946350097656 971.540100097656 972.111328125 982.973876953125 988.580505371094 984.720336914062 988.388366699219 977.510864257812 983.51611328125 994.449645996094 990.908935546875 1003.982421875 1002.52685546875 995.046447753906 998.962097167969 1002.77325439453 1002.59997558594 1001.83996582031 1010.62054443359 1016.90673828125 1012.03863525391 1017.04510498047 1019.57922363281 1021.78350830078 1030.89892578125 1037.75280761719 1028.62561035156 1026.44128417969 1039.33276367188 1033.97875976562 1051.49963378906 1050.19970703125 1052.11499023438 1062.30383300781 1073.73693847656 1089.49536132812 1091.36486816406 1093.47412109375 1097.87707519531 1083.97265625 1075.40063476562 1074.92663574219 1070.89294433594 1067.82092285156 1072.42309570312 1076.15246582031 1066.26171875 1070.35302734375 1070.3056640625 1083.26635742188
959.840087890625 947.7841796875 946.103332519531 973.451171875 973.173156738281 980.394958496094 981.526184082031 973.590209960938 966.870056152344 964.310913085938 969.339599609375 964.752868652344 965.705261230469 968.797607421875 981.676330566406 975.486450195312 976.473449707031 975.889526367188 970.599426269531 965.354248046875 965.8203125 960.682739257812 959.24365234375 960.4521484375 959.187377929688 963.563171386719 958.116088867188 968.530395507812 962.00439453125 955.874145507812 964.103454589844 963.084350585938 955.021789550781 956.247375488281 955.883911132812 960.697448730469 951.273803710938 950.756103515625 949.516784667969 947.881958007812 950.011596679688 960.728515625 961.285949707031 965.340026855469 953.524719238281 952.414733886719 952.035827636719 951.168762207031 955.5 963.815002441406 955.744934082031 955.230712890625 954.698974609375 955.389709472656 956.2177734375 950.908752441406 947.409729003906 950.872375488281 956.467651367188 959.98193359375 957.038635253906 955.669860839844 954.985656738281 959.904235839844 965.109191894531 962.195983886719 962.122375488281 955.514770507812 957.499572753906 963.125427246094 963.559387207031 957.132507324219 958.292053222656 958.330139160156 957.375915527344 961.495544433594 975.467163085938 972.397216796875 973.613403320312 963.338195800781 961.630065917969 955.235107421875 956.359436035156 948.277099609375 952.195678710938 949.059997558594 954.051086425781 953.387084960938 954.85546875 967.481262207031 961.506591796875 964.072998046875 967.73046875 965.85107421875 968.053588867188 970.006713867188 967.750122070312 965.626586914062 965.930786132812 970.870910644531 975.168640136719 974.607666015625 969.679016113281 984.741821289062 991.66552734375 986.195556640625 982.163269042969 971.277221679688 983.069091796875 984.701599121094 994.378479003906 992.050354003906 993.491821289062 992.413879394531 997.563598632812 999.33056640625 992.993286132812 1000.87097167969 999.115234375 1007.58740234375 1009.78137207031 1012.15966796875 1023.78070068359 1026.4033203125 1032.27136230469 1038.35400390625 1031.89624023438 1032.00366210938 1039.66271972656 1044.92687988281 1053.76647949219 1057.86340332031 1052.28283691406 1065.68249511719 1078.26330566406 1087.98107910156 1088.67724609375 1083.23083496094 1085.1904296875 1079.07861328125 1062.42626953125 1066.64965820312 1055.85546875 1050.71752929688 1060.97900390625 1064.67529296875 1061.57360839844 1064.53039550781 1070.033203125 1071.31628417969
957.716491699219 955.185546875 956.376831054688 970.828918457031 974.055847167969 969.098754882812 969.424926757812 968.204345703125 975.196350097656 967.976501464844 957.227966308594 953.943298339844 950.249572753906 959.602844238281 968.893432617188 963.143676757812 959.749206542969 970.3408203125 966.706665039062 965.254516601562 962.926574707031 965.966796875 967.099548339844 964.811584472656 964.038452148438 961.007568359375 950.912902832031 955.502807617188 956.0927734375 956.569580078125 955.341003417969 958.49462890625 964.664428710938 964.455871582031 954.787963867188 961.457763671875 961.324645996094 958.868225097656 952.814575195312 952.979431152344 952.701293945312 956.930847167969 962.091430664062 958.335327148438 950.775573730469 949.702331542969 947.410034179688 950.535095214844 955.148986816406 968.650756835938 963.822448730469 951.5439453125 948.897766113281 948.4013671875 949.139465332031 952.938354492188 953.968017578125 953.68798828125 953.828735351562 951.136352539062 952.90966796875 948.970520019531 947.751220703125 960.193237304688 967.023742675781 958.914489746094 954.696228027344 952.976623535156 957.669982910156 957.783386230469 966.363952636719 965.890014648438 960.711364746094 952.718505859375 957.684265136719 962.745422363281 969.292175292969 961.208801269531 966.013000488281 961.171142578125 968.110656738281 952.056884765625 955.019592285156 962.143859863281 952.979431152344 955.731079101562 961.645874023438 952.071838378906 953.906860351562 958.615173339844 949.928771972656 962.455932617188 964.117492675781 963.921936035156 962.115234375 971.249389648438 979.0244140625 972.92138671875 980.81005859375 977.851013183594 980.117248535156 982.362609863281 985.026916503906 983.549743652344 986.997497558594 979.836364746094 976.6611328125 974.847534179688 979.410522460938 981.891479492188 989.406188964844 988.750610351562 993.92529296875 1001.36090087891 1000.47894287109 994.430969238281 993.738098144531 997.717163085938 1005.76538085938 1013.02899169922 1018.74853515625 1020.00769042969 1024.37353515625 1031.77087402344 1025.34533691406 1034.65686035156 1032.50170898438 1037.0576171875 1040.30236816406 1044.96618652344 1052.41284179688 1053.86059570312 1060.30346679688 1058.51538085938 1066.68151855469 1077.41821289062 1076.96716308594 1087.69763183594 1079.91748046875 1071.17810058594 1064.65551757812 1051.35070800781 1055.7626953125 1048.19030761719 1053.32019042969 1054.84252929688 1060.54638671875 1057.83715820312 1060.75109863281 1062.85278320312
970.402099609375 972.240905761719 977.637634277344 974.332946777344 968.231323242188 963.331848144531 971.669189453125 976.785461425781 970.2490234375 962.3486328125 950.952331542969 959.770263671875 956.757080078125 946.995788574219 953.903137207031 960.659851074219 960.17626953125 955.937927246094 961.213989257812 962.630737304688 969.998596191406 958.280029296875 954.816223144531 958.854614257812 957.691833496094 963.747985839844 950.5380859375 946.183532714844 955.332641601562 956.602661132812 948.294494628906 947.973999023438 954.154357910156 952.386840820312 950.70068359375 957.644470214844 958.869689941406 960.213928222656 949.607727050781 954.193298339844 952.615966796875 950.935363769531 952.349487304688 956.131103515625 961.073120117188 950.721130371094 944.924621582031 947.974914550781 951.968200683594 958.192138671875 963.233703613281 947.920776367188 948.502990722656 947.3662109375 950.947570800781 955.299011230469 953.512023925781 958.369018554688 953.466003417969 957.717224121094 960.225341796875 950.168029785156 956.809997558594 963.276062011719 966.229675292969 964.889221191406 954.518798828125 956.767517089844 962.710815429688 963.415893554688 964.516662597656 959.914245605469 958.448486328125 965.037292480469 960.223876953125 958.088012695312 964.423095703125 961.816650390625 968.817932128906 972.143798828125 962.29345703125 960.773254394531 955.93896484375 965.759582519531 962.380432128906 966.814575195312 971.491333007812 961.000061035156 962.167419433594 951.495788574219 954.813049316406 961.451049804688 969.532409667969 974.905578613281 977.215942382812 974.370483398438 974.197387695312 980.558654785156 981.588073730469 984.624694824219 985.778259277344 985.17578125 981.025756835938 986.886901855469 983.793151855469 978.000183105469 973.7470703125 982.976623535156 984.328186035156 987.104614257812 989.583190917969 999.017578125 993.597839355469 997.735046386719 996.847229003906 994.826171875 995.758483886719 1005.73712158203 1012.19097900391 1008.73474121094 1012.09222412109 1019.27557373047 1025.29260253906 1030.46826171875 1026.2509765625 1029.88073730469 1038.91333007812 1038.47094726562 1039.11083984375 1046.23669433594 1043.28283691406 1050.03967285156 1057.39672851562 1055.38818359375 1060.416015625 1064.79541015625 1070.00988769531 1065.15173339844 1061.43444824219 1053.41748046875 1055.28381347656 1048.07043457031 1050.61596679688 1043.84020996094 1048.31225585938 1049.23413085938 1048.72839355469 1048.61267089844 1058.46704101562 1062.01306152344
