NCOLS 150
NROWS 37
XLLCORNER 7394249
YLLCORNER 4842269
CELLSIZE 30
NODATA_VALUE -9999
966.812866210938 974.676879882812 968.568420410156 975.661499023438 974.527526855469 971.521118164062 973.537048339844 978.196228027344 973.126159667969 963.547241210938 963.15966796875 962.841674804688 963.953857421875 981.044738769531 977.809692382812 972.87548828125 970.916931152344 973.592651367188 970.505920410156 972.507080078125 975.865112304688 979.962585449219 959.938781738281 957.080200195312 961.902221679688 962.232238769531 962.797424316406 957.225830078125 963.597473144531 964.509826660156 964.754028320312 958.596252441406 959.242126464844 967.620178222656 963.555236816406 971.693298339844 968.93896484375 954.418640136719 956.836364746094 955.884399414062 962.153747558594 963.468200683594 966.223571777344 968.767700195312 962.347778320312 966.458618164062 972.060607910156 958.381591796875 961.603393554688 955.974731445312 961.075012207031 969.775695800781 971.253967285156 960.722717285156 958.164489746094 956.959411621094 959.39111328125 962.440734863281 961.247192382812 957.074890136719 948.122009277344 948.447387695312 956.257995605469 955.154357910156 954.789794921875 955.09423828125 954.045471191406 951.388977050781 961.291259765625 967.170715332031 962.552001953125 963.200073242188 961.877014160156 961.591552734375 959.39599609375 965.415710449219 972.135070800781 967.267639160156 968.5322265625 963.751403808594 972.18798828125 973.587646484375 968.958923339844 971.024475097656 974.143859863281 963.892028808594 964.673095703125 975.71337890625 969.809509277344 973.653625488281 970.566345214844 966.32666015625 963.435119628906 964.534057617188 966.948547363281 976.94921875 971.989868164062 972.660095214844 973.642761230469 972.370483398438 976.170532226562 973.426330566406 971.996704101562 972.307922363281 974.856079101562 969.125366210938 983.319458007812 983.286376953125 980.314880371094 983.53369140625 974.729431152344 973.133728027344 976.415466308594 985.114013671875 991.940307617188 994.304565429688 998.58447265625 1003.73999023438 998.745849609375 1002.54364013672 1006.25396728516 1013.390625 1022.19812011719 1017.87371826172 1019.09710693359 1028.5 1024.94201660156 1027.14916992188 1029.65490722656 1033.2666015625 1053.70654296875 1064.306640625 1065.69482421875 1073.91687011719 1078.98815917969 1085.18090820312 1089.29919433594 1089.78918457031 1089.84399414062 1088.11926269531 1093.19970703125 1098.81726074219 1087.09655761719 1088.59594726562 1100.00476074219 1098.71948242188 1093.58947753906 1095.77038574219 1090.52722167969 1081.55163574219
962.830505371094 963.411193847656 970.927551269531 970.881225585938 972.291625976562 968.447204589844 972.918640136719 971.635437011719 962.504760742188 966.126098632812 954.215576171875 961.987121582031 969.95947265625 964.2236328125 972.107788085938 975.15234375 961.253234863281 970.246337890625 971.607116699219 972.697143554688 977.767395019531 976.054260253906 963.039184570312 968.760925292969 963.119506835938 963.605285644531 963.536987304688 961.736633300781 957.416870117188 958.023010253906 960.657775878906 960.357604980469 961.181518554688 960.422790527344 958.552856445312 971.527404785156 961.140991210938 962.420959472656 961.595336914062 959.752807617188 962.926818847656 964.332214355469 971.260314941406 973.168029785156 968.084167480469 968.079223632812 967.577819824219 955.708312988281 958.035461425781 947.857849121094 952.872741699219 966.092834472656 965.676635742188 967.429931640625 960.327575683594 957.885925292969 953.651611328125 960.06591796875 955.039489746094 955.292785644531 948.453674316406 949.05224609375 955.376525878906 954.650329589844 954.695129394531 961.886413574219 958.882934570312 953.407043457031 957.232299804688 953.552001953125 955.736938476562 954.749816894531 957.7646484375 961.373718261719 951.954650878906 954.73095703125 966.538269042969 964.779479980469 960.520446777344 962.387451171875 962.829895019531 968.125 965.753662109375 969.159606933594 972.425476074219 966.147033691406 968.793518066406 974.501892089844 973.385925292969 969.911682128906 966.992980957031 965.009948730469 971.439636230469 976.831848144531 969.245544433594 967.290710449219 973.601623535156 973.323974609375 968.9736328125 969.099487304688 976.236633300781 973.511413574219 971.299743652344 969.150146484375 974.268859863281 988.032165527344 989.31005859375 982.345581054688 986.501220703125 984.722961425781 976.609558105469 969.370300292969 976.297668457031 985.721496582031 988.418334960938 990.785034179688 998.34326171875 1000.49353027344 1002.57690429688 998.6025390625 1003.93572998047 1011.65069580078 1020.94653320312 1020.00793457031 1019.42803955078 1027.24304199219 1025.45886230469 1025.68835449219 1035.64514160156 1045.13891601562 1044.75329589844 1055.61303710938 1062.59790039062 1074.15417480469 1083.13330078125 1091.67736816406 1089.701171875 1086.19470214844 1083.64318847656 1080.92541503906 1079.56237792969 1085.29174804688 1076.97497558594 1079.806640625 1082.794921875 1094.71862792969 1084.287109375 1078.55969238281 1061.72668457031 1068.47387695312
954.166076660156 954.38671875 965.505004882812 969.680419921875 973.292907714844 966.581115722656 970.169067382812 972.588745117188 957.941223144531 961.249694824219 959.036315917969 962.162658691406 964.20703125 962.252563476562 966.287963867188 968.910217285156 965.079467773438 971.460998535156 967.225280761719 967.956604003906 976.646301269531 968.919555664062 962.197692871094 964.223876953125 965.269714355469 967.036560058594 964.0419921875 955.489440917969 952.255004882812 955.338562011719 958.280456542969 957.513916015625 965.820373535156 961.935668945312 959.366638183594 959.944152832031 962.922607421875 959.36083984375 959.383605957031 953.536926269531 968.226806640625 971.58154296875 966.005615234375 961.271423339844 958.187866210938 955.324401855469 954.048828125 952.452514648438 957.774597167969 948.445983886719 951.20947265625 955.814819335938 955.025634765625 956.062744140625 958.003967285156 957.081176757812 960.469177246094 966.182800292969 960.134094238281 948.228149414062 953.909545898438 958.913208007812 957.278015136719 945.490661621094 951.939086914062 959.126770019531 954.687438964844 947.398071289062 952.818481445312 946.639953613281 943.19873046875 954.146606445312 962.018859863281 963.604614257812 948.048034667969 952.817810058594 962.947082519531 964.2412109375 960.059875488281 956.625610351562 960.992919921875 959.841735839844 953.01806640625 967.664855957031 970.928100585938 968.570190429688 971.122131347656 979.361389160156 973.764404296875 964.765258789062 965.609985351562 963.581665039062 965.585632324219 978.844665527344 967.33984375 958.053588867188 969.196533203125 975.95263671875 975.973449707031 980.098022460938 971.537536621094 976.867370605469 975.095031738281 975.6875 976.850402832031 987.579895019531 984.756469726562 987.793334960938 991.2607421875 984.830505371094 971.472534179688 974.009033203125 981.12939453125 990.797424316406 984.767028808594 991.844909667969 989.390319824219 987.899230957031 1002.51184082031 1005.03308105469 999.130432128906 1014.95294189453 1029.92163085938 1024.17895507812 1024.6572265625 1017.87347412109 1020.52844238281 1024.79516601562 1034.00256347656 1036.56091308594 1040.33508300781 1047.43212890625 1059.21337890625 1066.31164550781 1083.9931640625 1085.39221191406 1085.06506347656 1082.88708496094 1071.20495605469 1071.17541503906 1075.28625488281 1075.75805664062 1074.94506835938 1080.37036132812 1077.94360351562 1076.33947753906 1078.46594238281 1068.11193847656 1054.92834472656 1058.61694335938
953.185668945312 957.783996582031 962.864624023438 963.164672851562 975.614074707031 974.662231445312 973.904907226562 973.566772460938 958.510559082031 952.908020019531 956.606567382812 962.740234375 966.198669433594 960.356140136719 958.498352050781 961.589294433594 968.069763183594 971.563537597656 975.047180175781 967.822631835938 966.602478027344 964.813293457031 960.913696289062 967.086486816406 961.696960449219 963.483581542969 957.3759765625 948.926635742188 947.439514160156 951.468994140625 955.89990234375 958.610900878906 967.345886230469 960.65771484375 964.145324707031 956.341796875 963.188415527344 963.06201171875 964.965148925781 958.252136230469 960.491638183594 967.857177734375 958.704223632812 951.6005859375 957.227294921875 955.494812011719 952.609985351562 950.6484375 956.152221679688 955.769836425781 943.874816894531 940.593933105469 944.662719726562 947.944885253906 952.729187011719 955.5322265625 954.758850097656 950.743591308594 955.894775390625 944.6328125 948.031372070312 955.775146484375 958.690734863281 958.136901855469 968.54296875 957.879211425781 951.193115234375 941.128967285156 948.735778808594 962.521057128906 956.789245605469 950.563354492188 956.794311523438 961.51025390625 957.429443359375 958.21240234375 969.878845214844 966.970520019531 950.506469726562 954.921936035156 962.133178710938 950.799621582031 949.270874023438 959.17236328125 961.560607910156 966.841369628906 964.908325195312 964.991088867188 962.360656738281 965.048400878906 964.900451660156 964.888793945312 967.257019042969 969.637084960938 963.5400390625 966.50537109375 968.762145996094 971.922729492188 977.360168457031 978.071105957031 977.217041015625 975.765991210938 983.918823242188 986.430419921875 982.393127441406 982.418579101562 987.236938476562 989.883178710938 999.604919433594 993.845886230469 985.086669921875 982.566589355469 982.001281738281 996.488220214844 997.401123046875 993.805541992188 985.664978027344 995.861511230469 995.360595703125 1001.46081542969 1002.98583984375 1002.00335693359 1018.08972167969 1022.09588623047 1025.32592773438 1019.13861083984 1018.49224853516 1024.05126953125 1021.12115478516 1028.09558105469 1042.70874023438 1047.88598632812 1055.55529785156 1064.62817382812 1080.74963378906 1088.62817382812 1080.66442871094 1076.25341796875 1070.48266601562 1069.05725097656 1073.43579101562 1060.88146972656 1061.205078125 1063.75122070312 1063.14660644531 1070.15063476562 1068.09912109375 1058.48071289062 1051.61486816406 1054.20385742188
958.521911621094 958.940368652344 968.789184570312 966.251953125 974.4462890625 973.355529785156 974.697143554688 976.908569335938 968.176879882812 950.618896484375 952.271301269531 958.520751953125 961.310729980469 960.40380859375 958.046569824219 970.218078613281 962.892944335938 975.217407226562 978.497863769531 968.783813476562 962.693786621094 964.632019042969 971.067749023438 967.101623535156 974.222045898438 960.229675292969 956.70849609375 954.246032714844 946.002624511719 936.026611328125 945.150573730469 956.384643554688 963.642822265625 964.891906738281 961.970886230469 960.139709472656 956.115112304688 960.333435058594 961.262145996094 960.442016601562 960.60791015625 963.647399902344 959.774108886719 957.771423339844 963.316833496094 954.594421386719 956.439331054688 953.901611328125 951.352355957031 956.510070800781 944.180419921875 948.45166015625 948.711486816406 946.988647460938 954.847534179688 957.364868164062 955.506103515625 958.019958496094 955.240478515625 948.032531738281 960.298217773438 962.785522460938 962.000305175781 962.792419433594 956.11474609375 953.867126464844 952.697021484375 951.192199707031 953.721069335938 962.493774414062 959.547119140625 950.453369140625 961.922485351562 962.569702148438 965.551330566406 960.037841796875 960.445495605469 966.528930664062 959.592468261719 969.884582519531 961.542663574219 949.904724121094 957.460510253906 950.468322753906 955.55859375 959.031188964844 961.876159667969 955.67138671875 958.002563476562 968.897216796875 965.170959472656 960.886901855469 968.273315429688 968.026916503906 968.772338867188 976.662353515625 974.610717773438 975.60205078125 981.18505859375 982.975952148438 985.243957519531 980.061584472656 981.105590820312 983.577514648438 984.53466796875 989.141784667969 986.400024414062 991.637512207031 991.579711914062 997.8427734375 991.503784179688 990.998291015625 997.306396484375 1006.81146240234 1012.74572753906 1001.48944091797 990.514282226562 984.891723632812 993.706359863281 996.620483398438 1003.26446533203 1004.37036132812 1014.24237060547 1023.8974609375 1020.43298339844 1019.751953125 1018.42663574219 1024.43225097656 1025.40502929688 1028.15222167969 1031.91589355469 1047.18127441406 1055.80773925781 1068.60278320312 1071.23693847656 1065.22900390625 1063.44885253906 1066.22546386719 1061.39916992188 1056.79614257812 1058.2822265625 1053.24169921875 1048.08093261719 1061.40600585938 1048.10144042969 1052.20483398438 1060.44604492188 1057.55627441406 1045.42407226562 1046.57006835938
962.597106933594 963.108276367188 961.774108886719 961.827453613281 972.939514160156 971.947448730469 965.032958984375 972.6806640625 962.575622558594 954.660949707031 950.412170410156 958.054748535156 965.785949707031 964.581787109375 961.179626464844 960.225524902344 959.971069335938 973.150085449219 978.445129394531 977.75634765625 968.738586425781 962.352600097656 961.272155761719 965.44775390625 965.247192382812 960.0029296875 958.066162109375 958.536682128906 949.796875 948.035278320312 948.120422363281 955.638854980469 958.612121582031 958.753051757812 960.6171875 956.561401367188 948.126770019531 957.248107910156 949.312316894531 952.545959472656 946.250610351562 953.066284179688 959.272033691406 958.764343261719 954.216125488281 952.174011230469 955.0888671875 960.672119140625 950.760009765625 953.967163085938 945.483581542969 946.414978027344 945.744934082031 946.537231445312 950.065734863281 946.647827148438 952.026977539062 958.769409179688 961.433715820312 962.232727050781 964.549011230469 968.439880371094 956.065551757812 960.231384277344 962.405334472656 958.734985351562 965.806945800781 959.661987304688 966.6923828125 962.81005859375 958.205932617188 957.9599609375 957.999206542969 968.57080078125 967.148986816406 965.576782226562 961.769165039062 963.6474609375 966.367248535156 969.040161132812 973.776977539062 958.400939941406 963.275756835938 959.171264648438 955.988891601562 963.422180175781 971.038269042969 958.683227539062 962.124084472656 961.450256347656 962.127319335938 957.77685546875 961.780639648438 963.70166015625 974.907897949219 975.982666015625 981.806762695312 978.017333984375 979.785278320312 981.118286132812 984.131713867188 977.990905761719 972.535583496094 975.172485351562 973.691345214844 985.085205078125 983.599975585938 990.633239746094 982.131469726562 993.591430664062 1001.17083740234 997.067810058594 1005.744140625 1009.32672119141 1011.45458984375 1005.99694824219 1000.71838378906 996.441345214844 1007.15740966797 996.81396484375 1006.97027587891 1010.85290527344 1013.94500732422 1011.33221435547 1017.60852050781 1019.1435546875 1020.25561523438 1023.85424804688 1022.39910888672 1026.10583496094 1032.75305175781 1045.45886230469 1056.57568359375 1065.3125 1067.98669433594 1063.13244628906 1060.49401855469 1061.34545898438 1064.34130859375 1059.23425292969 1049.6484375 1041.34802246094 1034.54650878906 1042.17504882812 1044.98828125 1044.24133300781 1056.74609375 1060.37609863281 1038.55053710938 1039.49291992188
955.355346679688 954.726379394531 961.313842773438 970.731018066406 976.603149414062 973.742919921875 954.141296386719 963.60009765625 958.516418457031 950.462585449219 955.464965820312 958.520080566406 957.692749023438 963.1455078125 956.403503417969 962.535766601562 968.240966796875 972.272766113281 972.582824707031 971.767578125 969.499389648438 958.995056152344 958.664855957031 959.448486328125 955.726623535156 946.594787597656 949.838134765625 945.824462890625 940.50439453125 941.309631347656 947.071960449219 952.933898925781 954.119750976562 955.480529785156 951.960144042969 953.453735351562 947.89306640625 947.584899902344 945.361083984375 941.760375976562 944.844360351562 950.215393066406 949.074951171875 952.609313964844 943.39990234375 956.09033203125 957.608703613281 957.635681152344 957.653198242188 950.857482910156 946.347045898438 939.609558105469 955.286865234375 953.704467773438 951.421081542969 958.797302246094 965.260559082031 960.671264648438 961.322570800781 966.162475585938 973.512573242188 965.3046875 959.352844238281 962.870666503906 970.184936523438 972.10498046875 969.098205566406 965.711791992188 964.755859375 965.386779785156 968.461669921875 964.864135742188 964.751098632812 967.166381835938 972.680603027344 967.055297851562 974.372009277344 971.933349609375 971.588256835938 969.874755859375 964.092407226562 973.835998535156 968.2197265625 965.025817871094 964.597717285156 962.665283203125 967.716552734375 964.6806640625 961.167053222656 965.350891113281 968.971740722656 953.762451171875 962.072998046875 968.495727539062 973.755920410156 981.124816894531 976.169067382812 977.350036621094 979.042297363281 982.310180664062 983.352294921875 979.815612792969 969.876281738281 977.135986328125 983.919616699219 985.197387695312 985.387451171875 981.420104980469 985.450622558594 993.640686035156 996.47314453125 1009.58306884766 1009.18756103516 1015.32855224609 1016.40850830078 1007.86126708984 1003.27337646484 1007.84497070312 998.575439453125 1000.61181640625 999.538269042969 1001.0654296875 1006.38635253906 1012.89990234375 1015.56085205078 1011.34283447266 1022.45294189453 1026.34973144531 1019.67010498047 1035.49450683594 1038.19921875 1044.68798828125 1044.59716796875 1054.03601074219 1052.90612792969 1055.57360839844 1056.82702636719 1049.49340820312 1056.37585449219 1051.22937011719 1050.43249511719 1040.44665527344 1028.73596191406 1025.58874511719 1029.3642578125 1036.728515625 1041.40747070312 1053.45544433594 1050.4501953125 1042.79711914062
958.929809570312 966.254150390625 969.546630859375 970.212768554688 977.78515625 969.464477539062 963.168212890625 967.300476074219 960.819091796875 964.158508300781 955.876037597656 965.856689453125 951.597229003906 951.213256835938 950.215637207031 958.982177734375 961.099487304688 973.871826171875 976.028442382812 971.021911621094 963.847595214844 955.359619140625 954.200073242188 957.67529296875 948.147583007812 934.905395507812 944.45751953125 943.583129882812 949.001220703125 944.180541992188 949.012023925781 947.278991699219 958.082397460938 959.823608398438 956.097045898438 950.644958496094 946.886047363281 950.183898925781 956.738342285156 941.418518066406 945.587158203125 951.196533203125 946.443908691406 949.991027832031 947.001220703125 946.532897949219 954.058898925781 957.761413574219 953.201049804688 956.803405761719 955.3408203125 953.771606445312 952.872253417969 957.0078125 958.333984375 961.134704589844 961.105529785156 960.928283691406 967.288452148438 963.085815429688 964.583923339844 967.369018554688 968.6787109375 972.861999511719 976.73193359375 982.010131835938 980.110534667969 970.662170410156 971.231323242188 966.089782714844 961.256286621094 966.242614746094 966.29931640625 964.132873535156 973.447082519531 970.880004882812 974.197875976562 973.827453613281 968.790344238281 967.224731445312 968.41845703125 975.760375976562 978.594360351562 962.556030273438 971.94287109375 968.994506835938 965.749694824219 968.044250488281 970.858032226562 975.223327636719 962.7333984375 968.690551757812 967.626770019531 954.097717285156 964.532836914062 977.018676757812 977.921142578125 982.504638671875 984.496032714844 983.889892578125 979.234436035156 974.709350585938 984.665771484375 987.634704589844 988.171569824219 992.524658203125 974.508666992188 983.183959960938 981.399047851562 998.417236328125 1001.44451904297 1015.08453369141 1026.66723632812 1019.51098632812 1016.52886962891 1021.52435302734 1020.46020507812 1003.77844238281 990.779235839844 1005.79974365234 1002.79760742188 1003.23486328125 1004.93194580078 1023.07580566406 1021.82232666016 1016.23596191406 1015.72814941406 1021.92614746094 1028.98950195312 1035.31481933594 1039.36279296875 1041.27001953125 1048.626953125 1050.87731933594 1049.63623046875 1059.5673828125 1055.32507324219 1052.205078125 1051.07641601562 1042.82849121094 1034.10485839844 1035.66430664062 1039.2080078125 1038.49133300781 1030.91320800781 1031.92358398438 1037.14428710938 1045.328125 1040.80041503906 1033.02416992188
968.212829589844 968.12744140625 969.83447265625 970.963623046875 967.315551757812 964.342529296875 965.681274414062 962.889038085938 964.483093261719 965.763916015625 955.910217285156 957.646362304688 951.080078125 950.044067382812 947.39599609375 952.87841796875 954.580749511719 962.015502929688 965.295104980469 961.115112304688 953.780517578125 954.21875 959.546264648438 947.378540039062 948.016418457031 939.490905761719 945.693359375 955.437072753906 948.250122070312 951.2685546875 956.586608886719 948.197021484375 960.463500976562 961.425537109375 952.723754882812 955.109252929688 953.646362304688 948.921142578125 957.872619628906 946.460144042969 939.389465332031 947.962463378906 954.616882324219 954.369934082031 956.42138671875 947.222900390625 949.934997558594 949.8740234375 959.625549316406 957.422424316406 964.253295898438 966.153198242188 962.052124023438 964.209228515625 963.933349609375 964.638061523438 963.116149902344 961.631164550781 970.039367675781 975.486511230469 970.85205078125 957.680419921875 966.992980957031 981.545104980469 975.205993652344 978.156127929688 968.404113769531 971.975708007812 976.384155273438 965.798889160156 963.809448242188 964.284606933594 953.311828613281 961.174255371094 968.966979980469 976.333801269531 974.486633300781 973.871154785156 964.943908691406 970.273864746094 980.527526855469 984.324340820312 979.86083984375 975.099853515625 970.216125488281 967.730529785156 974.109069824219 976.80517578125 977.1181640625 979.8642578125 975.812316894531 969.334167480469 965.747680664062 965.181823730469 972.247497558594 969.496704101562 973.469848632812 984.641418457031 991.487243652344 982.645080566406 970.876098632812 973.553955078125 973.892272949219 976.0166015625 986.385620117188 984.611938476562 980.291015625 985.447204589844 981.749877929688 1005.41674804688 1014.791015625 1017.20782470703 1021.84124755859 1027.78283691406 1017.30438232422 1021.8349609375 1020.90222167969 1016.89849853516 1005.67321777344 1012.576171875 1007.92559814453 1017.97985839844 1023.26947021484 1024.3740234375 1019.05438232422 1023.91436767578 1015.48211669922 1016.76245117188 1032.70776367188 1033.10986328125 1043.20727539062 1043.32250976562 1041.40612792969 1047.12097167969 1046.68676757812 1050.11047363281 1053.79821777344 1052.45861816406 1041.06140136719 1039.26513671875 1047.01354980469 1045.19262695312 1040.42700195312 1039.17663574219 1037.68212890625 1025.04528808594 1032.04565429688 1038.083984375 1023.97338867188 1025.54052734375
961.584289550781 961.517150878906 960.67041015625 958.916076660156 958.254577636719 965.539489746094 959.596130371094 965.7451171875 958.123901367188 959.698425292969 943.554992675781 950.11279296875 950.59912109375 949.679016113281 943.214416503906 947.078186035156 943.744506835938 937.727416992188 956.902648925781 949.909240722656 948.525756835938 943.211791992188 944.19482421875 938.087951660156 940.553344726562 946.619995117188 950.283386230469 955.326904296875 957.30029296875 951.498352050781 955.793518066406 954.557678222656 955.988830566406 959.445190429688 954.471435546875 948.913330078125 947.02734375 941.841918945312 942.207397460938 943.010559082031 946.551879882812 940.435607910156 956.850158691406 957.297058105469 958.856811523438 954.135070800781 956.925720214844 961.737731933594 959.734069824219 963.127502441406 968.299499511719 972.989013671875 969.924255371094 969.674194335938 970.030456542969 964.471130371094 960.259216308594 972.564575195312 966.745483398438 973.767944335938 968.213073730469 962.789245605469 969.47265625 971.889953613281 971.696533203125 969.516418457031 977.977905273438 977.987060546875 973.546752929688 971.830200195312 964.286804199219 966.195129394531 960.1171875 970.088134765625 975.931579589844 971.530151367188 970.405395507812 972.660949707031 973.39453125 971.96240234375 972.553771972656 980.5625 980.398376464844 980.121215820312 979.567504882812 974.994934082031 986.545104980469 984.938232421875 979.923645019531 978.564636230469 963.621154785156 968.683410644531 972.451171875 964.573181152344 974.625366210938 972.473449707031 976.809753417969 990.493591308594 985.862426757812 980.238952636719 981.159484863281 972.186645507812 968.288330078125 974.597778320312 977.288696289062 978.437622070312 987.817687988281 996.629150390625 997.030578613281 1008.08898925781 1015.01531982422 1016.46697998047 1016.6572265625 1016.03240966797 1006.78851318359 1014.228515625 1017.16174316406 1022.19714355469 1019.67901611328 1016.43499755859 1020.17407226562 1021.24346923828 1030.51025390625 1030.58068847656 1024.61779785156 1025.47351074219 1018.95184326172 1029.31213378906 1026.78991699219 1025.27099609375 1028.63671875 1036.23205566406 1039.041015625 1042.19384765625 1041.427734375 1043.84362792969 1052.94152832031 1051.15783691406 1042.12719726562 1044.30432128906 1038.37866210938 1035.83508300781 1035.30749511719 1030.26037597656 1025.12841796875 1023.22052001953 1034.50317382812 1023.92657470703 1016.24456787109 1017.50903320312
954.770202636719 957.301147460938 949.664245605469 954.411987304688 955.0615234375 959.788635253906 960.69775390625 961.096496582031 960.539733886719 949.390502929688 947.519775390625 951.596374511719 954.784729003906 951.594116210938 946.719299316406 941.7119140625 942.267456054688 945.832946777344 944.374755859375 949.776123046875 946.765380859375 936.341613769531 936.73681640625 936.559204101562 939.246337890625 947.329528808594 952.048095703125 942.978210449219 951.763793945312 949.538269042969 957.507568359375 956.347473144531 950.990051269531 947.162353515625 939.042419433594 934.618225097656 939.116882324219 940.490051269531 946.717956542969 948.5615234375 951.359375 949.081420898438 960.314025878906 968.294189453125 964.543640136719 962.853149414062 963.086547851562 957.178588867188 957.779846191406 963.364807128906 971.318298339844 975.704284667969 977.202758789062 973.406005859375 964.113647460938 967.266723632812 962.467651367188 968.103271484375 967.620361328125 970.85546875 959.380126953125 969.758911132812 973.307556152344 971.467102050781 967.334777832031 961.158142089844 976.284057617188 971.739685058594 972.960571289062 977.610290527344 971.02197265625 975.351745605469 967.350830078125 963.2021484375 973.055480957031 973.629699707031 969.705505371094 967.321350097656 969.923950195312 966.913696289062 967.831909179688 979.064697265625 981.117492675781 977.838989257812 979.028198242188 987.101318359375 987.593505859375 986.877014160156 972.72802734375 971.056579589844 974.615173339844 976.163513183594 973.067077636719 967.502075195312 981.73046875 976.23046875 983.970031738281 991.722290039062 986.6220703125 986.577453613281 994.416564941406 987.715393066406 978.128234863281 979.199584960938 981.305908203125 979.465454101562 986.053405761719 1002.50006103516 1010.39038085938 1009.18365478516 1011.06646728516 1010.30834960938 1015.24957275391 1017.56286621094 1014.64129638672 1018.32159423828 1015.78118896484 1017.09814453125 1016.37982177734 1022.71600341797 1026.49365234375 1032.68835449219 1032.67614746094 1029.79699707031 1026.60095214844 1022.78424072266 1022.34002685547 1019.45977783203 1026.24865722656 1020.92419433594 1027.26501464844 1038.90087890625 1037.52160644531 1042.09228515625 1041.07263183594 1046.66162109375 1039.51257324219 1040.3955078125 1039.68139648438 1031.44970703125 1030.81628417969 1026.01647949219 1036.73645019531 1036.21850585938 1025.10168457031 1026.70129394531 1018.88873291016 1019.66442871094 1013.01745605469 1014.66906738281
960.543395996094 951.774475097656 956.594787597656 958.214904785156 953.743713378906 958.36328125 949.070190429688 950.485412597656 950.695556640625 954.9951171875 951.620056152344 953.592163085938 961.457580566406 948.052124023438 949.575317382812 946.575500488281 939.802917480469 941.866577148438 949.955688476562 947.004821777344 941.063842773438 931.290283203125 940.516235351562 936.440856933594 943.066223144531 940.612365722656 949.972961425781 943.623718261719 952.749816894531 947.684997558594 956.241882324219 949.300415039062 948.949523925781 949.407531738281 942.946899414062 940.911071777344 933.008728027344 938.4560546875 946.223571777344 960.937072753906 961.00244140625 964.034973144531 963.895446777344 967.419738769531 975.564147949219 973.511779785156 965.478576660156 958.946594238281 950.984924316406 959.539672851562 970.057678222656 975.3828125 980.671508789062 976.890197753906 965.858215332031 970.749816894531 966.744567871094 975.031066894531 967.57373046875 975.656799316406 973.660339355469 971.919982910156 967.019226074219 965.127563476562 959.232360839844 965.6904296875 963.60107421875 969.104431152344 967.656494140625 975.453857421875 975.0390625 969.68212890625 967.652221679688 968.633056640625 972.546142578125 981.331909179688 973.96044921875 966.131469726562 964.828857421875 973.016357421875 972.6884765625 972.520751953125 977.00732421875 977.336303710938 981.57763671875 987.531433105469 985.594299316406 987.487243652344 983.178466796875 968.991760253906 968.109619140625 969.731567382812 972.047302246094 979.591186523438 979.520446777344 976.034362792969 987.114929199219 990.469055175781 994.865295410156 993.727600097656 993.093017578125 986.560852050781 983.977722167969 972.294250488281 985.311828613281 992.507629394531 993.66064453125 1006.42950439453 1014.82379150391 1003.31256103516 1004.16296386719 1009.71472167969 1020.90142822266 1022.70355224609 1019.97607421875 1018.14916992188 1023.13623046875 1027.01489257812 1024.58618164062 1025.01318359375 1037.60400390625 1033.93041992188 1032.38110351562 1020.78912353516 1022.66015625 1018.18530273438 1020.45141601562 1017.66015625 1017.11810302734 1014.47271728516 1024.36413574219 1032.97021484375 1038.32836914062 1032.35925292969 1033.95874023438 1032.77722167969 1027.60266113281 1038.82836914062 1035.64855957031 1035.86181640625 1033.0947265625 1022.19793701172 1028.32153320312 1023.77709960938 1020.60430908203 1016.34356689453 1012.38122558594 1002.74371337891 1002.65124511719 999.874755859375
956.8916015625 956.127746582031 958.9189453125 959.845581054688 952.726440429688 956.743957519531 949.112854003906 950.420776367188 944.626586914062 944.626403808594 943.269226074219 950.507507324219 947.993347167969 948.133972167969 956.439086914062 955.33642578125 946.7626953125 947.843200683594 952.118591308594 945.766052246094 939.989379882812 935.873413085938 943.875061035156 943.084838867188 945.330688476562 941.306091308594 951.009338378906 944.131164550781 947.526794433594 954.93017578125 953.8447265625 949.545349121094 951.326538085938 948.760437011719 950.268371582031 948.238464355469 953.643432617188 951.579772949219 945.375305175781 950.447937011719 956.011962890625 955.723266601562 964.85400390625 961.129699707031 972.179809570312 972.672119140625 974.094543457031 974.510314941406 954.616638183594 965.670532226562 971.129699707031 976.35986328125 971.379333496094 973.808715820312 964.850341796875 960.530334472656 963.05859375 970.318176269531 965.599548339844 964.379150390625 968.138549804688 964.455322265625 962.743103027344 960.676635742188 961.116394042969 966.480895996094 960.735107421875 965.779235839844 969.226196289062 967.684631347656 984.189575195312 976.777770996094 973.261657714844 977.950012207031 980.157592773438 978.044372558594 973.037109375 961.888488769531 967.107177734375 967.875732421875 979.494506835938 977.828247070312 984.763549804688 976.125732421875 980.849548339844 991.995361328125 991.381591796875 993.721069335938 983.406188964844 975.823608398438 966.846862792969 972.487182617188 974.658203125 981.093688964844 976.516906738281 982.345520019531 987.5634765625 991.410705566406 1005.55059814453 1004.79119873047 997.368225097656 1005.55261230469 992.036254882812 983.775146484375 985.65283203125 987.728881835938 998.926391601562 1001.40588378906 1006.59661865234 1009.88177490234 1016.24584960938 1019.03204345703 1026.24377441406 1025.42541503906 1025.47509765625 1025.44641113281 1027.55883789062 1029.34606933594 1032.32507324219 1029.107421875 1036.94860839844 1032.85986328125 1030.17529296875 1018.50042724609 1021.33557128906 1019.58428955078 1026.458984375 1024.623046875 1020.11450195312 1016.82672119141 1027.30297851562 1028.6611328125 1033.41418457031 1034.61926269531 1036.88024902344 1027.77355957031 1024.54028320312 1030.0439453125 1027.88818359375 1034.66796875 1035.67553710938 1026.53527832031 1032.15124511719 1021.03759765625 1021.76715087891 1012.91491699219 1003.37145996094 1002.86834716797 989.196716308594 996.118896484375
957.4765625 955.206726074219 952.536010742188 951.631286621094 950.969970703125 951.576782226562 948.135925292969 942.768676757812 942.07470703125 946.23291015625 941.198303222656 948.358276367188 948.870544433594 948.115539550781 955.165466308594 954.484985351562 955.283874511719 971.179260253906 952.359619140625 955.600280761719 948.027099609375 947.077331542969 939.284912109375 943.199584960938 946.825927734375 949.203369140625 947.11767578125 941.822021484375 954.457092285156 953.089660644531 950.4775390625 956.72998046875 965.338806152344 952.189147949219 956.105773925781 960.194396972656 949.774169921875 956.258666992188 953.797485351562 952.655578613281 954.539367675781 963.140502929688 960.1123046875 972.033996582031 974.091064453125 979.156799316406 975.791381835938 972.237121582031 965.861633300781 977.09521484375 980.132385253906 976.672973632812 976.489868164062 974.704467773438 970.175354003906 964.83447265625 971.026306152344 969.866577148438 971.233581542969 964.014953613281 971.904357910156 966.03466796875 975.481994628906 971.82177734375 967.085754394531 958.843322753906 964.010559082031 980.396301269531 975.359313964844 973.055480957031 987.3701171875 976.864624023438 976.115600585938 977.26318359375 981.432556152344 977.423767089844 977.134582519531 974.477478027344 972.031372070312 967.387451171875 978.5048828125 988.564575195312 992.603576660156 987.217041015625 983.494567871094 987.011901855469 981.07421875 982.257019042969 974.239685058594 975.368530273438 969.083801269531 966.780822753906 972.401489257812 977.643859863281 982.085632324219 988.250610351562 987.35205078125 990.198181152344 998.840881347656 1009.52404785156 1006.72906494141 998.355529785156 990.783386230469 992.686340332031 998.086730957031 990.950378417969 991.117614746094 1004.94812011719 1013.74060058594 1018.36102294922 1012.58953857422 1025.56005859375 1024.29504394531 1031.0068359375 1018.98767089844 1025.48266601562 1030.25183105469 1028.13623046875 1034.81323242188 1040.23205566406 1029.89294433594 1029.6796875 1033.67858886719 1030.75439453125 1017.82763671875 1012.99499511719 1022.30255126953 1021.42333984375 1024.42431640625 1016.59259033203 1017.08917236328 1026.3095703125 1038.78149414062 1031.47717285156 1042.06201171875 1041.85461425781 1032.810546875 1033.17175292969 1029.10729980469 1035.50427246094 1032.0361328125 1032.34118652344 1023.62023925781 1019.84991455078 1015.04968261719 1009.49456787109 996.261535644531 993.281494140625 991.250183105469 993.695678710938
955.781433105469 953.867126464844 949.601745605469 949.893371582031 948.058654785156 946.490051269531 940.442504882812 938.476745605469 934.658874511719 937.884887695312 943.527282714844 943.674499511719 951.671875 956.335693359375 963.359130859375 957.154907226562 962.728088378906 968.914733886719 960.045593261719 956.933654785156 952.234802246094 950.816040039062 946.716674804688 953.893188476562 955.880126953125 953.960021972656 946.304260253906 959.15625 957.158203125 951.026733398438 949.946105957031 955.498229980469 956.238891601562 951.292541503906 949.594421386719 948.776794433594 951.49169921875 954.2900390625 958.090209960938 965.795043945312 965.778015136719 961.198852539062 959.013244628906 964.475769042969 971.520446777344 980.268127441406 979.776428222656 981.185363769531 978.089111328125 975.081176757812 975.819580078125 979.439392089844 984.323486328125 974.640075683594 983.141540527344 977.507934570312 977.20166015625 969.448547363281 971.784851074219 972.707702636719 971.695922851562 968.643432617188 971.071533203125 966.378295898438 966.579711914062 965.608276367188 963.378784179688 969.287719726562 969.630432128906 970.966369628906 974.82421875 976.155456542969 973.9326171875 974.438232421875 985.784118652344 976.244812011719 970.907897949219 967.0947265625 977.955871582031 977.62353515625 978.664916992188 984.584228515625 981.4599609375 975.432006835938 986.409606933594 981.842041015625 988.053649902344 986.406677246094 980.069641113281 977.806945800781 972.298522949219 974.770324707031 976.501220703125 973.958984375 989.803527832031 988.5439453125 992.183410644531 994.682922363281 1002.43109130859 990.472290039062 996.11767578125 994.662170410156 990.714721679688 991.863830566406 996.874694824219 999.628479003906 999.532958984375 1003.38043212891 1008.39617919922 1013.25286865234 1020.73675537109 1027.98596191406 1026.82055664062 1028.23474121094 1021.30578613281 1031.94470214844 1027.92004394531 1032.87768554688 1040.53234863281 1046.00891113281 1035.2998046875 1032.33801269531 1025.25329589844 1031.87878417969 1026.13781738281 1022.51647949219 1026.88793945312 1025.70471191406 1023.53564453125 1025.111328125 1027.943359375 1031.623046875 1044.93481445312 1032.73181152344 1040.72033691406 1037.81494140625 1038.10424804688 1031.01989746094 1024.1962890625 1020.34088134766 1025.80505371094 1026.94616699219 1023.97003173828 1006.59289550781 1011.24169921875 1006.86303710938 1002.90899658203 992.224609375 992.974975585938 992.776428222656
958.0615234375 948.981018066406 945.957153320312 946.338623046875 946.625183105469 936.410949707031 935.728454589844 940.124145507812 938.813781738281 933.973876953125 945.398071289062 947.81396484375 955.651672363281 956.9287109375 963.4970703125 967.267517089844 976.336120605469 973.191467285156 964.395690917969 955.906372070312 966.095520019531 959.2724609375 966.207641601562 962.787536621094 961.287841796875 954.643310546875 953.443969726562 961.63818359375 959.600524902344 960.59912109375 954.846130371094 958.5966796875 950.627563476562 954.57177734375 956.875366210938 949.90087890625 953.905395507812 953.801086425781 966.975158691406 965.38427734375 971.156982421875 967.938049316406 966.122436523438 972.477416992188 980.145568847656 980.086181640625 978.438781738281 989.712341308594 983.784057617188 983.683166503906 979.884948730469 987.538452148438 989.030334472656 991.12109375 980.268615722656 979.880859375 974.582763671875 971.460266113281 972.536560058594 969.66357421875 970.85205078125 966.077941894531 971.016540527344 967.443176269531 968.1650390625 967.27587890625 973.829284667969 968.895324707031 975.149108886719 974.996459960938 976.257202148438 975.562805175781 979.503601074219 983.956237792969 985.953796386719 990.033935546875 988.863342285156 973.328857421875 971.169372558594 970.270202636719 973.105407714844 974.969055175781 985.190002441406 987.945434570312 978.967224121094 983.019775390625 985.475402832031 993.006530761719 980.556945800781 979.962463378906 978.972351074219 977.901489257812 979.028442382812 982.851440429688 988.273559570312 991.716552734375 1000.66656494141 995.576049804688 1000.82348632812 1004.03332519531 997.926635742188 987.212463378906 979.615234375 986.386169433594 998.730834960938 998.697998046875 1007.84313964844 1004.76538085938 1007.51318359375 1020.52520751953 1021.59155273438 1027.87902832031 1028.30932617188 1026.43054199219 1028.17614746094 1028.39416503906 1034.57116699219 1037.49621582031 1037.24072265625 1037.54040527344 1040.92785644531 1035.41345214844 1036.20336914062 1022.33264160156 1027.49377441406 1032.69458007812 1030.74597167969 1029.98181152344 1029.56286621094 1020.72320556641 1026.88110351562 1036.24780273438 1037.75610351562 1043.79455566406 1037.52868652344 1035.72595214844 1029.72314453125 1022.36376953125 1015.88665771484 1008.11944580078 1020.24639892578 1019.46069335938 1018.13403320312 1008.48474121094 1017.6591796875 1001.59155273438 996.37353515625 998.437255859375 984.124328613281 991.249816894531
950.454956054688 946.81201171875 942.014343261719 945.817810058594 945.553649902344 932.455932617188 939.080261230469 934.898681640625 934.930053710938 944.579284667969 966.770690917969 961.04052734375 959.810607910156 966.597106933594 966.592407226562 977.188171386719 973.38330078125 975.664184570312 970.123291015625 970.094543457031 971.169799804688 969.4775390625 969.710327148438 962.171875 958.404479980469 967.458618164062 971.262390136719 970.517517089844 963.639892578125 970.074584960938 966.572326660156 971.216979980469 955.306823730469 951.5205078125 947.874267578125 959.216247558594 968.320983886719 966.989807128906 967.814086914062 957.1962890625 968.984985351562 966.937377929688 963.19140625 972.549499511719 975.738403320312 979.443969726562 981.550354003906 989.87060546875 989.846374511719 991.4033203125 985.4970703125 990.791259765625 991.102233886719 991.478698730469 986.960205078125 974.984375 968.885314941406 972.200134277344 978.007751464844 975.305297851562 975.608825683594 970.836242675781 973.299682617188 966.848205566406 967.220886230469 970.602722167969 970.2109375 971.45166015625 980.24365234375 970.443237304688 977.333740234375 980.108825683594 981.346618652344 982.936157226562 993.822692871094 983.956848144531 987.090881347656 973.87060546875 971.218017578125 979.526184082031 984.109313964844 986.206787109375 985.891723632812 993.99951171875 992.3076171875 983.98876953125 979.730773925781 978.2177734375 981.604553222656 975.144836425781 981.989440917969 971.502380371094 980.280639648438 982.750427246094 991.458679199219 996.109008789062 1004.85821533203 1003.63836669922 997.270263671875 997.027709960938 991.973571777344 977.226745605469 984.246704101562 990.246398925781 994.677490234375 1001.59692382812 1013.81146240234 1014.88256835938 1013.20104980469 1020.38409423828 1025.24230957031 1028.68798828125 1030.47216796875 1025.98474121094 1033.80004882812 1031.07983398438 1032.22729492188 1039.34423828125 1034.12866210938 1037.75793457031 1045.46435546875 1048.927734375 1042.96435546875 1025.69396972656 1029.87268066406 1033.26306152344 1022.73376464844 1021.59600830078 1022.77935791016 1028.19055175781 1020.92498779297 1029.28454589844 1032.17614746094 1036.83093261719 1032.33325195312 1027.26354980469 1022.2568359375 1014.61169433594 1012.33752441406 1004.01910400391 1009.24029541016 1007.94262695312 1010.62475585938 1005.40832519531 1013.82006835938 1009.50732421875 1000.85321044922 1000.54180908203 992.654418945312 986.376708984375
947.230224609375 935.578552246094 936.075378417969 933.606323242188 938.175109863281 928.139709472656 935.038940429688 933.654235839844 939.307922363281 946.870849609375 964.540954589844 963.89892578125 972.954650878906 972.139892578125 977.761108398438 973.113220214844 990.624755859375 989.873168945312 990.266418457031 984.944519042969 974.728210449219 963.512451171875 963.148742675781 965.310546875 958.497741699219 965.711120605469 975.008666992188 986.193664550781 979.519470214844 974.390625 975.101989746094 967.053955078125 957.877136230469 952.754577636719 963.045104980469 968.455627441406 981.817565917969 974.076232910156 967.500732421875 966.892822265625 971.924072265625 964.896423339844 969.746520996094 968.397338867188 979.486450195312 985.51611328125 991.928100585938 996.242736816406 992.064147949219 993.976501464844 993.319519042969 1003.88128662109 1002.83880615234 996.884643554688 990.333312988281 992.210144042969 978.273376464844 971.730102539062 969.538757324219 974.971801757812 980.864318847656 973.220092773438 971.937805175781 966.236450195312 968.397216796875 969.279296875 961.977355957031 970.807434082031 982.334350585938 973.377746582031 977.459533691406 974.854125976562 981.293823242188 983.4326171875 994.326293945312 983.9912109375 993.41015625 983.809020996094 975.798217773438 980.653137207031 982.164733886719 988.315368652344 982.309997558594 994.234802246094 995.357116699219 987.673950195312 982.976318359375 986.757690429688 987.134338378906 981.594787597656 982.375183105469 976.538940429688 980.945922851562 981.867858886719 994.304321289062 993.109619140625 993.037536621094 997.762573242188 998.830688476562 990.111511230469 986.756164550781 986.622314453125 983.977905273438 995.515197753906 1002.13385009766 997.726379394531 1008.47235107422 1012.70416259766 1011.67474365234 1025.02478027344 1022.94689941406 1028.57043457031 1026.87365722656 1028.4375 1030.14538574219 1035.22302246094 1028.73815917969 1035.14624023438 1042.01684570312 1035.67749023438 1037.58081054688 1046.02172851562 1043.35375976562 1038.98596191406 1030.16040039062 1021.60668945312 1022.60607910156 1015.41778564453 1022.75250244141 1029.9599609375 1032.88415527344 1024.27685546875 1023.02703857422 1018.9365234375 1024.55517578125 1016.0673828125 1018.18115234375 1017.79650878906 1009.24621582031 1003.28771972656 997.460510253906 1004.19921875 1001.29473876953 1007.92016601562 1007.00756835938 1000.70355224609 1002.19647216797 997.122009277344 994.725158691406 984.57568359375
939.476257324219 930.789123535156 930.487426757812 931.113647460938 931.3359375 932.807006835938 936.392150878906 933.3515625 938.865966796875 943.324523925781 958.822875976562 967.337646484375 968.140380859375 979.700134277344 975.569763183594 980.738830566406 989.796752929688 992.693542480469 988.847961425781 987.784057617188 981.753967285156 974.25341796875 970.470092773438 965.03271484375 959.39892578125 967.645751953125 972.066345214844 982.834411621094 987.215454101562 973.212463378906 973.845458984375 963.677612304688 965.652038574219 966.149047851562 975.240661621094 970.615600585938 978.18017578125 984.239379882812 982.667236328125 971.956726074219 969.743286132812 970.022583007812 969.193786621094 980.420776367188 992.677368164062 993.249633789062 992.294128417969 1003.21130371094 1001.73065185547 995.932739257812 1004.93145751953 1003.77258300781 1006.8623046875 994.008239746094 991.621704101562 997.565307617188 986.5546875 978.759582519531 974.303771972656 973.684448242188 970.227172851562 969.074096679688 961.945739746094 970.259460449219 976.582824707031 965.356079101562 966.913208007812 980.375061035156 987.116149902344 975.125061035156 980.071472167969 981.332824707031 978.632202148438 987.002502441406 987.559143066406 992.452575683594 993.02978515625 988.630981445312 984.766052246094 983.618530273438 992.272644042969 1001.5146484375 1000.00238037109 987.677978515625 990.42919921875 982.678527832031 983.576477050781 983.678283691406 987.028076171875 985.333312988281 984.841186523438 986.056640625 980.07666015625 984.263244628906 998.878173828125 995.140380859375 992.080200195312 996.721862792969 1005.55541992188 998.303955078125 993.0498046875 985.969848632812 986.804931640625 996.736694335938 1004.46575927734 1015.57775878906 1008.40588378906 1014.1201171875 1009.88165283203 1019.36486816406 1019.79504394531 1032.10559082031 1040.3037109375 1034.61657714844 1027.75988769531 1030.34655761719 1034.97766113281 1037.033203125 1048.29272460938 1044.44409179688 1036.21557617188 1038.10888671875 1037.98681640625 1037.28759765625 1036.37622070312 1032.1494140625 1022.41241455078 1025.09240722656 1019.82464599609 1027.64050292969 1031.58898925781 1025.08471679688 1019.60437011719 1016.26110839844 1021.96740722656 1023.54064941406 1020.53063964844 1015.90393066406 1017.16107177734 1000.05682373047 999.945129394531 999.352722167969 997.697448730469 998.794067382812 999.184020996094 1002.46423339844 1000.44232177734 994.351745605469 992.850952148438 986.104370117188
928.153930664062 922.900207519531 930.580749511719 927.278686523438 931.942260742188 928.845947265625 934.970886230469 940.344421386719 937.996826171875 944.358032226562 956.968505859375 965.421325683594 971.689636230469 974.2646484375 980.848327636719 982.217529296875 993.646911621094 995.467407226562 997.7353515625 986.472778320312 994.383422851562 982.717529296875 974.139099121094 972.3544921875 973.729187011719 981.184753417969 981.831298828125 981.447875976562 983.917724609375 980.855163574219 981.807373046875 975.513488769531 973.793579101562 976.1064453125 971.769653320312 980.46875 979.335144042969 980.122009277344 985.228332519531 972.817626953125 967.192749023438 970.809814453125 973.473999023438 982.966003417969 988.628601074219 992.828002929688 997.440307617188 1003.56726074219 1001.06762695312 1009.79412841797 1016.27307128906 1013.95544433594 1011.55010986328 994.728210449219 989.273620605469 988.582824707031 982.029235839844 980.708862304688 973.980102539062 977.82666015625 974.944885253906 966.562683105469 968.379699707031 963.876342773438 968.244873046875 971.014587402344 967.347045898438 981.857421875 987.199584960938 981.172424316406 980.567504882812 981.986267089844 988.752624511719 989.335083007812 989.889892578125 998.729125976562 993.052734375 993.447326660156 993.119689941406 988.756652832031 987.808837890625 991.64794921875 1003.35504150391 997.169799804688 982.040893554688 983.894348144531 987.439270019531 981.90087890625 981.991821289062 988.801879882812 982.87548828125 984.333679199219 978.143188476562 987.29833984375 995.0595703125 997.1025390625 987.105773925781 995.610107421875 1000.32897949219 999.631774902344 997.890197753906 996.379333496094 1007.22918701172 1004.15582275391 1012.97015380859 1009.72241210938 1011.34832763672 1004.54174804688 1008.20227050781 1011.48010253906 1013.67767333984 1023.49468994141 1034.75866699219 1032.96484375 1028.38354492188 1023.92980957031 1029.13391113281 1038.8125 1041.31262207031 1045.1015625 1045.25671386719 1038.71887207031 1037.19934082031 1036.55908203125 1034.03063964844 1030.8935546875 1026.92993164062 1023.75915527344 1026.37438964844 1016.50769042969 1019.36566162109 1023.65130615234 1025.39270019531 1027.90295410156 1017.51263427734 1027.31689453125 1028.89660644531 1019.58190917969 1012.48986816406 1002.91735839844 994.058715820312 1001.61206054688 998.727233886719 1001.17065429688 1001.66137695312 996.189086914062 997.186828613281 990.766723632812 992.178161621094 991.514343261719
936.87158203125 941.419982910156 936.355224609375 934.400329589844 930.887817382812 929.989685058594 940.154113769531 936.629638671875 944.113464355469 954.39013671875 959.932434082031 961.0595703125 964.867736816406 970.222595214844 975.754821777344 975.9794921875 996.941589355469 998.597595214844 1002.64831542969 996.228454589844 998.164611816406 998.34765625 991.824340820312 987.490783691406 993.060913085938 989.400695800781 985.317687988281 980.622375488281 979.412658691406 979.525268554688 974.900634765625 982.062255859375 983.339416503906 984.932861328125 984.202026367188 978.105651855469 990.208984375 990.941772460938 983.235107421875 982.138488769531 979.1953125 981.23876953125 984.287048339844 990.471130371094 990.282043457031 991.946350097656 1001.24963378906 1004.419921875 1008.43286132812 1015.17633056641 1014.04974365234 1008.33239746094 1010.67272949219 1000.35028076172 994.302856445312 989.485473632812 994.115112304688 982.50732421875 978.835144042969 976.78173828125 970.635375976562 976.103149414062 970.115356445312 964.812622070312 972.530578613281 976.961059570312 970.032836914062 983.861450195312 984.683776855469 986.944152832031 983.264709472656 988.794189453125 990.826232910156 996.488403320312 1000.32330322266 994.696716308594 989.190856933594 1000.16418457031 988.660034179688 985.939636230469 982.646667480469 998.0517578125 1013.32525634766 1005.64782714844 1002.21398925781 983.748291015625 979.66064453125 988.327331542969 986.107238769531 987.758056640625 987.644226074219 981.154968261719 978.000122070312 987.551147460938 988.010559082031 998.679016113281 987.933166503906 1000.13635253906 1007.3173828125 1005.64093017578 1009.45788574219 1005.8349609375 1005.26739501953 1005.06481933594 1014.62127685547 1009.24304199219 1015.07965087891 1007.19079589844 1004.20111083984 1007.63989257812 1019.28601074219 1022.13732910156 1029.27355957031 1026.85107421875 1032.3798828125 1034.52612304688 1033.41247558594 1037.37451171875 1031.35205078125 1037.22863769531 1041.26110839844 1041.52270507812 1034.81689453125 1032.20642089844 1024.39892578125 1026.708984375 1018.68139648438 1025.94970703125 1022.66174316406 1015.3505859375 1007.15264892578 1012.36920166016 1019.27117919922 1014.65612792969 1016.77563476562 1019.75671386719 1022.19805908203 1013.00622558594 1006.21197509766 997.806579589844 987.201416015625 996.529541015625 992.051391601562 1001.11578369141 1008.51617431641 1002.56280517578 1000.04254150391 1006.78448486328 999.207702636719 999.036865234375
934.856506347656 936.192321777344 925.917846679688 933.353759765625 937.901245117188 928.649475097656 942.458435058594 948.705871582031 952.791015625 954.203247070312 958.845947265625 962.323425292969 969.170288085938 973.255065917969 976.092651367188 980.097839355469 990.893127441406 993.222717285156 997.762634277344 994.822448730469 997.962890625 998.830932617188 995.746704101562 992.724060058594 987.254150390625 986.111022949219 982.874084472656 988.197631835938 979.378967285156 967.704528808594 970.977844238281 980.629455566406 982.789367675781 985.043579101562 984.542053222656 983.397766113281 995.168212890625 997.014038085938 995.276794433594 989.018737792969 981.57958984375 981.0859375 992.487426757812 994.554138183594 998.492797851562 1011.158203125 1010.39556884766 1010.48101806641 1012.51898193359 1017.91577148438 1012.96252441406 1012.07000732422 1010.87286376953 993.457946777344 998.33837890625 993.824523925781 989.23095703125 987.432373046875 979.814208984375 975.630004882812 969.94482421875 969.381896972656 972.353515625 970.087585449219 978.062255859375 971.323608398438 977.999572753906 987.239929199219 980.969482421875 990.181823730469 980.503540039062 986.640014648438 984.711364746094 992.374816894531 995.125 997.372131347656 1002.71875 1003.59985351562 998.500915527344 1001.07641601562 1004.43841552734 1006.16967773438 1004.3564453125 1005.61376953125 995.311706542969 979.578796386719 979.462951660156 982.926208496094 984.664916992188 985.727905273438 985.390014648438 984.774230957031 977.921020507812 988.638305664062 985.744689941406 990.013122558594 991.949645996094 995.526733398438 1003.40771484375 1010.64569091797 1012.64666748047 1009.35931396484 1009.11682128906 1010.35968017578 1009.27069091797 1013.04498291016 1008.99096679688 999.594055175781 1006.45971679688 1009.42724609375 1014.45788574219 1035.73327636719 1035.91540527344 1031.36572265625 1028.75744628906 1034.36584472656 1029.09313964844 1018.95379638672 1022.95318603516 1029.0986328125 1036.990234375 1034.49328613281 1034.99987792969 1015.36804199219 1023.59393310547 1021.36114501953 1020.3427734375 1021.60943603516 1019.01867675781 1008.10260009766 1008.31646728516 1002.38946533203 1002.62725830078 1011.58728027344 1016.54846191406 1016.92315673828 1012.04187011719 999.792785644531 1002.75018310547 997.292541503906 991.497802734375 981.2646484375 980.595703125 985.642272949219 997.659790039062 1003.45623779297 1003.82275390625 1008.38543701172 1000.84753417969 1005.84503173828
932.753662109375 929.689086914062 928.561584472656 931.73974609375 934.611999511719 927.330749511719 935.123046875 949.994262695312 953.643920898438 955.832763671875 959.338989257812 965.199462890625 960.91650390625 981.161437988281 976.613525390625 982.470092773438 983.625854492188 982.728515625 991.754943847656 988.167053222656 999.350952148438 998.581970214844 992.83056640625 982.138122558594 981.255493164062 981.446716308594 978.891906738281 984.926086425781 980.568542480469 979.377685546875 980.062194824219 987.337524414062 982.850646972656 988.02734375 985.073425292969 985.771118164062 997.032531738281 999.708435058594 988.455627441406 988.024597167969 982.873413085938 984.695983886719 989.495788574219 999.09375 1004.52514648438 1002.40716552734 1013.51928710938 1022.11608886719 1023.81164550781 1017.34545898438 1009.82794189453 994.488891601562 1003.90667724609 998.378540039062 998.132995605469 986.637268066406 986.17724609375 986.020874023438 993.631530761719 976.736755371094 978.843383789062 977.774047851562 972.392456054688 981.798706054688 975.476623535156 986.911315917969 987.74365234375 985.570556640625 971.072570800781 978.819274902344 975.17236328125 982.789978027344 986.518859863281 984.170043945312 990.5517578125 993.559204101562 998.69677734375 1005.42156982422 1009.37542724609 1006.25048828125 1007.76049804688 1004.57080078125 1007.42535400391 1006.0078125 993.517150878906 985.923156738281 988.653686523438 984.343994140625 984.135009765625 983.5283203125 992.549560546875 989.902099609375 981.894653320312 980.950439453125 991.1103515625 989.636901855469 1000.72650146484 998.952941894531 1000.97912597656 1013.27209472656 1012.57543945312 1011.32238769531 1007.30432128906 1003.53948974609 1002.25225830078 1007.13073730469 997.70703125 1000.64727783203 1003.60070800781 1009.21533203125 1019.54083251953 1028.17077636719 1027.68371582031 1028.35314941406 1028.8818359375 1026.82019042969 1019.55718994141 1017.04461669922 1025.16064453125 1026.43005371094 1029.60876464844 1024.75720214844 1027.986328125 1024.63647460938 1017.29974365234 1022.23327636719 1013.48944091797 1015.89978027344 1007.26239013672 1003.37066650391 999.164123535156 991.933410644531 992.315734863281 1002.03051757812 1009.23138427734 1008.76538085938 1002.45611572266 1002.78509521484 996.273193359375 996.250427246094 988.703918457031 990.238037109375 986.120239257812 979.358337402344 987.80908203125 995.320861816406 993.101013183594 992.826965332031 993.704956054688 992.718444824219
928.226623535156 927.568725585938 932.157775878906 936.901489257812 928.908935546875 926.364318847656 932.330017089844 952.450500488281 948.391174316406 956.373107910156 959.694274902344 962.242858886719 967.288452148438 968.85888671875 978.810363769531 981.6796875 978.922546386719 985.805969238281 982.908813476562 987.989685058594 991.757995605469 990.423461914062 994.468017578125 986.776977539062 988.013916015625 985.955932617188 986.647338867188 986.956237792969 981.526489257812 982.826416015625 981.682739257812 986.455810546875 985.2490234375 984.131042480469 987.016296386719 984.384704589844 991.781982421875 996.242614746094 997.876220703125 987.810974121094 992.744750976562 992.9462890625 996.558288574219 1000.79339599609 1004.376953125 1008.83251953125 1014.49938964844 1015.53039550781 1014.22729492188 1015.35919189453 1001.30975341797 998.051147460938 996.260314941406 994.003601074219 985.900451660156 988.578369140625 986.14208984375 979.720642089844 982.351013183594 981.40576171875 982.594482421875 973.345092773438 977.56298828125 976.669250488281 982.267700195312 983.066711425781 987.756652832031 981.396484375 975.385192871094 980.511352539062 980.165283203125 989.262329101562 995.130004882812 992.804931640625 983.814208984375 994.37646484375 994.801879882812 1003.6884765625 1002.814453125 1008.86975097656 1007.42529296875 1011.92657470703 1014.81713867188 1007.37115478516 994.26611328125 993.643859863281 991.291381835938 983.065063476562 982.584350585938 982.252380371094 1001.04742431641 992.830871582031 985.68505859375 985.148010253906 992.256042480469 999.953918457031 998.981811523438 997.061218261719 999.765930175781 1008.59643554688 1012.79357910156 1009.44195556641 1009.65533447266 995.527160644531 1001.47802734375 1009.07214355469 1005.24615478516 997.880432128906 1012.11499023438 1014.78399658203 1018.77697753906 1032.12536621094 1035.41760253906 1035.46130371094 1031.48376464844 1024.06018066406 1022.69207763672 1018.40313720703 1018.20550537109 1019.91815185547 1022.37933349609 1018.95098876953 1019.25280761719 1017.88446044922 1017.39874267578 1017.29113769531 1015.02880859375 1008.64544677734 1002.61962890625 996.658996582031 997.816467285156 991.625305175781 990.176696777344 997.540893554688 999.626403808594 998.406372070312 1007.27661132812 1003.02270507812 998.822021484375 989.077453613281 996.936096191406 995.525207519531 989.769653320312 981.754333496094 984.619812011719 990.835144042969 992.455444335938 982.882568359375 982.531982421875 984.50341796875
934.64453125 931.690368652344 925.791381835938 933.384826660156 935.068237304688 919.451293945312 936.523071289062 942.378784179688 958.720642089844 957.475402832031 957.652160644531 963.691589355469 968.452697753906 977.275512695312 973.670227050781 973.7734375 970.859436035156 975.086547851562 983.379699707031 981.945617675781 986.934875488281 989.173889160156 995.422119140625 994.047729492188 998.109252929688 997.14013671875 982.838256835938 978.3212890625 981.52685546875 980.152648925781 985.69140625 989.503540039062 987.171020507812 984.14892578125 982.972839355469 990.202270507812 993.036010742188 994.8212890625 997.730346679688 995.072448730469 992.637268066406 990.400817871094 995.768249511719 1006.15484619141 1008.15435791016 1006.75433349609 1009.42205810547 1008.06750488281 1007.19995117188 1002.25549316406 999.041381835938 993.679748535156 1000.67352294922 999.775390625 996.539428710938 988.576049804688 984.374206542969 980.153991699219 979.139709472656 981.203430175781 984.527526855469 981.608703613281 985.59326171875 983.085754394531 987.704406738281 979.138549804688 973.250915527344 984.212829589844 984.847900390625 980.179504394531 986.476745605469 997.512329101562 996.31201171875 997.250122070312 995.226745605469 992.431335449219 991.581787109375 997.910522460938 999.008422851562 1005.8935546875 1011.71759033203 1013.83319091797 1015.99822998047 1005.43029785156 992.228210449219 998.363220214844 996.467041015625 987.369689941406 993.140563964844 985.373474121094 996.444152832031 1001.91107177734 995.974792480469 994.363403320312 995.456420898438 989.291870117188 1000.37097167969 1004.81463623047 1002.92266845703 997.094360351562 998.142883300781 1007.84759521484 1005.35302734375 1006.61267089844 1006.43475341797 1008.103515625 1002.40942382812 1009.41333007812 1019.27178955078 1019.9833984375 1025.638671875 1032.46032714844 1029.65808105469 1032.92980957031 1024.1455078125 1020.22174072266 1012.79681396484 1014.58074951172 1016.74456787109 1011.40991210938 1010.11395263672 1012.39459228516 1010.98779296875 1013.33898925781 1020.23095703125 1014.27160644531 1009.47094726562 1004.77001953125 1001.12634277344 998.249389648438 992.835144042969 991.245361328125 982.082580566406 991.035217285156 993.948913574219 996.31201171875 1005.84747314453 1009.29473876953 1004.46160888672 988.612182617188 994.552062988281 995.615783691406 995.311950683594 985.435241699219 992.895202636719 987.973266601562 983.045715332031 988.484375 975.764282226562 977.775390625
929.339782714844 929.408081054688 926.818664550781 927.041137695312 934.489807128906 936.267395019531 942.061584472656 946.133056640625 960.034484863281 970.890441894531 965.444091796875 971.879272460938 964.431457519531 971.551879882812 974.625244140625 974.991516113281 978.335815429688 981.591369628906 984.143310546875 983.298706054688 987.775939941406 988.876708984375 988.551025390625 1003.71704101562 1001.501953125 992.409973144531 988.119323730469 988.687866210938 984.905212402344 985.348449707031 979.775756835938 981.492980957031 986.683532714844 991.707763671875 985.346313476562 980.920837402344 980.755432128906 989.221740722656 993.49365234375 992.883239746094 994.464172363281 997.154907226562 999.378356933594 994.934204101562 1002.90728759766 997.328857421875 997.562561035156 998.344543457031 994.921875 996.067504882812 1001.85046386719 1002.73449707031 997.929992675781 999.204345703125 991.410827636719 970.861694335938 982.672302246094 989.793212890625 978.435302734375 977.01513671875 976.097106933594 981.535888671875 978.622009277344 980.065673828125 989.105834960938 976.184692382812 981.922546386719 980.008117675781 975.695861816406 980.6201171875 989.205505371094 996.6474609375 997.320495605469 1004.81787109375 999.509399414062 995.335205078125 986.181274414062 994.330810546875 996.920532226562 1006.31787109375 1013.03759765625 1011.73638916016 1005.32202148438 1010.32995605469 999.285705566406 1006.78869628906 1000.23046875 989.838745117188 995.571655273438 996.564453125 997.668395996094 993.79052734375 986.52197265625 986.644836425781 981.510131835938 984.651123046875 991.631225585938 999.045288085938 1004.09594726562 996.434265136719 1005.18493652344 1011.10144042969 1007.13317871094 1010.89538574219 1013.49603271484 1015.17132568359 1001.45483398438 1003.33258056641 1010.03887939453 1013.02453613281 1020.67993164062 1026.64611816406 1032.35717773438 1028.61828613281 1024.51806640625 1026.62915039062 1024.14013671875 1018.81225585938 1015.90075683594 1006.61236572266 1009.97515869141 1019.33685302734 1012.82421875 1021.27667236328 1019.32049560547 1011.67437744141 1010.25830078125 1005.92059326172 1002.75402832031 1006.52612304688 1000.55493164062 991.4658203125 993.662170410156 993.520202636719 1009.19622802734 999.858947753906 997.703247070312 1004.203125 1003.02191162109 996.571411132812 995.980041503906 986.7958984375 987.488220214844 985.001892089844 980.866455078125 986.147827148438 980.983093261719 972.6513671875 975.599609375 972.936401367188
936.015625 943.21435546875 937.816528320312 935.397766113281 937.322570800781 936.507568359375 938.952331542969 953.540222167969 957.675842285156 960.837951660156 973.468627929688 978.275512695312 975.08544921875 969.547180175781 981.241394042969 983.224548339844 977.834533691406 982.5244140625 983.137512207031 987.988830566406 987.234497070312 987.571655273438 990.579650878906 1000.42980957031 1000.57366943359 987.51611328125 987.615478515625 983.950073242188 986.4443359375 980.123413085938 980.449890136719 975.283874511719 985.518981933594 990.403564453125 988.755920410156 988.33251953125 984.142028808594 993.031066894531 993.782897949219 998.369079589844 997.530883789062 1006.10668945312 1001.68737792969 1002.84545898438 998.958312988281 995.018432617188 996.030456542969 993.948852539062 999.917602539062 1000.87805175781 998.195678710938 1003.04309082031 998.838134765625 1000.74621582031 996.054565429688 985.406616210938 989.828674316406 988.801452636719 979.373352050781 975.255676269531 973.199462890625 984.626708984375 988.360229492188 977.348815917969 979.656372070312 976.374206542969 978.43017578125 979.192016601562 985.418334960938 981.79443359375 988.414245605469 986.925964355469 985.205078125 990.867614746094 987.116455078125 987.410888671875 989.928405761719 1002.84301757812 1008.24084472656 999.370422363281 1005.22680664062 1020.48321533203 1006.36297607422 1005.47821044922 1005.10919189453 999.582092285156 1002.68060302734 1001.25659179688 998.101379394531 994.343811035156 997.982055664062 987.567077636719 986.790283203125 986.027099609375 986.96923828125 985.489318847656 992.259155273438 998.422790527344 1003.52593994141 1002.09967041016 998.480834960938 1010.10546875 1009.69079589844 1009.91418457031 1011.72143554688 1014.2587890625 999.790405273438 1002.19030761719 1003.51019287109 1015.1904296875 1020.04449462891 1027.05834960938 1036.57312011719 1026.08264160156 1024.26550292969 1031.36242675781 1028.93981933594 1023.5947265625 1019.63250732422 1015.26037597656 1024.35656738281 1011.27185058594 1008.83935546875 1014.634765625 1008.00622558594 999.289367675781 1000.75140380859 1008.34436035156 1002.48693847656 1003.64654541016 1001.63995361328 990.162719726562 991.910339355469 1000.51275634766 1001.98040771484 1000.49957275391 995.687377929688 1001.6640625 990.935424804688 991.090026855469 1000.20727539062 988.710021972656 988.017517089844 982.126098632812 986.631286621094 988.933654785156 970.828552246094 972.872680664062 976.882446289062 973.784851074219
944.547973632812 942.837341308594 945.819580078125 943.018371582031 935.46630859375 934.109558105469 942.1435546875 944.539306640625 960.805114746094 967.848937988281 972.451110839844 979.72265625 980.199523925781 978.368469238281 981.024230957031 982.866271972656 969.048217773438 972.7158203125 976.533569335938 982.315002441406 975.628601074219 985.751586914062 985.358154296875 989.959655761719 995.266418457031 988.504638671875 984.476440429688 978.861450195312 984.8017578125 977.88232421875 976.739562988281 982.38232421875 985.706481933594 989.277770996094 995.551208496094 992.910278320312 987.045104980469 993.294860839844 996.91748046875 993.497314453125 1000.71130371094 1004.537109375 993.595764160156 993.324890136719 990.096496582031 992.378845214844 990.189575195312 995.226623535156 1001.69659423828 998.195434570312 1000.69641113281 1000.42150878906 1007.82202148438 1010.91729736328 997.181518554688 997.763244628906 987.501403808594 993.484191894531 985.228820800781 979.49609375 976.156799316406 985.076477050781 988.428344726562 983.547546386719 983.995178222656 981.210510253906 978.063598632812 981.346435546875 989.339965820312 992.054260253906 988.307495117188 993.416076660156 986.833740234375 981.078796386719 985.019836425781 984.159240722656 988.916198730469 999.834838867188 1011.24908447266 1004.37512207031 1006.794921875 1006.24133300781 1008.05065917969 1003.80603027344 994.885314941406 1008.54626464844 1004.49145507812 1001.47540283203 1002.11267089844 995.456176757812 993.4443359375 985.623168945312 986.708679199219 985.2626953125 984.884887695312 991.962341308594 1001.56457519531 993.87353515625 1003.1875 1008.88830566406 1014.76452636719 1006.37445068359 1010.49090576172 1015.21655273438 1017.91412353516 1014.51684570312 1005.39263916016 1004.79425048828 1010.43011474609 1009.07720947266 1024.25622558594 1028.50036621094 1019.88177490234 1029.46118164062 1019.12847900391 1028.14477539062 1023.93237304688 1032.99523925781 1030.1640625 1030.18090820312 1018.80865478516 1021.90240478516 1013.02917480469 1009.54803466797 1007.73645019531 996.522033691406 988.222412109375 997.61376953125 992.398620605469 992.60595703125 998.156127929688 996.602172851562 992.373229980469 988.996398925781 1002.96759033203 995.862060546875 993.359619140625 995.055480957031 989.101135253906 995.297973632812 993.540100097656 985.939758300781 986.162292480469 973.913269042969 976.291198730469 974.2841796875 969.127685546875 972.088745117188 975.848449707031 977.309265136719
947.203125 950.306091308594 953.154663085938 948.623413085938 946.321594238281 933.80224609375 943.247253417969 942.749694824219 961.153930664062 964.346069335938 966.029907226562 978.290771484375 971.275756835938 973.835998535156 975.940734863281 969.782531738281 970.222534179688 963.426452636719 966.398498535156 972.985473632812 974.578247070312 982.235046386719 990.565490722656 984.736022949219 990.253356933594 984.35009765625 978.598571777344 983.505859375 979.594848632812 981.242309570312 980.816101074219 979.086303710938 986.269775390625 985.304992675781 987.126647949219 993.488342285156 984.572448730469 980.343566894531 986.732055664062 989.923217773438 984.898681640625 992.758117675781 988.923583984375 987.088684082031 988.029907226562 990.156433105469 997.93994140625 1002.51196289062 1000.16668701172 999.768737792969 1005.86114501953 1006.57104492188 1004.75646972656 1006.93139648438 997.100952148438 994.479064941406 989.007934570312 995.510314941406 987.434814453125 983.197448730469 975.790222167969 981.787536621094 989.336547851562 985.103393554688 983.145751953125 978.454162597656 975.759338378906 979.148986816406 983.794799804688 983.835021972656 987.927612304688 982.583312988281 985.753051757812 978.455261230469 981.5478515625 991.2392578125 984.15966796875 999.682250976562 1008.29046630859 1003.88903808594 1012.17138671875 1011.3505859375 1006.67279052734 1000.58013916016 1000.56658935547 997.90087890625 997.241760253906 1000.17767333984 998.742919921875 993.534729003906 988.496887207031 990.274536132812 991.5478515625 989.745849609375 986.6337890625 991.211486816406 997.947509765625 996.040954589844 1004.96362304688 1010.29809570312 1008.12561035156 1005.50885009766 1005.12835693359 1005.85803222656 1011.55395507812 1008.86175537109 1011.60064697266 1011.0263671875 1019.78918457031 1013.82696533203 1017.33367919922 1028.4052734375 1026.84338378906 1029.17590332031 1026.6982421875 1032.74108886719 1038.84521484375 1036.208984375 1029.5341796875 1029.71459960938 1017.59454345703 1013.95544433594 1005.68988037109 1001.61901855469 1004.15423583984 1000.38952636719 997.276916503906 981.028198242188 985.870727539062 984.129699707031 984.465759277344 985.10009765625 980.962707519531 993.981750488281 997.154724121094 1000.9521484375 995.050170898438 991.769714355469 990.990417480469 987.482971191406 983.67578125 981.1650390625 983.98876953125 975.860229492188 968.771240234375 976.901000976562 977.54150390625 979.542602539062 977.174194335938 978.288696289062
946.990661621094 954.578552246094 955.194091796875 946.385498046875 949.482421875 941.318054199219 934.023986816406 939.662231445312 954.374694824219 952.353515625 960.594848632812 969.019775390625 972.07080078125 970.553955078125 972.967346191406 966.673217773438 960.526733398438 958.502868652344 962.941162109375 974.43115234375 971.971862792969 973.675598144531 984.049438476562 985.947814941406 972.512390136719 966.99462890625 968.87890625 976.885009765625 971.172180175781 985.419006347656 973.682739257812 976.487976074219 978.06640625 986.258544921875 985.698974609375 981.327026367188 972.163146972656 972.444091796875 975.265563964844 971.315307617188 975.321472167969 975.708984375 989.875427246094 987.3232421875 988.990173339844 994.844421386719 1002.34655761719 1003.62231445312 1006.16467285156 1003.99664306641 1006.17584228516 998.427062988281 997.744750976562 1000.43084716797 995.836730957031 994.338989257812 992.766784667969 987.461730957031 994.169494628906 981.913513183594 986.355590820312 983.65185546875 980.756225585938 982.810791015625 988.164916992188 981.350036621094 986.172241210938 984.144836425781 985.881713867188 988.820861816406 989.414367675781 983.127563476562 981.21044921875 979.765502929688 984.515441894531 986.953247070312 989.172119140625 996.697448730469 1000.77868652344 1005.98999023438 1009.78521728516 1009.00170898438 1008.48126220703 1010.31860351562 1003.02398681641 998.97802734375 1005.86779785156 997.23046875 995.454895019531 995.653259277344 993.44921875 991.155334472656 997.527282714844 1002.46160888672 994.38916015625 996.800354003906 997.313415527344 999.129333496094 995.742919921875 1007.59967041016 1006.31030273438 1002.96795654297 1012.67877197266 1004.65753173828 1011.53149414062 1015.02575683594 1017.13189697266 1020.12884521484 1022.41003417969 1017.45715332031 1030.09204101562 1037.35412597656 1028.56323242188 1034.40368652344 1037.60729980469 1046.11303710938 1048.02941894531 1046.41394042969 1032.63159179688 1024.55676269531 1021.70227050781 1025.08923339844 1007.13800048828 998.927795410156 996.858276367188 998.328002929688 983.68896484375 975.929077148438 978.552612304688 986.564147949219 979.50341796875 981.175598144531 979.411682128906 981.443481445312 986.896911621094 990.012817382812 986.539367675781 987.460815429688 981.680847167969 983.427734375 993.454284667969 981.652954101562 976.712463378906 975.520568847656 979.153930664062 976.293212890625 981.809204101562 991.47802734375 977.295532226562 980.254455566406
947.01171875 952.039611816406 953.298461914062 944.504089355469 941.816589355469 937.740905761719 942.999084472656 944.46728515625 950.273681640625 951.965454101562 957.094543457031 958.788208007812 961.872375488281 964.443603515625 972.151733398438 960.946838378906 963.28173828125 962.049133300781 969.134582519531 971.035461425781 966.956848144531 960.91748046875 963.800903320312 970.016357421875 971.384826660156 957.001159667969 962.504028320312 959.67578125 967.767639160156 976.315856933594 968.921081542969 980.123840332031 970.876770019531 971.14453125 980.2109375 971.582336425781 965.591613769531 970.652038574219 965.789489746094 967.724487304688 974.143676757812 985.107299804688 984.957214355469 986.10595703125 988.841796875 992.998840332031 994.596313476562 1012.48785400391 1005.35919189453 1004.97973632812 1004.51776123047 993.706420898438 1000.11029052734 1002.33703613281 996.951110839844 997.211486816406 996.773803710938 996.248901367188 991.687927246094 979.124084472656 979.8662109375 987.005554199219 987.042358398438 980.567687988281 979.746948242188 985.668334960938 988.084594726562 985.195373535156 985.862609863281 986.272338867188 985.150939941406 977.423522949219 981.633666992188 988.630981445312 998.005554199219 987.48681640625 992.1826171875 996.815856933594 997.968688964844 1003.02105712891 1007.72534179688 1003.81024169922 999.055725097656 1005.69927978516 1013.49133300781 1003.54119873047 993.986267089844 995.313903808594 1002.45690917969 1004.07385253906 1001.99084472656 996.336853027344 998.069519042969 997.171936035156 1001.94635009766 1001.74230957031 999.082275390625 997.424926757812 999.026000976562 1003.86029052734 1000.58081054688 1004.49694824219 1011.72351074219 1010.00164794922 1008.66497802734 1008.83874511719 1022.81262207031 1031.12731933594 1032.50634765625 1032.94091796875 1038.45300292969 1032.23571777344 1043.12182617188 1041.55065917969 1042.40832519531 1054.98828125 1058.60327148438 1047.44384765625 1034.47033691406 1028.00415039062 1030.90112304688 1026.35217285156 1009.83459472656 998.04833984375 996.47314453125 991.991394042969 977.212951660156 978.245849609375 976.222839355469 989.032104492188 978.995910644531 972.535705566406 978.32861328125 978.751098632812 977.080139160156 981.028991699219 977.368286132812 981.350036621094 982.941223144531 985.013549804688 982.333435058594 977.614990234375 975.683471679688 969.25732421875 970.001953125 978.086120605469 977.708312988281 980.127380371094 981.618713378906 985.424255371094
940.531921386719 936.865478515625 940.468139648438 937.428161621094 933.223510742188 942.219970703125 948.435241699219 941.270385742188 950.845458984375 950.633361816406 951.543273925781 945.733154296875 952.280944824219 957.094604492188 958.638061523438 960.103088378906 958.701477050781 963.591125488281 971.110046386719 970.041870117188 959.677001953125 955.776794433594 954.348815917969 961.607299804688 953.116149902344 952.131958007812 954.50439453125 962.320495605469 963.848876953125 971.658508300781 966.028137207031 972.907165527344 977.626281738281 973.046630859375 973.504943847656 956.983642578125 956.994445800781 959.968566894531 962.379638671875 967.631591796875 979.675170898438 985.823364257812 975.301513671875 986.560302734375 985.098876953125 992.034240722656 1000.84301757812 1001.48889160156 1003.71954345703 1005.24749755859 998.733825683594 1002.95062255859 996.102233886719 1000.705078125 993.880493164062 1000.09167480469 999.858581542969 994.6337890625 994.684753417969 987.856689453125 992.85302734375 992.70654296875 986.524841308594 992.68359375 991.784973144531 985.610046386719 989.884399414062 978.348693847656 980.602722167969 983.514587402344 987.555541992188 986.938781738281 983.519165039062 993.113525390625 998.564025878906 987.504699707031 998.245727539062 993.103637695312 995.516418457031 996.841735839844 1001.21142578125 1004.70831298828 1009.2158203125 997.978759765625 1003.02935791016 998.635803222656 1001.59973144531 999.803283691406 1005.80499267578 1008.61218261719 1003.30297851562 992.277587890625 996.693481445312 999.721496582031 1008.19744873047 1005.75396728516 1008.61224365234 1007.89215087891 1010.95281982422 1011.64416503906 1009.45989990234 1015.30981445312 1009.669921875 1013.16638183594 1012.63153076172 1017.89147949219 1023.45623779297 1037.27233886719 1047.18615722656 1048.49169921875 1047.47607421875 1053.34899902344 1053.00341796875 1054.34875488281 1061.41784667969 1062.24584960938 1055.05688476562 1047.92663574219 1050.31274414062 1037.921875 1032.009765625 1021.52697753906 1017.28057861328 998.415466308594 994.43017578125 988.925964355469 984.458129882812 975.079345703125 975.963806152344 983.1923828125 981.989379882812 985.366577148438 994.168823242188 989.071716308594 980.755310058594 979.814697265625 985.525451660156 991.364501953125 988.171813964844 984.384948730469 978.32958984375 967.956787109375 962.648010253906 964.06103515625 962.355529785156 960.826904296875 973.380493164062 978.419860839844 981.541320800781 978.658752441406
942.382202148438 939.029052734375 942.980285644531 936.51513671875 932.863647460938 937.345825195312 945.6484375 949.291931152344 950.221130371094 946.282165527344 950.730712890625 946.7041015625 953.091613769531 950.860046386719 949.765197753906 949.200561523438 947.452819824219 957.18408203125 970.869140625 966.399475097656 961.676696777344 956.627563476562 962.775634765625 958.480163574219 961.845886230469 956.151000976562 960.23974609375 963.283264160156 964.579711914062 964.296875 958.503234863281 965.483520507812 969.474731445312 976.817993164062 971.412231445312 965.824645996094 958.888549804688 964.973266601562 961.85986328125 965.265930175781 978.073364257812 976.753234863281 983.320373535156 986.46923828125 990.837219238281 996.637023925781 992.928100585938 996.057678222656 994.27099609375 990.417114257812 989.340270996094 992.51025390625 998.403198242188 990.606567382812 985.775634765625 993.261108398438 989.782775878906 993.354309082031 991.522033691406 994.180786132812 992.335388183594 993.681091308594 985.701599121094 988.537414550781 981.049255371094 986.582336425781 984.942138671875 981.364196777344 982.71923828125 988.622619628906 983.805786132812 992.820556640625 993.062377929688 997.782531738281 998.350219726562 993.906066894531 996.979309082031 992.255493164062 992.519104003906 999.811950683594 1004.81713867188 1005.27398681641 998.456359863281 997.018127441406 1005.42822265625 1003.17572021484 1008.20373535156 1007.13507080078 999.246704101562 1004.14501953125 997.779357910156 993.649047851562 994.275817871094 1004.65454101562 1007.736328125 1006.96514892578 1020.24572753906 1016.70782470703 1017.69171142578 1013.05133056641 1015.45397949219 1023.22937011719 1023.84094238281 1020.57769775391 1024.99340820312 1015.69128417969 1029.31018066406 1035.67358398438 1049.35400390625 1056.74291992188 1056.34729003906 1068.99572753906 1071.70092773438 1058.45031738281 1063.533203125 1065.85925292969 1058.18188476562 1057.60632324219 1045.82043457031 1038.4130859375 1032.92602539062 1020.00280761719 1007.53747558594 997.649780273438 997.068176269531 986.277709960938 987.9853515625 988.136901855469 988.092041015625 979.237854003906 982.220642089844 987.9501953125 986.935363769531 986.065307617188 982.196228027344 984.74267578125 995.088806152344 991.986389160156 978.78955078125 978.683288574219 969.597045898438 967.481628417969 964.067565917969 966.271179199219 968.536010742188 974.515319824219 969.399658203125 978.990112304688 984.843078613281 981.989990234375
958.22607421875 945.985595703125 948.24755859375 943.441650390625 942.250305175781 946.686462402344 937.054992675781 942.563720703125 941.060974121094 944.180847167969 946.797729492188 945.002746582031 944.934509277344 948.943481445312 941.798889160156 946.614440917969 955.859008789062 956.594421386719 964.360778808594 957.797241210938 950.909606933594 962.597290039062 950.574096679688 962.167114257812 965.126281738281 963.586242675781 959.877197265625 963.802307128906 963.0185546875 953.78857421875 955.835815429688 963.390258789062 970.244079589844 965.04638671875 966.9775390625 965.678894042969 958.819885253906 969.335205078125 962.214904785156 969.559875488281 973.933227539062 979.962890625 978.991577148438 980.725036621094 991.150146484375 981.993469238281 993.054504394531 986.333129882812 990.502807617188 981.007080078125 983.272644042969 993.673278808594 989.271606445312 992.516540527344 985.045959472656 991.404052734375 986.839904785156 993.591369628906 994.163757324219 1000.45745849609 995.021423339844 997.514038085938 991.29248046875 986.419921875 988.655151367188 992.698791503906 988.225341796875 983.335693359375 988.454833984375 988.543640136719 989.019897460938 997.780944824219 994.393310546875 990.458068847656 997.800048828125 998.221984863281 998.288452148438 993.389099121094 999.429443359375 993.507629394531 1004.67553710938 1002.240234375 1001.7724609375 995.898559570312 998.219604492188 1006.83294677734 1008.48590087891 1000.95440673828 999.343811035156 993.93798828125 996.621459960938 990.38525390625 986.261413574219 999.050170898438 1008.83221435547 999.882751464844 1015.94775390625 1017.48779296875 1020.69342041016 1013.07495117188 1023.41137695312 1024.62292480469 1032.05212402344 1027.18627929688 1021.57989501953 1021.01379394531 1028.92810058594 1043.81127929688 1045.76147460938 1046.83093261719 1061.59204101562 1062.48388671875 1067.36987304688 1071.19665527344 1069.30590820312 1064.82458496094 1064.90551757812 1059.18383789062 1047.92443847656 1046.30432128906 1044.32727050781 1026.53405761719 1009.95825195312 1011.57440185547 1003.95642089844 989.465209960938 989.97021484375 990.582946777344 985.565856933594 978.639770507812 977.526733398438 980.474792480469 985.481018066406 985.974792480469 979.364013671875 986.410095214844 987.059814453125 979.870849609375 975.602661132812 971.499633789062 967.382995605469 970.427429199219 973.499206542969 974.584838867188 974.967895507812 966.954406738281 962.731811523438 967.521179199219 975.813659667969 986.493835449219
965.069030761719 956.192993164062 950.361877441406 950.055603027344 950.240539550781 959.0302734375 950.664672851562 945.408508300781 946.505004882812 951.323852539062 943.005676269531 946.754577636719 938.055358886719 951.171997070312 943.582580566406 947.824890136719 951.277221679688 955.271057128906 960.165161132812 964.368530273438 956.992553710938 961.2001953125 957.761535644531 958.636047363281 960.495178222656 964.17138671875 965.130920410156 961.621032714844 966.566467285156 953.151794433594 962.245971679688 965.369506835938 966.68994140625 962.62939453125 964.174743652344 974.31494140625 978.398010253906 969.804931640625 971.311645507812 970.032165527344 976.597351074219 977.492309570312 969.296752929688 971.815979003906 980.441955566406 984.545166015625 983.806823730469 981.419006347656 979.891662597656 985.153137207031 984.387145996094 990.906616210938 994.68115234375 991.1171875 984.013122558594 997.407043457031 991.598571777344 988.350708007812 998.619995117188 996.905029296875 1004.58306884766 1004.75598144531 996.999389648438 1002.25170898438 995.092224121094 997.888977050781 988.706848144531 982.030822753906 982.947021484375 982.754272460938 989.081604003906 995.957397460938 994.434753417969 1001.99938964844 1000.47216796875 989.223510742188 996.511962890625 993.696838378906 996.771911621094 994.368713378906 999.228271484375 1005.48461914062 997.053039550781 1000.04571533203 1000.88458251953 1006.78521728516 1006.43304443359 1005.36682128906 1008.81060791016 1002.91546630859 1001.62701416016 1005.52984619141 995.248901367188 999.443603515625 1003.63916015625 1017.09777832031 1020.15490722656 1013.74920654297 1018.80438232422 1017.87237548828 1017.99969482422 1021.50891113281 1019.56848144531 1028.22473144531 1024.99890136719 1025.115234375 1030.43383789062 1037.40173339844 1039.173828125 1044.3095703125 1056.29333496094 1057.76013183594 1056.39343261719 1062.3095703125 1065.13720703125 1055.83520507812 1070.58276367188 1058.60009765625 1056.68737792969 1050.556640625 1036.80041503906 1037.11059570312 1015.0302734375 1015.66662597656 1004.94940185547 1002.06799316406 997.460327148438 995.455322265625 985.56884765625 976.531311035156 976.533508300781 980.129516601562 979.325988769531 976.354919433594 971.538696289062 983.205749511719 981.118225097656 979.378295898438 967.868041992188 971.33935546875 956.803527832031 960.216979980469 966.889892578125 982.180236816406 976.302978515625 967.799377441406 967.768188476562 978.428833007812 976.873413085938 985.353149414062
957.556457519531 956.723022460938 957.206237792969 958.83154296875 958.430603027344 949.681762695312 951.644714355469 948.860778808594 940.236267089844 947.700256347656 944.530151367188 946.94091796875 942.009216308594 951.263549804688 951.812866210938 953.643798828125 945.913330078125 963.830017089844 960.82177734375 962.591674804688 964.76708984375 960.621276855469 962.867614746094 953.720031738281 955.377075195312 964.075805664062 966.270385742188 963.495178222656 959.3896484375 960.156372070312 964.501770019531 967.411865234375 972.651611328125 965.804138183594 971.722961425781 983.568237304688 979.944763183594 981.25390625 977.667785644531 968.103149414062 962.273071289062 966.809814453125 961.363952636719 974.313171386719 974.4404296875 984.145812988281 981.63330078125 973.458435058594 979.933227539062 980.133972167969 977.411193847656 980.2685546875 992.169067382812 992.285461425781 991.063903808594 997.233764648438 996.033020019531 1000.84063720703 998.678649902344 1002.37414550781 1007.05395507812 1008.94512939453 998.825988769531 998.662109375 1003.787109375 998.275573730469 992.814575195312 990.268127441406 986.120361328125 985.449035644531 992.371154785156 992.166137695312 1001.72882080078 1001.58996582031 1006.97314453125 995.433715820312 999.246337890625 1006.83197021484 1001.62738037109 1003.80731201172 998.985290527344 998.094970703125 986.973510742188 999.034973144531 1000.85974121094 1008.30603027344 1012.93206787109 1004.02185058594 1002.39569091797 1003.13592529297 1006.40808105469 1006.10900878906 997.458068847656 1003.46142578125 1012.02142333984 1009.04833984375 1013.31475830078 1021.63507080078 1021.20043945312 1021.55816650391 1016.46337890625 1017.87219238281 1023.16448974609 1020.83245849609 1024.03210449219 1030.66979980469 1027.56994628906 1035.08776855469 1047.43908691406 1050.11926269531 1056.70959472656 1054.9150390625 1054.4638671875 1053.03063964844 1057.90954589844 1056.94006347656 1064.25830078125 1059.09057617188 1051.38757324219 1048.31201171875 1043.07592773438 1034.30444335938 1026.58129882812 1023.43731689453 1011.73297119141 1015.73687744141 998.791198730469 1003.49053955078 995.706909179688 984.152587890625 983.621337890625 984.24658203125 989.093933105469 980.874877929688 977.630493164062 975.0615234375 978.41259765625 965.268249511719 961.414916992188 969.285705566406 961.533203125 953.341979980469 956.256713867188 971.946472167969 975.854614257812 972.797912597656 974.809020996094 971.763732910156 971.776916503906 979.150024414062
965.017517089844 953.966430664062 961.955627441406 964.892578125 954.040649414062 959.31298828125 948.542663574219 952.784423828125 941.696472167969 943.751037597656 947.531860351562 949.216064453125 962.557067871094 963.501770019531 964.016845703125 959.640686035156 962.336486816406 955.413757324219 967.563659667969 970.889465332031 963.984008789062 961.021850585938 956.223388671875 956.188537597656 964.713073730469 960.782531738281 958.495727539062 963.318176269531 961.462463378906 965.053405761719 969.34912109375 972.652526855469 971.966064453125 966.977600097656 978.852905273438 986.041625976562 988.394165039062 990.134643554688 975.370178222656 966.967041015625 966.819580078125 969.688720703125 970.343383789062 979.63623046875 974.660705566406 977.044067382812 982.697021484375 986.238098144531 976.943115234375 976.735473632812 981.68310546875 987.162109375 988.212219238281 989.191772460938 991.119873046875 998.6015625 1002.99847412109 1000.126953125 1006.61840820312 1012.37829589844 1003.06744384766 1003.63122558594 1003.50433349609 1000.75042724609 1002.70788574219 1000.40496826172 995.735778808594 989.108276367188 993.186950683594 992.164611816406 992.380493164062 989.709045410156 997.171752929688 995.733154296875 999.309814453125 1001.73638916016 1002.30151367188 1002.84436035156 1003.91131591797 996.923889160156 990.877380371094 995.904052734375 991.058288574219 995.464965820312 991.437255859375 996.233947753906 1012.77508544922 1012.23468017578 1016.67962646484 1012.38787841797 1012.17419433594 1005.06860351562 1012.36791992188 1009.43646240234 1007.55004882812 1016.16387939453 1016.80859375 1025.7998046875 1024.01220703125 1025.14270019531 1015.017578125 1015.22546386719 1012.47875976562 1016.58996582031 1025.85180664062 1032.99829101562 1030.27783203125 1030.50280761719 1024.81127929688 1048.4931640625 1055.50476074219 1046.51965332031 1050.11157226562 1057.30981445312 1051.798828125 1052.17663574219 1050.22497558594 1052.71911621094 1055.37023925781 1043.9794921875 1034.8828125 1035.23962402344 1029.72607421875 1032.70886230469 1027.16784667969 1022.63720703125 1017.38421630859 1005.40521240234 1002.04113769531 995.287475585938 980.220397949219 977.949035644531 988.40478515625 980.821044921875 970.798950195312 968.653564453125 973.154174804688 966.554809570312 959.105712890625 961.913208007812 965.770263671875 962.646850585938 963.966552734375 970.323852539062 974.386535644531 980.70654296875 971.575927734375 976.98291015625 963.602966308594 971.031433105469
