NCOLS 150
NROWS 37
XLLCORNER 7394249
YLLCORNER 4841999
CELLSIZE 30
NODATA_VALUE -9999
952.053833007812 954.581604003906 952.057189941406 957.778747558594 962.573120117188 961.73583984375 963.542846679688 970.757263183594 973.844116210938 971.935424804688 960.646606445312 954.747985839844 958.724731445312 950.296936035156 948.622314453125 946.303283691406 951.843872070312 963.979919433594 962.429504394531 957.391418457031 947.997009277344 943.702758789062 937.886901855469 934.063293457031 938.032409667969 935.071472167969 941.593811035156 947.541015625 951.183288574219 959.128295898438 959.439575195312 961.639770507812 951.029296875 946.351989746094 934.960632324219 939.758666992188 946.166259765625 950.269409179688 945.366821289062 953.770202636719 957.597717285156 948.321594238281 950.314331054688 944.35205078125 948.330688476562 955.458862304688 960.227966308594 952.368225097656 949.465148925781 952.520874023438 949.237182617188 946.695678710938 947.802795410156 953.213989257812 964.964172363281 962.988586425781 962.738159179688 960.772338867188 960.086486816406 965.046569824219 958.483642578125 964.474731445312 956.513793945312 952.619140625 956.395324707031 956.333190917969 967.34375 975.836791992188 968.886352539062 968.756103515625 967.098022460938 982.71337890625 980.852966308594 970.142028808594 964.613830566406 966.344116210938 959.807983398438 966.588684082031 967.445129394531 965.420043945312 966.228210449219 978.140441894531 973.786865234375 981.593383789062 979.020263671875 973.821655273438 974.834533691406 974.290893554688 974.655334472656 979.119262695312 968.319519042969 976.921020507812 977.234313964844 979.947326660156 976.334655761719 987.564086914062 986.423461914062 981.406616210938 984.988403320312 996.908264160156 999.126098632812 995.220520019531 991.973205566406 990.473449707031 988.105285644531 991.461486816406 997.301147460938 990.010192871094 988.924438476562 990.800415039062 998.351867675781 998.055480957031 1013.13885498047 1024.59545898438 1024.2021484375 1021.13952636719 1021.63891601562 1010.82586669922 1015.13366699219 1020.84539794922 1023.91522216797 1017.00946044922 1016.62658691406 1014.41754150391 1012.93341064453 1026.83837890625 1024.51086425781 1036.86755371094 1026.67639160156 1037.11938476562 1041.17919921875 1050.41271972656 1056.458984375 1058.87426757812 1063.65576171875 1054.77844238281 1051.9970703125 1040.05920410156 1042.59204101562 1030.05627441406 1031.9970703125 1035.63000488281 1029.98352050781 1021.34356689453 1020.42779541016 1015.98962402344 1021.49627685547 1018.22216796875 1019.49627685547 1029.36120605469
946.305541992188 948.516906738281 955.779174804688 953.937561035156 958.6767578125 963.164001464844 963.015258789062 963.602233886719 961.469665527344 966.963134765625 961.306823730469 951.066955566406 949.585693359375 945.359375 941.392272949219 939.207153320312 950.645568847656 953.433349609375 951.146362304688 950.412963867188 940.801391601562 944.465637207031 937.512145996094 942.316528320312 936.287048339844 936.367065429688 937.163330078125 941.956359863281 950.9384765625 958.341918945312 964.335083007812 968.434631347656 951.915588378906 947.91162109375 947.820556640625 943.072204589844 955.423156738281 953.685546875 958.777587890625 959.914489746094 957.566467285156 956.381958007812 954.403198242188 944.479553222656 948.4755859375 952.2451171875 961.385314941406 958.203002929688 960.296264648438 950.581726074219 949.826293945312 962.3427734375 951.738098144531 957.730590820312 960.682006835938 964.185241699219 963.04541015625 968.784790039062 958.296508789062 951.638244628906 964.366333007812 963.221313476562 956.503173828125 961.428466796875 953.8740234375 953.079895019531 967.888488769531 971.843933105469 980.86181640625 975.810363769531 976.055847167969 974.527526855469 980.237854003906 969.746276855469 972.635437011719 972.203247070312 965.07861328125 963.536682128906 974.302001953125 982.212280273438 978.349853515625 983.224487304688 978.407043457031 975.099670410156 976.752868652344 965.913208007812 982.148010253906 984.051635742188 981.137634277344 978.053649902344 980.769958496094 982.328430175781 978.13623046875 980.105895996094 972.926513671875 976.590881347656 974.87744140625 984.957336425781 982.714660644531 985.261352539062 988.282470703125 994.249694824219 989.384338378906 986.592163085938 981.081176757812 981.554626464844 986.858154296875 992.030395507812 992.048645019531 999.070190429688 1006.41943359375 1016.42083740234 1025.23156738281 1024.14868164062 1025.51245117188 1020.87042236328 1018.70794677734 1012.20611572266 1019.70123291016 1023.41723632812 1013.72717285156 1017.93884277344 1022.62176513672 1026.42395019531 1021.61505126953 1016.09948730469 1031.35693359375 1030.78918457031 1028.14807128906 1034.35180664062 1038.64904785156 1044.73352050781 1052.15649414062 1056.09204101562 1062.55163574219 1049.70190429688 1047.31884765625 1036.10375976562 1034.84765625 1025.03076171875 1025.34167480469 1031.79846191406 1029.66088867188 1015.46234130859 1007.67071533203 1017.57775878906 1020.13348388672 1024.16882324219 1023.11267089844 1019.95690917969
949.031494140625 951.741516113281 956.179443359375 947.275390625 951.997924804688 955.049377441406 971.690002441406 966.241027832031 958.881469726562 957.443786621094 948.994018554688 945.644653320312 944.143615722656 942.612854003906 937.045959472656 944.545349121094 948.66650390625 951.356201171875 962.813781738281 948.598388671875 953.945068359375 949.376647949219 945.784362792969 941.275939941406 945.364074707031 951.30126953125 947.4208984375 946.516052246094 949.267333984375 955.582092285156 960.472778320312 962.054321289062 960.644165039062 943.661987304688 948.137268066406 949.098999023438 947.616516113281 955.266723632812 960.006530761719 955.310180664062 954.135070800781 958.583862304688 956.032287597656 954.130249023438 947.558898925781 949.011169433594 961.078491210938 964.024841308594 961.291931152344 958.72998046875 956.150451660156 958.110046386719 963.989990234375 966.846984863281 966.3427734375 966.278686523438 968.794128417969 969.807800292969 967.269409179688 965.321960449219 962.796447753906 967.589782714844 969.355712890625 970.394104003906 958.237243652344 966.350219726562 967.110534667969 977.651550292969 981.027770996094 971.375305175781 973.5654296875 974.028930664062 964.651550292969 970.165222167969 973.230163574219 976.76513671875 973.261169433594 970.547241210938 974.8779296875 975.791137695312 976.766418457031 982.967407226562 982.173461914062 985.027709960938 983.300659179688 977.763977050781 982.87744140625 976.418884277344 976.924621582031 970.468505859375 977.042663574219 979.271545410156 968.955322265625 974.695190429688 979.938781738281 985.289489746094 982.299682617188 990.341552734375 989.899963378906 994.318725585938 992.495788574219 997.985717773438 996.361022949219 982.682006835938 992.2333984375 989.899230957031 986.264282226562 990.363708496094 996.509521484375 1008.39556884766 1015.15832519531 1016.64508056641 1011.3408203125 1026.92150878906 1024.76196289062 1019.162109375 1032.64794921875 1034.96374511719 1028.39965820312 1030.42749023438 1022.73675537109 1027.77416992188 1025.69580078125 1028.40112304688 1020.34204101562 1018.78363037109 1023.42486572266 1024.39697265625 1038.3935546875 1030.75561523438 1031.91003417969 1043.96728515625 1045.11218261719 1056.36901855469 1059.361328125 1042.49829101562 1038.02038574219 1038.62158203125 1026.50378417969 1025.47253417969 1025.00537109375 1036.07092285156 1032.44226074219 1019.70153808594 1015.88787841797 1023.23016357422 1018.80395507812 1019.7197265625 1017.72424316406 1011.88952636719
955.697082519531 949.103576660156 955.351623535156 954.769165039062 955.104858398438 951.811706542969 959.9189453125 960.087585449219 958.84423828125 949.043762207031 948.703857421875 944.065124511719 940.795715332031 939.488403320312 944.521728515625 940.88916015625 936.96728515625 943.196350097656 954.997924804688 949.902770996094 965.874267578125 961.254089355469 945.240844726562 949.131164550781 949.265930175781 949.468872070312 952.48828125 947.383056640625 957.461303710938 959.066101074219 960.272399902344 959.533752441406 952.311279296875 951.127258300781 951.240051269531 951.334045410156 944.906982421875 952.671264648438 958.2705078125 959.705688476562 960.476745605469 959.918823242188 958.279663085938 954.424438476562 968.885559082031 958.937927246094 963.068237304688 967.5556640625 968.505554199219 964.972473144531 962.709838867188 962.29833984375 972.735473632812 966.868957519531 967.93896484375 971.700866699219 971.267333984375 966.633056640625 971.38818359375 971.636840820312 964.68603515625 974.194763183594 970.620666503906 973.970275878906 978.108947753906 978.375610351562 975.738098144531 972.674743652344 969.906433105469 970.243530273438 978.692260742188 975.667358398438 966.702087402344 967.98291015625 973.811096191406 966.766296386719 972.44580078125 973.694885253906 980.665649414062 973.636535644531 975.771057128906 978.561950683594 984.152648925781 983.663024902344 982.632629394531 979.640991210938 988.115905761719 981.884094238281 976.672424316406 970.406311035156 971.24853515625 973.508239746094 975.669799804688 977.900329589844 980.476623535156 986.692504882812 990.927185058594 998.447448730469 996.754516601562 993.092956542969 997.402404785156 992.692199707031 992.920227050781 991.418518066406 989.561950683594 987.025451660156 986.603271484375 986.764282226562 993.721435546875 998.336486816406 1008.57556152344 1021.24114990234 1013.23266601562 1017.87615966797 1031.52612304688 1029.84167480469 1040.72436523438 1040.74523925781 1037.6416015625 1036.82019042969 1035.59057617188 1033.8115234375 1028.29504394531 1019.15655517578 1021.20635986328 1015.66888427734 1016.65069580078 1029.89099121094 1031.03247070312 1027.30322265625 1025.53088378906 1032.708984375 1033.61560058594 1051.33117675781 1053.55737304688 1045.06188964844 1035.55493164062 1036.57287597656 1030.431640625 1023.46221923828 1022.92700195312 1035.89184570312 1029.03771972656 1019.61456298828 1021.56591796875 1020.08380126953 1022.28216552734 1018.44427490234 1018.57104492188 1003.18524169922
957.048156738281 949.106628417969 951.145141601562 960.134704589844 960.482666015625 954.220092773438 945.846618652344 947.794250488281 944.267700195312 944.178039550781 944.737854003906 935.953247070312 943.544921875 945.518920898438 948.808715820312 945.072387695312 940.11279296875 948.713256835938 950.364013671875 948.222412109375 956.970520019531 946.541687011719 941.86279296875 946.037292480469 945.531677246094 949.821960449219 946.110717773438 944.638000488281 946.575256347656 952.205505371094 948.291625976562 954.291809082031 951.397521972656 946.139770507812 951.522155761719 950.800170898438 950.851745605469 957.173645019531 964.621520996094 959.689086914062 960.490905761719 962.303405761719 960.032348632812 958.829772949219 965.568725585938 971.080810546875 971.270690917969 974.460754394531 969.826782226562 976.063110351562 968.315307617188 973.774291992188 971.954528808594 968.938598632812 975.674987792969 963.463012695312 962.619873046875 969.091003417969 972.917724609375 976.261047363281 968.670715332031 973.932373046875 976.844055175781 979.998840332031 982.39599609375 975.602355957031 975.933715820312 976.29345703125 966.668151855469 977.878112792969 975.25341796875 975.435607910156 966.880249023438 975.350280761719 974.456909179688 980.136596679688 977.834106445312 982.579711914062 986.809265136719 980.59619140625 970.999816894531 979.510131835938 985.810302734375 986.133178710938 984.852966308594 989.676574707031 982.260070800781 982.970397949219 976.473083496094 982.080627441406 977.739624023438 971.833374023438 972.552612304688 976.738098144531 984.087524414062 979.764099121094 992.990966796875 988.201293945312 1002.44897460938 999.240844726562 998.14208984375 998.680358886719 1001.81115722656 1000.52789306641 990.080993652344 981.094543457031 990.749938964844 988.422790527344 998.596374511719 1002.2744140625 1013.86169433594 1018.73358154297 1025.01635742188 1031.08117675781 1030.8720703125 1039.22644042969 1047.29443359375 1048.03405761719 1042.34545898438 1038.80639648438 1039.08435058594 1038.96838378906 1038.37817382812 1041.966796875 1026.11511230469 1022.57904052734 1020.01226806641 1021.17669677734 1027.70068359375 1030.43615722656 1023.34008789062 1026.8828125 1027.39099121094 1031.41394042969 1032.57983398438 1039.2939453125 1033.58374023438 1037.47900390625 1034.81127929688 1019.18511962891 1030.42846679688 1025.29260253906 1027.57922363281 1017.29760742188 1010.19854736328 1011.33929443359 1017.43469238281 1012.79425048828 1016.15008544922 1000.25689697266
957.875427246094 945.790588378906 951.695373535156 945.881958007812 952.491333007812 951.691711425781 945.443969726562 948.363464355469 944.284851074219 939.809204101562 937.409423828125 938.984069824219 950.87109375 952.647399902344 944.170166015625 941.188659667969 938.208374023438 955.951965332031 953.17822265625 958.304443359375 962.644470214844 956.865539550781 942.408813476562 942.908386230469 953.468994140625 955.968017578125 943.097106933594 946.644226074219 948.734985351562 952.440490722656 950.421691894531 954.856750488281 950.845947265625 941.511169433594 953.438415527344 961.733825683594 954.272888183594 961.0849609375 961.606994628906 962.664428710938 963.315856933594 958.979614257812 964.24169921875 970.122009277344 966.769409179688 972.08544921875 978.943603515625 979.667846679688 988.061950683594 973.476135253906 985.858276367188 988.8154296875 981.518005371094 978.639526367188 968.877258300781 972.39892578125 972.719909667969 976.063110351562 973.588989257812 967.154724121094 978.202453613281 973.976379394531 974.065368652344 978.73974609375 977.663940429688 970.701782226562 969.037475585938 968.026245117188 968.004150390625 967.803649902344 967.921875 976.131408691406 975.509826660156 977.127746582031 974.62548828125 978.834838867188 977.654296875 990.534729003906 997.480590820312 978.652282714844 975.652282714844 984.008361816406 991.469116210938 992.916381835938 994.685363769531 981.794738769531 985.518859863281 972.539978027344 971.345703125 973.797790527344 970.224243164062 979.538146972656 977.215026855469 980.38427734375 988.941162109375 991.957336425781 986.553771972656 990.988708496094 993.151245117188 1002.61474609375 998.150756835938 1006.62139892578 1009.91558837891 1002.21130371094 995.106201171875 996.439880371094 998.696411132812 994.781188964844 1003.97338867188 1001.099609375 1016.4169921875 1022.67199707031 1031.75964355469 1037.94702148438 1039.41772460938 1046.37780761719 1051.45568847656 1049.18237304688 1049.0576171875 1041.15808105469 1040.60083007812 1041.92358398438 1041.59619140625 1036.98791503906 1034.78576660156 1032.68664550781 1030.11962890625 1027.16027832031 1024.8154296875 1021.94689941406 1018.72064208984 1021.22991943359 1017.38110351562 1020.75653076172 1018.81561279297 1024.19567871094 1023.64764404297 1027.63928222656 1028.17236328125 1022.40802001953 1022.91265869141 1024.29870605469 1025.00109863281 1008.43011474609 1012.58850097656 1017.90228271484 1006.69689941406 1018.23193359375 1010.06573486328 1007.81811523438
955.953491210938 953.44580078125 954.310485839844 946.796936035156 948.445678710938 945.801330566406 938.003479003906 946.836669921875 944.169677734375 937.329833984375 940.445068359375 943.394226074219 951.88623046875 946.584106445312 946.551879882812 944.996704101562 944.48193359375 963.130004882812 967.015258789062 963.946838378906 954.132568359375 957.205444335938 950.868103027344 940.640502929688 951.883544921875 957.171875 953.712524414062 951.880676269531 950.347290039062 951.261657714844 954.250244140625 948.625 948.818725585938 954.354797363281 956.348693847656 962.453430175781 956.926025390625 962.692016601562 957.534362792969 958.828735351562 967.87451171875 968.99169921875 968.06103515625 979.431884765625 974.483642578125 982.122436523438 981.550903320312 986.648254394531 989.460205078125 983.027954101562 982.5546875 986.3798828125 989.986450195312 982.605773925781 975.271728515625 978.553039550781 973.752319335938 970.042724609375 968.622375488281 961.021667480469 966.416809082031 977.269714355469 976.810546875 975.952331542969 975.242370605469 970.11962890625 968.107727050781 968.59228515625 965.694702148438 965.706176757812 973.66259765625 981.932189941406 978.158813476562 985.261108398438 987.764038085938 985.639038085938 987.255737304688 981.694396972656 985.673156738281 980.237365722656 978.666870117188 980.968322753906 985.946105957031 994.511901855469 999.118774414062 985.051025390625 983.128784179688 986.460815429688 982.464782714844 973.971801757812 979.191528320312 975.914672851562 984.035095214844 977.739868164062 997.537475585938 988.075012207031 985.278381347656 991.523193359375 1004.62445068359 1009.94500732422 1008.27667236328 1003.13861083984 1014.03820800781 1006.00811767578 992.584289550781 1003.49468994141 1001.72375488281 1000.5263671875 1004.53344726562 1002.54956054688 1013.76568603516 1022.06097412109 1025.54138183594 1034.46008300781 1041.04992675781 1041.59497070312 1049.13037109375 1053.3828125 1053.27856445312 1035.05432128906 1043.46911621094 1041.07312011719 1042.54309082031 1045.0869140625 1044.9736328125 1037.13781738281 1035.97985839844 1037.39135742188 1029.51257324219 1024.13232421875 1025.20263671875 1015.95080566406 1014.54693603516 1015.98278808594 1019.68524169922 1017.63403320312 1020.05242919922 1028.55310058594 1021.66174316406 1017.74346923828 1020.87091064453 1014.78857421875 1014.353515625 1013.41870117188 1006.44683837891 1011.28082275391 1007.78527832031 1003.31890869141 1000.09985351562 995.818054199219
952.357299804688 953.417419433594 956.12158203125 951.223266601562 943.829040527344 942.646362304688 942.604248046875 940.959045410156 933.53076171875 934.747985839844 940.940551757812 948.021301269531 950.815856933594 944.727844238281 953.811767578125 956.813110351562 960.13037109375 973.742492675781 969.650390625 966.732238769531 960.806091308594 955.866455078125 951.167785644531 946.762634277344 953.384765625 965.246215820312 958.012634277344 950.280090332031 953.979858398438 950.857666015625 954.728576660156 951.167297363281 953.833984375 961.503662109375 954.830078125 961.449096679688 952.760986328125 957.007751464844 960.6044921875 966.671142578125 981.308532714844 979.511352539062 970.479858398438 979.8671875 979.710754394531 986.280334472656 992.389709472656 991.278564453125 991.156127929688 987.524719238281 988.171752929688 983.335998535156 982.382019042969 989.315307617188 982.687744140625 967.163940429688 973.388427734375 975.159729003906 969.305114746094 967.290893554688 971.213623046875 967.891784667969 967.088806152344 971.758239746094 977.91162109375 976.731201171875 974.2236328125 972.333557128906 975.086608886719 974.698669433594 969.143432617188 976.404235839844 982.225036621094 986.77587890625 992.759582519531 988.524353027344 982.478088378906 978.30712890625 982.282958984375 984.633117675781 979.3544921875 984.767700195312 990.624450683594 994.501037597656 991.787292480469 986.475708007812 984.802429199219 988.35498046875 981.802917480469 980.37451171875 973.381530761719 974.152465820312 976.371948242188 987.583923339844 989.826904296875 986.410400390625 985.006896972656 993.411193847656 1005.16412353516 1007.04022216797 1009.232421875 1014.71417236328 1010.77032470703 1010.87084960938 1011.82257080078 1012.52801513672 1012.96441650391 1007.72003173828 1011.7119140625 1009.84283447266 1019.17742919922 1021.23883056641 1019.94915771484 1037.05749511719 1044.16589355469 1042.41076660156 1049.53955078125 1054.75463867188 1048.07946777344 1043.89978027344 1043.9267578125 1040.11254882812 1044.0576171875 1053.05407714844 1046.68420410156 1042.73327636719 1033.54406738281 1015.18670654297 1021.73620605469 1019.79656982422 1014.78393554688 1019.22186279297 1018.00115966797 1012.67022705078 1006.64288330078 1011.38842773438 1013.91302490234 1020.69195556641 1015.81622314453 1018.28082275391 1017.89886474609 1008.95404052734 1007.54400634766 1006.17498779297 1009.45196533203 1007.31256103516 1004.97149658203 998.622375488281 998.136657714844 999.128845214844
952.872131347656 952.533020019531 950.934326171875 940.567749023438 940.824462890625 946.806213378906 943.863098144531 945.706909179688 939.923034667969 933.761657714844 940.139221191406 949.912963867188 951.125915527344 955.5380859375 964.120910644531 977.120361328125 977.37060546875 974.376159667969 973.12109375 967.704040527344 964.085021972656 958.526489257812 952.395874023438 964.2841796875 959.547180175781 962.44287109375 961.040100097656 961.381225585938 955.979614257812 964.083740234375 964.131469726562 962.252746582031 966.476745605469 953.747924804688 955.998291015625 959.898193359375 958.248901367188 959.468933105469 968.625183105469 976.389221191406 985.330383300781 986.6552734375 977.225280761719 984.986694335938 986.243408203125 982.427795410156 984.843078613281 992.664794921875 989.012756347656 991.019409179688 991.475219726562 984.337646484375 982.47998046875 982.716918945312 975.2685546875 965.772338867188 969.474670410156 972.632141113281 974.356567382812 982.461486816406 976.958251953125 976.614990234375 968.801025390625 966.46826171875 969.770324707031 965.619262695312 973.434936523438 977.035827636719 978.251342773438 976.624816894531 974.180053710938 985.077026367188 980.721435546875 988.365417480469 990.910339355469 982.7978515625 985.071105957031 991.718505859375 984.879211425781 984.002502441406 987.019653320312 986.939514160156 992.842590332031 992.127685546875 988.257751464844 982.155639648438 976.698669433594 978.917724609375 989.187316894531 987.622802734375 980.501770019531 976.223083496094 981.239929199219 985.739868164062 990.174072265625 995.74267578125 997.984008789062 995.94580078125 998.887145996094 1010.34545898438 1017.44909667969 1011.994140625 1004.23229980469 1017.54895019531 1024.89782714844 1021.16320800781 1013.85455322266 1016.94244384766 1021.98681640625 1020.32257080078 1019.72241210938 1021.57580566406 1030.2646484375 1038.892578125 1039.08569335938 1040.09912109375 1045.91284179688 1048.46337890625 1048.96252441406 1034.34240722656 1038.1025390625 1039.40844726562 1037.986328125 1034.43347167969 1041.35705566406 1030.02465820312 1015.77239990234 1017.6376953125 1021.39575195312 1020.38836669922 1017.19451904297 1014.68725585938 1007.04901123047 1001.49176025391 999.574890136719 1003.27978515625 1017.20056152344 1020.7802734375 1011.48950195312 1009.25640869141 1008.38824462891 1008.12194824219 1008.53607177734 1003.72149658203 1004.29565429688 1002.7490234375 1002.43402099609 1005.27331542969 996.817749023438 994.976318359375
949.2314453125 944.562805175781 943.559936523438 942.163330078125 941.884094238281 941.782592773438 936.367858886719 941.317199707031 944.134094238281 942.904968261719 942.975158691406 947.312866210938 962.538635253906 964.192138671875 973.079650878906 982.040161132812 982.784118652344 984.05078125 982.451416015625 975.132995605469 976.657409667969 966.32568359375 964.351806640625 965.603576660156 966.119689941406 967.020324707031 963.08544921875 960.220886230469 967.346740722656 972.456848144531 974.815185546875 967.802734375 971.525146484375 954.849914550781 952.219848632812 956.541137695312 959.722778320312 967.122131347656 974.109313964844 978.55126953125 991.673217773438 988.386108398438 983.821411132812 988.444458007812 989.880737304688 992.401000976562 996.953063964844 1001.82598876953 991.609741210938 996.228759765625 991.83203125 983.687927246094 978.263366699219 985.435974121094 971.082763671875 971.260070800781 977.113342285156 972.232299804688 976.483093261719 981.385070800781 974.283142089844 983.552062988281 972.264343261719 973.914184570312 965.888732910156 965.673645019531 971.00146484375 971.551208496094 986.206420898438 986.944885253906 978.643676757812 978.898803710938 978.793273925781 984.658508300781 985.358459472656 976.785461425781 986.469604492188 994.344848632812 986.674926757812 987.178955078125 992.713562011719 993.837768554688 994.426330566406 997.967895507812 985.067932128906 975.741149902344 980.778686523438 978.875305175781 991.157287597656 979.155456542969 989.473937988281 985.156921386719 988.139099121094 981.362182617188 984.720764160156 994.911804199219 1003.9423828125 997.857727050781 1003.60101318359 1008.34057617188 1009.33557128906 1014.21423339844 1009.31298828125 1021.52746582031 1025.97680664062 1033.98291015625 1018.50708007812 1014.96899414062 1028.33850097656 1024.68225097656 1026.6494140625 1031.04321289062 1030.89978027344 1037.19653320312 1040.21520996094 1027.55346679688 1031.78796386719 1033.62487792969 1034.162109375 1030.21325683594 1031.84545898438 1038.37133789062 1033.99731445312 1032.64343261719 1033.14685058594 1025.20556640625 1013.78698730469 1018.87341308594 1019.70251464844 1017.16247558594 1005.59533691406 1018.29858398438 1006.91802978516 998.347839355469 999.464782714844 1008.32739257812 1018.4111328125 1022.16064453125 1006.86114501953 1006.02728271484 995.806396484375 1000.46716308594 1003.36694335938 995.796936035156 997.167114257812 1001.10711669922 996.564819335938 1000.32080078125 991.104919433594 993.431518554688
947.771179199219 948.597412109375 938.609802246094 937.975158691406 941.649047851562 937.747680664062 937.90087890625 942.718872070312 946.801696777344 945.906677246094 948.341918945312 953.213439941406 963.697082519531 972.983581542969 976.764526367188 984.797485351562 981.351684570312 980.268737792969 989.436645507812 994.205444335938 983.239624023438 973.899841308594 975.985961914062 974.513793945312 966.72802734375 965.830078125 971.9169921875 972.791259765625 969.3505859375 980.93603515625 980.044372558594 977.005432128906 965.531616210938 956.721557617188 959.164794921875 956.027038574219 959.936889648438 965.528625488281 978.0146484375 987.37890625 998.364318847656 990.459655761719 984.105163574219 992.196228027344 992.636779785156 999.749145507812 1000.01849365234 1008.76495361328 1010.07257080078 1002.65051269531 999.642883300781 991.560180664062 991.24169921875 985.770141601562 983.709228515625 979.942260742188 978.133361816406 977.244201660156 972.401000976562 983.87646484375 976.477783203125 979.360473632812 975.294921875 981.741577148438 974.369201660156 972.169311523438 970.217102050781 979.420471191406 983.558898925781 983.918029785156 971.999633789062 980.555297851562 987.576477050781 984.873596191406 986.023986816406 988.329528808594 994.699279785156 992.249328613281 990.294921875 995.513793945312 982.164855957031 994.654724121094 998.162780761719 1000.42138671875 995.408508300781 985.59033203125 981.826965332031 986.496765136719 992.452331542969 991.251647949219 979.215209960938 984.930847167969 993.267028808594 985.089416503906 989.8818359375 999.988647460938 1006.91644287109 999.153015136719 1007.13714599609 1011.36071777344 1014.11328125 1012.85198974609 1015.3583984375 1025.93029785156 1032.33337402344 1030.58276367188 1017.21563720703 1010.06488037109 1023.431640625 1035.23376464844 1029.35217285156 1027.20837402344 1031.58288574219 1032.12475585938 1033.67956542969 1026.66235351562 1028.75756835938 1025.80712890625 1023.64202880859 1022.60754394531 1036.09167480469 1038.40478515625 1037.43115234375 1036.70776367188 1033.720703125 1014.57006835938 1006.27844238281 1006.31890869141 1012.11529541016 1011.82019042969 997.977966308594 1001.33972167969 997.666015625 989.18115234375 991.997619628906 1004.99432373047 1007.74212646484 1009.96575927734 1005.88110351562 1003.05035400391 1001.73486328125 998.633361816406 993.918579101562 999.725891113281 1004.73822021484 998.68603515625 997.633972167969 991.827697753906 993.66259765625 1001.66442871094
949.336303710938 938.5810546875 929.978881835938 934.965209960938 941.441528320312 937.913146972656 941.141845703125 947.267883300781 947.617370605469 949.750610351562 953.268981933594 962.751098632812 975.427673339844 977.508972167969 973.902465820312 981.332092285156 974.851440429688 985.091064453125 998.924499511719 1009.30413818359 1000.30340576172 986.466369628906 987.11767578125 982.05322265625 979.120544433594 974.529235839844 975.175720214844 976.600280761719 972.053344726562 974.565734863281 968.889831542969 966.981323242188 973.520935058594 971.28369140625 973.798828125 970.474060058594 963.365356445312 973.733642578125 979.3212890625 998.884582519531 995.770812988281 985.652648925781 986.454284667969 994.779724121094 994.695983886719 995.741149902344 1009.40112304688 1006.33575439453 1011.11114501953 1011.82385253906 1000.42663574219 992.258850097656 992.720825195312 984.799682617188 990.214294433594 979.468688964844 976.541564941406 974.285522460938 979.737426757812 989.967712402344 987.725463867188 974.908996582031 975.299865722656 973.160522460938 971.231384277344 973.351135253906 977.423034667969 980.37548828125 984.771423339844 978.230041503906 979.490112304688 986.845275878906 981.286560058594 985.508117675781 985.508422851562 991.189331054688 998.966064453125 998.26904296875 995.930297851562 993.237609863281 992.421020507812 988.993957519531 996.417663574219 996.452514648438 994.523132324219 991.299743652344 984.462585449219 991.960144042969 985.832397460938 987.835388183594 977.853698730469 983.730407714844 989.040954589844 986.847106933594 992.70361328125 996.531982421875 997.764099121094 1009.23431396484 1006.10064697266 1011.65057373047 1012.17846679688 1020.57183837891 1008.34802246094 1013.40484619141 1019.41430664062 1022.77136230469 1020.29052734375 1022.12872314453 1031.31225585938 1039.99694824219 1033.64038085938 1032.22802734375 1028.87841796875 1031.3857421875 1020.12231445312 1022.06848144531 1023.54235839844 1021.11535644531 1019.5087890625 1020.03851318359 1027.97192382812 1034.04943847656 1031.11364746094 1025.50952148438 1026.05224609375 1017.80395507812 1010.98254394531 1002.27978515625 1012.76385498047 1001.45861816406 1005.27478027344 1005.39929199219 1002.64056396484 995.459655761719 991.830139160156 1011.71063232422 1001.26818847656 1005.55560302734 1007.71252441406 1011.27160644531 997.744689941406 994.21484375 993.734191894531 995.768798828125 992.067749023438 989.425354003906 989.293884277344 990.653564453125 992.515380859375 1003.2529296875
955.302795410156 939.544494628906 929.190185546875 935.317565917969 937.090515136719 943.983337402344 937.46875 950.546630859375 953.010070800781 946.058776855469 957.405456542969 965.306579589844 974.694213867188 971.442016601562 983.95654296875 981.120239257812 982.758544921875 987.721374511719 1001.18054199219 1009.17315673828 1006.85437011719 990.178161621094 986.583374023438 975.089538574219 979.552368164062 976.454956054688 972.065979003906 977.417846679688 972.908874511719 968.833129882812 971.735229492188 977.761108398438 976.373107910156 975.850891113281 974.699829101562 974.546691894531 971.217895507812 964.683959960938 974.170288085938 995.257263183594 1003.03479003906 1006.71795654297 1002.71130371094 1001.79681396484 993.169982910156 999.106323242188 1005.93811035156 1013.29724121094 1016.59729003906 1006.33050537109 999.59716796875 999.7099609375 1000.11437988281 989.751403808594 989.730407714844 986.098449707031 975.239929199219 972.67138671875 982.838256835938 996.607666015625 979.609375 975.033630371094 976.407348632812 965.87451171875 969.868347167969 980.226867675781 984.186828613281 988.127197265625 991.794738769531 985.400573730469 986.324768066406 985.206237792969 978.822265625 988.03759765625 991.565124511719 997.425415039062 1007.23596191406 1005.19299316406 1000.34912109375 1002.53192138672 995.9150390625 994.773071289062 990.768188476562 997.37890625 990.113098144531 996.243041992188 986.252990722656 983.984497070312 993.578674316406 989.290344238281 981.537658691406 979.342651367188 980.218933105469 986.699401855469 985.322265625 986.899719238281 994.566955566406 1003.65191650391 1008.3212890625 1005.97802734375 1013.56176757812 1020.0068359375 1011.06719970703 1007.12139892578 1010.35510253906 1019.77844238281 1020.91271972656 1026.72045898438 1037.52612304688 1037.68518066406 1036.44384765625 1031.55932617188 1028.24169921875 1034.77270507812 1023.49426269531 1022.04406738281 1020.54406738281 1014.50152587891 1016.78424072266 1016.09307861328 1025.02490234375 1021.32696533203 1022.49877929688 1020.23315429688 1026.0029296875 1018.47009277344 1013.13525390625 1013.15869140625 1005.11273193359 1001.11077880859 1012.73651123047 1009.20043945312 1009.92169189453 998.454406738281 1013.42321777344 1012.42584228516 1010.08862304688 1007.8544921875 1009.39935302734 1005.50805664062 1002.66058349609 991.263977050781 987.019958496094 992.238525390625 988.4296875 989.059509277344 993.872375488281 987.725891113281 991.581787109375 1008.40270996094
948.393310546875 943.043579101562 935.875793457031 942.694641113281 933.078308105469 938.916137695312 943.463073730469 946.26611328125 954.0771484375 949.769897460938 957.227355957031 962.587585449219 966.734252929688 967.955688476562 979.623291015625 983.86181640625 989.723754882812 990.946228027344 1008.77880859375 1001.61163330078 993.449951171875 987.54296875 992.120239257812 983.924255371094 986.526123046875 979.993041992188 974.167114257812 978.192260742188 975.803344726562 979.036437988281 968.338684082031 977.787048339844 978.052917480469 979.967102050781 986.775329589844 971.861267089844 970.261596679688 976.375427246094 981.163635253906 995.1025390625 997.603454589844 1006.45428466797 1011.42376708984 1007.87268066406 1004.30700683594 1002.85870361328 1010.80847167969 1013.82086181641 1001.25170898438 999.368041992188 999.947021484375 998.80078125 990.0693359375 992.369384765625 980.873474121094 978.969421386719 973.88720703125 983.611450195312 984.370361328125 989.850463867188 983.339782714844 980.846862792969 978.832580566406 972.917663574219 972.997253417969 977.971313476562 984.055358886719 981.352172851562 976.570739746094 982.053344726562 985.083435058594 992.611572265625 989.000915527344 995.427795410156 998.197448730469 997.837219238281 1010.87377929688 1003.44439697266 1005.47985839844 1002.77709960938 996.814331054688 996.007751464844 1001.53356933594 999.0380859375 995.950805664062 991.172668457031 992.466003417969 988.280944824219 989.212829589844 989.841857910156 985.667053222656 975.698913574219 988.817199707031 984.165588378906 990.053466796875 990.027709960938 995.349304199219 998.686645507812 1003.24151611328 1008.8837890625 1009.43572998047 1005.85333251953 1006.89111328125 1008.63983154297 1005.08123779297 1016.50689697266 1023.66284179688 1031.56958007812 1036.36279296875 1036.45678710938 1034.74353027344 1026.71789550781 1023.67803955078 1031.35278320312 1032.68859863281 1033.03662109375 1025.98291015625 1009.81195068359 1013.03851318359 1010.22967529297 1021.71264648438 1019.04443359375 1023.58459472656 1019.80908203125 1018.13262939453 1018.59033203125 1022.42456054688 1019.88616943359 1000.33856201172 1006.27581787109 1015.95611572266 1008.13720703125 1004.57800292969 1012.62872314453 1003.93731689453 1003.75689697266 1017.15972900391 1008.62316894531 1010.81634521484 1013.83843994141 995.919311523438 988.585815429688 989.668579101562 987.78564453125 988.757507324219 978.410339355469 976.426330566406 983.744689941406 988.633483886719 996.073364257812
948.517272949219 932.8427734375 930.25244140625 935.364318847656 934.9453125 935.909729003906 937.693969726562 947.002685546875 949.260314941406 946.290710449219 955.528503417969 961.254577636719 965.77294921875 972.984008789062 972.731262207031 981.284423828125 988.577087402344 988.595092773438 998.907409667969 997.870727539062 1001.69696044922 991.26513671875 996.934753417969 991.87744140625 985.758972167969 977.783386230469 982.536437988281 971.074768066406 972.993103027344 970.5830078125 983.692443847656 982.696533203125 983.443481445312 975.052856445312 977.532409667969 983.828308105469 978.5537109375 975.980590820312 986.658325195312 997.4404296875 997.582092285156 1006.86114501953 1011.58770751953 1009.53527832031 1012.36499023438 1011.73693847656 1015.927734375 1015.91082763672 1005.83453369141 1001.005859375 996.43798828125 991.433776855469 985.258850097656 988.666381835938 987.862121582031 986.077270507812 979.873962402344 980.24462890625 988.112121582031 981.908142089844 980.597961425781 977.457092285156 974.487915039062 973.123596191406 962.193969726562 979.945251464844 986.806091308594 986.984497070312 975.798645019531 977.733154296875 981.051513671875 987.501342773438 993.832092285156 996.424560546875 996.339965820312 991.565795898438 1000.80926513672 1001.46850585938 1001.06762695312 1002.33233642578 993.082946777344 1002.63983154297 1007.21978759766 1000.96490478516 987.282775878906 1000.40484619141 999.136169433594 1000.96099853516 993.409790039062 985.772155761719 984.377868652344 984.223571777344 987.57666015625 989.163818359375 987.521179199219 998.080932617188 998.289123535156 989.754516601562 1006.66906738281 1002.73345947266 1005.16876220703 1014.52777099609 1002.61346435547 997.96044921875 1008.56927490234 1009.33978271484 1013.30505371094 1022.6953125 1020.49645996094 1027.92590332031 1028.26062011719 1032.21508789062 1035.61376953125 1033.89538574219 1030.27600097656 1029.30432128906 1025.44494628906 1019.03967285156 1008.86199951172 1013.20941162109 1017.68310546875 1020.56140136719 1011.57165527344 1012.23352050781 1013.12847900391 1007.87933349609 1013.12463378906 1013.80981445312 1003.22937011719 1004.25671386719 1012.05041503906 1010.51513671875 1004.47015380859 1007.18542480469 1000.35699462891 998.806274414062 1007.34185791016 1010.05603027344 1003.18334960938 1000.29760742188 993.867980957031 980.231872558594 982.832275390625 989.617980957031 984.397155761719 986.298767089844 978.250061035156 985.047729492188 992.70068359375 999.313598632812
938.620544433594 928.425598144531 922.818298339844 924.391784667969 930.873657226562 940.436096191406 935.729370117188 943.784057617188 947.63525390625 954.349975585938 952.692199707031 962.121643066406 963.334045410156 975.930053710938 970.335693359375 967.940307617188 981.135070800781 971.609375 981.961303710938 996.380615234375 990.360656738281 992.751159667969 992.079895019531 985.414184570312 983.686706542969 973.96728515625 982.893859863281 982.067016601562 976.545349121094 982.080993652344 981.748291015625 981.759155273438 982.881530761719 983.066955566406 988.40771484375 980.790893554688 976.459838867188 976.90673828125 988.645751953125 988.448181152344 1000.72436523438 997.321716308594 1006.84252929688 1008.26416015625 1007.43328857422 1007.00848388672 1008.89080810547 1011.26647949219 1002.67724609375 1006.91314697266 1003.99407958984 994.034362792969 984.897888183594 986.18115234375 977.895568847656 979.43212890625 974.301452636719 978.532897949219 977.824279785156 982.207641601562 974.465576171875 974.049011230469 973.621643066406 970.178833007812 962.357116699219 975.614318847656 980.509704589844 977.314880371094 971.92236328125 980.709533691406 984.288391113281 983.974304199219 1005.23870849609 996.623657226562 994.532775878906 998.354858398438 998.394897460938 994.310974121094 1003.63366699219 1004.42321777344 1009.67761230469 1004.30249023438 1003.77734375 996.579040527344 992.818481445312 997.826599121094 992.574096679688 998.346618652344 986.765319824219 990.54248046875 991.221496582031 983.8447265625 985.707580566406 990.893432617188 990.972473144531 990.391479492188 999.547058105469 998.58349609375 1000.48809814453 1001.67407226562 1009.43432617188 1016.90924072266 1001.64770507812 993.74755859375 1003.57470703125 1007.34136962891 1010.48205566406 1019.18334960938 1014.24713134766 1023.65930175781 1031.49938964844 1035.68408203125 1039.54748535156 1036.75085449219 1034.23486328125 1043.36779785156 1040.23596191406 1025.29016113281 1021.50640869141 1020.08087158203 1021.55242919922 1014.52886962891 1014.14154052734 1016.83166503906 1016.80737304688 1006.46997070312 1001.43908691406 999.475830078125 1000.86889648438 995.455322265625 1008.10198974609 1003.78234863281 1000.53002929688 1000.19964599609 1004.30218505859 997.019836425781 1001.00659179688 997.490783691406 992.876403808594 991.65869140625 984.594970703125 981.242431640625 981.276672363281 985.087341308594 981.238098144531 981.370788574219 983.755432128906 980.740173339844 994.790893554688 989.723022460938
942.175354003906 930.87841796875 927.73876953125 925.7490234375 934.634521484375 946.483581542969 942.665649414062 944.620300292969 940.382446289062 951.657897949219 962.647277832031 968.11767578125 966.733581542969 981.887939453125 974.031555175781 971.926940917969 977.644775390625 974.007385253906 985.11181640625 990.036010742188 979.62255859375 986.539001464844 980.5556640625 981.842834472656 978.083129882812 972.744750976562 983.651733398438 984.410949707031 981.678405761719 982.137023925781 984.216918945312 983.351501464844 984.684020996094 982.486633300781 987.659851074219 983.770629882812 991.000244140625 987.21875 980.781127929688 994.854553222656 996.9443359375 1000.79223632812 1006.78326416016 1008.87976074219 1003.63488769531 1006.41040039062 1004.16333007812 1007.17590332031 1003.26812744141 1007.93432617188 1011.99829101562 1004.00805664062 998.070861816406 990.608642578125 988.8896484375 988.77490234375 979.557861328125 983.9580078125 981.317749023438 984.456237792969 985.304809570312 981.957336425781 977.948425292969 978.317016601562 974.910217285156 969.317138671875 980.756591796875 982.190185546875 980.063171386719 984.316711425781 986.731140136719 982.195861816406 995.916259765625 1002.29992675781 994.335632324219 998.371337890625 998.5107421875 997.223449707031 997.220703125 1001.45617675781 1004.61981201172 1008.74853515625 1002.86016845703 1011.07879638672 1006.91650390625 1005.15844726562 994.102355957031 997.880676269531 996.879150390625 997.516174316406 998.668884277344 985.612243652344 985.080749511719 983.182556152344 985.443115234375 991.488952636719 995.823364257812 1004.84533691406 1001.40759277344 1000.80609130859 1008.34167480469 1010.12603759766 1007.07672119141 999.323974609375 1001.59613037109 1005.52252197266 1011.26190185547 1006.71893310547 1018.47406005859 1029.01721191406 1027.83190917969 1030.00024414062 1032.14587402344 1026.47216796875 1039.8193359375 1038.72839355469 1037.28271484375 1037.80639648438 1023.80773925781 1027.53564453125 1024.5712890625 1020.53387451172 1017.10473632812 1014.67303466797 1010.703125 1004.64630126953 997.215698242188 1000.57537841797 1005.21044921875 990.919189453125 997.377868652344 999.192443847656 1004.3935546875 1006.55151367188 996.360900878906 1000.42102050781 1002.15740966797 996.92822265625 992.356140136719 988.874877929688 992.547424316406 983.116638183594 984.711853027344 991.145568847656 988.638732910156 982.647094726562 986.411437988281 991.313110351562 997.981628417969 999.875671386719
943.812683105469 940.291564941406 935.137634277344 935.603271484375 936.853942871094 939.239074707031 942.146301269531 941.396057128906 942.250244140625 948.833129882812 963.630859375 967.4169921875 969.225219726562 974.287963867188 976.117309570312 981.317504882812 972.745056152344 977.473693847656 981.674438476562 981.163452148438 985.334289550781 993.384948730469 976.883056640625 979.96728515625 984.669860839844 988.001953125 987.769714355469 979.125 976.620300292969 984.468994140625 980.330322265625 988.275817871094 983.339294433594 985.359191894531 983.764221191406 995.029907226562 992.744689941406 987.300659179688 982.790710449219 994.69677734375 1001.39385986328 1006.84527587891 1002.37109375 996.598571777344 998.063110351562 996.98046875 1002.18243408203 1004.09228515625 1001.42596435547 1003.72186279297 1010.22937011719 1009.90716552734 998.646728515625 1004.35815429688 990.18603515625 988.30615234375 985.300598144531 999.253356933594 992.600646972656 986.817077636719 984.497253417969 991.382263183594 974.46240234375 977.483093261719 974.399719238281 973.073608398438 977.177673339844 975.400024414062 979.864440917969 976.000610351562 979.3681640625 985.838134765625 993.115356445312 994.641723632812 997.05615234375 988.598388671875 987.136108398438 990.741882324219 1000.19476318359 1000.41650390625 997.884704589844 995.662353515625 1010.13427734375 1006.24829101562 1011.69641113281 1006.66094970703 1001.56915283203 998.355590820312 991.187072753906 996.805236816406 993.418395996094 984.126586914062 977.513977050781 982.227661132812 980.593627929688 986.756713867188 997.100524902344 1004.70239257812 1005.69952392578 999.437377929688 1003.22705078125 1013.85296630859 1012.77655029297 1002.37902832031 1002.94482421875 1007.30517578125 1013.78405761719 1012.77117919922 1013.50421142578 1023.77954101562 1031.48254394531 1035.94519042969 1027.08862304688 1035.90014648438 1042.58874511719 1042.49560546875 1039.07958984375 1035.39379882812 1036.75317382812 1033.23083496094 1034.17565917969 1027.47412109375 1012.81036376953 1017.61395263672 1010.43365478516 1007.5859375 1001.64538574219 1009.05084228516 998.865478515625 996.41162109375 989.73876953125 994.411193847656 990.631164550781 992.277099609375 996.088623046875 999.888610839844 1003.97570800781 996.680236816406 993.268127441406 984.178344726562 982.138916015625 984.286682128906 986.002136230469 988.818908691406 985.074890136719 971.724365234375 979.559143066406 994.595031738281 994.401550292969 991.39697265625
959.933837890625 951.459350585938 948.708618164062 938.444702148438 933.225280761719 945.354614257812 942.279968261719 948.532958984375 948.803588867188 952.666076660156 962.866333007812 963.179626464844 965.95068359375 968.490417480469 974.583740234375 972.189636230469 972.541442871094 973.136474609375 969.32568359375 973.8662109375 977.021362304688 978.069030761719 979.569702148438 988.148742675781 993.78759765625 992.606079101562 988.347351074219 984.450012207031 983.316711425781 984.029113769531 986.786376953125 990.531311035156 986.567932128906 984.273559570312 986.547424316406 1001.70288085938 990.943054199219 987.034606933594 988.024291992188 992.226379394531 995.086059570312 999.367736816406 993.487182617188 998.249633789062 999.874877929688 998.667297363281 989.766845703125 997.703063964844 996.891723632812 997.048461914062 1007.30047607422 1001.83996582031 1003.005859375 994.939086914062 989.988159179688 985.02587890625 992.865600585938 996.888977050781 989.088684082031 982.7177734375 986.963623046875 984.687927246094 978.841552734375 974.993530273438 972.999145507812 969.546569824219 978.975524902344 977.269409179688 978.654968261719 976.005126953125 979.476440429688 994.515075683594 993.586303710938 992.03955078125 984.008666992188 984.916381835938 982.940551757812 994.159118652344 999.441711425781 997.210693359375 999.864318847656 1009.37438964844 1009.61431884766 1004.81561279297 1010.23107910156 1004.27740478516 1003.52923583984 1002.22210693359 993.471923828125 991.533386230469 997.783569335938 984.448669433594 983.7568359375 994.364074707031 984.581481933594 996.975036621094 997.237182617188 996.533081054688 1001.43566894531 992.872253417969 1009.57696533203 1006.76837158203 1009.38977050781 1003.9384765625 998.903503417969 1004.49731445312 1011.87841796875 1011.00915527344 1012.42700195312 1014.95227050781 1027.41455078125 1029.94445800781 1029.68713378906 1037.91259765625 1046.65441894531 1041.12036132812 1041.78564453125 1038.36535644531 1025.7392578125 1037.66076660156 1039.03051757812 1025.36389160156 1021.98858642578 1024.5986328125 1001.73101806641 1003.22222900391 995.111206054688 997.486145019531 1001.20172119141 991.439331054688 978.502075195312 980.603149414062 977.401672363281 986.466125488281 988.8818359375 993.962768554688 998.11572265625 997.100463867188 981.273132324219 969.977294921875 975.758117675781 984.947265625 991.452514648438 986.344482421875 985.286926269531 970.198791503906 978.817138671875 980.411254882812 984.385314941406 980.002685546875
954.725341796875 958.815185546875 950.555908203125 943.773315429688 943.942993164062 941.340576171875 943.606262207031 953.341125488281 954.672302246094 957.550964355469 964.031799316406 965.443420410156 976.827392578125 973.529113769531 973.501953125 970.549255371094 971.498352050781 961.404541015625 963.668701171875 966.866760253906 964.433532714844 975.828735351562 974.655944824219 983.070861816406 983.556884765625 996.009216308594 987.799682617188 980.925354003906 992.207641601562 975.112915039062 983.54638671875 988.210571289062 977.110046386719 980.505920410156 979.856018066406 983.187255859375 986.226196289062 990.220886230469 988.235534667969 991.372680664062 994.184509277344 992.0322265625 998.655151367188 994.490112304688 989.274963378906 993.819946289062 997.904235839844 990.333312988281 992.6376953125 993.530395507812 1003.82330322266 997.184875488281 994.530578613281 990.3193359375 990.089050292969 985.792724609375 992.6826171875 989.488464355469 988.564208984375 979.314819335938 980.984130859375 982.949462890625 981.244689941406 973.531616210938 977.390563964844 971.269592285156 977.232666015625 976.891296386719 988.662780761719 982.73681640625 992.24853515625 989.446655273438 987.061950683594 984.390625 981.154174804688 992.342834472656 989.335754394531 998.375793457031 1000.7587890625 1005.21496582031 1008.56402587891 1008.89373779297 1009.92047119141 1006.41815185547 1007.40869140625 1010.46374511719 1000.82623291016 995.022094726562 987.662719726562 993.507019042969 993.983764648438 991.457824707031 997.575134277344 988.259033203125 993.341064453125 1001.24468994141 994.88134765625 998.945007324219 990.597290039062 994.137634277344 1003.68463134766 997.555725097656 1002.18145751953 1003.35064697266 998.108154296875 1009.04010009766 1011.63824462891 1022.09985351562 1018.76245117188 1024.96875 1018.87152099609 1026.85949707031 1033.47570800781 1043.96704101562 1047.35266113281 1046.11267089844 1040.5859375 1043.90075683594 1042.70092773438 1037.86352539062 1034.82019042969 1022.07965087891 1019.25543212891 1020.37774658203 1001.19860839844 998.033813476562 987.159790039062 985.726379394531 986.053894042969 986.196411132812 977.514099121094 980.495483398438 982.579772949219 993.315979003906 988.939697265625 988.819763183594 995.618347167969 999.320861816406 987.333801269531 973.801635742188 981.525756835938 993.313354492188 991.318481445312 985.229919433594 985.359252929688 979.545043945312 973.676208496094 981.010437011719 984.503479003906 978.3681640625
959.072998046875 960.516967773438 945.542175292969 946.304260253906 945.04541015625 949.014831542969 943.165161132812 950.667907714844 960.175109863281 962.291809082031 963.059814453125 968.455444335938 966.874328613281 966.740356445312 968.983459472656 970.921203613281 974.174987792969 966.981384277344 962.982543945312 961.124084472656 949.085266113281 957.406494140625 964.428894042969 970.981018066406 969.430419921875 980.606201171875 971.164733886719 982.038818359375 986.045471191406 977.925598144531 980.10498046875 985.614318847656 973.664428710938 977.690124511719 980.600524902344 977.880920410156 982.479919433594 979.170471191406 979.857727050781 985.248168945312 989.575622558594 990.646789550781 997.22021484375 994.636596679688 981.86865234375 983.816528320312 991.341674804688 986.656982421875 985.65576171875 993.171813964844 1000.84729003906 998.841613769531 994.323364257812 986.028564453125 981.583923339844 977.79345703125 985.732116699219 990.21240234375 991.418151855469 978.925109863281 984.000854492188 978.605346679688 980.881652832031 982.004821777344 977.41796875 983.129821777344 981.962463378906 973.401794433594 978.6943359375 984.159423828125 995.207092285156 994.593017578125 987.152099609375 984.732604980469 974.353454589844 984.194885253906 989.763244628906 999.578125 1009.75939941406 1001.46539306641 1006.56915283203 1004.17517089844 1006.82690429688 1005.36962890625 997.360229492188 989.672607421875 989.970947265625 994.917602539062 994.705200195312 988.834777832031 993.817565917969 991.3720703125 993.418029785156 993.059448242188 989.125549316406 999.491577148438 1000.33612060547 994.454406738281 994.608337402344 999.963745117188 993.563537597656 1002.1630859375 995.436584472656 1001.63317871094 1004.56280517578 1006.10443115234 1011.83862304688 1022.25170898438 1022.51812744141 1026.794921875 1029.64965820312 1028.76135253906 1038.67602539062 1038.9658203125 1048.7998046875 1043.3486328125 1054.59497070312 1049.80065917969 1048.66723632812 1047.05358886719 1038.1953125 1021.84484863281 1022.58819580078 1006.56225585938 992.945861816406 978.835510253906 977.521850585938 980.8232421875 977.985473632812 984.673400878906 988.790954589844 991.26513671875 995.67919921875 996.228149414062 991.474182128906 995.40869140625 991.319213867188 991.296020507812 988.100280761719 981.655151367188 990.206176757812 990.802490234375 985.008056640625 981.449951171875 976.231201171875 978.532836914062 979.156677246094 976.981201171875 984.300231933594 978.619445800781
963.010986328125 961.63720703125 955.528015136719 946.171020507812 950.536682128906 941.840881347656 940.606140136719 951.244445800781 955.851501464844 966.478820800781 965.221740722656 967.553771972656 956.6982421875 954.665222167969 968.202087402344 973.005554199219 966.939880371094 954.05615234375 952.403747558594 950.509399414062 937.630737304688 950.464416503906 954.8779296875 959.94970703125 962.751770019531 958.999389648438 963.223022460938 980.120971679688 969.357299804688 965.035217285156 963.554748535156 978.740905761719 978.208984375 977.840698242188 973.114196777344 972.311096191406 973.393432617188 970.686462402344 985.333557128906 989.672607421875 989.48876953125 991.939453125 989.16748046875 989.462036132812 980.809936523438 983.623718261719 989.317016601562 985.195678710938 983.690307617188 985.852294921875 1002.83843994141 998.797546386719 991.480285644531 978.46923828125 980.342468261719 978.940979003906 983.06787109375 984.850830078125 989.281982421875 994.747680664062 996.644897460938 995.947204589844 984.704162597656 986.555969238281 977.985961914062 977.904602050781 987.455139160156 981.39599609375 983.49951171875 985.941650390625 993.686584472656 998.005920410156 990.112243652344 991.189758300781 982.124450683594 982.605712890625 986.351623535156 1001.49792480469 1007.45782470703 1008.43786621094 1005.93988037109 1000.45935058594 993.49951171875 998.161254882812 1004.638671875 998.52392578125 991.873901367188 997.34423828125 994.924438476562 996.69970703125 1002.31420898438 1000.09167480469 999.600769042969 1000.50793457031 997.35498046875 1000.53393554688 1006.79791259766 995.7275390625 1005.37786865234 1007.46148681641 1004.57476806641 1001.28552246094 1000.40899658203 1009.45733642578 1019.30444335938 1025.02331542969 1024.39965820312 1029.45812988281 1035.65979003906 1038.98278808594 1040.4833984375 1038.53271484375 1040.25524902344 1046.10986328125 1053.02880859375 1060.99377441406 1059.15539550781 1048.47863769531 1053.60083007812 1046.37854003906 1042.83374023438 1030.24755859375 1013.84649658203 1003.11096191406 995.788391113281 981.624755859375 978.966552734375 971.434020996094 983.415100097656 978.027160644531 989.091247558594 996.16162109375 990.914306640625 995.409240722656 984.279113769531 986.351989746094 993.217163085938 983.280334472656 975.688049316406 979.004760742188 979.841735839844 984.702270507812 976.979431152344 979.991027832031 966.550659179688 974.855407714844 977.376770019531 981.137634277344 983.315856933594 990.376708984375
958.899291992188 954.989990234375 953.12353515625 937.139343261719 935.748962402344 941.51806640625 941.247009277344 948.66455078125 949.355224609375 953.99951171875 964.940246582031 964.758178710938 957.207336425781 960.798217773438 958.179016113281 956.712097167969 960.735534667969 950.549255371094 945.002624511719 944.277526855469 943.376342773438 950.071350097656 952.195495605469 954.723754882812 954.146667480469 946.591003417969 966.334716796875 967.124084472656 967.076171875 970.690185546875 962.4833984375 967.497741699219 973.473205566406 971.189880371094 974.396545410156 979.7822265625 970.81982421875 965.738586425781 970.459594726562 992.944213867188 989.551635742188 987.223571777344 987.846069335938 987.290649414062 987.493103027344 978.472595214844 984.189758300781 976.521850585938 983.825988769531 982.374633789062 1000.20056152344 1001.62371826172 991.616882324219 986.654724121094 989.503479003906 975.996459960938 987.640319824219 987.02197265625 993.613159179688 989.481262207031 996.421264648438 989.726623535156 999.135009765625 987.621276855469 983.155639648438 983.195129394531 989.595642089844 987.103393554688 989.396301269531 986.483581542969 985.571594238281 989.684143066406 987.84814453125 995.457092285156 986.916748046875 985.587646484375 992.826721191406 1000.17846679688 1000.28179931641 1004.81488037109 1005.01336669922 1001.26489257812 1005.90893554688 1003.22241210938 1006.13677978516 1006.57482910156 998.252807617188 998.285278320312 995.91162109375 1002.61578369141 999.831420898438 1005.94885253906 1004.494140625 1007.46099853516 1005.00250244141 1011.67547607422 1006.02124023438 1001.70074462891 1000.54663085938 1013.02337646484 1000.85113525391 996.066528320312 1001.32604980469 1011.99066162109 1016.12744140625 1030.91174316406 1029.67504882812 1044.64379882812 1038.09643554688 1035.25939941406 1052.38232421875 1050.94580078125 1048.87512207031 1053.4541015625 1053.39392089844 1056.0361328125 1055.42260742188 1055.4970703125 1051.26025390625 1043.033203125 1027.46704101562 1025.88623046875 1014.27575683594 999.572448730469 1001.16192626953 990.277770996094 981.292175292969 972.925354003906 976.542175292969 984.064453125 976.322998046875 991.74462890625 997.478515625 987.066650390625 982.903076171875 986.59033203125 989.653076171875 985.102172851562 971.038269042969 978.585083007812 978.967468261719 972.719848632812 970.432495117188 972.868347167969 973.861022949219 966.92529296875 963.756286621094 982.987854003906 982.54638671875 992.958557128906
958.736938476562 955.20654296875 944.611450195312 946.275573730469 938.314819335938 942.430603027344 945.291687011719 945.707641601562 951.649108886719 956.326416015625 955.343872070312 956.190795898438 951.310791015625 953.210144042969 958.800476074219 956.978271484375 949.910522460938 949.087036132812 947.788513183594 953.807495117188 949.581665039062 954.675476074219 953.895202636719 950.374816894531 957.7802734375 958.341186523438 963.877868652344 969.057922363281 965.413330078125 964.843627929688 968.771362304688 967.878723144531 967.701843261719 970.453063964844 976.99853515625 977.766784667969 970.084594726562 963.132507324219 966.173706054688 974.519775390625 981.345825195312 981.522521972656 984.7392578125 985.943481445312 990.643981933594 984.152526855469 986.964172363281 984.068664550781 990.240600585938 991.236938476562 997.908447265625 999.736389160156 992.735778808594 989.466735839844 987.031555175781 989.915588378906 998.411010742188 982.783630371094 990.053100585938 989.575256347656 987.9970703125 999.617858886719 998.185546875 996.515319824219 987.170104980469 991.525329589844 988.406860351562 992.870788574219 985.900634765625 983.890808105469 990.566223144531 985.009765625 987.765258789062 993.888610839844 993.910034179688 995.115966796875 987.680908203125 989.673889160156 993.657531738281 1004.39324951172 1006.22906494141 1000.60119628906 1003.76287841797 1000.62481689453 1004.16101074219 1005.94122314453 1001.61700439453 1002.16595458984 998.455993652344 1000.31787109375 998.457397460938 995.809875488281 1004.02758789062 1002.51916503906 1009.10845947266 1011.86169433594 1009.87725830078 1006.23620605469 1003.90704345703 1005.49603271484 1000.69165039062 1004.03039550781 1005.53955078125 1016.39904785156 1011.83862304688 1027.06359863281 1031.78088378906 1042.45788574219 1048.45959472656 1044.29821777344 1056.07946777344 1052.80224609375 1057.10632324219 1058.3828125 1059.29614257812 1059.66186523438 1058.39135742188 1065.81591796875 1052.63220214844 1043.5927734375 1032.05810546875 1016.08551025391 1013.97283935547 1005.23120117188 1006.53747558594 993.542053222656 980.075805664062 976.457824707031 978.730590820312 981.440673828125 983.204956054688 986.453918457031 988.700378417969 989.298645019531 976.414672851562 983.507385253906 973.996643066406 978.434509277344 969.930114746094 979.235473632812 973.557556152344 968.669189453125 968.701416015625 969.408813476562 972.7451171875 967.51904296875 965.828918457031 972.147827148438 986.549438476562 989.632690429688
959.37158203125 960.647583007812 953.152404785156 960.99267578125 962.332153320312 954.27880859375 949.607055664062 935.765686035156 941.27294921875 950.89404296875 949.160339355469 942.424194335938 947.705627441406 950.647583007812 948.752868652344 952.008056640625 947.6669921875 958.115234375 955.439270019531 963.801391601562 961.406799316406 944.4580078125 948.539306640625 954.363647460938 959.754760742188 957.293334960938 962.503662109375 949.1552734375 951.293395996094 965.129943847656 963.466552734375 961.204406738281 963.300048828125 966.541137695312 970.450805664062 974.537902832031 970.717529296875 962.915405273438 966.419982910156 972.447875976562 974.020629882812 981.283630371094 978.856323242188 981.153442382812 990.646850585938 995.197631835938 993.940368652344 990.766357421875 987.357971191406 990.357788085938 994.393249511719 999.514221191406 996.847961425781 990.590026855469 993.131408691406 996.728881835938 999.016723632812 986.86962890625 987.142761230469 983.387084960938 983.479614257812 993.042724609375 997.478576660156 997.330017089844 996.557800292969 1002.76605224609 994.626342773438 991.379760742188 990.104248046875 989.349548339844 993.826782226562 991.458801269531 992.395751953125 997.438537597656 990.382019042969 1002.75958251953 994.499267578125 986.906433105469 988.190002441406 997.74853515625 995.08837890625 990.274108886719 993.209350585938 995.115417480469 1008.53259277344 1004.97790527344 1010.38165283203 1007.20855712891 1005.10778808594 1008.10485839844 1011.89361572266 1008.04974365234 1008.03137207031 1007.67797851562 1003.42163085938 1013.27209472656 1018.88824462891 1015.234375 1014.53930664062 1005.45959472656 1016.55780029297 1017.00848388672 1021.96820068359 1021.48034667969 1019.41094970703 1030.4345703125 1027.36950683594 1029.52453613281 1035.2841796875 1051.51696777344 1049.90612792969 1059.37780761719 1052.08190917969 1064.81591796875 1063.78100585938 1060.96643066406 1062.29406738281 1059.30529785156 1054.99951171875 1049.61303710938 1038.57495117188 1023.66479492188 1013.39636230469 1006.24468994141 1002.13885498047 995.203430175781 991.927673339844 980.643310546875 982.2822265625 986.149169921875 987.066101074219 985.951416015625 979.200073242188 973.140563964844 966.500732421875 978.408081054688 979.926147460938 973.8759765625 973.986999511719 981.44384765625 972.102172851562 964.78564453125 971.928955078125 963.106567382812 966.751037597656 961.836791992188 965.099426269531 977.879089355469 983.029663085938 986.040466308594
957.260681152344 963.915161132812 970.204345703125 970.410461425781 971.061340332031 961.753051757812 952.277648925781 953.154907226562 949.477233886719 951.142028808594 939.628723144531 943.993225097656 946.865539550781 949.933349609375 948.527221679688 954.512878417969 951.269348144531 956.475463867188 951.995300292969 964.174621582031 957.070678710938 945.151733398438 952.872131347656 958.337280273438 959.495666503906 964.941101074219 963.768493652344 954.581848144531 953.657165527344 959.47314453125 963.322387695312 961.617370605469 961.959838867188 964.910461425781 963.764953613281 972.651672363281 966.265258789062 960.2626953125 966.476501464844 969.468627929688 975.568054199219 976.181091308594 975.620056152344 981.438232421875 992.8408203125 986.741271972656 987.356872558594 986.103576660156 985.897888183594 991.534057617188 996.699401855469 1003.08325195312 1002.22998046875 1001.11187744141 994.687866210938 1000.02331542969 994.549072265625 998.1103515625 986.394897460938 991.15576171875 988.062377929688 990.413696289062 991.94482421875 999.450866699219 996.477722167969 998.222351074219 992.638671875 987.435974121094 991.171081542969 990.523681640625 992.421691894531 995.458679199219 993.824401855469 994.89208984375 997.867980957031 1002.724609375 998.888671875 994.156799316406 989.661010742188 988.8564453125 992.317565917969 989.436279296875 985.369445800781 989.915893554688 998.257934570312 1011.11755371094 1012.25549316406 1011.61999511719 1011.72131347656 1015.39849853516 1009.84252929688 1008.6142578125 1007.90875244141 1005.83544921875 1003.47808837891 1009.44561767578 1010.83758544922 1013.82635498047 1021.30047607422 1020.86181640625 1021.16479492188 1021.97344970703 1025.06457519531 1029.80981445312 1029.16662597656 1041.37622070312 1034.13366699219 1029.27136230469 1042.20678710938 1052.06579589844 1054.51123046875 1044.12939453125 1056.72314453125 1065.00048828125 1057.04675292969 1061.15319824219 1056.25073242188 1056.92980957031 1055.47619628906 1050.00671386719 1044.07092285156 1030.1611328125 1027.02697753906 1020.57427978516 1009.04272460938 1005.00048828125 998.429870605469 989.884948730469 980.359741210938 992.422790527344 990.80810546875 988.332397460938 979.326721191406 970.309631347656 969.183532714844 973.829711914062 979.275817871094 967.996887207031 970.568237304688 968.969543457031 960.115661621094 962.737426757812 969.276184082031 970.781616210938 977.07373046875 975.511047363281 971.395629882812 974.65087890625 971.758972167969 976.707580566406
950.178344726562 957.016967773438 971.067016601562 970.725036621094 964.435363769531 967.675415039062 964.722045898438 953.950378417969 954.504943847656 941.003662109375 940.689086914062 943.374877929688 946.907287597656 946.056335449219 946.865600585938 950.098510742188 948.920288085938 947.485717773438 948.778015136719 954.714233398438 940.445190429688 947.971923828125 955.861022949219 960.843872070312 963.962158203125 966.910217285156 962.491271972656 960.292602539062 953.10107421875 963.978149414062 971.319885253906 960.24560546875 967.282531738281 968.619506835938 962.382446289062 957.315246582031 960.589721679688 963.005615234375 974.484191894531 972.247192382812 974.98095703125 970.538024902344 973.322326660156 975.645812988281 985.7568359375 983.07958984375 990.846008300781 968.523742675781 975.868835449219 985.341796875 991.888549804688 1002.40686035156 1007.65216064453 1007.76385498047 994.411193847656 993.365661621094 1004.00518798828 1002.89099121094 1008.05627441406 997.008544921875 994.894348144531 997.665344238281 992.954833984375 1002.53100585938 997.062622070312 992.836975097656 995.446533203125 988.965881347656 995.152465820312 998.732177734375 997.868041992188 994.437866210938 997.146484375 992.898315429688 998.408386230469 999.032104492188 1000.93023681641 1001.93756103516 991.872680664062 988.454284667969 991.816223144531 995.062133789062 987.295837402344 992.059204101562 998.813171386719 999.759826660156 1008.30847167969 1008.92810058594 1012.83581542969 1016.62408447266 1010.24725341797 1015.95404052734 1011.92431640625 1007.73358154297 1005.29205322266 1007.16296386719 1018.70275878906 1023.43469238281 1020.09814453125 1014.35205078125 1019.09222412109 1019.18737792969 1026.55517578125 1023.23602294922 1026.30517578125 1030.34838867188 1035.24157714844 1031.29858398438 1039.77319335938 1044.49597167969 1053.45275878906 1056.17358398438 1068.85510253906 1066.40307617188 1061.73205566406 1059.92993164062 1050.98901367188 1059.82312011719 1051.13647460938 1049.013671875 1049.61560058594 1037.76025390625 1030.11987304688 1027.00134277344 1016.56524658203 1013.52313232422 1000.15930175781 998.055053710938 993.449279785156 991.086486816406 991.268249511719 982.621948242188 978.825012207031 978.728515625 970.712585449219 973.601135253906 969.988159179688 971.42236328125 963.640563964844 952.5810546875 954.818786621094 964.593017578125 971.624755859375 973.807495117188 980.394592285156 979.25048828125 971.271240234375 970.190612792969 970.831176757812 964.56982421875
958.781188964844 960.221374511719 969.811157226562 972.60107421875 974.533020019531 963.517211914062 965.094482421875 952.918334960938 949.679504394531 944.798828125 947.193969726562 946.261535644531 946.742248535156 950.459777832031 943.477966308594 948.349792480469 949.93603515625 954.753234863281 950.92041015625 947.520202636719 936.629821777344 953.135437011719 951.448913574219 966.171447753906 970.178466796875 965.871765136719 968.714721679688 973.520385742188 961.368469238281 966.265441894531 968.604797363281 969.311462402344 974.266296386719 974.338989257812 965.750854492188 960.053039550781 965.292907714844 970.500183105469 975.854248046875 980.676513671875 973.896606445312 972.533081054688 969.548950195312 964.2724609375 973.196655273438 975.498779296875 983.893493652344 970.8125 971.983032226562 987.016967773438 989.447631835938 1004.33361816406 998.954711914062 1007.00250244141 1004.65032958984 1005.47918701172 1007.37615966797 1006.07464599609 1017.845703125 1009.7001953125 1004.13586425781 1001.75311279297 1001.79638671875 998.614013671875 1002.29870605469 999.631896972656 995.837768554688 997.18505859375 1003.81359863281 992.007202148438 993.891662597656 996.318725585938 996.7578125 995.988647460938 991.373779296875 996.809509277344 1004.71490478516 999.188842773438 998.922302246094 995.611328125 992.802124023438 994.880065917969 990.223449707031 993.523071289062 990.568359375 993.650756835938 998.157653808594 1015.07537841797 1015.09851074219 1015.8203125 1012.46868896484 1014.33544921875 1015.95288085938 1015.06085205078 1006.30224609375 1016.62786865234 1016.88928222656 1018.29327392578 1015.55786132812 1013.4208984375 1011.79223632812 1015.060546875 1021.39764404297 1017.40423583984 1032.66479492188 1031.43640136719 1030.12561035156 1032.55163574219 1035.27905273438 1044.09460449219 1052.46557617188 1064.58239746094 1064.2109375 1065.03552246094 1066.416015625 1052.61853027344 1058.86560058594 1052.16967773438 1047.82983398438 1045.59130859375 1044.54638671875 1037.00830078125 1031.33618164062 1025.25744628906 1018.71398925781 1014.67175292969 998.46728515625 999.518493652344 1001.00811767578 991.658569335938 994.680358886719 973.804077148438 971.450622558594 973.12841796875 974.457763671875 969.468322753906 971.020263671875 976.669677734375 970.565063476562 956.112243652344 955.578674316406 959.577941894531 965.412109375 972.809265136719 981.225646972656 978.912963867188 977.066589355469 970.941040039062 967.00048828125 964.20068359375
961.404907226562 963.848693847656 974.565368652344 973.563232421875 973.359680175781 962.236145019531 958.3212890625 950.790588378906 954.460266113281 944.649536132812 947.512756347656 945.140930175781 960.531616210938 956.69482421875 946.517944335938 956.225830078125 960.263244628906 962.456604003906 964.397644042969 950.096008300781 953.971801757812 960.284790039062 962.073425292969 960.713439941406 966.046630859375 973.974670410156 976.008056640625 967.370971679688 957.928161621094 963.005493164062 973.401245117188 962.760864257812 970.476013183594 968.700561523438 973.201904296875 963.915954589844 975.564575195312 977.359619140625 979.011291503906 974.740173339844 974.291381835938 968.0478515625 973.94677734375 966.548461914062 969.968994140625 973.118530273438 978.348083496094 976.88134765625 973.980529785156 980.051147460938 992.935791015625 1001.10894775391 1007.48284912109 1012.91912841797 1014.70092773438 1018.61248779297 1011.15887451172 1005.65789794922 1007.22314453125 1008.06237792969 1010.3701171875 1010.33703613281 1004.22735595703 1004.81439208984 1001.25213623047 998.10791015625 1004.83081054688 1003.84130859375 1001.19122314453 997.649108886719 996.295837402344 994.792053222656 998.783935546875 994.784851074219 998.000061035156 993.145446777344 1006.23907470703 999.748840332031 998.778381347656 1000.31658935547 996.649658203125 996.407531738281 998.374877929688 1004.34033203125 1003.15289306641 995.758422851562 1008.82543945312 1009.01940917969 1014.02252197266 1009.31848144531 1010.27728271484 1009.4658203125 1021.02880859375 1015.18072509766 1014.69445800781 1016.08392333984 1019.12121582031 1018.35382080078 1025.36853027344 1020.49743652344 1015.27691650391 1016.35626220703 1015.58001708984 1025.85339355469 1021.46441650391 1027.98291015625 1029.54797363281 1033.56372070312 1033.8212890625 1036.89794921875 1048.97583007812 1054.50903320312 1060.52221679688 1062.49645996094 1062.15307617188 1054.78186035156 1048.41369628906 1051.29772949219 1046.12646484375 1044.75170898438 1035.36474609375 1029.60766601562 1034.92907714844 1034.97961425781 1021.57189941406 1011.20922851562 1011.40948486328 1002.44873046875 992.86865234375 993.779541015625 994.080688476562 975.78173828125 978.448486328125 978.205627441406 975.852172851562 972.702087402344 976.135559082031 981.048583984375 977.833312988281 965.364013671875 955.939697265625 951.939453125 957.461181640625 972.098327636719 973.521667480469 969.960815429688 967.112060546875 966.273254394531 959.452209472656 958.891967773438
965.932189941406 963.203002929688 971.12255859375 971.4775390625 965.17724609375 957.597412109375 952.803771972656 950.137817382812 943.708129882812 939.836975097656 937.849182128906 945.38134765625 964.042114257812 960.68310546875 965.988708496094 966.226440429688 961.325073242188 960.848754882812 959.995971679688 960.888244628906 963.563110351562 961.036499023438 957.555236816406 958.530578613281 962.259460449219 969.217956542969 966.647094726562 970.758422851562 965.471435546875 964.930541992188 967.399841308594 957.706787109375 968.489501953125 962.838684082031 971.261535644531 966.010559082031 971.064025878906 977.371154785156 973.959533691406 970.10986328125 974.820434570312 970.874389648438 974.708618164062 974.725219726562 968.282043457031 973.337097167969 976.287475585938 978.015075683594 988.429992675781 988.174255371094 990.245361328125 995.259643554688 1004.93682861328 1009.32153320312 1008.24310302734 1013.99743652344 1014.72589111328 1006.00286865234 1013.89300537109 1013.0439453125 1014.06744384766 1018.64141845703 1004.85693359375 1011.47406005859 1005.87152099609 1013.46173095703 1011.25457763672 1005.73681640625 1000.34948730469 994.9765625 1000.99365234375 998.316345214844 998.686584472656 995.601257324219 999.643432617188 992.096069335938 1000.03472900391 1001.95642089844 995.905700683594 994.713317871094 999.583068847656 999.675903320312 999.466796875 1005.81195068359 1005.24444580078 1011.03112792969 1013.85412597656 1005.21856689453 1006.83190917969 1006.82739257812 1012.25653076172 1006.39898681641 1010.50482177734 1017.08941650391 1015.29974365234 1018.10437011719 1023.17346191406 1026.64367675781 1023.92047119141 1024.65051269531 1018.21722412109 1014.80889892578 1025.77465820312 1029.13757324219 1027.84362792969 1025.95642089844 1035.10961914062 1035.15600585938 1041.40893554688 1036.81713867188 1044.48510742188 1049.80090332031 1055.05798339844 1053.76538085938 1056.48657226562 1048.6640625 1049.99768066406 1054.18737792969 1051.72912597656 1051.85632324219 1051.77697753906 1046.998046875 1038.92590332031 1035.7919921875 1026.96215820312 1014.41851806641 1004.30578613281 990.766845703125 989.665100097656 998.610900878906 989.180114746094 985.333801269531 980.591430664062 972.739501953125 962.311706542969 971.242309570312 972.358215332031 975.194274902344 976.364990234375 962.269226074219 947.972595214844 945.287048339844 960.131713867188 965.6337890625 969.298889160156 969.146789550781 961.623229980469 966.561279296875 963.094482421875 955.933898925781
956.551696777344 968.943237304688 969.858703613281 971.225280761719 963.428588867188 957.925903320312 958.597290039062 953.787353515625 942.944641113281 948.335571289062 940.826049804688 947.875671386719 964.362609863281 974.797302246094 969.9501953125 974.522094726562 969.129089355469 963.843566894531 962.105651855469 964.883422851562 958.133117675781 961.170104980469 960.779663085938 958.744934082031 963.6240234375 961.304382324219 959.040771484375 961.26806640625 966.130126953125 972.147644042969 958.874328613281 971.029052734375 965.435241699219 966.353942871094 974.562194824219 964.606872558594 967.617614746094 976.411682128906 973.220520019531 976.554138183594 972.81884765625 973.033325195312 970.152404785156 971.663208007812 971.6572265625 972.792419433594 982.676696777344 982.231872558594 986.543884277344 985.74072265625 990.638366699219 983.047180175781 998.852966308594 1007.62835693359 1005 1008.28833007812 1016.97027587891 1007.50207519531 1014.38775634766 1019.05047607422 1019.43859863281 1015.24987792969 1018.88360595703 1006.1240234375 1010.29083251953 1010.69812011719 1008.32104492188 1000.99114990234 997.561950683594 998.577087402344 1002.01745605469 1003.15594482422 1005.73803710938 1008.96984863281 1004.59893798828 1003.89227294922 999.248168945312 994.096374511719 995.294738769531 1002.83703613281 999.958801269531 1003.77935791016 1000.16674804688 1007.06262207031 1004.14978027344 1003.10498046875 1014.07458496094 1001.90032958984 1002.97143554688 1003.96002197266 1004.708984375 1003.93682861328 1006.83331298828 1017.06469726562 1017.87371826172 1025.35473632812 1023.93646240234 1025.11682128906 1023.82043457031 1027.65710449219 1013.86157226562 1013.96563720703 1034.49157714844 1037.81872558594 1028.63671875 1030.56628417969 1029.57153320312 1025.35632324219 1038.85107421875 1041.12573242188 1039.85424804688 1045.55139160156 1056.48010253906 1046.625 1043.72961425781 1038.38928222656 1045.34729003906 1047.25463867188 1056.77026367188 1056.60986328125 1050.52282714844 1043.63537597656 1042.73864746094 1037.49951171875 1029.57287597656 1019.77978515625 1005.73089599609 1000.09765625 994.185241699219 988.208312988281 986.908935546875 981.677001953125 973.526672363281 967.756896972656 965.691650390625 969.207580566406 968.021850585938 967.595092773438 973.443237304688 966.5869140625 951.710510253906 952.344787597656 953.858093261719 952.163940429688 953.457580566406 960.798034667969 956.840454101562 967.584838867188 964.8583984375 956.229919433594
956.477172851562 963.263610839844 966.156677246094 972.558044433594 967.684020996094 955.106201171875 957.513488769531 949.246826171875 943.846313476562 942.618896484375 952.393432617188 950.903198242188 962.081665039062 969.353149414062 974.008605957031 974.62060546875 971.807922363281 969.87451171875 968.494567871094 972.794616699219 962.141967773438 962.259643554688 966.080505371094 966.321411132812 968.365783691406 964.016662597656 958.622009277344 964.020446777344 969.646118164062 975.822631835938 967.515869140625 969.13623046875 957.979553222656 965.137817382812 966.540588378906 965.952941894531 965.090393066406 973.265502929688 967.222717285156 974.085021972656 978.419738769531 981.185180664062 969.597473144531 972.391967773438 964.098937988281 976.103637695312 975.271423339844 977.796508789062 981.96435546875 990.784912109375 983.198059082031 991.728820800781 1004.38208007812 1004.16668701172 1005.16986083984 1016.27081298828 1017.21441650391 1016.64337158203 1013.07501220703 1011.48187255859 1023.92791748047 1017.77282714844 1016.74761962891 1016.30303955078 1015.03302001953 1015.92065429688 1007.16467285156 1004.41857910156 1007.99438476562 1001.15325927734 1003.28448486328 1000.90301513672 1000.40008544922 1016.57220458984 1015.44885253906 1002.05267333984 997.265258789062 1001.39764404297 1007.60852050781 1002.17694091797 999.712707519531 997.023986816406 1003.38226318359 999.859619140625 1001.63507080078 1002.43463134766 1002.89404296875 998.88232421875 1005.46240234375 1010.31286621094 1009.52746582031 1008.73406982422 1009.30145263672 1028.29321289062 1017.02215576172 1026.20642089844 1029.90551757812 1035.06164550781 1037.52685546875 1036.18347167969 1032.080078125 1032.94360351562 1026.52270507812 1031.17150878906 1027.00854492188 1026.33020019531 1039.37451171875 1036.93798828125 1030.05053710938 1032.58776855469 1038.66638183594 1043.07299804688 1045.04943847656 1039.97106933594 1042.76745605469 1041.11218261719 1038.94604492188 1047.95922851562 1051.80688476562 1044.84594726562 1050.98913574219 1045.48596191406 1045.1396484375 1040.20434570312 1035.80285644531 1016.93859863281 1013.02569580078 1003.54864501953 995.320068359375 990.361999511719 989.348327636719 976.992858886719 966.102172851562 973.180480957031 973.731384277344 964.156555175781 967.670288085938 961.36767578125 972.545227050781 958.570922851562 954.018432617188 949.283020019531 953.965881347656 958.205932617188 956.849609375 959.447875976562 959.605529785156 959.911865234375 961.151428222656 964.193176269531
953.435607910156 951.626831054688 950.480773925781 950.955749511719 958.736450195312 952.175964355469 944.783142089844 950.7255859375 946.305786132812 945.351379394531 944.833312988281 954.492126464844 954.969543457031 959.807067871094 971.664611816406 976.208129882812 976.265869140625 973.168762207031 967.908874511719 977.620849609375 976.11865234375 967.69091796875 967.698364257812 966.306335449219 974.902587890625 970.870178222656 975.203002929688 975.493225097656 969.511413574219 972.278503417969 976.916076660156 965.309936523438 958.558227539062 961.017761230469 964.654418945312 961.109619140625 966.031066894531 967.899841308594 964.101745605469 975.3623046875 985.621643066406 981.349609375 987.890502929688 981.199890136719 973.877319335938 978.764892578125 968.329162597656 967.773376464844 971.397521972656 972.540588378906 974.296203613281 990.072448730469 989.720947265625 1002.16558837891 1006.30932617188 1018.18243408203 1021.14001464844 1020.16674804688 1021.61572265625 1020.74273681641 1029.62646484375 1021.17864990234 1017.39392089844 1018.07397460938 1010.92132568359 1017.70928955078 1014.25024414062 1011.77752685547 1017.74401855469 1014.48199462891 1009.2265625 1001.24462890625 999.816162109375 1009.27746582031 1012.18676757812 1005.73120117188 999.132995605469 1008.52642822266 1001.72399902344 993.491088867188 997.816650390625 1000.37683105469 1009.00811767578 1004.83337402344 998.557006835938 1000.32073974609 996.520568847656 1000.36456298828 1011.48779296875 1011.4482421875 1018.15014648438 1022.08190917969 1022.65783691406 1026.27258300781 1020.45324707031 1030.724609375 1032.82446289062 1043.70690917969 1044.46569824219 1040.98071289062 1037.59484863281 1037.87939453125 1033.51428222656 1026.59826660156 1028.23376464844 1024.32971191406 1018.42858886719 1029.78063964844 1030.35302734375 1016.02496337891 1023.78521728516 1030.79638671875 1036.17321777344 1034.55358886719 1030.34606933594 1043.88696289062 1041.48425292969 1039.81176757812 1038.62475585938 1036.18444824219 1039.23876953125 1040.71325683594 1043.76257324219 1039.30700683594 1031.22692871094 1012.39324951172 1009.96423339844 1005.08673095703 997.392822265625 985.77392578125 985.341064453125 976.716918945312 964.027160644531 967.365600585938 968.677124023438 959.142333984375 963.138854980469 964.90869140625 967.866760253906 962.764221191406 956.303344726562 950.390563964844 958.119750976562 957.877380371094 956.528503417969 960.511840820312 963.903869628906 951.694702148438 954.398742675781 954.674987792969
953.772094726562 958.034423828125 951.744873046875 939.9443359375 948.515930175781 947.096862792969 948.669982910156 954.042724609375 951.55615234375 951.30615234375 941.315734863281 956.232238769531 959.43017578125 962.903686523438 965.292053222656 976.78955078125 987.522705078125 974.351867675781 973.9423828125 972.333190917969 980.513732910156 970.4658203125 970.2158203125 967.291259765625 977.212951660156 973.60009765625 975.283569335938 976.239990234375 980.843078613281 974.796508789062 975.667297363281 971.072692871094 969.437683105469 963.508239746094 963.77685546875 964.940307617188 968.287658691406 972.340942382812 976.251403808594 977.533020019531 987.686462402344 981.675415039062 980.227111816406 977.39501953125 976.121948242188 972.448425292969 969.828552246094 971.359741210938 958.202453613281 965.94482421875 969.357177734375 985.714599609375 991.291564941406 996.980895996094 995.942199707031 1008.05688476562 1010.373046875 1018.14599609375 1021.69299316406 1021.86376953125 1024.94128417969 1024.12646484375 1018.47100830078 1011.13891601562 1016.44549560547 1023.49273681641 1012.36480712891 1024.07373046875 1017.9521484375 1015.66253662109 1018.34197998047 1008.70642089844 1009.80230712891 1014.53063964844 1016.10571289062 1006.45623779297 1013.36431884766 995.71728515625 991.523620605469 996.248229980469 1002.30480957031 1008.53424072266 1013.79626464844 1007.66424560547 1001.97955322266 998.570373535156 998.521728515625 1009.69403076172 1003.29644775391 1011.61700439453 1014.23553466797 1020.72052001953 1021.07476806641 1022.10229492188 1031.31237792969 1035.34716796875 1034.53234863281 1039.52221679688 1037.89794921875 1038.82678222656 1047.35363769531 1039.62463378906 1033.81945800781 1028.61865234375 1019.94543457031 1025.60217285156 1025.44445800781 1024.44458007812 1032.97998046875 1021.10662841797 1024.42163085938 1030.11376953125 1023.85675048828 1033.63671875 1032.04895019531 1044.00354003906 1041.82177734375 1039.0078125 1028.23986816406 1033.67138671875 1031.31042480469 1027.75122070312 1034.6181640625 1031.49877929688 1017.28753662109 1007.38220214844 1001.69647216797 998.743896484375 996.498596191406 979.872985839844 977.369934082031 981.546936035156 967.142761230469 969.939697265625 962.378173828125 968.06982421875 965.724182128906 965.768920898438 968.66162109375 965.5087890625 962.962036132812 957.82958984375 965.036315917969 959.861206054688 955.509521484375 948.48876953125 957.253173828125 951.80126953125 956.564636230469 960.798400878906
953.242736816406 955.309448242188 947.161987304688 948.401672363281 943.535461425781 940.087585449219 941.738342285156 945.414184570312 959.511169433594 952.441528320312 959.983825683594 963.356872558594 958.467407226562 963.536254882812 971.341613769531 969.159729003906 985.4736328125 976.623352050781 975.290954589844 976.627990722656 983.546630859375 979.295593261719 979.265563964844 975.093444824219 974.086059570312 976.084289550781 977.202941894531 977.371887207031 982.854370117188 989.771484375 982.490905761719 973.572814941406 972.80615234375 966.176879882812 958.671203613281 965.062561035156 970.255310058594 971.059631347656 972.671142578125 977.816467285156 976.93115234375 973.769287109375 975.503479003906 978.265808105469 976.323120117188 981.318786621094 978.380004882812 976.204956054688 977.942260742188 968.75341796875 980.01904296875 987.953979492188 999.633605957031 993.288635253906 987.500610351562 995.35986328125 1011.06256103516 1010.41955566406 1026.19604492188 1027.53369140625 1029.822265625 1024.95166015625 1021.13403320312 1021.66809082031 1022.27423095703 1021.56494140625 1024.26342773438 1026.10473632812 1022.03753662109 1029.44970703125 1024.86389160156 1015.55194091797 1014.62438964844 1012.94207763672 1010.06610107422 1009.36541748047 1003.81579589844 990.608520507812 992.074951171875 993.087707519531 999.741516113281 999.505920410156 1004.56280517578 1004.53942871094 1011.71002197266 1006.18664550781 1001.95172119141 1002.90539550781 1013.75421142578 1017.24243164062 1023.68536376953 1012.51300048828 1012.85302734375 1033.50402832031 1033.74291992188 1036.12744140625 1038.52355957031 1046.658203125 1048.169921875 1040.14013671875 1034.39819335938 1030.36975097656 1031.3876953125 1021.93542480469 1020.25439453125 1023.29479980469 1026.52038574219 1027.87292480469 1026.16052246094 1027.12268066406 1029.38134765625 1026.63098144531 1024.29260253906 1025.76745605469 1032.09057617188 1041.68273925781 1041.5810546875 1034.36474609375 1029.63488769531 1030.59094238281 1029.00769042969 1030.44201660156 1023.98577880859 1014.84588623047 1006.60266113281 1002.57513427734 997.499450683594 997.204406738281 983.849975585938 977.83642578125 982.619445800781 977.114685058594 971.471740722656 967.862670898438 960.979553222656 965.10888671875 960.385559082031 956.421997070312 963.732482910156 962.004638671875 959.024597167969 963.262084960938 962.21240234375 961.692077636719 950.882019042969 949.90625 956.687438964844 951.739135742188 952.541259765625 955.981323242188
955.220947265625 951.427612304688 944.134460449219 952.592651367188 941.406799316406 932.447204589844 948.046936035156 948.684875488281 955.000671386719 950.820373535156 972.083068847656 962.592468261719 975.180297851562 977.235717773438 981.706604003906 974.200622558594 979.327575683594 976.515930175781 976.925659179688 974.045104980469 978.584533691406 974.267028808594 984.988586425781 979.852172851562 983.092712402344 983.672424316406 987.594360351562 984.133972167969 990.740539550781 998.855102539062 993.21435546875 982.704284667969 980.915283203125 975.694091796875 966.892578125 972.160461425781 981.142456054688 978.918273925781 981.168395996094 974.425231933594 980.721801757812 973.274719238281 977.573120117188 987.685729980469 976.563903808594 974.510314941406 980.358215332031 988.752197265625 984.469299316406 984.556762695312 981.624328613281 979.482299804688 993.869018554688 992.326782226562 991.967163085938 1000.18218994141 1006.57244873047 1015.05822753906 1028.5556640625 1032.39978027344 1031.64721679688 1036.18249511719 1023.27423095703 1023.33624267578 1017.76727294922 1023.04669189453 1032.73962402344 1029.74719238281 1026.62805175781 1029.04223632812 1023.38385009766 1024.07775878906 1016.08502197266 1015.53363037109 1006.49114990234 1000.75738525391 997.708129882812 993.853881835938 1004.73919677734 998.886474609375 1000.01348876953 996.461975097656 997.5283203125 1007.60040283203 1003.37927246094 998.421630859375 1006.68969726562 1013.05645751953 1012.65747070312 1016.3203125 1021.73791503906 1010.57391357422 1026.14379882812 1030.67749023438 1032.09204101562 1036.94323730469 1038.24279785156 1041.74853515625 1044.375 1034.28393554688 1033.53002929688 1032.26306152344 1024.07934570312 1017.14190673828 1010.05444335938 1011.41046142578 1023.63641357422 1021.26861572266 1027.18920898438 1025.45239257812 1021.65325927734 1023.59857177734 1028.49963378906 1036.16259765625 1034.86804199219 1036.01135253906 1030.99499511719 1028.83044433594 1024.01513671875 1029.2822265625 1019.76690673828 1022.58422851562 1011.43005371094 1008.82537841797 1001.88977050781 995.354553222656 1000.71929931641 988.514831542969 977.50830078125 974.3740234375 978.587890625 969.271545410156 972.305725097656 967.507202148438 974.306701660156 962.551208496094 958.217102050781 965.502502441406 958.610656738281 964.562133789062 954.156799316406 954.917724609375 952.589416503906 956.551879882812 948.650634765625 945.773010253906 946.004333496094 940.942199707031 942.754150390625 965.910217285156
951.641479492188 955.370544433594 957.021728515625 949.709411621094 945.575378417969 940.869506835938 947.517333984375 950.074951171875 949.330261230469 953.825744628906 957.365661621094 971.435119628906 973.097900390625 978.895812988281 982.615112304688 980.74609375 983.694030761719 978.832763671875 979.999389648438 978.86279296875 972.479125976562 979.061096191406 980.412902832031 986.202758789062 988.81787109375 981.034973144531 983.428466796875 989.935546875 992.561340332031 991.948425292969 989.0478515625 981.49462890625 990.132507324219 975.569946289062 970.904174804688 979.279846191406 978.067626953125 985.106567382812 985.285217285156 979.16552734375 977.981201171875 969.872680664062 978.076782226562 983.331237792969 979.006896972656 979.163146972656 988.508056640625 985.166320800781 988.722717285156 990.759460449219 988.861145019531 985.823364257812 987.584167480469 987.998229980469 999.2197265625 1006.3203125 1011.73565673828 1013.53186035156 1022.89831542969 1022.65155029297 1030.57312011719 1032.66357421875 1031.58850097656 1017.84747314453 1013.19757080078 1019.85882568359 1020.58117675781 1021.13568115234 1027.55554199219 1032.025390625 1021.20513916016 1023.59716796875 1011.32202148438 1005.91510009766 1005.40740966797 1005.00415039062 1009.38677978516 1001.49877929688 996.559509277344 994.692138671875 994.721618652344 1002.14263916016 1007.92681884766 1006.22351074219 1007.21154785156 1000.4287109375 1010.61669921875 1007.92401123047 1011.197265625 1016.72491455078 1010.14306640625 1016.90710449219 1021.59466552734 1016.83972167969 1019.76599121094 1035.69067382812 1041.35900878906 1049.10070800781 1044.07104492188 1041.98693847656 1040.60131835938 1036.48815917969 1019.65441894531 1012.70617675781 1020.49780273438 1022.54650878906 1023.40734863281 1023.91271972656 1025.7451171875 1018.76513671875 1025.02783203125 1021.77990722656 1028.15014648438 1026.84167480469 1028.56750488281 1029.99304199219 1020.30242919922 1033.2724609375 1023.18695068359 1034.52526855469 1020.43627929688 1019.43792724609 1014.66436767578 1007.25677490234 1007.87969970703 1000.47692871094 993.923156738281 984.517700195312 982.536437988281 970.899780273438 977.1396484375 974.798583984375 970.511779785156 968.150817871094 965.124084472656 958.466064453125 956.480285644531 963.193115234375 962.171813964844 957.921997070312 956.360778808594 952.692321777344 952.353515625 952.385803222656 947.793212890625 951.87890625 942.74951171875 940.630004882812 941.744873046875 957.451538085938
