NCOLS 150
NROWS 37
XLLCORNER 7394249
YLLCORNER 4843139
CELLSIZE 30
NODATA_VALUE -9999
948.488525390625 936.624816894531 931.790588378906 939.713439941406 951.164123535156 954.841918945312 955.3056640625 947.641662597656 947.681091308594 954.663879394531 966.39111328125 963.530456542969 964.890258789062 977.164367675781 977.257080078125 969.350036621094 971.230773925781 974.601440429688 972.415161132812 973.523193359375 974.102478027344 974.624633789062 982.938415527344 989.481567382812 992.544921875 992.972961425781 994.480834960938 1004.80352783203 993.90283203125 989.146911621094 1005.90826416016 996.174560546875 1003.31878662109 1009.57019042969 1003.14825439453 1002.66235351562 1004.78015136719 1000.36743164062 1001.59411621094 995.535827636719 997.742248535156 1000.12463378906 991.606140136719 989.647766113281 996.055419921875 995.910766601562 994.420959472656 994.688842773438 997.857421875 994.592041015625 993.681213378906 991.503479003906 984.46728515625 977.650207519531 986.554077148438 992.470703125 994.0283203125 994.476501464844 990.633422851562 998.749572753906 1000.75152587891 1005.27471923828 1007.14215087891 1014.71905517578 1017.61090087891 1017.06176757812 1018.78454589844 1002.873046875 997.529235839844 999.174560546875 1001.56219482422 1001.01342773438 1002.57049560547 999.249816894531 996.983154296875 995.122619628906 993.948974609375 996.23486328125 995.900085449219 1003.18975830078 1009.68273925781 1006.54443359375 1014.02838134766 1009.48950195312 1006.36462402344 1009.25866699219 1014.46203613281 1014.43347167969 1012.35498046875 1018.04791259766 1028.26013183594 1020.3134765625 1022.74554443359 1021.68621826172 1020.91821289062 1015.36108398438 1023.95361328125 1018.29388427734 1008.88751220703 1007.33361816406 1012.46728515625 1006.52209472656 1007.36206054688 1004.91271972656 1001.17883300781 1008.83178710938 1004.35772705078 1000.03411865234 990.414916992188 981.877868652344 972.270812988281 951.645263671875 944.239807128906 939.282348632812 938.110961914062 953.047790527344 948.427551269531 956.675231933594 965.048706054688 984.133972167969 1000.74230957031 1006.78796386719 1010.53295898438 1024.20910644531 1026.80529785156 1036.12683105469 1042.25720214844 1040.75634765625 1043.96716308594 1046.15490722656 1045.4873046875 1046.50805664062 1038.99438476562 1046.17687988281 1053.73449707031 1045.64880371094 1036.98840332031 1040.54028320312 1045.84008789062 1053.07641601562 1049.83776855469 1056.96337890625 1063.8671875 1064.21887207031 1077.71008300781 1084.03527832031 1093.24987792969 1107.09826660156 1100.27844238281 1097.20190429688
955.287780761719 946.178649902344 943.415283203125 941.532836914062 949.8955078125 952.33349609375 959.410522460938 950.165100097656 949.591735839844 957.685119628906 967.37060546875 976.338562011719 971.925231933594 970.46240234375 967.22705078125 976.966674804688 973.061584472656 973.244140625 971.721252441406 973.095092773438 977.486022949219 979.865783691406 981.102905273438 988.213073730469 995.78857421875 995.086730957031 995.678161621094 993.738647460938 987.791198730469 995.239440917969 991.055053710938 995.154357910156 1009.00604248047 1004.69354248047 1004.46038818359 990.214904785156 991.268981933594 997.9951171875 990.425048828125 992.052734375 1004.01800537109 1000.07458496094 1001.60430908203 988.971313476562 995.544128417969 999.833984375 999.295532226562 997.064208984375 994.386108398438 994.5654296875 988.190246582031 987.048767089844 987.069763183594 977.59716796875 984.422729492188 987.719848632812 988.891357421875 998.436950683594 1004.17260742188 995.318786621094 1000.06713867188 1010.15081787109 1013.69775390625 1009.4033203125 1012.55792236328 1010.55615234375 1005.1767578125 1003.05529785156 1001.00085449219 1000.12652587891 1005.6552734375 1001.29406738281 996.218566894531 992.300231933594 994.661987304688 995.09716796875 986.446350097656 998.714904785156 988.339599609375 996.127563476562 1008.04156494141 1016.04125976562 1006.57580566406 1011.89886474609 1006.27618408203 1014.65979003906 1013.12213134766 1008.61596679688 1011.51959228516 1012.14862060547 1029.44104003906 1022.27886962891 1024.85510253906 1018.07818603516 1020.64471435547 1020.02990722656 1018.92413330078 1008.68872070312 1006.93005371094 1014.59539794922 1019.10168457031 1016.67657470703 1014.17596435547 1006.62371826172 1006.01306152344 1014.03240966797 1011.67993164062 998.259826660156 985.936340332031 973.767517089844 960.225341796875 954.039916992188 942.346130371094 941.290405273438 947.514282226562 949.908325195312 964.985778808594 963.845886230469 958.617858886719 972.244995117188 991.061340332031 995.189514160156 1009.12249755859 1018.60980224609 1026.42834472656 1029.55053710938 1038.79565429688 1049.0517578125 1044.14086914062 1041.94104003906 1048.03942871094 1049.16027832031 1044.19873046875 1052.66674804688 1047.68542480469 1035.60632324219 1032.48083496094 1033.0849609375 1046.44738769531 1046.13159179688 1042.86706542969 1062.16467285156 1063.85864257812 1066.5107421875 1065.30480957031 1085.12854003906 1082.71228027344 1089.55688476562 1097.2294921875 1096.42419433594
948.371643066406 946.78271484375 947.996643066406 945.892578125 948.863891601562 942.526062011719 965.101196289062 955.620056152344 955.807739257812 966.489196777344 966.176818847656 973.626403808594 981.328125 973.636291503906 969.800720214844 977.677368164062 972.525268554688 966.854675292969 960.245361328125 966.4716796875 973.00732421875 980.646667480469 981.662231445312 986.608825683594 997.227172851562 1001.78747558594 990.218933105469 988.828002929688 983.546508789062 987.319274902344 988.214721679688 996.224792480469 1003.10858154297 1003.15942382812 992.307556152344 986.139038085938 992.249206542969 993.330322265625 994.896484375 991.839233398438 1003.83624267578 997.069091796875 986.652893066406 988.599304199219 993.541809082031 994.982788085938 992.744262695312 992.936584472656 985.059326171875 993.039978027344 986.586242675781 991.086181640625 986.319458007812 982.782165527344 989.542846679688 995.125854492188 995.976928710938 995.1103515625 992.121276855469 991.376342773438 997.938842773438 997.035705566406 1006.37353515625 1008.05694580078 1008.56213378906 1006.74182128906 997.856628417969 999.707275390625 1000.78125 999.130615234375 1009.04400634766 1004.12561035156 995.9541015625 993.497924804688 1000.64526367188 1001.91851806641 999.876831054688 999.857849121094 996.079650878906 997.743041992188 995.333435058594 1001.79522705078 1009.16973876953 1008.34814453125 1013.9375 1009.20599365234 1005.41571044922 1008.72119140625 1004.51593017578 1017.96917724609 1026.73034667969 1027.73742675781 1015.08551025391 1017.31433105469 1024.83898925781 1024.25866699219 1018.9052734375 1013.59759521484 1011.30041503906 1011.77954101562 1015.42028808594 1025.68408203125 1021.96496582031 1017.74206542969 1012.83959960938 1013.99951171875 1005.01763916016 997.707580566406 983.768920898438 976.306701660156 969.660888671875 960.171508789062 950.495300292969 941.741027832031 954.000305175781 954.852233886719 959.615661621094 963.424621582031 967.081726074219 969.941711425781 984.853088378906 990.70556640625 1012.18347167969 1022.42510986328 1024.48510742188 1026.83325195312 1039.81091308594 1049.43054199219 1052.046875 1057.95251464844 1054.33081054688 1049.7431640625 1048.89428710938 1046.25427246094 1039.72717285156 1023.56146240234 1024.90991210938 1037.49523925781 1036.67639160156 1041.71423339844 1037.57788085938 1046.13110351562 1060.39294433594 1060.91027832031 1062.9443359375 1065.98583984375 1078.67333984375 1087.91271972656 1090.2099609375 1093.17651367188
952.206298828125 946.984008789062 950.989685058594 954.397705078125 950.317626953125 948.356018066406 957.521545410156 953.48681640625 954.600219726562 960.092712402344 969.891357421875 971.559020996094 979.235473632812 981.500427246094 984.807373046875 983.639099121094 979.674560546875 975.662536621094 965.300415039062 960.902587890625 971.234313964844 978.693542480469 972.474792480469 983.589233398438 988.833923339844 999.355346679688 999.2626953125 984.558715820312 979.688232421875 987.965637207031 993.608154296875 988.588684082031 993.890869140625 1000.0244140625 996.951293945312 997.341003417969 991.807739257812 998.943542480469 995.851745605469 995.918212890625 996.325988769531 984.7958984375 988.014587402344 983.405517578125 988.997192382812 995.619689941406 999.87060546875 996.216857910156 987.362365722656 997.933349609375 984.934265136719 985.240295410156 980.243896484375 978.999206542969 987.854187011719 992.195373535156 998.191040039062 995.456115722656 992.959716796875 991.385559082031 1001.48968505859 1005.10504150391 997.825378417969 997.037719726562 1001.46319580078 996.522338867188 992.437927246094 1001.56921386719 997.719604492188 1002.11517333984 1006.77606201172 1004.23052978516 999.0068359375 1003.75134277344 1000.71911621094 996.846984863281 996.422668457031 995.516418457031 994.707641601562 994.691284179688 991.491516113281 988.246948242188 992.102661132812 1000.9853515625 1007.58966064453 1004.02526855469 1009.88507080078 1008.47882080078 1009.95684814453 1019.49816894531 1026.09521484375 1027.4345703125 1016.77716064453 1012.34533691406 1017.25317382812 1030.08911132812 1032.91052246094 1019.96844482422 1011.59643554688 1014.76971435547 1017.60705566406 1025.96350097656 1028.16064453125 1023.84014892578 1017.142578125 1006.45623779297 998.282775878906 995.378051757812 987.14501953125 973.447937011719 964.490051269531 958.044372558594 956.394165039062 957.115112304688 954.900268554688 958.483642578125 961.259704589844 961.869445800781 967.086791992188 975.093872070312 978.220947265625 981.143432617188 997.167541503906 1015.55633544922 1027.64965820312 1030.76428222656 1036.56420898438 1046.36364746094 1044.90649414062 1049.81591796875 1052.57824707031 1053.10803222656 1055.79052734375 1039.26770019531 1029.23913574219 1031.63305664062 1027.05920410156 1029.64379882812 1033.14807128906 1039.43835449219 1042.12536621094 1046.72045898438 1058.92590332031 1058.90100097656 1064.28369140625 1066.33337402344 1068.87915039062 1088.21875 1089.74560546875 1088.66259765625
959.746948242188 958.893310546875 955.033020019531 953.96435546875 961.002990722656 954.938354492188 956.105773925781 954.44970703125 954.553161621094 962.841552734375 974.247985839844 974.972412109375 976.173217773438 977.869079589844 984.15234375 987.233581542969 983.642639160156 975.500549316406 969.980224609375 974.3330078125 978.994018554688 975.872802734375 976.188781738281 984.282897949219 987.7802734375 992.479370117188 993.635131835938 983.02783203125 979.77294921875 988.35400390625 985.70068359375 986.377136230469 992.101379394531 995.995056152344 998.077392578125 991.616577148438 996.442443847656 1001.81671142578 1006.07641601562 994.175415039062 990.178771972656 987.914794921875 991.256164550781 980.721740722656 991.233764648438 999.988708496094 994.835693359375 991.388916015625 994.014831542969 983.29443359375 985.029724121094 983.134643554688 976.120849609375 984.993591308594 980.779968261719 989.388671875 985.870666503906 985.535461425781 994.20263671875 996.02734375 1005.74652099609 999.077758789062 990.773193359375 997.432189941406 996.060974121094 994.812866210938 991.789611816406 994.041687011719 998.528686523438 997.2255859375 1003.02581787109 999.406799316406 998.332824707031 999.021728515625 994.723205566406 1003.25482177734 995.492370605469 994.9482421875 995.700317382812 996.623291015625 986.324523925781 984.972717285156 996.669067382812 999.981323242188 1009.05615234375 1020.87048339844 1019.45404052734 1018.92584228516 1025.90612792969 1018.40142822266 1019.15460205078 1017.02789306641 1019.25573730469 1018.41204833984 1016.66748046875 1020.01824951172 1016.98236083984 1019.0751953125 1015.33453369141 1016.09051513672 1010.30798339844 1025.63439941406 1031.31811523438 1021.03668212891 1009.37744140625 1012.20513916016 1006.40942382812 1005.30480957031 988.223449707031 962.296569824219 956.181091308594 952.672607421875 947.433837890625 948.749084472656 955.365844726562 949.653015136719 947.4443359375 960.4140625 975.080871582031 968.832580566406 974.483093261719 983.17822265625 999.244934082031 1012.072265625 1020.623046875 1022.56304931641 1036.60485839844 1034.25634765625 1036.61645507812 1036.26098632812 1055.03466796875 1049.22521972656 1041.25341796875 1026.89880371094 1027.87976074219 1026.63989257812 1017.22912597656 1026.57397460938 1024.01586914062 1030.54699707031 1034.17492675781 1054.46813964844 1054.98303222656 1069.64282226562 1066.79443359375 1068.90795898438 1079.05651855469 1078.53576660156 1083.01232910156 1084.65856933594
960.689514160156 963.070556640625 962.129211425781 970.842346191406 966.469665527344 962.675964355469 952.257751464844 954.058532714844 963.741943359375 968.997131347656 974.0361328125 979.884887695312 987.010925292969 976.678894042969 977.226989746094 977.243530273438 979.061218261719 971.377746582031 970.842468261719 981.327575683594 983.870910644531 980.885559082031 988.722961425781 992.468505859375 1000.07000732422 991.443603515625 978.763854980469 981.234191894531 973.807800292969 981.880310058594 980.742797851562 985.246154785156 1000.15673828125 998.917358398438 993.155212402344 993.030212402344 993.065002441406 990.678283691406 994.070373535156 987.109191894531 980.675903320312 986.616394042969 994.884094238281 995.708068847656 989.501770019531 987.241027832031 991.078796386719 996.602355957031 987.389282226562 981.387329101562 982.032104492188 980.881164550781 982.770324707031 984.121215820312 979.325561523438 983.883728027344 981.12109375 982.849304199219 984.976745605469 999.1337890625 1000.36077880859 997.73095703125 992.78857421875 996.428527832031 1006.39215087891 997.241088867188 995.985473632812 1000.35437011719 996.016174316406 1000.83868408203 1001.16418457031 996.2353515625 1005.85736083984 999.521545410156 1001.71606445312 1002.06469726562 1005.3583984375 996.065002441406 994.582458496094 996.1630859375 981.962036132812 986.488647460938 997.549255371094 1002.673828125 1009.26568603516 1015.71984863281 1021.39416503906 1023.57934570312 1023.06805419922 1020.4111328125 1017.92333984375 1011.09753417969 1009.51995849609 1021.27709960938 1014.83331298828 1002.15185546875 1005.08923339844 1007.05700683594 1019.98773193359 1013.49749755859 1014.78778076172 1017.29156494141 1023.25158691406 1012.78991699219 1007.3525390625 1004.87164306641 997.998413085938 1003.04418945312 986.782897949219 972.886169433594 963.706909179688 955.427551269531 947.858337402344 946.591552734375 954.253295898438 955.45947265625 949.564575195312 954.625915527344 963.745422363281 973.370178222656 984.787353515625 986.165893554688 994.907958984375 1002.67578125 1013.78210449219 1022.45581054688 1027.40270996094 1026.51843261719 1033.48095703125 1037.65551757812 1038.279296875 1037.23571777344 1033.08349609375 1027.53234863281 1024.68994140625 1019.48266601562 1026.54797363281 1025.77355957031 1025.54077148438 1023.91510009766 1035.16369628906 1038.94970703125 1051.71337890625 1054.7294921875 1064.78381347656 1058.56750488281 1066.45068359375 1081.02734375 1084.14196777344 1086.05493164062
954.71826171875 964.880737304688 973.962341308594 971.785827636719 972.170166015625 964.179138183594 966.794189453125 965.343627929688 970.643432617188 978.187316894531 979.931396484375 978.104248046875 974.447204589844 968.522216796875 975.732177734375 977.098693847656 969.672119140625 971.572204589844 972.521606445312 982.497131347656 985.655212402344 991.162780761719 983.393432617188 990.383544921875 997.650756835938 990.562133789062 981.70361328125 983.433288574219 982.649719238281 978.673461914062 974.653747558594 977.775329589844 993.609069824219 985.954650878906 989.642883300781 992.451599121094 990.374328613281 985.411254882812 984.939086914062 983.162841796875 981.677856445312 980.921813964844 980.719543457031 982.849792480469 990.872497558594 984.195434570312 992.456787109375 982.170227050781 986.483093261719 990.673828125 983.323852539062 983.120727539062 985.109191894531 977.718139648438 974.617065429688 978.674621582031 976.098754882812 984.072570800781 986.877502441406 986.340942382812 999.011474609375 991.064758300781 993.297912597656 998.284118652344 995.822814941406 1006.10675048828 1001.73400878906 1004.07836914062 995.968688964844 993.361145019531 993.859924316406 1005.27923583984 1011.55126953125 1009.81768798828 1000.70257568359 994.5888671875 1002.74401855469 996.588500976562 993.85986328125 998.90673828125 990.848205566406 990.382690429688 999.421997070312 1002.61187744141 1004.21020507812 1016.55041503906 1019.94769287109 1018.27825927734 1020.23736572266 1021.88073730469 1013.76635742188 1015.53393554688 1018.39294433594 1014.3603515625 1011.30432128906 1007.79644775391 1010.46600341797 1005.75689697266 1004.14965820312 1009.35302734375 1009.62335205078 1010.99560546875 1016.79357910156 1013.80633544922 1001.67376708984 1002.28112792969 1003.41448974609 1002.60137939453 987.849487304688 978.012878417969 972.376953125 964.273010253906 958.346313476562 962.080322265625 956.079833984375 952.734924316406 955.185302734375 963.455505371094 952.482299804688 973.33642578125 981.736694335938 975.024597167969 990.667663574219 1000.30639648438 1012.32623291016 1020.58654785156 1027.39135742188 1027.93823242188 1024.58264160156 1035.96862792969 1027.90148925781 1027.216796875 1022.54913330078 1021.41741943359 1028.49475097656 1023.02722167969 1024.18566894531 1029.29846191406 1025.77209472656 1024.70776367188 1031.08288574219 1044.06335449219 1053.03491210938 1061.60522460938 1059.72143554688 1057.79064941406 1062.57946777344 1074.83129882812 1084.61389160156 1088.17041015625
948.854309082031 956.388916015625 959.285949707031 966.457336425781 961.213806152344 960.930053710938 966.77392578125 963.731140136719 968.968933105469 968.971801757812 978.183776855469 977.776611328125 978.467956542969 981.419372558594 985.725708007812 978.944213867188 965.758422851562 966.349609375 977.456970214844 976.464477539062 985.904357910156 986.682800292969 986.03369140625 996.4736328125 994.934326171875 985.674072265625 988.333435058594 989.030151367188 979.101684570312 983.574584960938 969.231079101562 968.444458007812 987.045043945312 998.986267089844 992.054809570312 984.49853515625 977.782165527344 973.827453613281 977.929321289062 979.058471679688 976.859985351562 981.267395019531 980.691162109375 985.377258300781 987.173889160156 981.3544921875 984.3623046875 980.854064941406 978.037536621094 985.214721679688 977.134033203125 976.933776855469 975.005310058594 972.046752929688 972.622985839844 977.117004394531 974.838134765625 980.214172363281 988.142456054688 992.938720703125 995.888244628906 995.037780761719 987.670654296875 999.860046386719 997.833190917969 1000.87408447266 996.705322265625 993.975280761719 998.847839355469 995.19580078125 996.032043457031 996.840759277344 995.725219726562 1006.51806640625 1001.96466064453 993.631408691406 997.322448730469 990.60400390625 996.425720214844 992.507019042969 989.747192382812 996.492004394531 1001.82763671875 1001.47991943359 1004.10107421875 1008.79321289062 1015.26312255859 1014.25769042969 1014.73370361328 1016.18817138672 1015.99664306641 1014.09991455078 1020.93463134766 1020.21533203125 1017.3388671875 1020.18237304688 1011.49908447266 1011.73883056641 1010.01214599609 1007.47979736328 1008.36633300781 1017.00030517578 1008.32995605469 1004.12609863281 1000.43487548828 996.516235351562 1000.63189697266 998.0966796875 979.38427734375 977.562622070312 979.663146972656 968.413879394531 970.155883789062 964.319213867188 963.078735351562 959.394653320312 960.263610839844 957.486755371094 951.505981445312 967.646057128906 968.380126953125 979.251953125 991.556457519531 1001.27960205078 1015.51715087891 1024.09802246094 1023.57995605469 1028.095703125 1023.28466796875 1030.66064453125 1022.59997558594 1022.41149902344 1019.44476318359 1020.72259521484 1025.84130859375 1021.04064941406 1011.79278564453 1026.05432128906 1027.46838378906 1025.65161132812 1033.91235351562 1041.57482910156 1051.69018554688 1066.60302734375 1066.46618652344 1068.37512207031 1067.24462890625 1077.82385253906 1088.4599609375 1090.26953125
942.272644042969 940.661743164062 948.133422851562 950.900573730469 957.463623046875 961.918334960938 973.420288085938 962.927734375 976.805847167969 973.711364746094 976.395812988281 977.155395507812 974.222534179688 980.860656738281 986.259216308594 969.766418457031 964.992004394531 958.966003417969 966.326843261719 970.432067871094 985.723083496094 983.349670410156 983.895751953125 992.700073242188 993.420959472656 980.903381347656 988.162170410156 989.2001953125 979.05859375 980.338745117188 977.054809570312 973.131408691406 986.74609375 992.147277832031 986.840576171875 978.780334472656 983.565246582031 979.123962402344 973.098754882812 971.797119140625 979.000122070312 981.69970703125 982.016052246094 981.76416015625 991.838012695312 982.132385253906 994.542724609375 988.051879882812 975.746215820312 978.812377929688 978.061401367188 978.780029296875 969.506652832031 966.513305664062 966.148254394531 970.265380859375 976.801208496094 986.993774414062 986.559143066406 998.051574707031 997.61181640625 1000.46759033203 996.553649902344 995.821350097656 989.521179199219 989.206604003906 988.774230957031 988.720458984375 997.994445800781 999.927001953125 994.132751464844 997.070739746094 992.275390625 1001.01599121094 990.619812011719 997.397277832031 1001.42718505859 989.64990234375 991.204284667969 988.071838378906 990.971740722656 1000.03735351562 999.350036621094 999.7529296875 1001.76696777344 1005.71606445312 1013.51257324219 1020.15093994141 1006.26257324219 1011.03021240234 1016.09399414062 1020.14294433594 1024.06665039062 1022.08416748047 1013.72625732422 1010.52337646484 1012.17456054688 1007.90222167969 1005.75378417969 1014.10748291016 1007.35595703125 1001.78149414062 1008.62396240234 1000.65191650391 998.794982910156 996.431640625 996.848937988281 998.711791992188 988.432495117188 984.035583496094 980.025695800781 967.639526367188 962.066528320312 964.194519042969 962.807983398438 951.054565429688 957.946228027344 956.008605957031 965.368041992188 969.038696289062 993.731201171875 998.88134765625 1010.43493652344 1008.42822265625 1018.30108642578 1028.54797363281 1020.22967529297 1019.19445800781 1033.59057617188 1024.03198242188 1010.35412597656 1016.01641845703 1013.36462402344 1020.97985839844 1026.39624023438 1015.02001953125 1020.9755859375 1024.14880371094 1028.20910644531 1025.91772460938 1036.6474609375 1042.32092285156 1054.15454101562 1067.59252929688 1070.5087890625 1068.20715332031 1074.23864746094 1078.89001464844 1089.69763183594 1085.68627929688
934.583374023438 931.118591308594 949.634033203125 952.578735351562 958.177185058594 962.315673828125 964.150451660156 964.593872070312 973.153869628906 973.860290527344 972.745483398438 972.660827636719 975.119384765625 979.183349609375 979.095886230469 974.102844238281 964.990844726562 962.396789550781 969.228332519531 984.375427246094 985.086547851562 984.643432617188 986.854736328125 996.025756835938 987.72607421875 986.991271972656 985.43408203125 981.756530761719 983.802368164062 985.643371582031 982.889831542969 986.1875 981.415283203125 982.946594238281 969.411193847656 977.069763183594 976.997741699219 975.168090820312 981.266052246094 976.39404296875 983.440246582031 982.990051269531 979.533020019531 985.040161132812 977.58251953125 988.075134277344 994.000183105469 985.255493164062 984.141662597656 979.868103027344 974.403076171875 974.905700683594 970.434020996094 977.523620605469 973.050964355469 971.433776855469 972.013061523438 979.789123535156 982.023498535156 996.018188476562 999.8701171875 1000.37878417969 993.502746582031 984.687255859375 972.499206542969 974.885559082031 983.220581054688 989.549987792969 990.619018554688 992.188842773438 986.172424316406 994.265930175781 993.237182617188 1001.24871826172 1003.34161376953 1000.23223876953 994.616088867188 979.484619140625 982.91064453125 985.143371582031 991.439880371094 995.19873046875 994.540954589844 1001.53381347656 998.633483886719 1008.0234375 1012.50592041016 1020.541015625 1015.30059814453 1007.2333984375 1020.37219238281 1020.45629882812 1023.29071044922 1031.12976074219 1012.94439697266 993.825927734375 1002.60803222656 1003.77728271484 997.281433105469 1004.21026611328 1005.40985107422 1005.4814453125 999.852966308594 997.187377929688 995.331665039062 994.561889648438 995.041870117188 1000.99981689453 993.585815429688 982.69140625 981.863830566406 973.351806640625 966.982421875 967.104431152344 972.818176269531 968.658325195312 966.84033203125 974.384521484375 973.174926757812 978.932373046875 993.222229003906 1007.21752929688 1014.60900878906 1013.09674072266 1021.75982666016 1014.51019287109 1019.22039794922 1015.97979736328 1019.81634521484 1020.01721191406 1015.15557861328 1017.11267089844 1014.45135498047 1015.64587402344 1024.80297851562 1024.43310546875 1030.53356933594 1034.05310058594 1043.38977050781 1034.9736328125 1043.32543945312 1043.74987792969 1064.32470703125 1064.51062011719 1070.36364746094 1075.98767089844 1081.1953125 1077.52685546875 1084.20446777344 1082.24572753906
938.573791503906 947.461791992188 951.866027832031 959.334350585938 966.984436035156 964.360900878906 972.156433105469 972.115783691406 979.975891113281 969.216430664062 970.849914550781 973.820556640625 972.271789550781 973.8720703125 976.510192871094 989.460632324219 978.176940917969 978.768127441406 987.211242675781 980.179138183594 980.429870605469 982.158142089844 989.6064453125 996.990234375 994.538391113281 988.570861816406 976.492126464844 985.096557617188 981.496032714844 986.210327148438 977.969970703125 978.664123535156 980.63134765625 974.016174316406 972.863037109375 969.705810546875 975.080017089844 977.449890136719 977.750671386719 974.906677246094 976.784057617188 977.932800292969 984.417358398438 984.567199707031 980.885070800781 982.60986328125 990.017700195312 986.784301757812 986.272705078125 982.904296875 973.13037109375 975.435302734375 975.54296875 975.394897460938 968.101379394531 971.411804199219 976.809814453125 987.450744628906 997.250610351562 992.170715332031 996.770324707031 989.901733398438 985.895141601562 983.262512207031 978.745239257812 970.647338867188 976.246337890625 979.233093261719 981.590942382812 987.741943359375 990.626525878906 991.958923339844 998.513366699219 997.907165527344 995.484924316406 988.938781738281 979.451599121094 973.866027832031 974.885192871094 989.056457519531 989.569274902344 984.000244140625 996.330932617188 996.586669921875 1010.03344726562 1009.07867431641 1018.29620361328 1018.50024414062 1017.75817871094 1006.05902099609 1013.23779296875 1018.82244873047 1021.45080566406 1019.88824462891 1006.63580322266 997.377807617188 1000.84338378906 997.825073242188 991.960327148438 994.639038085938 996.9873046875 997.759033203125 996.640563964844 990.74755859375 990.777282714844 992.957824707031 995.71875 989.48486328125 989.093566894531 987.117248535156 984.899291992188 984.673095703125 984.154907226562 980.490112304688 980.184936523438 977.535217285156 976.663940429688 982.866149902344 982.72265625 993.40283203125 1002.72320556641 1013.97222900391 1011.35906982422 1013.42022705078 1019.75909423828 1020.36895751953 1011.27362060547 1012.35455322266 1020.72595214844 1016.11224365234 1011.01959228516 1011.97045898438 1012.69110107422 1013.84094238281 1025.54614257812 1036.92761230469 1031.9990234375 1039.71325683594 1039.38647460938 1043.34533691406 1042.87353515625 1050.22644042969 1060.26416015625 1062.71032714844 1071.76416015625 1075.11315917969 1079.36413574219 1079.95812988281 1091.27551269531 1085.5888671875
945.692199707031 958.228942871094 961.070495605469 960.446228027344 964.560363769531 973.988708496094 973.809143066406 972.242126464844 981.332397460938 976.431091308594 974.703552246094 973.962829589844 970.674072265625 981.162048339844 986.336364746094 981.605346679688 978.125549316406 980.710144042969 985.264770507812 988.940795898438 985.405151367188 987.833129882812 990.293640136719 993.416381835938 981.188415527344 976.953979492188 975.419250488281 974.600708007812 977.50927734375 970.299133300781 976.292297363281 975.301025390625 974.781799316406 977.308471679688 973.588623046875 978.505798339844 973.482849121094 980.013122558594 985.577514648438 978.445129394531 982.573913574219 974.128173828125 981.103210449219 992.061889648438 985.180297851562 991.960083007812 985.982788085938 975.723754882812 965.681579589844 971.624877929688 979.101623535156 977.51220703125 976.296997070312 975.352355957031 973.944274902344 971.944702148438 973.169372558594 981.776062011719 989.15771484375 1000.12176513672 990.971618652344 996.54736328125 982.173156738281 984.069458007812 973.557312011719 968.448120117188 970.832580566406 973.397094726562 970.413452148438 976.018615722656 983.60693359375 987.581726074219 994.478332519531 996.101623535156 991.532592773438 982.268615722656 977.540161132812 974.117553710938 979.859741210938 979.279113769531 978.519348144531 988.814514160156 1000.65374755859 1005.58642578125 1017.95849609375 1009.87622070312 1006.19079589844 1020.08947753906 1009.13842773438 1003.6787109375 1008.80456542969 1008.81146240234 1009.57421875 1008.74151611328 1000.78179931641 994.764709472656 996.523986816406 987.410217285156 991.095825195312 991.368957519531 985.180358886719 990.107238769531 991.5087890625 991.002258300781 989.02880859375 994.853637695312 991.580017089844 986.903137207031 989.309448242188 989.090942382812 986.519104003906 987.547302246094 987.524108886719 995.146057128906 993.839782714844 981.110595703125 983.004577636719 993.298583984375 995.966857910156 991.674560546875 1008.01861572266 1021.94921875 1009.71038818359 1020.748046875 1028.125 1022.37475585938 1013.39093017578 1012.09802246094 1017.80316162109 1014.86511230469 1010.4287109375 1008.93811035156 1009.76953125 1019.95343017578 1033.34118652344 1032.05859375 1036.29699707031 1035.541015625 1038.14367675781 1043.03979492188 1050.251953125 1049.20251464844 1055.70874023438 1065.64379882812 1083.77026367188 1093.37158203125 1091.02685546875 1085.9404296875 1087.59362792969 1093.85034179688
943.538757324219 954.943481445312 957.197326660156 960.004272460938 965.4580078125 974.03369140625 979.843627929688 977.451843261719 971.451904296875 980.167236328125 975.987487792969 973.6123046875 971.103210449219 977.591918945312 985.529296875 983.289672851562 975.399963378906 982.884704589844 984.210571289062 978.315856933594 982.504089355469 979.250427246094 989.058837890625 985.020080566406 977.352478027344 964.58935546875 974.456298828125 976.860412597656 974.885864257812 967.247802734375 976.6396484375 983.316223144531 981.585571289062 980.062194824219 980.131713867188 971.523986816406 976.951721191406 982.228454589844 982.92578125 978.875732421875 977.20361328125 978.41259765625 980.249755859375 992.337646484375 991.940795898438 981.55322265625 975.680725097656 971.97412109375 967.193725585938 968.90380859375 972.109436035156 973.852355957031 975.863525390625 972.460266113281 979.923278808594 973.634216308594 980.587707519531 970.396240234375 981.806823730469 990.978515625 995.636962890625 989.003540039062 982.459533691406 971.26513671875 971.007141113281 961.619689941406 970.690307617188 972.524963378906 967.562622070312 974.761474609375 976.275207519531 985.187438964844 978.96875 988.234680175781 982.088745117188 986.084838867188 977.060668945312 977.067687988281 984.865966796875 980.296203613281 986.013000488281 989.614685058594 995.598510742188 1004.45233154297 1001.16284179688 998.367736816406 1005.65380859375 1005.11456298828 1008.24145507812 1004.59478759766 1002.29357910156 1001.73175048828 1000.85595703125 993.599060058594 998.646057128906 996.751403808594 991.426025390625 990.693603515625 993.582153320312 992.431640625 984.609436035156 981.463439941406 995.081481933594 989.540710449219 991.701232910156 990.310852050781 987.131591796875 988.140197753906 985.813598632812 988.523315429688 986.6005859375 990.925537109375 999.765869140625 995.472351074219 995.015869140625 1000.96325683594 999.139953613281 998.895202636719 1004.97991943359 999.682006835938 994.969665527344 1017.77587890625 1024.97839355469 1023.09405517578 1016.43878173828 1016.62329101562 1013.74291992188 1013.39984130859 1021.57543945312 1023.33001708984 1017.17340087891 1018.82971191406 1014.23193359375 1020.56243896484 1031.31860351562 1037.21142578125 1039.84106445312 1046.94738769531 1050.42321777344 1048.00463867188 1061.03759765625 1056.98022460938 1063.26232910156 1081.82946777344 1092.13781738281 1085.30908203125 1080.43151855469 1093.7001953125 1087.00988769531 1093.0732421875
941.942565917969 958.356140136719 963.51953125 969.809509277344 971.449768066406 964.173828125 977.359130859375 982.219299316406 973.207397460938 971.387878417969 973.024597167969 967.398864746094 967.556396484375 977.31396484375 976.522888183594 975.213562011719 970.200073242188 980.090942382812 981.688415527344 979.455627441406 977.152526855469 975.236755371094 972.082641601562 973.01611328125 972.791320800781 959.319519042969 959.825866699219 974.203125 973.777526855469 968.877380371094 975.623596191406 978.424072265625 985.065124511719 979.976440429688 972.340148925781 972.241149902344 978.869934082031 981.979248046875 985.042785644531 978.004943847656 977.024536132812 980.263977050781 981.251220703125 979.555480957031 981.246704101562 975.895935058594 965.526123046875 964.715698242188 968.173034667969 970.571472167969 980.642150878906 978.696044921875 979.71728515625 981.888122558594 981.304382324219 980.26318359375 983.478881835938 985.089721679688 982.144958496094 985.914611816406 989.920715332031 987.249572753906 976.837341308594 971.405700683594 963.7587890625 963.090942382812 964.044067382812 965.267700195312 969.878051757812 976.095642089844 972.552368164062 969.613464355469 976.361877441406 982.074523925781 984.365783691406 970.623168945312 971.044067382812 975.554504394531 980.226501464844 986.851318359375 985.456481933594 985.033203125 993.710144042969 1001.15240478516 1011.61352539062 1005.54052734375 1003.08514404297 1012.64300537109 1006.84063720703 1002.97637939453 1007.75238037109 1008.50366210938 998.571411132812 997.684387207031 995.939392089844 1000.71295166016 993.832214355469 994.68408203125 988.864135742188 986.512634277344 980.299499511719 984.068603515625 994.072326660156 993.479675292969 984.984436035156 986.170227050781 990.283447265625 989.184631347656 988.083984375 997.031799316406 1001.07598876953 996.6142578125 1002.48870849609 997.593444824219 998.012451171875 990.895629882812 992.740112304688 1002.03314208984 1008.33709716797 1001.76226806641 1009.841796875 1013.86047363281 1017.82885742188 1019.64471435547 1014.08581542969 1023.31774902344 1008.65319824219 1012.60815429688 1027.0234375 1022.21099853516 1017.94360351562 1027.65588378906 1030.44543457031 1033.86962890625 1036.88842773438 1037.34814453125 1045.12390136719 1046.10009765625 1049.7841796875 1057.8896484375 1065.48303222656 1061.57189941406 1080.74938964844 1088.49328613281 1092.00598144531 1093.14270019531 1088.17834472656 1091.11669921875 1101.28381347656 1098.06323242188
947.010070800781 963.970336914062 970.844543457031 975.8291015625 969.859558105469 966.50732421875 980.251647949219 972.506713867188 964.966552734375 971.224914550781 976.816589355469 967.132507324219 972.046325683594 972.875671386719 971.984985351562 975.916381835938 963.130187988281 975.396118164062 984.264953613281 980.099304199219 970.009155273438 971.031066894531 973.074462890625 978.660888671875 970.841674804688 968.637817382812 963.222839355469 970.172302246094 974.486999511719 970.674682617188 972.749572753906 973.40087890625 977.015808105469 982.156555175781 985.320129394531 983.383972167969 978.172241210938 989.748168945312 993.277160644531 983.393676757812 980.975463867188 978.066467285156 982.658264160156 966.051696777344 971.330261230469 975.221740722656 969.749267578125 966.011535644531 973.459777832031 973.50927734375 977.438781738281 979.753479003906 985.274780273438 983.860656738281 986.046813964844 976.249145507812 981.923583984375 981.887634277344 974.726989746094 976.056335449219 980.738037109375 979.854370117188 978.577697753906 975.969970703125 965.338012695312 960.088928222656 961.779113769531 963.351867675781 968.648620605469 968.122131347656 961.639770507812 975.002319335938 971.578491210938 980.1767578125 983.240539550781 971.860961914062 973.92236328125 976.401733398438 976.712707519531 977.543823242188 980.56884765625 992.266479492188 1002.21533203125 1006.55590820312 1005.70861816406 1003.43139648438 1007.35638427734 1008.42895507812 1009.78179931641 996.987976074219 1003.52801513672 997.760437011719 991.625366210938 994.881530761719 999.338134765625 1005.857421875 1002.38159179688 997.099731445312 981.5078125 982.508239746094 974.321594238281 980.549560546875 983.95703125 993.847351074219 992.554992675781 991.590026855469 986.900817871094 992.341491699219 995.252868652344 994.672119140625 1000.65655517578 994.902770996094 1001.77679443359 996.686401367188 991.9541015625 995.643188476562 990.18798828125 991.984313964844 995.389465332031 1003.36962890625 1000.56475830078 1003.71447753906 1007.76934814453 1014.73742675781 1009.11437988281 1017.48376464844 1009.98693847656 1017.44323730469 1024.0341796875 1028.57019042969 1026.80871582031 1026.82763671875 1026.5263671875 1031.17456054688 1041.9951171875 1045.19470214844 1052.71997070312 1052.90234375 1054.20361328125 1056.03698730469 1063.92822265625 1074.22143554688 1093.24133300781 1102.40686035156 1106.60363769531 1103.54772949219 1108.99230957031 1111.33801269531 1109.005859375 1106.8193359375
944.927062988281 951.878601074219 963.386535644531 965.627380371094 972.525390625 976.291137695312 972.457824707031 966.009338378906 962.890441894531 963.737365722656 965.742614746094 971.349365234375 975.684936523438 971.860229492188 977.162292480469 978.269104003906 976.310729980469 976.056335449219 974.757568359375 966.512268066406 965.183959960938 968.716552734375 959.323059082031 967.443237304688 970.74658203125 972.089782714844 970.968139648438 977.0205078125 982.784912109375 974.931091308594 979.187561035156 965.530883789062 979.995483398438 989.135192871094 980.970947265625 975.995422363281 977.469970703125 985.123291015625 979.314086914062 981.994689941406 971.900451660156 967.654052734375 976.541320800781 966.5439453125 966.951538085938 971.661926269531 963.750854492188 964.288696289062 971.413146972656 971.628723144531 975.627807617188 977.746765136719 983.723754882812 976.256042480469 975.463256835938 977.605651855469 970.235961914062 979.024169921875 970.467590332031 978.38818359375 970.3125 977.713745117188 977.529663085938 970.924560546875 968.274169921875 961.199340820312 968.764404296875 962.131652832031 968.951416015625 962.795288085938 961.721313476562 969.067504882812 970.623657226562 973.310363769531 984.533630371094 975.86376953125 976.514465332031 975.158264160156 974.00048828125 975.26708984375 976.422424316406 980.344665527344 985.572448730469 994.072021484375 998.574584960938 998.623901367188 994.086364746094 987.611267089844 999.33544921875 994.018798828125 994.046508789062 995.311279296875 1000.45111083984 996.075988769531 998.74609375 1004.17669677734 998.966247558594 985.338256835938 981.739501953125 983.829345703125 976.985229492188 990.142333984375 993.778747558594 995.794006347656 988.103698730469 990.705932617188 988.638977050781 992.60986328125 991.037780761719 992.265563964844 990.859375 993.505187988281 993.976196289062 982.889465332031 981.912170410156 985.267700195312 996.0654296875 990.478454589844 991.478454589844 1000.03485107422 998.016662597656 997.634094238281 1003.03717041016 1008.13330078125 1003.50793457031 1005.07373046875 1014.23284912109 1024.44360351562 1024.94482421875 1022.43804931641 1025.486328125 1019.42883300781 1029.58239746094 1037.83728027344 1051.79504394531 1051.67919921875 1054.65698242188 1061.13732910156 1056.80297851562 1066.70336914062 1070.46105957031 1089.18994140625 1101.26708984375 1110.03967285156 1120.83679199219 1118.77795410156 1115.01818847656 1123.73852539062 1129.47766113281 1132.1572265625
949.920471191406 948.347351074219 953.59228515625 953.263671875 957.284484863281 963.352355957031 960.203796386719 963.578002929688 965.262939453125 960.446533203125 966.194213867188 969.398376464844 973.830261230469 972.329711914062 976.981628417969 975.025024414062 977.58447265625 977.77734375 973.576843261719 969.723876953125 964.085510253906 960.554321289062 961.567138671875 973.395874023438 978.224304199219 984.704650878906 984.845520019531 978.005249023438 975.736389160156 981.086853027344 986.365295410156 980.114379882812 987.35498046875 980.123168945312 971.860656738281 967.760070800781 969.415344238281 976.155151367188 975.124450683594 981.940307617188 976.450866699219 963.669006347656 967.087341308594 967.091186523438 970.525268554688 970.6025390625 960.877197265625 967.780639648438 973.652954101562 971.940490722656 969.598083496094 972.657897949219 971.280578613281 974.163635253906 964.274597167969 966.096862792969 967.658081054688 975.024169921875 983.378845214844 980.857299804688 970.631164550781 977.61328125 980.577758789062 968.872924804688 970.769775390625 960.503051757812 964.868957519531 971.901550292969 965.780883789062 964.132629394531 961.817260742188 962.693054199219 959.742492675781 967.965881347656 977.719848632812 981.547485351562 975.621887207031 971.504638671875 982.826293945312 974.153991699219 976.911560058594 971.979919433594 977.896484375 986.195617675781 992.228942871094 992.521667480469 994.172790527344 985.986999511719 996.355041503906 991.817504882812 981.597900390625 989.729370117188 996.573364257812 997.66552734375 998.811767578125 992.146728515625 989.96826171875 975.049072265625 971.398010253906 969.879699707031 973.546630859375 984.766052246094 1000.85736083984 987.514709472656 982.164611816406 991.02197265625 986.243408203125 991.42138671875 990.757446289062 994.293334960938 987.153198242188 988.359497070312 981.424377441406 981.331909179688 979.214660644531 989.269409179688 993.986938476562 986.97509765625 994.460571289062 1003.07696533203 993.43212890625 997.300048828125 989.430969238281 996.140930175781 1003.00140380859 1008.59552001953 1013.80072021484 1020.93475341797 1024.23071289062 1019.85479736328 1020.60571289062 1022.36444091797 1022.85552978516 1037.93127441406 1050.462890625 1059.75671386719 1054.62243652344 1058.39038085938 1060.95556640625 1070.02111816406 1079.05090332031 1088.26586914062 1102.21130371094 1116.78784179688 1125.06396484375 1121.32043457031 1132.71411132812 1133.70861816406 1137.25939941406 1139.10510253906
939.496887207031 941.940063476562 947.170349121094 941.870239257812 944.233093261719 952.884521484375 959.365173339844 956.957397460938 970.150024414062 974.278564453125 962.570922851562 969.800598144531 971.924438476562 975.995300292969 979.737060546875 972.537658691406 973.260375976562 979.737182617188 978.866943359375 970.338317871094 971.785827636719 958.505187988281 956.311828613281 963.996337890625 979.115356445312 982.769409179688 991.647766113281 976.314147949219 973.776306152344 975.921142578125 979.314331054688 968.528930664062 973.118225097656 971.423034667969 970.375427246094 966.242309570312 967.041198730469 974.570190429688 974.794311523438 978.688903808594 971.790222167969 968.130432128906 969.547058105469 962.515686035156 961.227600097656 962.739135742188 961.995788574219 965.140625 967.930725097656 972.133117675781 968.84228515625 966.504211425781 970.650512695312 971.921691894531 967.538269042969 968.417053222656 963.082946777344 972.381225585938 985.060913085938 978.673217773438 981.406066894531 976.397583007812 968.413513183594 972.234436035156 965.645141601562 966.029479980469 970.737121582031 969.5244140625 966.008361816406 963.097595214844 961.630798339844 972.79296875 969.23193359375 967.104919433594 960.185974121094 972.141906738281 968.167907714844 972.638549804688 973.858154296875 973.738891601562 969.308959960938 977.918151855469 975.277404785156 974.38134765625 980.749572753906 983.527160644531 986.227294921875 988.749389648438 981.995666503906 977.676330566406 979.942687988281 985.048645019531 993.330871582031 984.1396484375 998.442443847656 993.345031738281 988.7734375 981.48974609375 975.671569824219 967.022827148438 973.74658203125 980.719909667969 987.433410644531 984.281372070312 987.063232421875 995.161560058594 983.146606445312 982.000915527344 986.043029785156 979.095153808594 999.501708984375 993.444396972656 987.744384765625 980.511474609375 983.779541015625 985.089538574219 990.432678222656 995.24658203125 993.327880859375 998.866821289062 995.154113769531 992.210205078125 988.25048828125 998.539855957031 998.877319335938 1008.87933349609 1011.60980224609 1009.58190917969 1031.76867675781 1026.01892089844 1023.85888671875 1029.38098144531 1034.67944335938 1036.91381835938 1047.21508789062 1061.81420898438 1057.94213867188 1064.66552734375 1064.88110351562 1070.90087890625 1082.79699707031 1096.89404296875 1105.58813476562 1118.93676757812 1124.83312988281 1133.50988769531 1147.9033203125 1156.14965820312 1153.3291015625 1148.83251953125
942.230895996094 946.95654296875 948.763732910156 942.51513671875 951.309997558594 955.396179199219 955.097412109375 958.917297363281 963.402282714844 976.972290039062 967.989501953125 965.704162597656 968.682556152344 976.140563964844 972.055725097656 968.158142089844 980.543395996094 979.93212890625 981.994689941406 971.875732421875 966.943237304688 963.654602050781 969.755676269531 966.851806640625 965.122131347656 973.382690429688 986.087158203125 982.015625 972.025146484375 974.057250976562 978.905212402344 977.430847167969 973.450988769531 971.733459472656 970.253295898438 966.977661132812 964.215454101562 968.090393066406 973.235717773438 970.720031738281 966.775024414062 966.172119140625 971.129699707031 971.057556152344 967.998901367188 968.585510253906 961.137268066406 964.017761230469 963.16943359375 967.748107910156 965.184936523438 960.506958007812 962.131774902344 967.423645019531 963.660461425781 970.555786132812 969.77685546875 973.425048828125 979.404968261719 983.38525390625 979.084289550781 972.064270019531 973.849914550781 961.717224121094 960.038330078125 970.847106933594 969.737976074219 963.688537597656 964.735412597656 966.644226074219 965.758972167969 968.590881347656 979.013488769531 967.523193359375 972.607604980469 967.29736328125 967.423461914062 977.259216308594 973.80810546875 972.938720703125 971.770568847656 970.016235351562 964.720825195312 967.057312011719 976.927185058594 978.066589355469 976.023498535156 980.213134765625 974.997619628906 974.905395507812 972.1298828125 981.230163574219 994.599731445312 994.908752441406 988.173950195312 992.488708496094 988.931823730469 985.105163574219 970.995300292969 964.523559570312 961.506164550781 977.076599121094 985.321166992188 983.035583496094 983.320861816406 980.201538085938 982.587280273438 980.555603027344 984.839782714844 980.738403320312 982.154724121094 989.85009765625 994.520812988281 989.1318359375 989.657958984375 995.142456054688 998.002807617188 999.746215820312 1002.79937744141 991.293395996094 991.625061035156 990.635009765625 997.248657226562 1008.11047363281 1002.26678466797 1018.11413574219 1025.12854003906 1028.66943359375 1027.69946289062 1029.30639648438 1032.0087890625 1038.07678222656 1036.25439453125 1041.39758300781 1046.92272949219 1058.47326660156 1069.3369140625 1071.6845703125 1070.09130859375 1077.18408203125 1092.71215820312 1109.47937011719 1122.65747070312 1123.5908203125 1129.35083007812 1148.87023925781 1154.50036621094 1157.16809082031 1165.24645996094 1158.69885253906
945.546081542969 948.639221191406 951.407653808594 942.7685546875 942.424743652344 950.457641601562 948.07177734375 964.889770507812 965.653930664062 968.20703125 972.052490234375 955.777526855469 966.002319335938 976.066772460938 972.021118164062 967.897766113281 970.523376464844 968.998901367188 982.471252441406 972.971740722656 972.901977539062 970.007507324219 966.603515625 964.851989746094 974.303405761719 968.680114746094 978.97265625 978.343872070312 977.1005859375 974.967041015625 979.64599609375 974.726623535156 969.712707519531 977.577209472656 975.954956054688 971.038696289062 970.344116210938 970.789611816406 975.306396484375 972.961059570312 971.673095703125 965.539184570312 965.589965820312 976.236511230469 974.9404296875 966.932067871094 961.504516601562 960.695129394531 965.692443847656 974.731201171875 975.586120605469 970.2607421875 965.645629882812 964.942016601562 958.354553222656 968.887756347656 975.682006835938 976.392517089844 980.526123046875 971.181579589844 973.845825195312 966.732055664062 966.876525878906 967.572692871094 970.005981445312 978.843933105469 970.782409667969 963.48486328125 960.072875976562 967.6201171875 970.604797363281 977.692993164062 979.347717285156 962.158203125 974.087890625 974.393920898438 976.778930664062 970.199157714844 974.919738769531 969.924011230469 968.280944824219 963.897155761719 962.104797363281 966.713317871094 977.799438476562 975.501037597656 974.075988769531 986.02490234375 978.015014648438 973.213195800781 971.79638671875 975.549133300781 983.723693847656 984.63134765625 989.796875 983.023010253906 985.474792480469 982.100158691406 974.170654296875 968.380981445312 978.217041015625 974.962646484375 976.889770507812 980.5048828125 970.463134765625 981.923950195312 991.7353515625 986.135131835938 985.253601074219 990.5517578125 992.551879882812 1003.26336669922 998.193420410156 1003.06024169922 996.143493652344 1002.89776611328 1005.52697753906 1006.4462890625 1002.63305664062 1008.95886230469 996.064636230469 1001.58630371094 1005.30187988281 1013.45324707031 1012.04681396484 1024.04504394531 1030.95141601562 1044.8515625 1036.97668457031 1029.02062988281 1040.6455078125 1038.69592285156 1042.70556640625 1045.4912109375 1049.89819335938 1066.61486816406 1063.32373046875 1073.04406738281 1082.44750976562 1094.70935058594 1106.01733398438 1123.43286132812 1125.21643066406 1133.51123046875 1134.44836425781 1144.33703613281 1158.54907226562 1165.46130371094 1170.38745117188 1172.45227050781
947.825500488281 949.206665039062 944.016052246094 949.440124511719 954.682861328125 956.116760253906 950.421569824219 953.514465332031 969.807678222656 966.514404296875 960.348876953125 967.442260742188 966.298461914062 975.61376953125 975.249572753906 964.968200683594 975.754028320312 970.869873046875 974.71044921875 973.133422851562 968.59130859375 971.662170410156 974.478942871094 973.500915527344 968.7373046875 976.510375976562 967.281127929688 971.200927734375 972.834655761719 975.706909179688 978.7138671875 975.214904785156 977.400695800781 980.445495605469 982.755493164062 977.707458496094 974.715026855469 972.287536621094 976.006774902344 979.469787597656 974.908813476562 967.430236816406 961.863098144531 975.0556640625 972.930969238281 963.976928710938 959.556640625 958.190368652344 961.277160644531 972.164489746094 968.957336425781 969.036254882812 964.816467285156 957.416870117188 958.5546875 965.579650878906 973.114379882812 975.82861328125 976.409851074219 983.610778808594 981.636657714844 969.089782714844 963.980773925781 969.670288085938 974.474548339844 971.661987304688 969.062377929688 974.7998046875 972.571411132812 971.656372070312 972.141845703125 974.414367675781 969.893493652344 971.053649902344 972.720642089844 972.4814453125 969.295654296875 969.760620117188 970.897216796875 968.204895019531 965.667297363281 969.965942382812 971.314636230469 961.78759765625 965.945983886719 970.478332519531 976.6220703125 972.040832519531 971.800476074219 969.036254882812 969.106811523438 973.599853515625 975.217407226562 981.262634277344 989.009338378906 985.581481933594 982.996215820312 976.233032226562 969.917663574219 970.333557128906 973.622314453125 977.45703125 979.151672363281 977.895141601562 981.685974121094 988.223510742188 999.052001953125 993.161499023438 995.955444335938 997.453247070312 1001.35528564453 1010.88446044922 1008.8125 997.502807617188 1007.13519287109 1004.91534423828 1009.07061767578 1001.94000244141 1010.13690185547 1011.36273193359 1014.18786621094 1003.31323242188 1005.89263916016 1018.88470458984 1023.45111083984 1029.56982421875 1042.78381347656 1042.8349609375 1039.9072265625 1043.8369140625 1047.44616699219 1039.71704101562 1045.18688964844 1048.74682617188 1054.84912109375 1060.93725585938 1066.24108886719 1078.55004882812 1088.58081054688 1093.30834960938 1109.79833984375 1125.04553222656 1125.685546875 1142.2734375 1146.203125 1147.27307128906 1159.86389160156 1168.47009277344 1174.90197753906 1175.4619140625
957.645935058594 957.064819335938 958.563354492188 949.4306640625 950.78955078125 959.019226074219 954.757507324219 959.046936035156 967.208679199219 963.154602050781 966.262145996094 966.839294433594 967.092224121094 974.393188476562 971.695007324219 968.07080078125 972.688110351562 973.111694335938 975.061828613281 970.04541015625 974.144409179688 972.382873535156 974.62109375 970.185729980469 968.441772460938 975.501892089844 971.72314453125 971.654907226562 972.056701660156 982.534545898438 974.51806640625 976.059448242188 976.002258300781 977.188720703125 976.638122558594 972.544189453125 966.602416992188 970.670043945312 978.925537109375 980.666442871094 973.793640136719 971.937866210938 969.101501464844 978.173767089844 964.180236816406 958.734252929688 966.389038085938 965.932250976562 963.926391601562 966.873779296875 975.950256347656 973.766418457031 967.495361328125 956.133666992188 954.811706542969 954.4443359375 973.642517089844 976.022583007812 976.425720214844 981.325805664062 983.786926269531 977.187622070312 969.117248535156 970.564514160156 973.890686035156 972.416625976562 964.802551269531 966.400207519531 969.539001464844 976.198547363281 971.669921875 966.071228027344 970.48095703125 973.54931640625 980.188781738281 972.994201660156 972.049255371094 964.745849609375 966.975769042969 971.44580078125 971.458923339844 970.107849121094 976.6103515625 966.218627929688 967.999145507812 978.265380859375 979.596435546875 972.904541015625 970.998168945312 964.895935058594 970.504638671875 976.347412109375 971.951782226562 979.215637207031 983.0380859375 977.659851074219 968.506774902344 963.851989746094 962.687622070312 967.601135253906 976.928649902344 983.921081542969 984.729675292969 977.625 981.828186035156 983.712829589844 996.883850097656 996.959594726562 998.476623535156 999.347900390625 995.277282714844 1004.20886230469 1009.98736572266 1005.68670654297 997.169799804688 1012.45324707031 1016.19915771484 1010.33972167969 1004.79040527344 1016.81707763672 1018.69891357422 1011.34106445312 1016.69171142578 1018.7021484375 1020.45141601562 1031.00769042969 1033.50500488281 1038.75366210938 1038.78503417969 1046.90576171875 1046.66088867188 1037.51489257812 1041.79418945312 1046.68774414062 1042.96875 1051.56323242188 1067.48278808594 1078.869140625 1087.70361328125 1092.97485351562 1108.48034667969 1113.02197265625 1125.45239257812 1133.53930664062 1142.16064453125 1150.17456054688 1159.85119628906 1174.66418457031 1174.13269042969 1171.00415039062
952.768371582031 961.132385253906 953.224853515625 951.925964355469 959.14306640625 961.371643066406 956.261108398438 963.294555664062 961.328186035156 967.511047363281 973.594360351562 972.598937988281 979.087646484375 972.255432128906 979.30712890625 977.191101074219 979.139282226562 965.685668945312 971.463562011719 970.7578125 972.92236328125 972.652160644531 976.607482910156 967.492492675781 965.346313476562 967.468688964844 970.208862304688 971.518432617188 967.671691894531 973.5830078125 984.213317871094 972.890869140625 977.598510742188 973.044982910156 976.7509765625 967.475646972656 966.969543457031 977.9716796875 981.766418457031 977.903137207031 975.374450683594 964.96923828125 965.366149902344 965.744201660156 965.648864746094 964.98828125 960.956726074219 964.347290039062 966.984313964844 975.579040527344 980.605590820312 981.64501953125 966.078979492188 964.544738769531 961.174560546875 958.795471191406 966.361877441406 969.725341796875 973.419799804688 972.859008789062 984.738098144531 980.510131835938 974.8125 969.991821289062 970.979675292969 971.244384765625 960.572998046875 961.394226074219 966.355285644531 970.3359375 968.262573242188 962.657470703125 969.301391601562 973.218078613281 974.636474609375 967.858093261719 964.20458984375 963.133361816406 966.667419433594 972.600524902344 966.803161621094 975.387268066406 970.128662109375 959.354553222656 964.913635253906 974.006774902344 968.659057617188 968.339538574219 972.84814453125 967.879638671875 967.929077148438 972.692077636719 976.250183105469 974.272583007812 980.652587890625 970.3095703125 970.016662597656 971.001342773438 970.877502441406 975.275085449219 975.786865234375 980.982177734375 983.248168945312 988.741516113281 987.73046875 992.534851074219 997.051086425781 995.062194824219 998.950256347656 997.701354980469 997.53173828125 1002.04803466797 1001.76409912109 1008.42028808594 1006.25744628906 1005.87744140625 1014.12182617188 1008.86383056641 1020.73626708984 1022.44982910156 1018.07891845703 1020.02105712891 1023.66369628906 1025.63232421875 1027.38525390625 1035.71240234375 1035.57763671875 1043.83996582031 1043.58044433594 1045.59350585938 1049.271484375 1041.93432617188 1044.06799316406 1048.232421875 1054.27807617188 1055.04870605469 1058.01135253906 1080.23901367188 1086.07727050781 1086.07604980469 1093.42041015625 1105.62963867188 1117.61376953125 1120.04443359375 1141.5009765625 1152.39916992188 1158.640625 1169.47790527344 1173.24768066406 1164.81396484375
951.637145996094 953.995056152344 950.670166015625 957.617370605469 954.357421875 965.041748046875 960.924499511719 962.459289550781 961.09521484375 975.193420410156 970.36572265625 983.348083496094 981.431457519531 976.978637695312 974.781982421875 975.809143066406 979.9453125 972.906555175781 968.737854003906 966.679443359375 968.388366699219 961.59130859375 975.343688964844 964.872802734375 959.908203125 960.539672851562 963.313598632812 967.068237304688 969.792419433594 972.177490234375 967.063903808594 965.608642578125 974.026916503906 974.595397949219 965.027038574219 967.493408203125 963.5146484375 967.214111328125 973.615783691406 972.161743164062 966.425598144531 973.941040039062 970.391235351562 959.419067382812 956.427124023438 960.126770019531 968.817016601562 972.950561523438 967.294860839844 974.356140136719 976.85693359375 980.219543457031 975.017883300781 972.843994140625 964.202209472656 962.274597167969 967.299499511719 969.316589355469 973.98388671875 971.092712402344 976.718017578125 980.938293457031 977.91748046875 976.111511230469 966.821716308594 964.960021972656 963.839721679688 958.207092285156 961.835510253906 968.799743652344 967.400817871094 962.695190429688 956.834533691406 963.633605957031 972.56591796875 974.486572265625 966.189514160156 966.327758789062 971.030029296875 960.768798828125 969.792175292969 978.952758789062 971.567199707031 967.64697265625 962.437683105469 965.2783203125 961.422668457031 971.297668457031 977.622619628906 975.040893554688 970.659545898438 970.779541015625 962.294067382812 959.1474609375 973.359313964844 980.355712890625 978.496459960938 976.846069335938 969.161865234375 974.075378417969 979.99951171875 983.127868652344 983.683654785156 988.8671875 976.164978027344 990.676208496094 998.178649902344 1002.09759521484 996.897094726562 1002.04937744141 997.48779296875 995.000732421875 1004.78668212891 1002.29803466797 1003.0419921875 1010.34301757812 1006.41540527344 1010.47174072266 1022.41650390625 1019.78283691406 1028.1064453125 1022.96691894531 1028.48559570312 1034.68713378906 1032.16479492188 1035.68078613281 1035.27490234375 1046.58959960938 1049.03552246094 1048.17431640625 1045.77221679688 1044.52185058594 1050.65246582031 1051.17199707031 1051.4384765625 1060.01391601562 1062.63293457031 1072.74267578125 1085.05932617188 1091.84545898438 1102.46337890625 1109.07849121094 1114.74072265625 1126.26452636719 1135.39660644531 1141.134765625 1149.16137695312 1156.6953125 1167.75500488281 1166.79064941406
957.320922851562 951.565795898438 960.823364257812 960.885192871094 960.839477539062 968.319458007812 961.633422851562 965.535949707031 970.818725585938 965.047546386719 971.326477050781 974.141723632812 984.534423828125 975.122619628906 979.205627441406 984.03662109375 980.073120117188 978.297180175781 968.929077148438 960.463134765625 971.667724609375 972.672729492188 965.042907714844 968.680603027344 960.774536132812 956.485900878906 962.482482910156 972.308349609375 965.687194824219 965.093872070312 963.538208007812 970.683227539062 973.781066894531 977.561157226562 975.312255859375 970.473327636719 960.08154296875 966.2841796875 963.82373046875 967.138549804688 961.635437011719 956.441528320312 953.359497070312 951.726440429688 960.365417480469 961.116638183594 971.049194335938 974.473571777344 965.283630371094 969.455627441406 981.347595214844 974.514587402344 977.287780761719 972.653137207031 966.034362792969 962.883117675781 961.126220703125 972.287109375 974.195556640625 963.141479492188 975.967956542969 971.5380859375 979.212158203125 974.354919433594 975.678588867188 972.845703125 970.6796875 971.397216796875 954.259704589844 962.390625 960.894409179688 963.485473632812 961.189819335938 970.55029296875 976.467712402344 969.278686523438 975.194152832031 963.340759277344 955.861877441406 963.410888671875 965.7109375 968.998718261719 970.357727050781 970.689880371094 971.025695800781 972.097961425781 973.294921875 965.557983398438 972.589233398438 982.580444335938 974.500244140625 971.354736328125 971.072326660156 965.748779296875 966.698181152344 980.562072753906 973.007202148438 973.090393066406 970.948669433594 977.615051269531 973.332336425781 977.584411621094 981.849182128906 991.955017089844 983.953063964844 982.000244140625 985.898681640625 999.155517578125 999.031921386719 997.738708496094 994.448425292969 999.209899902344 998.358581542969 1000.02130126953 1004.63012695312 1004.09893798828 1009.79296875 1014.19909667969 1014.14422607422 1020.02362060547 1031.87841796875 1023.32391357422 1026.11926269531 1038.61181640625 1041.552734375 1037.45642089844 1029.46374511719 1041.58776855469 1043.71398925781 1053.36169433594 1045.36499023438 1045.28002929688 1054.12670898438 1060.05676269531 1055.35327148438 1058.45336914062 1064.39038085938 1070.93176269531 1091.05871582031 1102.80395507812 1106.46472167969 1114.2822265625 1128.81726074219 1132.54870605469 1124.65100097656 1130.45190429688 1138.68688964844 1145.38720703125 1157.54187011719 1156.12683105469
956.796569824219 956.464111328125 959.27001953125 951.643798828125 958.405456542969 958.295349121094 959.995422363281 967.287048339844 968.580688476562 970.95556640625 967.844055175781 982.349182128906 973.527404785156 976.382690429688 976.952697753906 971.417663574219 973.576477050781 979.740295410156 966.364624023438 959.988647460938 965.102233886719 965.154907226562 962.745300292969 961.829650878906 963.759460449219 961.138610839844 961.755493164062 969.960510253906 957.88330078125 964.750305175781 971.525573730469 971.382873535156 982 970.278198242188 967.583862304688 968.588806152344 968.748596191406 960.912109375 962.275634765625 954.589721679688 953.004333496094 943.037658691406 948.316101074219 950.674072265625 955.830749511719 959.524353027344 978.754943847656 982.815490722656 976.08056640625 965.887329101562 970.297546386719 964.642578125 970.159790039062 975.69482421875 962.272583007812 967.765747070312 962.253601074219 964.556701660156 964.683837890625 957.617309570312 970.164001464844 973.874145507812 971.865112304688 976.658874511719 974.333312988281 967.346008300781 963.938598632812 964.340209960938 962.85205078125 967.605224609375 964.346313476562 959.638000488281 963.678344726562 967.263671875 974.749267578125 977.890075683594 971.61474609375 961.332641601562 955.553283691406 960.120300292969 972.786804199219 978.884216308594 974.26708984375 965.246215820312 979.200805664062 969.722595214844 971.278259277344 975.173095703125 971.268310546875 968.917297363281 960.195556640625 958.823608398438 967.356811523438 974.185729980469 968.486511230469 974.529846191406 973.878723144531 976.387084960938 979.304016113281 971.001525878906 973.24755859375 975.211486816406 976.213562011719 976.093139648438 982.344543457031 978.265258789062 985.811401367188 1001.07415771484 998.296997070312 1006.28918457031 994.484619140625 993.515808105469 997.399658203125 999.491821289062 1004.68432617188 1001.93658447266 1015.19982910156 1005.5537109375 1009.35754394531 1023.37762451172 1033.88049316406 1025.93640136719 1027.4267578125 1028.95837402344 1041.70239257812 1040.34899902344 1033.07373046875 1036.00378417969 1038.63061523438 1042.3701171875 1046.19946289062 1046.71813964844 1052.46118164062 1063.7578125 1063.97790527344 1062.78857421875 1065.25622558594 1076.74865722656 1095.36645507812 1102.20812988281 1106.87377929688 1115.15173339844 1125.03247070312 1122.09948730469 1121.41235351562 1126.91516113281 1122.86059570312 1125.50732421875 1142.41979980469 1153.1533203125
959.419372558594 955.510925292969 958.256958007812 963.84228515625 965.982543945312 958.110656738281 959.877197265625 970.550415039062 971.611328125 977.042175292969 977.3212890625 975.059143066406 974.867797851562 970.722412109375 974.691833496094 965.629211425781 973.85888671875 978.843017578125 969.28515625 960.542663574219 954.241516113281 964.827514648438 963.781433105469 968.070068359375 969.703430175781 968.433410644531 964.269775390625 966.65625 963.895874023438 969.365966796875 973.937622070312 967.236450195312 969.220825195312 974.749694824219 971.530029296875 967.935607910156 969.11669921875 969.063232421875 953.553955078125 955.71435546875 959.765747070312 959.789672851562 953.536315917969 955.710754394531 961.968017578125 970.895568847656 978.065979003906 973.581176757812 968.561889648438 964.942810058594 966.375671386719 957.509155273438 967.464111328125 968.074462890625 971.716491699219 967.009216308594 956.922912597656 959.414184570312 958.442321777344 951.090026855469 971.300903320312 969.320190429688 965.535827636719 966.541748046875 961.147277832031 960.206420898438 966.732788085938 960.974670410156 956.502807617188 959.449584960938 968.984130859375 971.312377929688 969.410461425781 964.616149902344 955.4462890625 963.688781738281 962.099426269531 965.841552734375 959.45947265625 961.3212890625 969.214477539062 978.90771484375 985.293029785156 977.500610351562 975.280456542969 974.178405761719 970.774536132812 968.026550292969 968.337707519531 960.529296875 959.679931640625 957.6513671875 968.42578125 976.494384765625 975.918823242188 972.995788574219 975.005554199219 974.942687988281 972.918762207031 969.590942382812 974.763305664062 979.059936523438 973.930969238281 969.847961425781 975.197937011719 981.599853515625 978.154968261719 989.346923828125 994.871887207031 993.639831542969 990.990844726562 990.390441894531 992.553466796875 992.370056152344 995.087585449219 997.080505371094 1000.99829101562 1005.92071533203 1006.11761474609 1016.63153076172 1028.68408203125 1024.08728027344 1027.89074707031 1034.61791992188 1030.1201171875 1034.65344238281 1036.41674804688 1031.70092773438 1033.40087890625 1039.87658691406 1043.23510742188 1049.44750976562 1060.22290039062 1058.82531738281 1067.67016601562 1069.46118164062 1072.39819335938 1087.04748535156 1093.30395507812 1107.38696289062 1107.59399414062 1105.10424804688 1116.68518066406 1116.30310058594 1116.732421875 1121.07141113281 1127.53149414062 1125.52490234375 1131.37768554688 1142.37475585938
957.513244628906 957.098754882812 955.352172851562 959.228576660156 968.313171386719 966.662536621094 970.972534179688 971.040710449219 967.968322753906 969.269104003906 971.3046875 974.509399414062 978.143859863281 980.577880859375 974.188720703125 967.105163574219 968.343444824219 967.91357421875 968.871032714844 958.630187988281 958.694885253906 957.722045898438 970.060974121094 964.030090332031 960.058288574219 961.937866210938 957.620239257812 958.971984863281 961.241455078125 965.751342773438 969.014831542969 965.7294921875 968.639831542969 968.208435058594 963.586303710938 958.567687988281 964.749267578125 967.738647460938 965.026245117188 961.846862792969 961.927124023438 965.284240722656 961.335327148438 956.352172851562 962.441589355469 968.139892578125 964.99755859375 964.462707519531 954.843444824219 960.086669921875 968.028381347656 958.786071777344 953.271179199219 956.564331054688 960.880737304688 957.611389160156 962.984436035156 959.188110351562 956.85302734375 957.267822265625 965.847717285156 959.152770996094 959.961486816406 957.345092773438 954.333801269531 952.778198242188 959.836181640625 954.447021484375 950.508972167969 951.40234375 960.32177734375 966.892700195312 966.341003417969 965.038818359375 959.808898925781 966.359008789062 964.941467285156 963.520446777344 965.009582519531 971.95263671875 967.761596679688 976.305419921875 983.811950683594 970.374389648438 979.363403320312 966.596435546875 959.373779296875 967.75048828125 968.834167480469 965.550170898438 966.5234375 971.528015136719 971.836303710938 965.907409667969 969.403442382812 967.170654296875 971.054748535156 975.932800292969 972.644653320312 967.243530273438 974.104064941406 973.443054199219 970.546936035156 970.444213867188 976.072631835938 975.830444335938 977.877990722656 988.006591796875 986.952819824219 984.603271484375 981.771362304688 977.844482421875 989.221496582031 994.2412109375 996.949340820312 996.416687011719 999.625793457031 1005.46209716797 1010.63238525391 1002.31787109375 1020.80480957031 1019.79583740234 1014.95947265625 1024.4306640625 1035.59741210938 1027.49780273438 1031.9912109375 1033.21704101562 1033.87316894531 1038.83813476562 1043.10070800781 1052.92077636719 1065.48669433594 1066.20092773438 1062.95007324219 1074.33276367188 1084.45227050781 1092.75378417969 1099.66125488281 1101.50830078125 1104.19165039062 1098.13195800781 1111.72583007812 1117.7333984375 1116.80407714844 1119.07690429688 1121.04235839844 1122.66003417969 1130.23620605469 1136.45153808594
957.156494140625 960.880187988281 955.123474121094 967.520690917969 973.762268066406 975.719421386719 978.776977539062 974.471069335938 975.222595214844 973.200439453125 976.342468261719 970.622985839844 977.226257324219 983.086181640625 978.965270996094 970.202514648438 968.149230957031 967.130554199219 965.327880859375 956.966674804688 961.19140625 961.127502441406 968.530395507812 968.736755371094 961.763427734375 961.46044921875 951.89404296875 962.448974609375 965.990966796875 970.360290527344 966.098449707031 967.223449707031 969.16845703125 967.757507324219 969.987060546875 961.603088378906 962.108642578125 969.616394042969 968.078247070312 958.841430664062 961.709533691406 960.614196777344 963.583312988281 964.255187988281 954.786193847656 958.331115722656 960.866821289062 948.497741699219 944.226379394531 947.46435546875 947.812927246094 952.70751953125 945.470825195312 956.089965820312 959.512634277344 952.948791503906 952.330017089844 952.502563476562 952.677429199219 961.367553710938 961.5966796875 961.982482910156 963.545166015625 961.198486328125 949.000305175781 955.938842773438 950.240417480469 953.387451171875 945.857543945312 953.23974609375 958.577880859375 958.476135253906 962.505737304688 956.612854003906 956.214416503906 964.218566894531 960.911682128906 954.570129394531 961.784240722656 964.843200683594 969.829406738281 973.327026367188 975.211364746094 980.436279296875 976.565368652344 974.659912109375 972.392944335938 971.692321777344 970.388000488281 971.046081542969 969.658935546875 964.763854980469 970.138977050781 972.868347167969 961.781433105469 964.95263671875 964.682983398438 969.158081054688 972.310974121094 962.861389160156 971.787719726562 971.544555664062 972.224487304688 979.085754394531 978.51416015625 981.702087402344 977.753601074219 977.302856445312 985.899291992188 980.47314453125 981.860168457031 989.309326171875 992.045104980469 996.127258300781 1004.90270996094 1000.95361328125 1000.23913574219 1003.90942382812 1010.3271484375 1011.86596679688 1014.60638427734 1017.18664550781 1021.03515625 1024.02233886719 1031.77380371094 1021.9375 1025.89904785156 1028.70715332031 1042.1923828125 1044.72412109375 1045.24035644531 1051.04614257812 1062.83081054688 1062.14404296875 1067.99572753906 1079.69262695312 1095.96838378906 1094.33361816406 1100.17578125 1096.46020507812 1093.37170410156 1102.37768554688 1108.02746582031 1120.62451171875 1113.76049804688 1114.1640625 1112.21166992188 1111.08349609375 1113.78552246094 1128.84509277344
961.004089355469 962.413391113281 964.919921875 961.817138671875 972.056274414062 980.536193847656 981.945251464844 978.02392578125 975.487426757812 973.955078125 973.544128417969 966.671630859375 978.438720703125 977.226379394531 978.917907714844 973.281616210938 969.0078125 973.070495605469 962.624389648438 960.497619628906 955.443664550781 947.223449707031 966.023864746094 966.745666503906 962.399841308594 968.157653808594 956.272827148438 954.629333496094 968.823425292969 967.780639648438 962.903015136719 969.076965332031 961.217895507812 972.7783203125 969.176086425781 969.665222167969 965.325317382812 963.383972167969 962.795593261719 972.367126464844 964.112670898438 959.865234375 958.641723632812 958.812072753906 959.306884765625 951.355102539062 951.818664550781 947.224731445312 950.120910644531 956.66650390625 955.989074707031 948.90283203125 949.010803222656 951.599609375 960.2431640625 950.178283691406 949.483825683594 954.662719726562 960.177062988281 958.630554199219 950.426025390625 955.914428710938 957.744812011719 962.125610351562 956.487915039062 951.818786621094 947.274108886719 946.442687988281 955.768249511719 951.658447265625 956.759765625 960.648132324219 961.538635253906 953.903503417969 957.596069335938 965.257080078125 962.122619628906 964.909057617188 963.486206054688 957.598388671875 965.056457519531 970.163513183594 974.343078613281 975.818115234375 981.470581054688 977.551513671875 974.905517578125 972.054870605469 965.7275390625 976.445495605469 964.403442382812 968.67578125 972.632995605469 976.13330078125 974.5908203125 976.375366210938 972.153747558594 966.029663085938 972.053894042969 972.48388671875 981.620483398438 973.296020507812 970.609375 971.72021484375 973.441040039062 966.597717285156 979.917602539062 978.058654785156 973.660583496094 979.755432128906 984.859802246094 983.410095214844 982.459533691406 982.062866210938 994.276733398438 1001.19110107422 1000.95007324219 994.412414550781 1005.1845703125 1004.10516357422 1015.60272216797 1023.24365234375 1021.16778564453 1025.3505859375 1027.79077148438 1025.84130859375 1026.35778808594 1027.4140625 1032.42956542969 1041.66223144531 1043.68518066406 1054.51025390625 1058.69897460938 1063.05224609375 1066.15856933594 1090.09753417969 1091.92529296875 1096.90576171875 1094.88305664062 1094.46655273438 1091.34704589844 1090.2666015625 1093.27233886719 1098.84301757812 1105.658203125 1102.56103515625 1091.10729980469 1106.89331054688 1111.63806152344 1120.70288085938
968.863952636719 962.977172851562 965.880737304688 968.945739746094 976.531188964844 980.666809082031 974.039184570312 975.989135742188 971.2548828125 967.13623046875 966.742492675781 975.795227050781 972.866271972656 982.781677246094 975.8486328125 975.969360351562 975.330688476562 968.123107910156 966.091735839844 947.394653320312 938.530395507812 943.941345214844 958.267150878906 964.771179199219 960.444885253906 962.856567382812 956.7861328125 952.038818359375 954.034240722656 963.369140625 967.9052734375 957.9091796875 957.873901367188 971.678833007812 964.769653320312 958.592163085938 962.088439941406 958.459777832031 957.628173828125 953.898254394531 953.87109375 959.075744628906 958.481262207031 956.804809570312 962.510498046875 952.607177734375 949.193542480469 949.578979492188 953.412231445312 960.641540527344 956.779907226562 959.909484863281 956.956481933594 950.243103027344 965.270874023438 962.968933105469 957.936950683594 951.239379882812 953.523803710938 954.022277832031 950.681274414062 961.405578613281 961.960144042969 971.100219726562 964.721984863281 951.629211425781 948.2294921875 953.846923828125 955.95458984375 954.371887207031 956.317993164062 951.417297363281 946.487548828125 955.087951660156 964.86962890625 958.871704101562 968.402282714844 977.701110839844 965.223999023438 957.087280273438 965.239135742188 971.907775878906 973.687438964844 977.89404296875 980.516296386719 979.577209472656 977.838317871094 971.939514160156 965.680480957031 964.771606445312 964.922302246094 968.310729980469 977.821411132812 973.129821777344 973.037658691406 981.584838867188 974.190185546875 967.248962402344 977.085327148438 984.3828125 977.723205566406 977.707275390625 976.507507324219 974.427734375 969.63720703125 980.129516601562 979.686218261719 976.644165039062 978.756408691406 979.618530273438 978.861083984375 983.052429199219 983.785522460938 980.718383789062 992.367980957031 991.58251953125 993.156555175781 997.112060546875 1003.40124511719 1006.34399414062 1018.30017089844 1017.10095214844 1012.84509277344 1018.61206054688 1023.46447753906 1029.10949707031 1034.91491699219 1032.90258789062 1033.69775390625 1044.05261230469 1046.3017578125 1048.55615234375 1054.02673339844 1074.220703125 1069.58959960938 1083.14489746094 1085.39111328125 1091.24304199219 1097.73596191406 1093.41918945312 1085.69177246094 1093.71240234375 1091.43835449219 1085.27709960938 1089.27038574219 1092.90087890625 1093.25415039062 1100.34582519531 1103.98779296875 1109.00061035156
971.484924316406 979.765625 977.748168945312 974.699462890625 974.974182128906 981.362915039062 977.026794433594 971.868835449219 975.82958984375 974.768798828125 967.731689453125 971.176940917969 973.362060546875 965.5771484375 977.857238769531 979.015686035156 973.640075683594 963.767700195312 962.054321289062 955.388977050781 951.088439941406 946.786560058594 945.309692382812 957.814147949219 952.844909667969 946.560485839844 949.728820800781 944.184326171875 948.162658691406 949.405395507812 952.084106445312 960.801696777344 953.42724609375 962.712646484375 966.063720703125 966.350402832031 957.906982421875 960.550109863281 957.470031738281 962.423950195312 954.72607421875 955.505859375 956.857360839844 956.690979003906 963.056762695312 961.471130371094 958.818237304688 947.423645019531 956.316528320312 958.091064453125 958.625671386719 947.41357421875 955.11474609375 964.211730957031 963.6923828125 957.150024414062 955.554931640625 956.102355957031 961.088073730469 953.286193847656 954.906372070312 956.637268066406 953.121337890625 960.374816894531 970.552062988281 961.193664550781 952.5380859375 950.545043945312 955.544799804688 946.257629394531 943.408508300781 945.630554199219 951.430053710938 951.477966308594 959.417846679688 959.318603515625 969.194946289062 969.941101074219 966.80029296875 957.213989257812 958.606567382812 966.224548339844 970.173767089844 973.703796386719 973.119689941406 978.682983398438 973.095458984375 972.952575683594 967.213073730469 962.927307128906 966.210998535156 968.597778320312 972.123901367188 972.879150390625 977.836486816406 975.308654785156 969.197326660156 967.898803710938 974.654052734375 984.665344238281 981.37890625 977.917419433594 978.850341796875 986.047973632812 974.460266113281 981.914306640625 981.277038574219 976.797485351562 981.378112792969 978.394165039062 986.800231933594 990.641418457031 988.819580078125 985.832092285156 986.067749023438 990.28662109375 988.22021484375 990.275329589844 991.442504882812 1001.93786621094 1002.53930664062 1005.49353027344 1008.43640136719 1016.44653320312 1016.44409179688 1013.62805175781 1024.22888183594 1020.79699707031 1024.06201171875 1035.17102050781 1051.24768066406 1050.25891113281 1055.39831542969 1065.3896484375 1074.20849609375 1085.0615234375 1095.90466308594 1087.861328125 1094.2939453125 1085.12573242188 1078.83459472656 1084.091796875 1094.94104003906 1084.10083007812 1093.76794433594 1094.2568359375 1089.25830078125 1094.54260253906 1096.08117675781 1103.595703125
970.359680175781 978.542907714844 981.025329589844 976.1142578125 974.381286621094 980.323364257812 977.009521484375 973.753601074219 968.57421875 962.939208984375 959.113403320312 963.431518554688 968.080932617188 958.489624023438 962.983764648438 968.645812988281 975.631530761719 965.365661621094 971.091796875 960.121459960938 950.632446289062 951.047973632812 947.972900390625 946.221740722656 944.924377441406 940.797424316406 941.557739257812 948.893493652344 950.37939453125 954.498718261719 953.181579589844 952.893127441406 950.328430175781 957.188232421875 969.536315917969 967.735290527344 960.829162597656 956.506774902344 956.054138183594 954.9638671875 951.103271484375 954.777954101562 959.354125976562 966.091796875 960.044677734375 952.306823730469 946.271057128906 954.002868652344 955.237426757812 948.950378417969 939.000061035156 947.366516113281 947.241516113281 956.123718261719 958.859069824219 961.508972167969 953.499633789062 960.602111816406 969.740295410156 964.375 966.057678222656 957.814208984375 961.641967773438 965.481567382812 959.59765625 963.631530761719 963.747680664062 955.7197265625 952.035217285156 943.450561523438 946.715698242188 951.377868652344 947.793823242188 955.265686035156 959.738586425781 960.236938476562 967.269653320312 967.312683105469 963.344665527344 955.713623046875 967.119079589844 967.137390136719 969.337158203125 975.838684082031 985.138488769531 984.313903808594 973.584655761719 969.555725097656 965.153625488281 965.227294921875 962.627258300781 969.958618164062 974.050415039062 981.732177734375 977.808715820312 973.350524902344 974.514770507812 969.533996582031 977.527709960938 984.67724609375 983.039306640625 981.066467285156 983.925354003906 989.59228515625 982.899230957031 982.48388671875 974.495971679688 978.200805664062 987.636169433594 989.00244140625 998.251586914062 998.982727050781 990.047912597656 991.943176269531 987.209655761719 994.470092773438 982.191955566406 988.862670898438 996.078857421875 999.279296875 999.706604003906 1005.82604980469 1010.51965332031 1011.53637695312 1016.02789306641 1015.44989013672 1009.2822265625 1003.86151123047 1007.79876708984 1020.48260498047 1035.62048339844 1042.068359375 1043.83471679688 1058.57958984375 1063.28466796875 1074.42944335938 1081.40808105469 1083.7626953125 1085.09533691406 1083.9814453125 1082.68505859375 1077.58850097656 1086.48071289062 1076.00268554688 1080.75842285156 1086.13635253906 1087.38159179688 1099.33374023438 1084.06994628906 1088.24768066406
969.709533691406 977.380310058594 977.373779296875 975.335876464844 976.14013671875 977.976745605469 980.116943359375 972.489318847656 964.510314941406 966.219299316406 957.570556640625 961.489501953125 965.171691894531 963.249633789062 958.24560546875 960.586364746094 958.734497070312 953.851135253906 958.240051269531 963.572021484375 950.742919921875 946.532287597656 943.563659667969 936.886535644531 942.312316894531 940.769836425781 941.168090820312 949.856323242188 954.352661132812 955.498962402344 946.258056640625 951.30712890625 950.665222167969 956.582580566406 962.994567871094 966.665649414062 963.007751464844 960.750061035156 962.986145019531 963.893859863281 954.754028320312 952.567626953125 952.258239746094 953.807678222656 952.464477539062 953.23974609375 954.337707519531 948.757751464844 957.458862304688 946.824645996094 945.744506835938 951.018859863281 951.455444335938 957.354736328125 958.739318847656 953.143005371094 953.109252929688 957.565368652344 960.176025390625 957.78662109375 967.199890136719 966.5205078125 966.353942871094 965.798583984375 962.0625 961.477600097656 960.422241210938 963.565368652344 963.6884765625 954.942810058594 954.162963867188 962.083190917969 956.174499511719 957.3623046875 961.294799804688 966.872497558594 971.213439941406 957.938354492188 961.909729003906 959.152893066406 964.072387695312 970.073547363281 974.137084960938 973.368347167969 975.692932128906 983.353637695312 975.925109863281 969.759704589844 970.395202636719 965.546142578125 979.376220703125 972.514282226562 966.558776855469 975.524963378906 982.766662597656 974.10888671875 970.88818359375 974.501831054688 974.404235839844 978.369995117188 983.425354003906 985.641052246094 982.565795898438 988.841125488281 985.892883300781 993.172180175781 981.158325195312 985.484008789062 992.328186035156 997.059204101562 998.16552734375 993.494262695312 986.77392578125 986.01025390625 989.241333007812 986.515808105469 992.283874511719 1003.23400878906 1007.75280761719 1006.82672119141 1005.58972167969 1005.17108154297 1005.07928466797 1014.67462158203 1010.65313720703 1012.14263916016 1004.17071533203 1001.18237304688 1004.17694091797 1017.47576904297 1023.61688232422 1035.29284667969 1040.5234375 1048.85290527344 1060.13525390625 1063.00402832031 1062.58361816406 1068.23510742188 1069.3984375 1073.42785644531 1064.46801757812 1062.75256347656 1058.81958007812 1050.02087402344 1063.98461914062 1070.88513183594 1077.14953613281 1077.83679199219 1078.39392089844 1078.70910644531
974.199340820312 977.219543457031 975.518615722656 976.411071777344 977.289245605469 979.311157226562 975.005432128906 973.634521484375 978.723510742188 966.106628417969 957.129211425781 958.643920898438 958.127380371094 960.229858398438 959.278747558594 956.624755859375 955.792602539062 954.257507324219 950.538635253906 956.065307617188 954.083862304688 944.365417480469 936.370788574219 946.214111328125 940.708679199219 940.140319824219 935.847534179688 953.814453125 955.620544433594 948.799194335938 940.408935546875 937.997863769531 950.8212890625 949.99462890625 957.121276855469 963.123779296875 966.213256835938 967.983215332031 960.107971191406 953.247497558594 948.775207519531 949.741638183594 951.879150390625 949.427124023438 953.930908203125 953.032043457031 954.3046875 958.294250488281 952.922668457031 955.855102539062 946.442260742188 954.594970703125 942.939636230469 953.066833496094 950.167419433594 958.631774902344 955.002868652344 952.8701171875 961.998962402344 963.704956054688 968.386596679688 971.8349609375 966.629333496094 959.268371582031 960.655639648438 963.225402832031 964.402709960938 962.515197753906 958.994995117188 968.3720703125 964.333190917969 961.379516601562 961.999084472656 962.836486816406 966.816589355469 961.617736816406 964.014526367188 966.507751464844 965.483703613281 966.496032714844 971.298706054688 968.460327148438 962.910522460938 963.763854980469 970.339965820312 970.088623046875 975.607299804688 978.085754394531 968.82080078125 969.14990234375 963.694274902344 970.038513183594 964.356140136719 968.048156738281 981.97314453125 978.325866699219 971.021118164062 972.206665039062 975.377075195312 978.387817382812 976.385864257812 981.766052246094 981.707336425781 985.891784667969 985.555480957031 987.716247558594 991.637817382812 990.777404785156 991.364379882812 997.722412109375 999.002990722656 988.305419921875 990.569152832031 992.704040527344 988.854858398438 988.763000488281 993.896850585938 1009.49859619141 1007.70379638672 1006.18798828125 1003.86352539062 1012.55053710938 1016.29229736328 1023.74066162109 1014.11639404297 1018.12115478516 1016.27026367188 999.785095214844 1002.54345703125 1015.39697265625 1020.85705566406 1033.68542480469 1044.16906738281 1054.73120117188 1060.40161132812 1059.51513671875 1061.76403808594 1061.10546875 1063.42260742188 1067.70471191406 1053.9375 1049.26843261719 1042.79455566406 1040.67700195312 1052.56115722656 1057.06030273438 1053.30847167969 1057.57373046875 1069.74951171875 1066.9140625
956.520141601562 962.449645996094 971.028930664062 967.824584960938 971.951049804688 982.803283691406 969.608154296875 970.629211425781 974.651000976562 967.466918945312 966.298095703125 951.9638671875 951.501281738281 945.915893554688 954.669738769531 954.050720214844 949.640625 950.826904296875 950.636901855469 950.812316894531 945.545104980469 934.140991210938 938.506225585938 938.178405761719 953.273498535156 944.984130859375 943.359741210938 954.497497558594 956.787353515625 948.604370117188 945.925415039062 948.003540039062 948.841552734375 952.929992675781 950.482604980469 948.866394042969 956.43798828125 954.066711425781 954.3427734375 947.629333496094 948.637023925781 957.015197753906 951.915344238281 954.831848144531 956.246765136719 955.637817382812 945.581848144531 947.301330566406 942.582275390625 948.341796875 953.569885253906 954.854675292969 947.352661132812 948.948059082031 947.677551269531 947.728149414062 955.259643554688 955.603637695312 947.637878417969 955.940368652344 960.341003417969 965.705627441406 960.272216796875 957.869506835938 953.288940429688 959.482788085938 966.9697265625 952.138854980469 955.407592773438 955.769775390625 965.641540527344 964.077819824219 967.62353515625 965.905517578125 968.90966796875 963.714965820312 969.969177246094 967.362182617188 964.027099609375 963.958862304688 970.896850585938 962.399108886719 963.62353515625 959.627014160156 965.242309570312 975.655822753906 973.536010742188 971.901245117188 973.535400390625 975.951110839844 966.403503417969 963.859924316406 970.478393554688 974.559753417969 982.495422363281 980.235168457031 975.189758300781 978.468017578125 964.95166015625 967.443115234375 973.850891113281 989.321716308594 986.441101074219 981.205749511719 985.938293457031 981.120544433594 988.622314453125 987.894958496094 987.806396484375 996.071228027344 1000.97174072266 987.819641113281 989.259887695312 993.943237304688 996.272033691406 999.272888183594 1010.37139892578 1002.60656738281 1006.24493408203 1006.02423095703 1005.15338134766 1010.18377685547 1013.02923583984 1018.93536376953 1021.4931640625 1017.40808105469 1019.37615966797 1014.70373535156 1011.62524414062 1017.30657958984 1027.49633789062 1036.66821289062 1052.8212890625 1053.7646484375 1060.88330078125 1068.61389160156 1064.28857421875 1058.81066894531 1063.24645996094 1057.33984375 1047.62548828125 1034.44616699219 1026.27819824219 1028.177734375 1035.826171875 1041.56298828125 1045.67639160156 1046.98266601562 1061.02624511719 1061.89025878906
952.528686523438 949.36962890625 960.590454101562 967.327331542969 967.428344726562 973.124755859375 967.715148925781 968.510070800781 972.907409667969 970.004028320312 963.087768554688 948.600952148438 945.327331542969 941.927124023438 954.400451660156 955.245056152344 937.529907226562 944.038208007812 941.653076171875 954.366760253906 944.628784179688 934.118286132812 948.963745117188 948.687744140625 954.200622558594 944.178161621094 946.37890625 951.372985839844 948.231689453125 946.590026855469 949.8583984375 948.756286621094 954.281799316406 955.757690429688 954.713928222656 942.701843261719 954.067749023438 952.375 951.5126953125 952.833862304688 948.605529785156 941.977722167969 952.590148925781 953.559448242188 945.489440917969 951.789794921875 941.467224121094 950.482238769531 948.906616210938 953.227416992188 954.304809570312 950.365417480469 949.100036621094 957.121643066406 959.85791015625 959.878662109375 958.538208007812 959.848999023438 962.11083984375 961.6748046875 957.95654296875 965.201354980469 964.394348144531 963.501770019531 961.238830566406 961.650329589844 963.809692382812 959.180236816406 960.122741699219 958.716552734375 961.576049804688 957.657043457031 969.143188476562 970.397583007812 969.798645019531 968.480651855469 972.011108398438 965.524963378906 963.498168945312 962.372863769531 972.536743164062 969.189392089844 970.086242675781 969.073425292969 966.196350097656 970.93896484375 976.098388671875 981.595642089844 972.269775390625 969.139465332031 962.842895507812 964.605224609375 966.873657226562 973.890747070312 973.615539550781 972.710021972656 970.451965332031 975.830932617188 969.907165527344 978.154907226562 979.948974609375 987.910827636719 985.057861328125 981.059020996094 977.372131347656 994.756652832031 987.711853027344 983.498046875 985.73876953125 987.428771972656 981.057189941406 989.710205078125 994.46142578125 1000.56646728516 1002.32843017578 1011.29522705078 1009.01013183594 1008.78924560547 1006.22967529297 1008.69555664062 1013.77911376953 1007.24798583984 1012.22357177734 1012.67041015625 1013.92138671875 1015.22515869141 1019.36981201172 1017.19445800781 1022.30841064453 1027.4150390625 1032.56457519531 1044.79821777344 1049.27209472656 1063.21313476562 1067.55041503906 1070.529296875 1061.21948242188 1060.4951171875 1058.845703125 1052.599609375 1034.98583984375 1027.01708984375 1022.35321044922 1023.18255615234 1029.90002441406 1032.58361816406 1031.34448242188 1032.95471191406 1038.66381835938 1050.36206054688
