NCOLS 150
NROWS 37
XLLCORNER 7394249
YLLCORNER 4841999
CELLSIZE 30
NODATA_VALUE -9999
953.803771972656 955.275268554688 956.62451171875 966.453735351562 967.999816894531 963.902038574219 962.796447753906 960.257873535156 965.54150390625 963.999389648438 953.05810546875 951.600463867188 947.088623046875 949.821533203125 950.687927246094 949.149475097656 951.200073242188 952.741394042969 949.348510742188 953.965759277344 949.072326660156 947.970336914062 949.127502441406 943.049133300781 940.868225097656 942.9990234375 939.89501953125 942.378845214844 942.528259277344 939.465576171875 943.991760253906 954.864868164062 950.66552734375 950.808471679688 953.385620117188 955.997131347656 954.472595214844 956.358703613281 951.880920410156 943.492919921875 946.828308105469 946.58154296875 960.290588378906 956.951538085938 961.672424316406 961.165710449219 962.307861328125 969.787536621094 972.666809082031 977.542724609375 978.559204101562 979.727111816406 979.070190429688 974.686950683594 970.983154296875 960.36865234375 954.391540527344 962.6396484375 967.145080566406 969.200500488281 971.428955078125 962.894897460938 964.823364257812 958.055236816406 959.671936035156 961.879150390625 969.079223632812 965.721740722656 959.565734863281 968.050964355469 976.481567382812 968.863830566406 968.519470214844 965.900390625 968.903503417969 965.511901855469 963.201232910156 967.653198242188 970.212463378906 968.739990234375 970.521057128906 972.480041503906 973.945739746094 978.113647460938 980.500854492188 976.072265625 981.719299316406 974.745544433594 980.547241210938 972.37255859375 966.598876953125 963.81689453125 962.869384765625 978.859375 978.498657226562 988.227905273438 987.519409179688 989.502563476562 997.001525878906 996.633850097656 996.292297363281 989.080505371094 988.196228027344 986.434997558594 993.339050292969 1006.52136230469 997.876953125 1002.97662353516 1002.6962890625 999.419860839844 1001.55072021484 1008.31164550781 1005.75274658203 1010.84234619141 1022.15417480469 1031.47058105469 1034.34423828125 1028.58044433594 1021.92681884766 1025.18005371094 1024.06262207031 1019.44891357422 1018.53601074219 1013.08172607422 1026.90490722656 1023.65637207031 1026.15380859375 1031.09948730469 1032.00085449219 1035.41247558594 1039.03747558594 1040.935546875 1041.3193359375 1030.173828125 1026.09741210938 1032.73498535156 1041.27868652344 1038.71240234375 1047.37841796875 1036.56335449219 1034.99548339844 1032.20947265625 1026.65270996094 1023.77368164062 1024.29821777344 1026.06494140625 1026.75158691406 1029.29663085938 1022.49523925781 1028.333984375
957.260681152344 957.00537109375 956.369079589844 959.213195800781 965.853759765625 961.777954101562 957.628295898438 962.121459960938 969.39990234375 958.928405761719 953.486083984375 951.976806640625 944.08447265625 943.481018066406 947.978881835938 941.331909179688 937.30078125 945.611877441406 953.071350097656 950.659057617188 943.578186035156 943.185791015625 952.018432617188 946.406616210938 944.463745117188 949.553771972656 944.992553710938 945.071655273438 939.635620117188 940.392761230469 949.010559082031 950.013610839844 951.700622558594 952.061767578125 953.568725585938 954.839477539062 955.876525878906 964.582641601562 961.468444824219 949.760070800781 953.117858886719 950.167358398438 966.263427734375 964.165588378906 971.03564453125 968.681213378906 968.798522949219 974.263244628906 978.218627929688 985.386169433594 981.594360351562 980.852844238281 980.721496582031 972.548095703125 965.4013671875 965.797058105469 958.829162597656 956.798034667969 966.138793945312 974.466552734375 969.419555664062 966.628784179688 957.323120117188 964.717468261719 956.876159667969 964.379028320312 967.376770019531 972.466674804688 964.993530273438 971.625915527344 973.016052246094 969.980102539062 964.537109375 972.726013183594 971.74072265625 969.539428710938 962.556518554688 968.310119628906 970.01708984375 971.421203613281 981.121398925781 980.397644042969 979.416320800781 980.570251464844 987.021911621094 984.394653320312 977.519714355469 972.982727050781 977.128967285156 987.350524902344 978.1259765625 974.544006347656 975.410705566406 978.913208007812 975.257934570312 983.188110351562 997.951782226562 999.713439941406 997.6474609375 1002.76312255859 998.205444335938 993.101684570312 995.996765136719 987.195434570312 988.724182128906 1004.39337158203 1001.06188964844 1003.33624267578 997.744689941406 1009.41766357422 1001.22955322266 1015.41320800781 1021.69940185547 1014.38702392578 1022.62365722656 1034.68298339844 1037.87133789062 1038.27087402344 1029.07482910156 1038.66381835938 1028.69299316406 1022.35095214844 1022.75012207031 1023.92749023438 1024.2490234375 1025.84399414062 1018.69787597656 1023.65686035156 1034.02575683594 1049.46813964844 1044.97326660156 1042.23193359375 1035.23425292969 1028.18408203125 1028.15673828125 1036.72778320312 1031.14709472656 1040.07934570312 1033.61682128906 1030.13012695312 1038.13940429688 1037.61889648438 1026.498046875 1015.83215332031 1025.00610351562 1019.59539794922 1022.50787353516 1018.61157226562 1019.66040039062 1027.26745605469
951.738159179688 947.835144042969 959.255310058594 961.328308105469 962.38916015625 959.578857421875 965.007568359375 962.041137695312 966.780700683594 955.827941894531 947.903869628906 949.655395507812 944.248840332031 942.683410644531 944.690063476562 950.930419921875 944.657531738281 944.476745605469 939.581604003906 942.137878417969 939.936767578125 938.026672363281 947.01123046875 945.8857421875 941.495971679688 946.258178710938 939.490417480469 946.0771484375 944.514038085938 947.321105957031 950.729431152344 952.035339355469 951.667724609375 944.329772949219 958.019226074219 956.308959960938 962.132141113281 961.99560546875 956.532775878906 946.018127441406 957.453979492188 954.358093261719 960.907653808594 960.635681152344 967.98876953125 964.770874023438 972.528686523438 977.306030273438 979.929504394531 982.078491210938 978.927551269531 978.392639160156 977.352294921875 972.360168457031 968.381103515625 964.01708984375 962.273498535156 968.855529785156 971.927551269531 971.432189941406 970.563781738281 968.21337890625 964.318969726562 962.810546875 961.418518066406 971.878540039062 969.1318359375 969.122924804688 970.857116699219 970.760986328125 976.302978515625 973.723083496094 978.578918457031 982.332580566406 978.666137695312 968.455200195312 967.425537109375 967.660400390625 971.817077636719 972.066467285156 981.209838867188 979.607360839844 983.898376464844 991.095092773438 991.880920410156 989.8232421875 977.444213867188 977.508972167969 971.987731933594 979.360168457031 986.727355957031 978.268737792969 979.180297851562 978.484008789062 980.540771484375 979.501586914062 983.85693359375 995.56689453125 999.230773925781 1004.45428466797 1003.88549804688 996.951049804688 992.1171875 993.670227050781 997.757995605469 996.449096679688 1000.69079589844 1004.76751708984 1000.89971923828 1011.03082275391 1019.16357421875 1018.55017089844 1017.14764404297 1015.82287597656 1024.97387695312 1026.86352539062 1039.66540527344 1030.50207519531 1033.20703125 1033.89868164062 1035.70812988281 1030.22216796875 1026.12634277344 1033.4912109375 1030.11169433594 1028.341796875 1024.7001953125 1029.26916503906 1038.17333984375 1036.65490722656 1045.39184570312 1045.43896484375 1036.10961914062 1035.60766601562 1021.29718017578 1028.287109375 1029.6142578125 1035.26843261719 1034.30334472656 1040.27258300781 1034.52685546875 1034.56359863281 1022.18542480469 1016.95391845703 1017.19714355469 1005.65051269531 1002.65545654297 1009.92858886719 1024.74291992188 1025.11389160156
954.179504394531 949.62451171875 955.001037597656 954.968688964844 961.035034179688 954.150756835938 953.263305664062 947.757019042969 949.55615234375 945.910583496094 941.7548828125 947.370788574219 943.115417480469 947.367248535156 953.199768066406 955.699584960938 944.473876953125 941.073852539062 942.24267578125 939.379333496094 941.140014648438 944.802612304688 946.629272460938 947.99951171875 947.012878417969 947.778564453125 949.851196289062 945.871643066406 946.576049804688 948.560729980469 961.551086425781 958.921630859375 952.712036132812 947.41357421875 949.957885742188 956.4365234375 960.828125 962.671997070312 957.066711425781 954.62646484375 953.724487304688 956.73681640625 961.285095214844 968.350524902344 960.764709472656 965.084655761719 970.759765625 981.556030273438 981.9619140625 977.249450683594 980.112609863281 977.146057128906 978.587341308594 974.416687011719 963.061462402344 966.125122070312 965.388488769531 973.429260253906 976.823547363281 974.089172363281 967.006164550781 965.669982910156 965.972229003906 965.931396484375 962.632873535156 964.076049804688 968.215942382812 966.337829589844 965.045104980469 968.448425292969 974.046142578125 978.967712402344 974.889831542969 975.513244628906 979.540405273438 975.529968261719 965.729919433594 972.383666992188 969.546447753906 981.651123046875 974.045532226562 980.917724609375 981.29052734375 986.312866210938 985.345886230469 976.266662597656 971.104919433594 982.228881835938 982.513671875 978.328552246094 987.720031738281 980.451538085938 973.566528320312 979.187622070312 975.565612792969 973.930541992188 984.192504882812 992.64892578125 999.030395507812 996.277221679688 1007.18957519531 1005.74890136719 995.421936035156 988.663940429688 989.499267578125 995.240173339844 1001.13989257812 992.204772949219 1004.69879150391 1018.47082519531 1020.53137207031 1023.18334960938 1021.81671142578 1021.85137939453 1014.66619873047 1028.91320800781 1030.22705078125 1031.73571777344 1029.27709960938 1036.38977050781 1043.09826660156 1030.60168457031 1034.65759277344 1038.685546875 1031.6494140625 1029.07897949219 1034.81848144531 1032.82141113281 1036.2802734375 1030.15173339844 1033.01184082031 1034.86962890625 1042.51904296875 1030.46142578125 1029.86572265625 1027.02014160156 1038.41687011719 1036.77185058594 1036.15954589844 1031.09057617188 1030.10571289062 1020.43682861328 1020.47283935547 1017.74768066406 1010.97491455078 1005.6005859375 1003.86334228516 1009.23602294922 1010.97424316406 1023.14001464844
956.9443359375 956.368774414062 957.732543945312 950.629211425781 947.947570800781 957.342651367188 951.238403320312 955.774963378906 946.866516113281 942.845031738281 934.243347167969 932.848754882812 950.817016601562 954.186828613281 957.110168457031 956.183776855469 950.609130859375 950.376770019531 948.852966308594 950.764953613281 950.576477050781 945.971618652344 945.158325195312 946.601318359375 946.698059082031 952.813293457031 964.525512695312 955.127380371094 960.646362304688 961.9033203125 963.789001464844 965.713012695312 956.399658203125 946.1201171875 943.158508300781 950.358337402344 960.746887207031 966.470458984375 962.039001464844 962.246215820312 961.035888671875 965.448303222656 962.368286132812 954.613342285156 960.1123046875 969.320922851562 974.292297363281 981.890930175781 981.086120605469 976.202453613281 983.998840332031 974.363098144531 975.669006347656 975.366638183594 969.954650878906 967.685241699219 968.047180175781 976.500122070312 978.285461425781 975.221740722656 967.310607910156 958.015380859375 963.42919921875 959.95947265625 955.335510253906 969.635131835938 972.511535644531 971.75439453125 970.310241699219 974.143920898438 970.931335449219 972.928161621094 969.538330078125 978.772583007812 975.374267578125 976.294616699219 972.024353027344 976.461669921875 976.203979492188 982.309143066406 976.196655273438 985.196411132812 979.115905761719 978.893859863281 980.709838867188 980.171203613281 978.067077636719 977.750671386719 981.0205078125 982.598083496094 981.675537109375 985.799194335938 985.172790527344 984.188110351562 978.074584960938 986.157104492188 987.541198730469 990.360595703125 996.363525390625 998.252319335938 1001.09497070312 1002.05993652344 996.584899902344 998.825134277344 990.518615722656 997.106750488281 996.76806640625 997.464904785156 998.73291015625 1013.12237548828 1020.04211425781 1021.81927490234 1028.73950195312 1024.8310546875 1018.65179443359 1023.04571533203 1029.98608398438 1038.93395996094 1041.33251953125 1039.92541503906 1039.58068847656 1037.5751953125 1045.3349609375 1039.93701171875 1039.04309082031 1035.35900878906 1026.048828125 1026.90466308594 1020.9033203125 1025.12109375 1030.16088867188 1032.55932617188 1035.33215332031 1027.15319824219 1037.95642089844 1026.72302246094 1029.427734375 1030.31005859375 1034.22119140625 1021.81353759766 1021.24755859375 1016.80865478516 1015.21258544922 1009.88793945312 1015.00994873047 1007.6982421875 1005.22338867188 1001.20269775391 1014.27319335938 1022.79211425781
953.851440429688 955.304443359375 952.924255371094 954.211486816406 955.869018554688 949.83447265625 958.343994140625 950.294921875 941.896362304688 941.385803222656 932.78271484375 931.405151367188 955.060485839844 965.759948730469 960.071594238281 958.773864746094 951.273986816406 955.27197265625 954.785339355469 951.174255371094 946.184631347656 943.930236816406 940.7763671875 953.270080566406 954.0595703125 957.770385742188 968.406127929688 962.424194335938 959.166320800781 948.260314941406 965.298461914062 964.451965332031 952.180236816406 948.083557128906 944.741027832031 949.895751953125 958.938232421875 958.815368652344 965.054382324219 968.769592285156 962.986511230469 964.59912109375 961.496520996094 966.383239746094 972.85546875 977.884216308594 976.004028320312 977.385437011719 970.832641601562 977.861755371094 982.960815429688 985.609436035156 980.797607421875 977.623962402344 975.585205078125 969.477172851562 979.606262207031 976.559692382812 981.768981933594 974.773315429688 970.324768066406 962.862365722656 963.330688476562 967.035827636719 958.156921386719 967.799194335938 970.176330566406 968.257751464844 973.645324707031 975.213317871094 980.255554199219 974.337707519531 971.75732421875 974.225158691406 974.752197265625 984.90966796875 979.162231445312 979.879150390625 980.696899414062 969.844787597656 980.075439453125 981.029968261719 986.059814453125 986.726440429688 982.646911621094 983.18017578125 979.307556152344 977.346984863281 981.824645996094 991.833435058594 981.360900878906 987.462585449219 984.941284179688 991.117736816406 990.4462890625 988.562561035156 987.280456542969 994.791259765625 995.241088867188 1003.15203857422 996.568359375 999.720397949219 1000.59039306641 1008.73675537109 994.070129394531 987.086059570312 1000.92822265625 1007.84436035156 1006.08843994141 1017.91851806641 1016.71148681641 1020.74108886719 1025.14270019531 1027.05297851562 1026.48864746094 1022.08148193359 1033.611328125 1040.24487304688 1042.94616699219 1056.57934570312 1049.61010742188 1048.033203125 1048.87658691406 1046.22229003906 1043.91162109375 1037.02978515625 1028.8525390625 1023.59094238281 1016.06976318359 1026.91088867188 1018.09222412109 1023.21759033203 1033.35290527344 1022.68615722656 1034.06005859375 1028.29577636719 1040.41247558594 1035.43957519531 1030.54418945312 1020.78369140625 1019.63348388672 1013.01226806641 1004.56799316406 1016.62878417969 1012.94171142578 1002.24871826172 1008.05017089844 1003.94958496094 1010.38220214844 1028.29455566406
941.093078613281 949.432556152344 953.908020019531 953.811767578125 943.839904785156 943.589111328125 951.9794921875 941.555847167969 932.093200683594 939.51416015625 949.817626953125 943.5458984375 951.977783203125 963.811706542969 962.890319824219 970.016906738281 965.413146972656 964.709289550781 966.048095703125 961.352966308594 954.635437011719 951.99951171875 954.707824707031 954.193542480469 962.750915527344 964.020446777344 957.804382324219 959.589111328125 962.751831054688 946.971923828125 960.326538085938 957.052307128906 952.820983886719 951.761108398438 957.598388671875 958.340637207031 963.551391601562 962.997924804688 969.806213378906 967.128540039062 969.627197265625 964.385925292969 962.849609375 971.404907226562 983.271179199219 987.753662109375 981.134338378906 986.288452148438 979.621520996094 988.15478515625 993.410888671875 990.130187988281 976.893371582031 984.723815917969 983.191711425781 979.923706054688 979.304748535156 986.810607910156 983.809509277344 971.106201171875 972.099548339844 969.4833984375 977.011291503906 959.463745117188 961.077514648438 972.012634277344 976.198181152344 969.336242675781 971.371887207031 972.722534179688 974.431762695312 975.741638183594 976.920166015625 978.722412109375 968.426940917969 987.845092773438 988.856567382812 985.119934082031 976.985534667969 977.619812011719 982.430786132812 987.081787109375 984.5869140625 996.14404296875 988.296813964844 985.749755859375 986.108276367188 985.264770507812 983.862609863281 987.230224609375 979.670043945312 979.117004394531 981.407531738281 994.047546386719 991.040222167969 994.9365234375 988.636169433594 992.423645019531 994.610412597656 986.442016601562 994.870544433594 998.93017578125 999.846374511719 993.318298339844 991.973999023438 990.531677246094 1001.04821777344 1005.89135742188 1009.9912109375 1014.75756835938 1024.43078613281 1019.20819091797 1030.13415527344 1028.02270507812 1029.0556640625 1032.92211914062 1036.76025390625 1039.52868652344 1052.78869628906 1052.68518066406 1057.24096679688 1052.59057617188 1043.03479003906 1034.64880371094 1036.1669921875 1034.25793457031 1024.26672363281 1021.17913818359 1025.87512207031 1021.59100341797 1015.66094970703 1023.39923095703 1018.76403808594 1028.18969726562 1022.38446044922 1028.84997558594 1029.37194824219 1033.21435546875 1020.55682373047 1021.29907226562 1018.20776367188 1011.43493652344 1001.50646972656 1004.20556640625 1001.75524902344 998.526794433594 999.216003417969 1002.03863525391 1009.74475097656 1021.51666259766
952.747924804688 950.60107421875 954.878723144531 948.376708984375 948.580505371094 946.419677734375 943.721618652344 936.535095214844 933.025207519531 940.008422851562 942.221069335938 946.745361328125 944.440124511719 955.132629394531 955.551940917969 974.985778808594 967.458068847656 961.447204589844 960.624145507812 965.158203125 961.240966796875 952.800842285156 960.84228515625 967.85595703125 963.776306152344 957.965087890625 961.566711425781 960.099243164062 960.539428710938 952.778564453125 960.397094726562 953.996337890625 954.647827148438 960.491516113281 963.337280273438 958.394714355469 977.541259765625 968.641357421875 972.18212890625 974.204833984375 976.494506835938 969.095153808594 974.854064941406 980.074401855469 984.192199707031 985.088928222656 983.850219726562 987.709350585938 984.674133300781 984.046752929688 983.222351074219 986.752624511719 988.017944335938 989.213500976562 982.500610351562 985.488098144531 973.481689453125 980.85498046875 980.155151367188 968.127685546875 972.368774414062 965.634643554688 977.364074707031 972.301940917969 970.97607421875 971.880065917969 977.257690429688 973.204895019531 970.49658203125 971.717407226562 972.589538574219 981.910034179688 978.62255859375 991.800048828125 982.599487304688 984.555541992188 980.661987304688 973.384338378906 974.915649414062 977.485656738281 986.963195800781 983.766052246094 990.775268554688 991.278015136719 993.809509277344 989.247375488281 986.698425292969 987.527099609375 981.419006347656 983.125244140625 973.867919921875 976.126281738281 974.47509765625 983.45849609375 993.749694824219 1005.0361328125 998.895751953125 988.568908691406 989.984008789062 987.892822265625 994.482788085938 1003.38482666016 1005.45050048828 1004.90252685547 1000.87225341797 1003.94934082031 1004.34838867188 1005.390625 1009.41088867188 1018.97058105469 1020.05712890625 1022.42700195312 1028.02038574219 1030.08093261719 1035.25756835938 1038.55249023438 1033.47998046875 1041.20190429688 1051.13452148438 1043.36865234375 1043.29016113281 1046.14416503906 1045.18920898438 1040.01672363281 1034.62475585938 1039.77600097656 1026.3505859375 1020.50982666016 1025.09594726562 1019.60516357422 1009.65338134766 1013.99713134766 1020.15417480469 1017.47760009766 1022.24035644531 1022.72058105469 1025.12048339844 1024.59948730469 1019.193359375 1015.91680908203 1009.22161865234 1010.6005859375 1001.83087158203 998.489501953125 998.0673828125 996.483459472656 1000.53869628906 993.706359863281 1008.78265380859 1018.78887939453
951.160278320312 953.219665527344 947.036193847656 943.710388183594 950.887634277344 953.498046875 948.198059082031 937.672058105469 933.354125976562 936.30908203125 939.503601074219 951.271118164062 943.009094238281 956.299011230469 970.676635742188 971.823913574219 963.506896972656 959.002746582031 966.891296386719 971.566040039062 970.553283691406 967.679077148438 964.078674316406 966.932495117188 961.963439941406 959.627624511719 962.305419921875 962.707641601562 958.589294433594 961.2216796875 960.8427734375 953.493286132812 950.455261230469 959.276062011719 967.162475585938 961.983764648438 973.466003417969 979.508056640625 979.624206542969 975.716003417969 981.1513671875 979.127136230469 983.560485839844 990.494445800781 983.013732910156 972.461853027344 976.678833007812 990.404418945312 989.753662109375 996.376098632812 989.570617675781 988.692504882812 984.238830566406 980.607666015625 976.908813476562 984.723693847656 978.601501464844 982.525207519531 981.756774902344 971.161010742188 971.351684570312 975.757934570312 970.810729980469 974.65966796875 963.57568359375 969.947814941406 973.0810546875 983.505187988281 973.682312011719 979.992492675781 975.557922363281 976.304321289062 987.129089355469 987.53955078125 982.226806640625 988.493713378906 982.864624023438 980.692260742188 980.696411132812 989.503112792969 989.036804199219 977.798706054688 984.845153808594 992.166870117188 996.309020996094 994.361511230469 987.3037109375 984.389892578125 979.92822265625 979.544311523438 978.09326171875 972.216491699219 977.680786132812 981.945007324219 990.173767089844 1003.80474853516 997.092712402344 989.756042480469 991.803283691406 992.029113769531 992.264038085938 997.4951171875 1007.74969482422 1006.29565429688 998.863708496094 1005.15777587891 1008.49975585938 1015.74835205078 1013.958984375 1017.22589111328 1021.63885498047 1028.97277832031 1032.19677734375 1029.26452636719 1034.86242675781 1033.09741210938 1031.53186035156 1040.17395019531 1038.45202636719 1041.71203613281 1042.09509277344 1047.29931640625 1047.27172851562 1042.03259277344 1040.88452148438 1027.29858398438 1021.48913574219 1021.01995849609 1015.82983398438 1013.400390625 1018.91796875 1008.31622314453 1014.20458984375 1011.86920166016 1012.74798583984 1028.76257324219 1030.79711914062 1012.12829589844 1004.62957763672 1000.20129394531 997.46435546875 996.369323730469 1001.12963867188 999.323059082031 985.730895996094 998.581481933594 997.842834472656 988.993896484375 998.677124023438 1009.99725341797
947.02099609375 945.223571777344 936.052062988281 939.035827636719 944.026733398438 943.118347167969 938.982666015625 934.455993652344 938.138244628906 939.510375976562 947.211303710938 953.512756347656 960.432250976562 957.76611328125 970.138977050781 973.404479980469 969.352722167969 966.887023925781 972.582702636719 977.608947753906 973.34716796875 966.351745605469 964.109741210938 963.299987792969 962.160034179688 958.279541015625 963.790222167969 963.606628417969 967.949157714844 956.392761230469 956.465209960938 956.84619140625 962.4677734375 963.124877929688 975.543212890625 978.079467773438 969.546569824219 978.288879394531 978.049438476562 983.756958007812 983.48828125 977.482238769531 975.818542480469 991.554870605469 984.223327636719 988.016540527344 987.343566894531 990.23779296875 991.184692382812 1003.92388916016 999.463806152344 992.068908691406 978.633666992188 974.150939941406 983.590026855469 976.313049316406 977.992431640625 982.28076171875 989.06396484375 983.768188476562 982.252746582031 975.189758300781 974.941101074219 973.174377441406 966.077453613281 968.420593261719 985.322204589844 978.865173339844 976.888366699219 977.476867675781 978.399841308594 975.1982421875 983.604858398438 988.036560058594 986.569702148438 981.884643554688 987.395141601562 988.735473632812 991.416442871094 986.216796875 979.529113769531 979.466979980469 988.130920410156 989.153625488281 992.270202636719 989.784545898438 984.644775390625 987.912658691406 984.550415039062 981.358459472656 983.785278320312 975.177673339844 981.029296875 989.733276367188 986.56884765625 997.513854980469 993.259887695312 994.602844238281 989.472961425781 990.543579101562 993.631652832031 1002.65441894531 1012.29058837891 1011.43463134766 1009.33660888672 1011.44360351562 1010.03894042969 1016.61761474609 1023.63348388672 1030.88134765625 1034.45690917969 1024.91589355469 1029.16247558594 1027.83264160156 1030.890625 1031.20947265625 1032.99926757812 1035.60534667969 1038.74291992188 1045.05200195312 1045.21020507812 1050.57360839844 1043.98217773438 1038.76977539062 1027.09094238281 1029.29504394531 1024.55810546875 1018.18231201172 1017.13195800781 1015.88494873047 1015.35717773438 1014.22686767578 1015.94256591797 1009.96911621094 1010.99591064453 1015.74163818359 1024.79467773438 1013.47766113281 999.093933105469 996.117553710938 995.956420898438 999.376403808594 999.462585449219 996.584167480469 999.135498046875 1005.12457275391 999.859436035156 991.2470703125 994.157653808594 1000.81658935547
946.957763671875 941.049865722656 938.30029296875 932.929016113281 933.100158691406 936.989013671875 936.275146484375 940.030212402344 938.123596191406 951.10302734375 958.413452148438 962.088989257812 962.887268066406 965.730590820312 971.281066894531 980.599670410156 986.732971191406 983.992126464844 987.02880859375 977.353759765625 970.608520507812 968.335876464844 964.522705078125 964.337646484375 964.302551269531 965.478698730469 961.900329589844 974.12353515625 967.8349609375 965.2666015625 966.698547363281 962.856140136719 960.495422363281 974.212097167969 979.578002929688 974.289672851562 976.765075683594 978.594482421875 982.980163574219 974.030456542969 977.331359863281 981.425109863281 979.762512207031 992.205749511719 990.571472167969 990.933715820312 996.74365234375 991.757080078125 993.175720214844 995.726867675781 994.993469238281 990.656616210938 983.661865234375 976.05712890625 978.672180175781 972.495056152344 987.052978515625 987.748596191406 989.746826171875 983.175354003906 982.133972167969 969.602233886719 968.228210449219 970.999938964844 977.02197265625 978.615356445312 981.978088378906 980.113647460938 982.786071777344 981.386596679688 979.289306640625 985.885009765625 979.408081054688 985.850891113281 987.575561523438 986.37451171875 989.522583007812 983.399719238281 988.167358398438 981.530517578125 976.432739257812 987.046997070312 992.377380371094 993.521484375 979.483947753906 977.804443359375 989.395263671875 986.78125 982.350769042969 985.772888183594 997.107055664062 981.810546875 986.839904785156 982.184448242188 994.681335449219 993.428588867188 988.679321289062 997.660217285156 987.27490234375 990.617004394531 997.523864746094 1002.77551269531 1007.07855224609 1012.98693847656 1014.18103027344 1016.65692138672 1017.72296142578 1019.48706054688 1029.50366210938 1029.03442382812 1035.41662597656 1031.62854003906 1026.79699707031 1024.02868652344 1024.33239746094 1028.46105957031 1028.17138671875 1027.00219726562 1032.61486816406 1042.53833007812 1038.11853027344 1052.04382324219 1044.30993652344 1040.70043945312 1028.23608398438 1031.9287109375 1027.3076171875 1024.14013671875 1014.98889160156 1006.87750244141 1011.18310546875 1011.97772216797 1009.57452392578 1010.20343017578 1013.76275634766 1014.00238037109 1017.23077392578 1010.16754150391 999.220336914062 996.3515625 1001.05303955078 998.658569335938 993.354797363281 998.739807128906 997.683898925781 1001.34265136719 1001.66668701172 998.685546875 991.199523925781 997.449401855469
944.136962890625 943.646240234375 943.611694335938 936.756530761719 930.120056152344 941.346618652344 934.819641113281 939.159118652344 939.353271484375 939.028625488281 946.237976074219 951.714294433594 962.918029785156 969.479919433594 978.504089355469 986.115966796875 986.493103027344 988.532470703125 989.377868652344 977.561462402344 970.867065429688 971.326904296875 968.000793457031 967.722778320312 965.212707519531 962.1943359375 965.888610839844 965.017272949219 968.587951660156 966.3291015625 957.241149902344 967.035522460938 970.934509277344 977.532409667969 983.896362304688 984.3408203125 981.688354492188 973.741760253906 981.43505859375 977.791809082031 983.392333984375 988.440307617188 993.493835449219 991.640075683594 987.794128417969 1000.69293212891 996.526062011719 1000.74938964844 1003.24969482422 991.845947265625 988.781677246094 985.954650878906 985.868835449219 986.467834472656 979.196166992188 983.267700195312 992.552856445312 993.675231933594 982.835876464844 977.623352050781 981.647521972656 975.829833984375 969.256469726562 966.765991210938 967.233947753906 978.697265625 973.499755859375 984.651916503906 985.525573730469 976.511779785156 974.021179199219 978.127868652344 982.065979003906 981.968566894531 975.631530761719 972.170532226562 984.499389648438 988.048217773438 984.513732910156 986.064575195312 987.598205566406 981.774108886719 985.526794433594 983.129699707031 985.698486328125 987.294189453125 983.348266601562 980.924438476562 983.641784667969 980.881896972656 986.660705566406 985.967529296875 990.5107421875 991.820129394531 990.573547363281 996.782531738281 994.626525878906 994.957153320312 995.844116210938 993.212951660156 996.869934082031 1000.21478271484 1006.27740478516 1013.35522460938 1012.98120117188 1008.22521972656 1022.875 1025.92028808594 1032.23168945312 1036.61877441406 1036.58459472656 1028.99755859375 1026.91357421875 1021.26800537109 1019.28558349609 1026.02551269531 1030.23095703125 1027.38989257812 1021.43237304688 1033.26037597656 1035.10437011719 1042.98803710938 1039.1513671875 1035.65661621094 1027.11950683594 1023.02093505859 1028.681640625 1017.50823974609 1007.75653076172 1003.46990966797 1003.94036865234 1004.63848876953 1004.55718994141 1019.00091552734 1008.61798095703 1015.76098632812 1013.31970214844 1005.58477783203 996.500793457031 992.256164550781 993.658203125 998.786376953125 994.94677734375 995.997863769531 991.719299316406 995.921081542969 994.065124511719 995.809020996094 995.671813964844 1005.05059814453
938.232421875 932.729187011719 935.363830566406 943.432739257812 940.159057617188 946.683288574219 940.777038574219 938.028259277344 937.142822265625 945.555480957031 949.627563476562 955.928649902344 957.15771484375 970.025512695312 975.459350585938 980.131164550781 979.408569335938 986.090148925781 987.363403320312 996.35009765625 973.125671386719 971.772277832031 979.121643066406 973.438781738281 970.407043457031 971.716003417969 966.071960449219 964.27294921875 958.498962402344 974.740478515625 978.406860351562 976.467956542969 978.63427734375 978.757934570312 982.935302734375 987.50439453125 983.051879882812 973.669128417969 983.90478515625 988.953857421875 991.546325683594 995.39013671875 994.384155273438 992.976745605469 992.992309570312 1004.95959472656 1003.37756347656 1004.7724609375 1003.94244384766 992.890747070312 987.332580566406 991.501586914062 995.502746582031 997.150024414062 985.392639160156 992.455200195312 1001.77099609375 994.007995605469 983.361511230469 984.304992675781 985.029174804688 978.909484863281 976.571655273438 969.684143066406 966.918151855469 981.204040527344 983.536865234375 985.632934570312 988.078674316406 984.904541015625 984.220458984375 976.53125 992.154174804688 980.440307617188 981.124755859375 979.396850585938 989.420471191406 994.903076171875 986.467163085938 985.360961914062 991.029907226562 982.814514160156 991.260192871094 980.592834472656 979.301147460938 981.050231933594 984.032958984375 987.012634277344 984.36083984375 988.302551269531 988.676025390625 987.752014160156 980.237731933594 990.546752929688 998.181884765625 992.276733398438 992.959289550781 1000.56512451172 997.376403808594 998.479248046875 1002.84429931641 1002.17669677734 1009.67633056641 1009.50775146484 1015.44226074219 1012.25207519531 1015.72564697266 1016.36840820312 1029.93322753906 1033.15698242188 1025.45849609375 1027.73693847656 1024.36254882812 1024.20141601562 1021.74291992188 1033.70727539062 1024.55407714844 1023.37438964844 1022.81286621094 1022.40551757812 1024.87341308594 1030.173828125 1030.81298828125 1021.97387695312 1020.70642089844 1018.97027587891 1019.83905029297 1016.81884765625 1014.25146484375 1006.62896728516 1011.25347900391 1010.24114990234 1011.51257324219 1005.48425292969 1008.69683837891 1006.7744140625 1015.46362304688 1009.18823242188 1003.92932128906 990.541870117188 994.527099609375 988.326965332031 993.732238769531 990.17626953125 992.612854003906 989.507568359375 986.210205078125 992.348876953125 991.055297851562 1004.69696044922
947.550231933594 931.81591796875 936.095703125 935.711242675781 938.445617675781 945.993591308594 938.100891113281 940.486633300781 943.643127441406 949.478698730469 958.381225585938 951.652404785156 960.813720703125 967.911987304688 975.507873535156 979.411437988281 980.356201171875 989.572082519531 996.988830566406 994.443542480469 979.150512695312 977.984619140625 983.647521972656 977.664367675781 974.746826171875 969.93115234375 968.774536132812 965.565612792969 967.886535644531 974.357299804688 983.300170898438 981.85791015625 981.135864257812 981.135925292969 993.468872070312 991.969116210938 989.335266113281 985.46875 984.015991210938 986.226623535156 1000.59289550781 996.144714355469 994.222900390625 996.577758789062 1002.02825927734 1006.53137207031 1015.54315185547 1010.06854248047 1009.82019042969 996.876281738281 997.719787597656 996.710021972656 995.91650390625 1000.84069824219 999.777282714844 992.940734863281 993.664001464844 984.733581542969 984.737487792969 988.525939941406 988.225158691406 981.781372070312 971.717651367188 971.793090820312 969.362121582031 986.085632324219 981.35791015625 983.925048828125 988.767333984375 990.409301757812 992.304382324219 981.961730957031 988.610412597656 983.122802734375 991.992492675781 981.035583496094 991.796447753906 993.174377441406 998.336120605469 997.653198242188 990.70068359375 992.192687988281 996.502075195312 996.046997070312 990.833068847656 984.078247070312 984.945739746094 975.969360351562 977.543334960938 983.794982910156 978.97900390625 984.09521484375 981.135620117188 984.980102539062 995.829467773438 987.639770507812 995.915283203125 1002.20843505859 990.934020996094 995.25390625 1011.49114990234 1010.80224609375 1011.71697998047 1010.02520751953 1004.0439453125 1012.66693115234 1012.66998291016 1012.76409912109 1020.41320800781 1033.087890625 1034.05895996094 1032.74060058594 1028.7412109375 1027.00927734375 1022.23498535156 1019.00024414062 1027.9033203125 1013.92230224609 1022.40435791016 1021.02380371094 1015.68267822266 1023.35284423828 1024.14672851562 1022.51654052734 1013.12738037109 1022.0556640625 1020.11755371094 1011.09259033203 1006.82098388672 1007.01867675781 1006.23059082031 1012.51501464844 1013.01068115234 1006.78631591797 998.710510253906 999.828796386719 1004.69921875 1010.42071533203 1004.27398681641 996.545471191406 987.591064453125 983.3505859375 985.525451660156 989.265808105469 984.267272949219 989.145080566406 989.72705078125 990.702575683594 994.181884765625 1004.30084228516
944.64794921875 934.091491699219 939.507019042969 935.600830078125 940.686279296875 943.6318359375 942.065063476562 937.381896972656 943.566345214844 958.412658691406 959.524475097656 962.20654296875 968.756042480469 970.570007324219 980.508361816406 977.636962890625 981.07666015625 989.522521972656 989.89208984375 984.087158203125 985.448547363281 987.752685546875 990.029907226562 985.702331542969 976.676208496094 971.075744628906 976.600036621094 981.272705078125 972.69140625 982.181335449219 984.365966796875 984.349975585938 982.820495605469 986.549621582031 987.631286621094 983.564025878906 992.717834472656 989.303649902344 991.756591796875 988.86572265625 994.424133300781 996.461853027344 1009.3271484375 1002.33374023438 1017.72351074219 1018.470703125 1015.82373046875 1015.90966796875 1010.42022705078 1011.94720458984 997.58056640625 1002.50268554688 1003.86975097656 999.233581542969 1005.19152832031 997.1982421875 992.50634765625 983.207946777344 984.641784667969 985.998657226562 981.181640625 982.205139160156 979.279296875 980.784301757812 979.626953125 979.957763671875 972.78759765625 984.965881347656 981.141540527344 989.938537597656 991.093444824219 991.78662109375 994.002136230469 995.9873046875 991.337219238281 991.981323242188 1002.75054931641 1000.02545166016 996.957458496094 994.284240722656 992.155456542969 987.505249023438 997.003173828125 998.116882324219 1001.5478515625 987.37646484375 986.693420410156 982.909790039062 977.645202636719 975.17529296875 976.319091796875 983.42138671875 982.957641601562 987.390686035156 992.526306152344 995.236999511719 1001.22009277344 1000.05523681641 1004.38580322266 1002.5791015625 1010.83953857422 1009.34991455078 1007.14410400391 1013.21575927734 1015.5654296875 1004.8193359375 1008.79656982422 1014.92663574219 1031.4716796875 1030.64624023438 1033.451171875 1033.60815429688 1031.00451660156 1020.78771972656 1022.83197021484 1022.39727783203 1023.07781982422 1017.25567626953 1019.74456787109 1017.99053955078 1018.13409423828 1020.0341796875 1021.30847167969 1026.15161132812 1015.71746826172 1018.60705566406 1006.36810302734 1009.09851074219 1001.54547119141 1002.63671875 1003.95733642578 1001.96673583984 1006.78833007812 1003.49353027344 1005.27716064453 1000.55041503906 1003.5966796875 998.019958496094 1006.99212646484 998.7705078125 985.214721679688 982.892456054688 986.08349609375 992.93310546875 985.451354980469 984.168273925781 984.718872070312 982.505676269531 989.735290527344 1003.81463623047
943.277221679688 944.646118164062 930.138000488281 933.392578125 934.205078125 934.780883789062 937.947326660156 941.29638671875 947.820678710938 952.442321777344 959.47265625 972.464111328125 970.205810546875 971.638610839844 983.933166503906 981.467529296875 980.999389648438 990.045776367188 989.588989257812 985.508483886719 990.32177734375 997.662536621094 997.004577636719 995.960144042969 988.925109863281 982.976135253906 982.563598632812 980.593688964844 982.329040527344 986.969055175781 988.4775390625 985.221069335938 979.088989257812 976.821228027344 982.838623046875 989.131164550781 993.702575683594 993.448669433594 989.058471679688 985.365783691406 985.351745605469 1001.66284179688 1009.73150634766 1015.62084960938 1012.27868652344 1018.95703125 1011.10064697266 1014.01312255859 1007.46166992188 1001.81640625 995.727355957031 1002.10638427734 995.157836914062 1002.10778808594 1004.58166503906 996.993957519531 991.198669433594 987.832092285156 979.653503417969 986.927612304688 977.705200195312 982.742492675781 979.947448730469 981.699523925781 980.364074707031 978.343688964844 973.381164550781 980.388305664062 987.933044433594 990.569091796875 989.054138183594 991.544738769531 990.182739257812 990.351684570312 994.027893066406 996.888122558594 996.479919433594 1003.44683837891 1004.61535644531 1007.11993408203 1005.19226074219 1002.02282714844 1000.18371582031 1003.06481933594 995.721801757812 993.26220703125 985.8701171875 986.259155273438 984.968688964844 985.9990234375 988.904968261719 981.185607910156 984.661193847656 993.172546386719 995.26123046875 995.103210449219 1006.31085205078 998.697387695312 997.119873046875 1005.92932128906 1010.52056884766 1011.48596191406 1011.74816894531 1012.63433837891 1014.64868164062 1014.26470947266 1011.09973144531 1019.83795166016 1024.57470703125 1024.46716308594 1027.75415039062 1029.15234375 1036.84741210938 1035.25122070312 1027.88708496094 1031.10546875 1028.064453125 1026.04614257812 1018.83312988281 1019.84948730469 1022.19866943359 1021.85552978516 1015.03179931641 1019.27874755859 1020.36975097656 1015.84692382812 1004.63189697266 1003.63482666016 1000.11499023438 1001.93353271484 990.418151855469 1006.80401611328 998.7705078125 997.314147949219 1006.73596191406 1003.12384033203 1001.8564453125 999.804077148438 995.390380859375 991.32177734375 989.662963867188 984.802612304688 990.345092773438 987.163391113281 982.907958984375 980.302429199219 979.285949707031 985.293273925781 989.727294921875 998.668579101562
948.607177734375 939.97216796875 926.554138183594 935.409362792969 942.095031738281 937.120666503906 936.800354003906 944.799072265625 954.679870605469 960.805114746094 961.332092285156 960.364685058594 972.933654785156 975.996398925781 978.595825195312 991.750610351562 986.006958007812 979.772216796875 980.462951660156 982.6455078125 986.552917480469 990.639892578125 994.611267089844 997.884826660156 988.845031738281 988.241027832031 987.328247070312 984.718505859375 979.466979980469 983.885070800781 989.78564453125 977.180480957031 979.840087890625 980.145874023438 986.920227050781 987.281127929688 989.305725097656 988.123229980469 981.886047363281 985.265869140625 991.959289550781 997.203186035156 1004.12969970703 1010.13586425781 1021.89880371094 1021.89587402344 1020.98419189453 1012.20422363281 1002.99371337891 1004.37377929688 999.177978515625 998.764221191406 994.697570800781 994.622802734375 992.083129882812 987.841979980469 982.365234375 986.214111328125 984.471435546875 977.36376953125 978.533630371094 981.698852539062 979.696044921875 978.382873535156 981.183532714844 966.262145996094 971.037719726562 981.769958496094 978.817016601562 987.047546386719 985.012390136719 988.125 986.803771972656 983.555603027344 989.44677734375 990.732238769531 989.018676757812 994.494323730469 1004.64685058594 1004.53198242188 1007.07885742188 1007.92340087891 1011.73779296875 1014.06506347656 1009.98962402344 995.617309570312 1004.99603271484 990.594177246094 986.480895996094 988.516540527344 989.186340332031 989.862182617188 987.813232421875 989.668884277344 990.926391601562 1000.17199707031 1004.67462158203 1001.69525146484 1002.98120117188 995.337036132812 1004.32849121094 1008.408203125 1010.29675292969 1015.79901123047 1022.07006835938 1016.93829345703 1007.38146972656 1003.71514892578 1014.66552734375 1025.619140625 1034.70690917969 1035.95043945312 1036.48486328125 1031.63439941406 1035.82360839844 1035.64660644531 1036.02880859375 1032.95422363281 1021.17321777344 1020.05694580078 1013.47204589844 1011.72692871094 1011.65826416016 1009.89306640625 1013.8310546875 1003.88623046875 1001.44122314453 1001.689453125 1004.26470947266 997.485656738281 996.999633789062 993.16748046875 992.128234863281 988.150512695312 995.111389160156 993.708190917969 1001.49896240234 1000.94342041016 993.739562988281 989.352783203125 991.167785644531 990.222717285156 987.612426757812 983.230407714844 985.315673828125 978.8974609375 982.111267089844 988.221313476562 987.8212890625 995.479614257812
953.214477539062 949.12109375 935.519775390625 944.343139648438 942.665832519531 935.664184570312 937.793884277344 955.223693847656 950.268371582031 945.169860839844 970.688171386719 963.760009765625 965.037963867188 975.197570800781 976.443298339844 982.31005859375 985.318969726562 978.002319335938 981.728637695312 977.214904785156 977.946411132812 979.960205078125 987.611328125 996.145935058594 985.990173339844 985.78125 988.016174316406 988.195556640625 989.197692871094 983.510498046875 984.773742675781 977.740783691406 976.765441894531 985.706604003906 990.701843261719 991.164428710938 995.319091796875 993.215393066406 986.491455078125 986.06103515625 990.857971191406 997.724060058594 996.234985351562 1009.51599121094 1010.03631591797 1019.66235351562 1012.14068603516 1001.23223876953 1008.54553222656 1009.45971679688 1000.27868652344 1007.0849609375 1000.1474609375 1000.74548339844 991.419799804688 986.64892578125 981.266296386719 981.672912597656 986.320678710938 978.217590332031 977.077087402344 984.951538085938 976.811401367188 973.011596679688 977.5400390625 970.57177734375 968.15966796875 979.466979980469 979.075866699219 975.110229492188 984.588256835938 989.80419921875 994.763671875 986.087219238281 982.164489746094 985.915405273438 996.601318359375 998.647399902344 991.863464355469 1006.12829589844 1000.73248291016 1011.09838867188 1014.59680175781 1007.82824707031 1002.73052978516 1002.69494628906 1001.66998291016 994.95703125 984.929992675781 991.880065917969 989.726379394531 989.312438964844 995.749816894531 995.636108398438 993.823059082031 995.515747070312 1007.65893554688 1006.64532470703 1010.44256591797 1007.47448730469 1003.27752685547 1012.22027587891 1013.97802734375 1012.96057128906 1011.53948974609 1011.72650146484 1012.21569824219 1020.24945068359 1029.06921386719 1034.41186523438 1030.98364257812 1037.69287109375 1033.47009277344 1037.06506347656 1042.30126953125 1042.50366210938 1038.09924316406 1033.53393554688 1022.515625 1021.72393798828 1024.3525390625 1005.40441894531 1005.78881835938 1008.29815673828 1006.0595703125 1004.7470703125 1003.52777099609 1000.27600097656 997.818054199219 998.597351074219 997.6328125 993.834594726562 982.317565917969 984.017517089844 991.447204589844 995.054138183594 999.980407714844 994.577697753906 989.128173828125 988.020324707031 981.052673339844 991.952270507812 982.537109375 980.070983886719 982.233032226562 974.981994628906 978.499572753906 992.667236328125 995.110961914062 996.63818359375
956.362426757812 956.46435546875 949.263916015625 941.325439453125 938.1796875 935.561462402344 934.903503417969 948.3349609375 949.000549316406 954.293029785156 961.265747070312 963.892456054688 963.405883789062 973.488220214844 970.215698242188 975.730102539062 972.641418457031 974.743713378906 974.625427246094 965.971252441406 963.940551757812 975.759216308594 984.9677734375 981.802490234375 986.719055175781 986.974304199219 986.582763671875 994.452941894531 985.695434570312 975.638061523438 979.559204101562 983.924072265625 984.100280761719 988.369018554688 989.294860839844 1002.16003417969 998.459594726562 997.366455078125 989.582275390625 985.507202148438 991.514587402344 997.294616699219 995.471496582031 1012.08587646484 1008.63385009766 1013.74078369141 1008.43109130859 1007.57189941406 1006.93756103516 1009.35827636719 1004.37487792969 1008.51812744141 1011.78002929688 996.038879394531 992.957214355469 994.945739746094 984.557006835938 978.019775390625 987.712341308594 979.518981933594 974.594543457031 981.161315917969 989.116333007812 980.499328613281 972.267211914062 974.264587402344 973.294006347656 979.9228515625 976.995422363281 983.173278808594 987.419372558594 991.686645507812 988.212890625 993.089904785156 982.103271484375 984.148803710938 992.427612304688 989.176818847656 994.670959472656 998.888671875 1005.80828857422 1003.02819824219 997.511779785156 1004.39849853516 1004.50158691406 1001.12023925781 996.246215820312 989.194213867188 988.430236816406 991.409423828125 991.832580566406 985.396850585938 982.251892089844 983.898010253906 990.926147460938 993.281311035156 1001.01489257812 1011.21496582031 1011.54205322266 1014.08782958984 1005.77557373047 1008.27130126953 1016.91040039062 1020.50439453125 1011.18817138672 1016.89831542969 1015.10906982422 1033.75354003906 1035.39428710938 1043.25439453125 1039.40356445312 1039.48291015625 1043.1201171875 1042.07275390625 1046.29431152344 1044.38415527344 1045.98779296875 1038.11047363281 1029.90112304688 1021.46911621094 1022.72613525391 1006.09991455078 1004.41149902344 1000.130859375 994.855895996094 1001.29754638672 997.893737792969 998.545959472656 998.709106445312 995.911682128906 989.903869628906 991.150268554688 978.239868164062 984.593017578125 988.272399902344 994.425659179688 992.271484375 987.772155761719 984.78173828125 981.172546386719 982.2265625 977.024780273438 976.566711425781 984.290283203125 983.20654296875 981.587524414062 978.536804199219 995.1953125 999.683898925781 1004.35345458984
962.640686035156 952.304077148438 952.406066894531 942.321899414062 947.708190917969 935.585998535156 938.935607910156 950.1787109375 958.007934570312 954.398193359375 957.2001953125 970.947448730469 972.547302246094 970.744689941406 962.729797363281 965.045532226562 968.040100097656 972.607727050781 969.382263183594 967.134643554688 959.342651367188 965.2412109375 976.650085449219 983.313293457031 986.394592285156 986.755737304688 977.441833496094 982.81982421875 987.151794433594 977.07080078125 979.437072753906 986.234924316406 987.026733398438 993.005798339844 990.679931640625 994.175415039062 996.088806152344 992.891540527344 986.617309570312 985.6796875 991.196044921875 989.180786132812 998.454467773438 998.320373535156 1004.49450683594 1006.09362792969 1003.31756591797 1014.50933837891 1002.38806152344 1003.33868408203 1000.16186523438 1001.22161865234 1004.88238525391 1002.89202880859 994.412902832031 982.392578125 981.636596679688 986.1865234375 990.3671875 984.922485351562 980.872314453125 981.450988769531 984.496276855469 981.80517578125 982.173217773438 978.677429199219 978.733032226562 978.181823730469 981.724243164062 984.132080078125 990.509033203125 988.848083496094 979.929260253906 980.290405273438 980.256164550781 987.85693359375 992.538024902344 987.591735839844 992.993041992188 999.273559570312 996.028747558594 1002.6025390625 1000.96026611328 1006.26538085938 1003.58935546875 1003.74481201172 999.979187011719 999.900390625 991.245788574219 993.264709472656 996.549133300781 993.867431640625 983.861206054688 994.460510253906 988.254638671875 989.366271972656 1000.78411865234 1011.14117431641 1015.83306884766 1014.41772460938 1006.69378662109 997.564758300781 1012.92663574219 1010.88238525391 1006.99578857422 1009.85882568359 1027.283203125 1038.19213867188 1036.75988769531 1044.90759277344 1048.64868164062 1047.93225097656 1042.61779785156 1044.32360839844 1045.73376464844 1050.53088378906 1046.44104003906 1035.87414550781 1024.10961914062 1019.38677978516 1014.17443847656 1008.48583984375 997.904296875 995.169311523438 995.448791503906 1004.79333496094 998.581726074219 997.8173828125 1003.25091552734 1002.26837158203 992.355224609375 990.420166015625 981.278747558594 981.820190429688 981.734558105469 984.977844238281 994.450988769531 989.032348632812 991.612365722656 982.42822265625 981.409545898438 976.79541015625 975.145080566406 973.399291992188 977.549377441406 977.348937988281 983.36474609375 994.122253417969 995.454528808594 999.615478515625
963.952209472656 960.485229492188 947.952514648438 942.910583496094 941.742919921875 944.016174316406 940.8486328125 943.729187011719 948.962219238281 942.493774414062 955.576232910156 967.01953125 965.578369140625 973.742065429688 968.826538085938 964.4833984375 971.932861328125 970.029418945312 969.047058105469 959.710266113281 967.493774414062 964.464721679688 964.196655273438 972.975952148438 970.976745605469 975.760131835938 973.447814941406 972.05859375 974.427185058594 964.696166992188 977.1845703125 986.703552246094 982.908874511719 989.107177734375 989.636291503906 986.125061035156 986.560363769531 991.127014160156 993.017456054688 991.648986816406 992.186584472656 983.159240722656 1001.61199951172 997.45166015625 997.42626953125 996.605407714844 1006.744140625 1008.77337646484 1002.80572509766 999.304992675781 1004.78833007812 999.68994140625 1010.94177246094 988.996643066406 993.034057617188 981.90673828125 989.630798339844 988.816650390625 991.858520507812 992.407043457031 988.315551757812 983.952514648438 989.227661132812 986.598449707031 985.856811523438 978.226501464844 975.610168457031 982.20556640625 984.275939941406 982.043395996094 993.22412109375 989.0185546875 984.19482421875 986.310729980469 988.026245117188 989.587951660156 989.996215820312 988.079284667969 997.888610839844 997.92333984375 997.199768066406 996.911682128906 999.999084472656 997.039794921875 994.467102050781 1010.11114501953 1005.90692138672 1002.25476074219 999.968017578125 1007.04156494141 1000.64581298828 998.679870605469 998.468444824219 997.535461425781 989.094909667969 1000.46014404297 1000.02490234375 1006.88519287109 1007.2529296875 1006.74188232422 999.94580078125 998.245849609375 1000.35205078125 1009.40679931641 1009.29742431641 1013.7265625 1026.61669921875 1049.36254882812 1045.51147460938 1049.64318847656 1048.99658203125 1040.38635253906 1041.43103027344 1048.7080078125 1052.69384765625 1048.59338378906 1046.15405273438 1038.17822265625 1026.09887695312 1023.41656494141 1008.05822753906 1003.29809570312 997.837951660156 1003.27801513672 997.77294921875 1005.00115966797 1001.14587402344 991.709899902344 995.044189453125 989.762390136719 984.864135742188 986.036804199219 982.020935058594 983.716552734375 977.259765625 986.399475097656 982.268859863281 994.316467285156 992.257629394531 980.902282714844 970.156555175781 972.060180664062 977.647766113281 975.243713378906 975.873229980469 980.953918457031 983.195251464844 989.277648925781 986.10302734375 996.125610351562
963.390808105469 954.05712890625 946.873474121094 942.078186035156 941.416809082031 936.823608398438 941.633422851562 949.290100097656 946.091552734375 948.014099121094 952.022644042969 956.269348144531 962.023986816406 962.482788085938 962.312744140625 959.492980957031 964.593566894531 963.831298828125 964.514831542969 958.638244628906 961.554138183594 954.893981933594 955.624572753906 962.163146972656 967.880859375 969.646423339844 970.868591308594 966.031677246094 970.133239746094 971.309204101562 967.417419433594 976.177856445312 973.644958496094 983.269287109375 990.753601074219 973.606262207031 983.937805175781 974.860717773438 984.469299316406 986.324279785156 991.700805664062 991.920104980469 995.248107910156 1000.86334228516 1005.05639648438 1000.02801513672 996.794372558594 997.758972167969 990.991882324219 993.76953125 1000.48681640625 996.645568847656 1007.35003662109 988.332153320312 985.299682617188 979.124145507812 990.841979980469 992.679748535156 988.016845703125 989.285827636719 988.458374023438 978.193298339844 986.532836914062 990.01025390625 990.188110351562 979.36865234375 981.021301269531 979.916076660156 980.646118164062 990.2734375 991.735290527344 989.054321289062 985.005126953125 986.40966796875 985.084533691406 984.292358398438 990.88037109375 988.068725585938 992.445373535156 997.074401855469 1002.8857421875 1001.32073974609 1006.12646484375 996.408447265625 1003.08679199219 1006.39562988281 1001.02294921875 1003.91448974609 1007.60913085938 1011.94274902344 1001.96606445312 993.906799316406 999.180847167969 1003.38098144531 995.107788085938 1000.52069091797 1002.63793945312 1009.90441894531 1005.15106201172 1005.96020507812 1004.27734375 1008.97253417969 1008.58160400391 1010.68029785156 1013.90008544922 1020.49591064453 1029.2822265625 1042.4599609375 1045.27648925781 1050.55102539062 1048.37817382812 1045.69226074219 1050.90844726562 1052.85668945312 1056.43920898438 1052.61267089844 1045.5615234375 1037.32568359375 1026.30200195312 1017.87414550781 1006.51477050781 1000.13562011719 1004.78082275391 997.209228515625 1002.27185058594 1004.52508544922 997.22412109375 992.967163085938 987.69482421875 974.932067871094 985.983825683594 988.789123535156 986.134643554688 985.195251464844 983.898620605469 978.768127441406 982.794494628906 990.875732421875 987.372619628906 990.200073242188 981.274658203125 971.329956054688 974.048950195312 968.506713867188 970.493957519531 973.992797851562 980.58251953125 988.33544921875 984.156494140625 986.575927734375
964.64697265625 959.936462402344 956.164001464844 946.175720214844 948.481079101562 942.928405761719 943.901916503906 942.676208496094 943.02783203125 941.004089355469 947.102600097656 945.355285644531 949.81005859375 943.617492675781 955.248474121094 960.2216796875 960.761047363281 957.647888183594 971.348022460938 964.727844238281 963.354125976562 949.2021484375 956.954711914062 960.90380859375 960.101684570312 965.452514648438 954.895935058594 959.343505859375 962.987182617188 962.642028808594 968.753051757812 963.240356445312 971.612548828125 971.194274902344 974.745239257812 970.215881347656 963.380126953125 968.98876953125 974.994079589844 985.654541015625 987.004150390625 981.88427734375 984.106689453125 996.217468261719 999.130554199219 997.496276855469 991.363220214844 990.707641601562 986.754516601562 994.113952636719 997.932983398438 1001.66619873047 1001.21185302734 1002.42047119141 991.771606445312 981.411437988281 982.464416503906 988.681274414062 981.4189453125 994.117370605469 990.351196289062 986.53857421875 986.22021484375 987.293701171875 991.894104003906 982.947204589844 985.588684082031 985.273132324219 984.294494628906 987.211120605469 988.78369140625 991.049255371094 992.370056152344 997.437377929688 989.377136230469 984.929931640625 984.24072265625 978.922241210938 991.236694335938 1000.82818603516 1002.95855712891 1000.63360595703 1006.75659179688 1005.65008544922 1007.59405517578 1008.53771972656 1006.28619384766 1007.09692382812 1012.74761962891 1012.38287353516 1001.61865234375 994.508544921875 999.290466308594 999.896789550781 1011.66174316406 1006.05023193359 1010.68682861328 1009.05535888672 1000.27362060547 1006.36651611328 1006.29382324219 1011.26257324219 1015.41168212891 1012.61834716797 1011.75610351562 1020.45147705078 1022.65270996094 1033.65100097656 1052.38500976562 1049.55432128906 1055.63415527344 1049.10864257812 1057.23876953125 1060.95678710938 1060.52160644531 1052.45715332031 1048.18701171875 1045.76025390625 1037.43530273438 1023.93853759766 1013.61120605469 1004.91229248047 1007.96984863281 999.86328125 1003.83038330078 996.92919921875 988.979187011719 991.976806640625 979.556213378906 973.840148925781 974.223083496094 982.528381347656 984.176879882812 977.30078125 977.548645019531 981.723815917969 985.698852539062 993.037902832031 985.761169433594 988.391662597656 968.918029785156 963.280517578125 959.54443359375 962.634155273438 964.517517089844 974.433837890625 977.492431640625 974.451904296875 983.950439453125 987.449523925781
969.74853515625 960.692565917969 955.190856933594 950.488098144531 942.921264648438 939.734680175781 942.956481933594 947.513916015625 938.548950195312 944.795959472656 948.401550292969 943.869995117188 949.730224609375 945.8388671875 951.140625 954.586853027344 957.526733398438 962.049255371094 967.241638183594 968.665344238281 960.704467773438 958.781677246094 963.630798339844 955.571350097656 955.703857421875 958.147155761719 964.11669921875 960.487976074219 964.643249511719 959.148620605469 961.757141113281 965.374938964844 963.679748535156 966.517395019531 965.345642089844 967.480529785156 965.607238769531 972.789611816406 977.598205566406 980.379150390625 976.216857910156 972.460083007812 988.381896972656 990.255065917969 1000.76391601562 996.58447265625 989.691772460938 992.575805664062 986.113098144531 989.282836914062 997.631896972656 1004.64770507812 1000.40478515625 1001.77087402344 997.521850585938 991.519592285156 992.381408691406 989.679748535156 987.005737304688 988.311950683594 987.455078125 991.372741699219 987.495788574219 988.237854003906 989.059020996094 982.6103515625 984.606994628906 990.611389160156 982.648010253906 987.743347167969 990.452087402344 992.552978515625 995.767944335938 1002.5263671875 1001.37829589844 987.711303710938 991.352966308594 988.334533691406 992.714904785156 997.309387207031 996.331848144531 993.509643554688 995.378173828125 995.850524902344 1003.49597167969 1010.69702148438 1006.80035400391 1013.40093994141 1006.73565673828 1004.83099365234 1004.57098388672 999.310668945312 994.28662109375 994.623779296875 1005.26586914062 1017.06549072266 1012.09606933594 1005.48486328125 1005.39587402344 999.090576171875 1009.34826660156 1016.38098144531 1031.1318359375 1019.88970947266 1018.919921875 1023.81329345703 1023.02209472656 1035.60095214844 1048.75830078125 1052.28259277344 1050.32482910156 1054.67846679688 1061.419921875 1060.13403320312 1064.25817871094 1062.22448730469 1046.17492675781 1038.69030761719 1037.14074707031 1028.51196289062 1018.56866455078 1009.27593994141 1019.32830810547 1011.95324707031 1006.78198242188 1006.36663818359 988.120300292969 989.031066894531 989.762573242188 975.80029296875 978.011901855469 975.637329101562 983.327514648438 985.5244140625 979.595825195312 982.758117675781 985.126220703125 984.453430175781 987.280395507812 975.757019042969 966.5419921875 960.754516601562 953.425354003906 966.266845703125 969.674560546875 967.098022460938 973.507263183594 978.358764648438 981.917846679688 983.298461914062
964.246887207031 967.114135742188 969.473083496094 960.328918457031 951.038269042969 949.957580566406 945.574096679688 941.086181640625 941.383850097656 931.777099609375 947.662048339844 941.532592773438 951.607055664062 952.953491210938 939.459167480469 943.701782226562 953.872802734375 958.55615234375 965.577331542969 965.280456542969 964.214599609375 960.521545410156 958.99609375 947.452209472656 955.637268066406 958.6123046875 965.80712890625 962.237915039062 955.453918457031 964.603637695312 965.713745117188 973.677001953125 967.576782226562 967.089782714844 971.248107910156 970.22705078125 963.232177734375 967.312072753906 971.419494628906 969.520141601562 975.227478027344 978.367614746094 978.018127441406 982.931274414062 988.212463378906 992.340148925781 988.071472167969 992.205200195312 994.368408203125 996.436706542969 1004.08618164062 1007.08703613281 996.161499023438 997.66259765625 1002.9130859375 993.842224121094 1001.95251464844 997.672058105469 998.329833984375 994.105407714844 985.546813964844 992.595397949219 984.7197265625 980.712158203125 989.043395996094 997.2646484375 991.650146484375 989.704284667969 993.322692871094 988.65966796875 990.694274902344 994.646118164062 989.840576171875 997.566040039062 996.24267578125 995.876281738281 990.394104003906 982.502990722656 993.750244140625 997.229614257812 996.686401367188 997.013305664062 992.419250488281 997.424987792969 1007.55395507812 1012.50494384766 1012.25762939453 1017.29693603516 1002.47540283203 1007.27368164062 1009.00317382812 1007.99108886719 1007.43743896484 1004.76989746094 1013.75225830078 1004.19793701172 1010.11077880859 1014.38568115234 1014.75207519531 999.700866699219 1007.56390380859 1019.40020751953 1024.87780761719 1026.50793457031 1025.47338867188 1032.16687011719 1029.33288574219 1033.28430175781 1048.3671875 1049.8173828125 1047.58325195312 1053.65673828125 1065.80139160156 1072.64440917969 1062.33435058594 1055.82641601562 1054.65234375 1047.15930175781 1039.26611328125 1043.32666015625 1043.04663085938 1029.48217773438 1027.482421875 1021.14495849609 1013.84582519531 1004.49468994141 999.323425292969 995.776306152344 992.424499511719 983.650146484375 980.264038085938 978.033325195312 980.668518066406 988.21875 981.421691894531 985.454345703125 983.981201171875 980.753051757812 984.109313964844 977.580627441406 961.794982910156 962.159484863281 961.015441894531 962.070861816406 962.984069824219 968.115844726562 961.841003417969 971.37548828125 973.953002929688 973.3447265625
966.155395507812 964.905578613281 966.991271972656 960.652221679688 956.683532714844 947.956787109375 945.892578125 938.282836914062 942.692077636719 942.158081054688 941.252807617188 945.362182617188 952.6240234375 954.536193847656 946.831970214844 948.493347167969 961.207153320312 960.736450195312 961.084289550781 962.592346191406 957.228942871094 958.550964355469 957.051879882812 957.250732421875 948.828002929688 965.183715820312 962.436767578125 964.248596191406 965.026733398438 965.056396484375 962.944641113281 973.804870605469 974.548095703125 972.58837890625 975.874389648438 968.766174316406 968.141418457031 960.872436523438 966.893188476562 966.646911621094 974.849182128906 976.100036621094 964.496337890625 966.180297851562 986.412902832031 992.585021972656 991.136413574219 992.378234863281 1000.78247070312 1001.43737792969 1002.38568115234 1010.79400634766 1002.63098144531 1005.81109619141 1002.49475097656 997.990356445312 1002.97125244141 1002.07916259766 1001.79174804688 1000.06079101562 992.68896484375 990.93408203125 999.24609375 1001.1962890625 990.791625976562 989.750915527344 986.336608886719 994.141418457031 994.561950683594 990.4951171875 992.539123535156 989.5986328125 992.18505859375 996.02392578125 996.547058105469 988.523681640625 990.192626953125 994.631469726562 995.320983886719 994.554809570312 991.128723144531 1000.42663574219 1001.89562988281 1002.21667480469 1002.08685302734 1011.62170410156 1019.59759521484 1007.73638916016 1009.79071044922 1012.54669189453 1012.70965576172 1016.66650390625 1010.68023681641 1009.98156738281 1002.71862792969 1003.69268798828 1008.19207763672 1021.07611083984 1024.76916503906 1009.08813476562 1006.9306640625 1023.59283447266 1023.34283447266 1027.71520996094 1030.3447265625 1037.12414550781 1029.13110351562 1029.44970703125 1037.65380859375 1052.28466796875 1050.6708984375 1045.54370117188 1047.9599609375 1054.56909179688 1059.31481933594 1061.64685058594 1055.5771484375 1050.05969238281 1042.69494628906 1046.57739257812 1045.97583007812 1046.05749511719 1034.53552246094 1025.77185058594 1015.79663085938 1008.30157470703 999.640991210938 997.375671386719 992.700439453125 985.52880859375 978.993835449219 975.259155273438 985.830200195312 994.148986816406 986.870422363281 982.314758300781 988.798583984375 982.214904785156 976.973205566406 971.356994628906 965.176696777344 962.53759765625 964.349914550781 970.995849609375 969.136047363281 974.237060546875 974.263488769531 972.921081542969 966.156921386719 971.296997070312
973.9296875 966.114685058594 969.983703613281 955.444152832031 959.383850097656 954.527404785156 949.447509765625 943.345397949219 949.874328613281 946.825866699219 949.190368652344 949.369079589844 950.169921875 970.517944335938 960.554931640625 956.922973632812 961.75732421875 966.297180175781 960.563903808594 968.571838378906 963.219421386719 960.364990234375 968.794372558594 965.597900390625 968.31884765625 959.600952148438 958.538146972656 964.934997558594 970.273071289062 959.409912109375 966.600219726562 970.489196777344 972.510314941406 972.334228515625 970.106567382812 978.86376953125 967.251098632812 963.742248535156 968.83056640625 967.176818847656 964.778869628906 973.507385253906 976.461486816406 976.672790527344 978.196594238281 987.432434082031 976.490661621094 984.980590820312 998.93408203125 999.820861816406 1003.28820800781 1003.28668212891 1001.30151367188 997.597412109375 1001.46655273438 1010.82360839844 1005.28851318359 1003.87005615234 1007.63098144531 1007.17498779297 993.637023925781 999.233032226562 998.10205078125 995.853759765625 992.89892578125 989.354187011719 985.858825683594 988.564575195312 988.764526367188 990.742370605469 995.218139648438 994.887756347656 994.535827636719 996.564697265625 995.439697265625 991.564270019531 994.243835449219 995.189819335938 993.153076171875 996.501892089844 995.677551269531 1003.93469238281 1005.1376953125 1008.98553466797 1002.45251464844 1005.5888671875 1007.57824707031 1013.36846923828 1020.95764160156 1014.51422119141 1010.98199462891 1008.53527832031 1008.01593017578 1011.69616699219 1011.22991943359 1010.50207519531 1009.58532714844 1018.41461181641 1024.47326660156 1013.98468017578 1015.00073242188 1014.49029541016 1019.36437988281 1028.2607421875 1022.85864257812 1022.20263671875 1022.36364746094 1029.64233398438 1043.71069335938 1044.00805664062 1038.74182128906 1051.30737304688 1052.03442382812 1055.34240722656 1058.47265625 1064.39282226562 1060.59948730469 1048.93566894531 1044.17346191406 1053.572265625 1053.52270507812 1046.57922363281 1036.88818359375 1031.13903808594 1030.90942382812 1017.8046875 1012.55059814453 996.907043457031 991.534790039062 980.600402832031 976.528137207031 981.614990234375 985.007995605469 984.78076171875 987.3427734375 979.261352539062 983.870788574219 973.813720703125 976.750610351562 968.808898925781 967.813049316406 965.695129394531 970.214477539062 971.138549804688 980.105773925781 984.684387207031 982.604858398438 975.164916992188 959.538635253906 959.279296875
970.673522949219 968.160095214844 965.697631835938 963.376831054688 973.120239257812 965.833984375 956.605346679688 940.311157226562 940.304443359375 947.22607421875 956.199584960938 961.847229003906 960.6083984375 968.836242675781 963.969116210938 956.051940917969 964.574829101562 969.316528320312 964.6181640625 965.056457519531 959.888427734375 960.5 960.242858886719 961.779724121094 963.243835449219 964.912658691406 968.616088867188 966.250549316406 967.183349609375 957.534912109375 964.582214355469 970.347961425781 967.249816894531 970.93017578125 972.097290039062 977.845031738281 972.29150390625 951.76953125 959.076293945312 968.565490722656 970.686889648438 965.698547363281 965.078552246094 973.695068359375 968.844055175781 975.420349121094 981.596008300781 984.648071289062 990.103698730469 989.20361328125 988.184753417969 990.282592773438 999.03076171875 1000.55706787109 999.933715820312 1010.8056640625 1011.56671142578 1010.58355712891 1015.97216796875 1009.21722412109 991.844909667969 994.916564941406 990.266845703125 996.85595703125 993.430297851562 991.337524414062 990.715087890625 999.177551269531 995.804443359375 991.853820800781 992.329772949219 985.823608398438 988.543212890625 987.860046386719 988.033264160156 991.806030273438 996.454650878906 999.773071289062 997.884948730469 995.622131347656 1000.97003173828 996.008361816406 996.659606933594 1004.46362304688 997.209289550781 1004.74487304688 1011.16101074219 1008.20068359375 1010.32934570312 1009.07440185547 1001.17504882812 1007.99060058594 1021.43536376953 1015.36755371094 1014.93634033203 1016.27777099609 1010.47808837891 1013.08892822266 1013.68774414062 1020.43402099609 1018.72888183594 1012.16033935547 1011.58056640625 1016 1022.12481689453 1020.78399658203 1020.09442138672 1035.033203125 1050.28039550781 1040.11010742188 1033.85205078125 1045.30773925781 1049.29272460938 1055.12573242188 1053.80456542969 1053.49560546875 1066.96801757812 1052.9287109375 1049.93017578125 1050.21057128906 1052.44189453125 1043.22875976562 1034.96081542969 1042.16662597656 1030.90124511719 1029.78234863281 1013.65985107422 1000.45794677734 993.968322753906 987.296997070312 977.298217773438 977.195556640625 976.29248046875 978.355041503906 983.508850097656 976.324584960938 979.768737792969 970.148193359375 965.971435546875 962.493286132812 962.143737792969 965.770751953125 967.725952148438 974.359252929688 984.663208007812 979.591857910156 979.4375 969.873718261719 966.540344238281 969.099731445312
966.0361328125 972.487060546875 973.540344238281 969.706726074219 979.15234375 972.019836425781 955.282287597656 948.731872558594 938.162780761719 950.316955566406 948.668029785156 955.836059570312 966.097351074219 961.717590332031 963.867553710938 969.40625 969.599243164062 965.082214355469 961.263610839844 969.997863769531 959.982299804688 953.508178710938 963.588562011719 972.45654296875 968.338989257812 972.470642089844 969.726257324219 966.975463867188 965.548583984375 960.572143554688 962.566467285156 961.803894042969 958.979125976562 971.882385253906 980.47509765625 981.462890625 983.328002929688 961.034484863281 966.23291015625 967.473022460938 963.382202148438 966.178649902344 970.720947265625 968.984191894531 972.689025878906 975.735778808594 977.722778320312 972.240356445312 975.411010742188 984.605224609375 986.578796386719 1002.91906738281 1014.51373291016 1009.4560546875 1015.63928222656 1011.20837402344 1018.80096435547 1018.22119140625 1011.38177490234 1011.02252197266 1003.02880859375 1000.91766357422 998.002868652344 999.234558105469 991.198120117188 1004.64312744141 999.423217773438 998.170349121094 995.212036132812 997.274597167969 984.833801269531 995.157165527344 986.28369140625 991.113525390625 994.164184570312 996.537902832031 1002.63006591797 1001.90411376953 999.074096679688 999.510559082031 993.664794921875 991.736633300781 997.828063964844 1002.54766845703 1002.75091552734 1009.49700927734 1005.00793457031 1012.37487792969 1010.3564453125 1017.35498046875 1007.25927734375 1017.39361572266 1019.52191162109 1024.1083984375 1017.39270019531 1020.68743896484 1018.28948974609 1020.05029296875 1037.45300292969 1037.17895507812 1026.64294433594 1010.43200683594 1009.54333496094 1006.75500488281 1017.47351074219 1023.93762207031 1026.14819335938 1039.1591796875 1045.30151367188 1047.93823242188 1033.88024902344 1048.74865722656 1050.52990722656 1051.02795410156 1058.46838378906 1061.12707519531 1057.56958007812 1057.27624511719 1047.45007324219 1050.45678710938 1043.22338867188 1043.69543457031 1033.63818359375 1043.00952148438 1030.8076171875 1023.44305419922 1011.74682617188 1005.166015625 996.325439453125 993.524475097656 972.872619628906 966.032897949219 970.966674804688 974.063598632812 981.200256347656 980.482360839844 968.595031738281 967.474548339844 964.314025878906 968.812927246094 961.745910644531 958.484985351562 976.935852050781 974.40087890625 965.845764160156 969.940063476562 967.303405761719 963.436401367188 968.256469726562 973.743041992188
969.018615722656 966.45751953125 970.486145019531 976.409240722656 983.647277832031 967.116333007812 956.047546386719 950.541259765625 947.75537109375 948.377136230469 945.595397949219 956.290405273438 962.353149414062 969.474365234375 974.339965820312 973.495910644531 976.809753417969 964.866943359375 966.288452148438 965.024353027344 964.602661132812 967.703369140625 968.224609375 968.639953613281 972.703002929688 973.835998535156 964.32568359375 961.023010253906 962.629821777344 970.223449707031 964.127868652344 963.419799804688 967.564880371094 966.942932128906 970.075805664062 975.547180175781 979.103149414062 975.095825195312 970.36572265625 969.363159179688 959.531372070312 960.260498046875 966.218078613281 963.32763671875 971.142883300781 979.597778320312 975.286376953125 972.834289550781 974.211608886719 989.347595214844 989.974487304688 994.985046386719 1007.01495361328 1006.4140625 1017.6943359375 1022.19427490234 1019.13848876953 1012.88879394531 1014.80407714844 1020.78820800781 1005.59594726562 1001.41918945312 1001.54437255859 1001.19104003906 1004.91156005859 1007.32171630859 997.916442871094 1001.83917236328 997.289733886719 988.303100585938 999.91748046875 989.164001464844 993.275939941406 991.716247558594 994.868041992188 998.734375 1001.39392089844 1001.91839599609 991.624694824219 997.774658203125 1000.19049072266 997.767578125 1003.21063232422 1002.8896484375 1010.62316894531 1011.17175292969 1005.26171875 1008.73602294922 1013.22534179688 1011.45501708984 1005.33374023438 1016.61871337891 1022.13342285156 1021.65966796875 1018.11224365234 1017.35083007812 1016.36212158203 1017.14971923828 1032.58422851562 1029.70263671875 1027.23278808594 1017.38946533203 1020.16912841797 1009.57202148438 1020.86938476562 1029.72351074219 1028.94226074219 1041.70812988281 1043.13500976562 1039.08093261719 1033.49230957031 1044.06811523438 1047.60302734375 1051.91320800781 1052.41101074219 1057.71179199219 1047.73889160156 1044.9892578125 1044.57861328125 1047.60302734375 1043.50524902344 1043.5625 1040.07397460938 1042.18859863281 1026.66540527344 1025.7275390625 1018.83819580078 1007.61639404297 994.197937011719 999.676208496094 979.93408203125 971.193237304688 971.180847167969 976.574584960938 978.794799804688 977.91552734375 965.939453125 964.091369628906 968.105834960938 967.985900878906 956.556518554688 958.1201171875 972.929016113281 971.002197265625 973.431579589844 967.425170898438 970.33203125 968.724609375 971.231323242188 974.006103515625
953.273559570312 970.085754394531 968.380187988281 973.377502441406 971.135498046875 966.504333496094 962.269653320312 952.641540527344 947.951721191406 956.313110351562 951.646728515625 963.498596191406 969.615356445312 971.379760742188 972.245727539062 973.922119140625 978.723205566406 974.171691894531 968.948974609375 964.269226074219 975.68701171875 968.759338378906 972.853271484375 967.6552734375 967.922119140625 965.630493164062 964.520141601562 961.392517089844 962.121459960938 963.057922363281 963.600769042969 966.379089355469 967.421752929688 961.373168945312 971.3486328125 979.660583496094 982.930114746094 979.585083007812 981.144226074219 978.442260742188 967.683959960938 967.903930664062 964.524291992188 966.364196777344 972.83447265625 973.104370117188 982.170166015625 976.532897949219 972.063110351562 985.068237304688 985.658874511719 1002.87341308594 1000.12109375 1000.64422607422 1006.47106933594 1014.83038330078 1018.63983154297 1025.01489257812 1012.8955078125 1014.12701416016 1007.95562744141 1007.98132324219 1013.34417724609 1012.41467285156 1012.05236816406 1009.14440917969 997.716369628906 997.921569824219 1000.09283447266 999.3984375 1004.11486816406 997.780700683594 1004.37902832031 999.058288574219 998.075073242188 1000.26190185547 995.798461914062 999.170471191406 999.151123046875 999.953308105469 999.87060546875 1003.63684082031 997.197631835938 1000.17346191406 1000.10601806641 1007.04803466797 1000.28912353516 1007.81524658203 1017.85583496094 1013.44158935547 1008.60992431641 1015.56854248047 1017.25543212891 1026.21142578125 1016.98059082031 1021.92602539062 1021.36999511719 1020.97576904297 1028.58862304688 1032.0966796875 1028.54248046875 1019.57489013672 1025.12719726562 1026.95837402344 1027.95532226562 1028.71374511719 1033.28100585938 1036.20874023438 1040.37756347656 1027.18371582031 1031.04382324219 1033.57946777344 1042.59997558594 1040.52990722656 1042.78076171875 1053.09448242188 1049.44201660156 1037.04577636719 1031.76086425781 1044.69738769531 1054.01745605469 1043.34826660156 1046.35046386719 1038.16748046875 1030.39807128906 1016.21124267578 1015.81713867188 1010.3349609375 996.650634765625 992.615173339844 983.075622558594 978.168884277344 973.546203613281 976.694580078125 973.173156738281 966.443908691406 959.737609863281 969.391357421875 967.4619140625 962.211486816406 955.535034179688 962.704284667969 963.766540527344 964.877014160156 968.560302734375 968.329223632812 968.095031738281 972.129211425781 967.173583984375 968.077392578125
941.768005371094 965.101013183594 977.189208984375 966.486999511719 958.499328613281 964.865844726562 961.565124511719 957.221313476562 964.869873046875 962.568359375 957.35107421875 966.6015625 967.027160644531 974.346801757812 971.683471679688 974.427795410156 976.548461914062 976.890563964844 971.603698730469 967.740173339844 968.892944335938 970.741088867188 977.861267089844 972.42578125 970.706970214844 957.150939941406 964.098205566406 963.5712890625 974.993225097656 957.435241699219 956.411499023438 963.342102050781 976.795349121094 964.989196777344 967.544982910156 976.802856445312 979.929504394531 984.665161132812 978.414184570312 979.220520019531 979.737182617188 973.676574707031 966.38623046875 978.406921386719 977.547668457031 974.9462890625 983.7119140625 986.4013671875 985.561706542969 978.714111328125 983.043212890625 985.018676757812 991.14892578125 996.684753417969 1002.67828369141 1009.18756103516 1019.37603759766 1016.57666015625 1018.21697998047 1014.55224609375 1016.62164306641 1019.49871826172 1021.88604736328 1025.73107910156 1011.01110839844 1006.17669677734 993.27099609375 996.335632324219 999.418823242188 1006.17749023438 1007.58306884766 1005.55395507812 1005.90069580078 1002.66644287109 996.284301757812 1001.03570556641 997.408142089844 996.929138183594 1006.37945556641 1001.19421386719 998.756713867188 1002.50354003906 995.709838867188 997.875183105469 994.829895019531 1002.08013916016 1006.05902099609 1007.50506591797 1007.40728759766 1008.35089111328 1003.31951904297 1011.49371337891 1011.83624267578 1014.16937255859 1024.56970214844 1024.93542480469 1026.0869140625 1029.23876953125 1025.87805175781 1023.58843994141 1033.01782226562 1023.44586181641 1024.91760253906 1028.27453613281 1030.68444824219 1027.96691894531 1027.23095703125 1036.36254882812 1030.74133300781 1024.76916503906 1021.97796630859 1029.48022460938 1033.89050292969 1039.94519042969 1043.275390625 1050.76330566406 1046.51818847656 1045.94250488281 1044.28198242188 1048.30993652344 1049.70275878906 1041.51623535156 1039.22143554688 1035.19458007812 1025.65966796875 1015.75354003906 1015.63238525391 1010.76092529297 1000.12341308594 984.601318359375 980.472961425781 971.105163574219 977.069641113281 971.134765625 962.143493652344 969.889892578125 969.040954589844 967.336242675781 971.6103515625 960.461059570312 966.964538574219 963.701110839844 961.555725097656 958.082214355469 959.197204589844 961.188720703125 959.225769042969 964.285522460938 957.449584960938 962.847106933594
945.159240722656 951.221008300781 965.716125488281 958.286682128906 954.691833496094 958.243957519531 955.40478515625 959.012573242188 963.759460449219 956.306823730469 955.885437011719 957.362731933594 969.637817382812 972.975158691406 973.161010742188 965.65576171875 971.978881835938 975.869567871094 977.3642578125 970.708068847656 968.633178710938 970.881408691406 979.76953125 975.041259765625 972.712219238281 963.75830078125 970.038391113281 967.148498535156 971.203308105469 963.327087402344 964.874877929688 961.885192871094 967.819213867188 967.951782226562 961.47900390625 975.733337402344 981.1357421875 972.916748046875 971.238586425781 976.868896484375 983.262573242188 981.088256835938 972.949951171875 972.297729492188 976.015991210938 970.917358398438 971.698852539062 977.109436035156 988.244262695312 978.198974609375 977.782836914062 985.534301757812 989.669250488281 993.8115234375 996.141540527344 1009.50769042969 1009.81951904297 1004.21264648438 1010.18280029297 1017.26495361328 1016.79913330078 1013.14831542969 1023.10601806641 1019.40875244141 1017.52282714844 1006.74438476562 1002.53515625 999.270385742188 1000.7548828125 1002.45874023438 1005.81555175781 1023.61584472656 1022.2080078125 1013.52410888672 1004.31079101562 1002.85784912109 1000.46429443359 996.010375976562 1003.78198242188 993.471313476562 996.331481933594 1000.78887939453 997.914001464844 999.604125976562 994.932922363281 1005.58026123047 999.028686523438 1001.37243652344 1008.56842041016 1004.46502685547 1007.36383056641 1005.30187988281 1013.92272949219 1009.93139648438 1024.84619140625 1026.72143554688 1032.69226074219 1028.40161132812 1035.17041015625 1032.54272460938 1031.79675292969 1027.4072265625 1028.39367675781 1025.25 1020.64392089844 1022.12072753906 1020.42864990234 1030.5869140625 1022.59307861328 1020.28082275391 1026.28442382812 1020.76934814453 1020.83111572266 1038.48999023438 1043.90222167969 1044.31640625 1056.23828125 1049.775390625 1048.28466796875 1046.84436035156 1038.73327636719 1039.39636230469 1024.42358398438 1023.76611328125 1022.30731201172 1021.17614746094 1018.83056640625 1005.06372070312 993.851379394531 987.773803710938 973.970642089844 974.863403320312 973.767456054688 964.030029296875 958.662475585938 963.118225097656 958.119262695312 966.18408203125 963.282592773438 961.891967773438 948.243408203125 951.68115234375 950.592529296875 956.010986328125 954.272338867188 950.051818847656 952.286682128906 948.860046386719 949.403503417969 943.012817382812
933.621643066406 948.50341796875 945.351257324219 949.178527832031 955.531372070312 956.0078125 957.641357421875 953.976013183594 953.464965820312 957.128112792969 965.886962890625 966.05810546875 974.324951171875 980.231140136719 980.993286132812 980.320251464844 976.924255371094 977.089233398438 986.016357421875 975.391479492188 980.515869140625 975.882934570312 978.057922363281 975.666076660156 974.316101074219 970.648315429688 971.699523925781 969.506286621094 961.508911132812 963.689697265625 962.715637207031 963.362609863281 961.543029785156 962.961669921875 957.029357910156 964.537475585938 975.624206542969 973.458618164062 971.825622558594 975.842224121094 981.678771972656 985.49267578125 984.688354492188 977.252319335938 981.26123046875 973.764404296875 969.244506835938 977.298950195312 984.474914550781 985.120300292969 981.640014648438 986.330627441406 980.991821289062 986.714599609375 993.642028808594 1001.48962402344 1001.52722167969 1002.85534667969 1004.50622558594 1010.30059814453 1020.931640625 1023.77868652344 1021.79608154297 1027.29040527344 1017.12982177734 1014.71533203125 1006.64306640625 1006.26373291016 1002.53784179688 1014.47253417969 1020.87841796875 1015.65759277344 1025.63366699219 1016.57183837891 1004.62322998047 1003.28125 1011.61077880859 1004.98205566406 1010.42059326172 1008.48571777344 988.870727539062 994.625610351562 993.108642578125 1009.28344726562 997.601623535156 1009.52478027344 1001.39984130859 1004.16705322266 1006.64965820312 1006.77252197266 1004.91418457031 1007.14587402344 1007.13354492188 1025.74914550781 1035.09631347656 1032.82739257812 1032.74853515625 1035.70007324219 1038.28271484375 1040.45458984375 1033.306640625 1024.67016601562 1025.26440429688 1031.11730957031 1027.02258300781 1026.77209472656 1023.23419189453 1021.71069335938 1016.78936767578 1018.82879638672 1029.58911132812 1021.79541015625 1022.7744140625 1021.93072509766 1024.32751464844 1036.966796875 1040.29870605469 1038.85888671875 1032.36682128906 1033.45471191406 1026.09204101562 1031.81506347656 1025.38427734375 1016.82922363281 1015.60150146484 1017.75805664062 1013.08947753906 1003.31060791016 997.667785644531 989.836364746094 982.286926269531 982.620971679688 975.2841796875 978.157287597656 969.119018554688 962.41552734375 967.727355957031 961.723327636719 960.617248535156 956.414123535156 945.260009765625 950.787841796875 946.830993652344 952.598693847656 956.950378417969 957.71484375 946.521301269531 956.399536132812 954.630310058594 945.393432617188
939.463806152344 943.834289550781 942.827575683594 946.352600097656 953.367370605469 950.17041015625 963.244079589844 954.251708984375 949.948120117188 954.722351074219 962.644714355469 967.884216308594 980.007568359375 990.710510253906 994.275268554688 981.585632324219 982.035278320312 986.363830566406 982.387023925781 973.961853027344 972.679016113281 973.076477050781 966.444580078125 974.490051269531 980.720397949219 975.446533203125 964.465576171875 971.350708007812 969.503295898438 959.390075683594 955.642333984375 953.299255371094 962.105590820312 951.201232910156 955.025634765625 961.429504394531 967.069091796875 975.440063476562 976.125549316406 980.337951660156 979.501037597656 976.515808105469 980.587768554688 976.515991210938 981.756774902344 977.235656738281 976.180480957031 980.179565429688 979.670837402344 980.765991210938 980.580627441406 983.820068359375 981.813232421875 983.058227539062 994.308044433594 997.517578125 998.80224609375 994.378479003906 1002.61566162109 1010.18133544922 1019.89270019531 1031.27551269531 1032.1533203125 1026.61547851562 1024.07312011719 1021.73828125 1021.77673339844 1021.70941162109 1013.57720947266 1020.84973144531 1020.65643310547 1018.76171875 1009.21240234375 1022.04156494141 1013.49847412109 1009.00469970703 1007.10656738281 1009.65032958984 1005.50939941406 1007.28356933594 1005.63745117188 997.147216796875 1001.66137695312 1008.00555419922 998.833862304688 999.033630371094 999.094543457031 1007.64892578125 1003.65142822266 1006.52972412109 1011.46258544922 1015.46936035156 1019.62243652344 1037.7197265625 1040.93420410156 1041.10534667969 1046.52099609375 1041.72192382812 1040.37255859375 1050.82531738281 1034.67077636719 1025.89367675781 1016.57391357422 1010.75085449219 1019.88159179688 1015.78179931641 1018.09191894531 1021.61077880859 1020.06048583984 1025.54052734375 1029.86352539062 1025.01293945312 1014.7783203125 1014.90356445312 1023.85211181641 1039.51184082031 1031.123046875 1025.98876953125 1024.32958984375 1018.05639648438 1027.17333984375 1031.96166992188 1013.21466064453 1008.27691650391 1007.75939941406 1009.68365478516 1007.36700439453 1007.04418945312 998.961608886719 996.879760742188 987.204650878906 987.439880371094 983.933288574219 970.657287597656 969.352600097656 965.553771972656 964.277221679688 958.175720214844 947.476867675781 953.049438476562 948.8505859375 954.95654296875 952.962890625 958.198486328125 956.818420410156 958.611206054688 952.984436035156 949.561279296875 947.076049804688 936.353576660156
933.060363769531 935.863098144531 941.509460449219 936.991394042969 945.057250976562 949.7734375 957.194946289062 956.045715332031 952.839538574219 957.19140625 957.231628417969 968.589050292969 974.179809570312 988.107177734375 994.075439453125 988.830871582031 982.256713867188 983.503540039062 982.487243652344 977.557373046875 974.666137695312 973.552001953125 966.270874023438 974.348205566406 983.675109863281 980.483581542969 968.073547363281 968.9658203125 963.43359375 949.410766601562 950.575012207031 945.789245605469 954.614318847656 953.440002441406 955.405334472656 963.111022949219 972.792846679688 984.848388671875 978.432434082031 975.598754882812 979.814147949219 981.716674804688 979.806945800781 981.722106933594 991.410949707031 985.280578613281 979.474670410156 980.54541015625 983.829406738281 976.170837402344 977.435974121094 976.957275390625 984.910278320312 985.973510742188 995.31396484375 989.976928710938 993.739685058594 999.379150390625 998.761047363281 1008.01977539062 1018.53228759766 1017.47839355469 1022.11895751953 1027.66528320312 1025.12536621094 1018.89434814453 1022.728515625 1023.14099121094 1021.34948730469 1025.09680175781 1020.30944824219 1022.783203125 1019.77777099609 1022.22125244141 1009.44763183594 1008.52838134766 1009.15985107422 1008.62860107422 1009.44207763672 1007.41754150391 1007.45324707031 1009.54241943359 1008.39654541016 999.369384765625 1013.24041748047 1005.35443115234 999.248291015625 1003.47100830078 1008.91204833984 1010.39337158203 1011.69537353516 1015.09161376953 1024.7861328125 1035.89147949219 1047.828125 1042.33117675781 1041.57531738281 1041.23352050781 1041.53088378906 1046.09289550781 1040.50073242188 1028.38757324219 1011.89544677734 1004.25769042969 1016.18811035156 1011.79956054688 1013.2099609375 1026.59851074219 1021.61157226562 1026.17822265625 1028.04260253906 1024.31323242188 1018.89495849609 1017.24224853516 1011.94018554688 1017.72076416016 1026.72180175781 1022.95007324219 1023.02081298828 1023.44769287109 1022.43121337891 1022.07470703125 1014.26849365234 1005.50305175781 1004.29522705078 1008.81365966797 1003.53594970703 1000.00146484375 994.784057617188 982.941528320312 976.1640625 977.334350585938 970.471069335938 972.064636230469 976.558410644531 968.770263671875 964.227905273438 962.46240234375 960.663330078125 950.300048828125 962.502075195312 953.504760742188 948.402893066406 943.3701171875 941.864501953125 943.371276855469 945.977783203125 946.315063476562 946.260375976562 942.23974609375
932.693603515625 935.261108398438 941.563842773438 941.354125976562 948.072875976562 949.654663085938 946.296813964844 950.296081542969 949.061767578125 959.934875488281 957.725769042969 969.8017578125 973.305053710938 977.941467285156 991.439697265625 988.0361328125 998.188903808594 991.939025878906 976.681030273438 975.670166015625 984.404052734375 976.468078613281 972.519897460938 969.481994628906 974.552734375 975.817504882812 964.965759277344 964.806823730469 964.747924804688 963.420837402344 959.219055175781 961.253051757812 958.109924316406 951.294982910156 958.5 967.299377441406 976.189270019531 979.760925292969 982.444519042969 975.15185546875 980.275207519531 973.11279296875 975.821594238281 989.78662109375 990.049499511719 987.811401367188 989.500427246094 984.273681640625 982.593811035156 985.315307617188 981.616760253906 983.470336914062 990.802673339844 994.362731933594 986.05615234375 985.242126464844 990.891540527344 990.554992675781 1002.33776855469 1005.70794677734 1009.166015625 1000.71319580078 1009.76641845703 1022.16619873047 1025.68591308594 1016.12713623047 1016.28454589844 1020.61358642578 1024.65930175781 1018.74346923828 1015.42065429688 1029.923828125 1019.57073974609 1020.75280761719 1022.60272216797 1010.47540283203 1004.34851074219 1002.00042724609 1001.69494628906 1001.11083984375 1011.02117919922 1008.46350097656 1008.02532958984 1000.61663818359 1004.41864013672 1014.90673828125 1014.53448486328 1007.76995849609 1009.18182373047 992.416564941406 996.95751953125 1013.27331542969 1021.07720947266 1028.27856445312 1032.8544921875 1044.5673828125 1038.04162597656 1048.08996582031 1045.08154296875 1044.19848632812 1032.85083007812 1031.88671875 1014.93078613281 1015.30053710938 1013.10888671875 1010.40502929688 1017.55859375 1018.95989990234 1026.93371582031 1036.78405761719 1030.49462890625 1026.80261230469 1019.82794189453 1027.98266601562 1020.88446044922 1022.17730712891 1021.87377929688 1031.04846191406 1025.69641113281 1022.36614990234 1015.26153564453 1014.19396972656 1013.74688720703 1012.44152832031 1002.27746582031 1013.16003417969 1001.76159667969 1000.81561279297 993.951965332031 976.093872070312 974.7578125 977.977172851562 962.008972167969 968.993713378906 971.959045410156 969.813537597656 969.812316894531 965.64794921875 961.878173828125 962.83984375 958.609436035156 955.765014648438 946.699157714844 944.049194335938 935.318420410156 944.45947265625 942.78515625 951.493408203125 950.628112792969 946.603332519531
