NCOLS 150
NROWS 38
XLLCORNER 7394249
YLLCORNER 4842479
CELLSIZE 30
NODATA_VALUE -9999
955.045471191406 950.5341796875 951.578002929688 956.338134765625 962.033874511719 959.505859375 957.119812011719 960.581298828125 970.732727050781 973.876403808594 981.136474609375 984.799682617188 980.457336425781 974.680603027344 972.482238769531 969.562377929688 979.903686523438 973.455261230469 964.723083496094 955.484985351562 960.968200683594 965.571594238281 971.21142578125 972.629150390625 979.799499511719 979.465942382812 976.379272460938 971.823120117188 973.302856445312 971.006713867188 985.085876464844 989.243896484375 969.770263671875 974.743103027344 976.76953125 970.975891113281 968.656555175781 964.583190917969 965.947509765625 971.32666015625 970.4912109375 973.578918457031 962.923400878906 958.3232421875 955.2109375 964.38818359375 970.780029296875 969.822998046875 969.49658203125 979.187133789062 972.462829589844 972.148742675781 974.586120605469 972.575988769531 971.786254882812 966.846740722656 967.659118652344 973.3583984375 977.619262695312 974.890930175781 975.734191894531 973.843688964844 969.692138671875 973.677368164062 971.378662109375 978.307373046875 986.100952148438 982.07421875 973.401916503906 966.973571777344 965.341491699219 963.050476074219 975.906433105469 970.046752929688 975.518981933594 963.723754882812 979.244567871094 966.885559082031 975.986022949219 972.648254394531 971.341552734375 958.756713867188 965.438781738281 964.728271484375 969.80126953125 975.823669433594 966.629211425781 966.726867675781 969.617736816406 975.9736328125 971.027770996094 977.50244140625 973.185546875 974.704895019531 973.125610351562 969.671997070312 976.598266601562 984.355712890625 981.722351074219 977.780578613281 984.648559570312 982.84912109375 988.983459472656 984.006103515625 993.548278808594 987.882507324219 985.846069335938 996.028625488281 994.994079589844 992.285949707031 999.852172851562 995.122619628906 1005.22894287109 1010.26263427734 1012.98950195312 1002.16607666016 1010.70831298828 1012.43927001953 1014.05535888672 1012.29895019531 1007.53356933594 1004.93438720703 1006.64263916016 1007.00421142578 1006.33654785156 1009.28302001953 1012.40826416016 1019.82458496094 1023.40686035156 1029.47802734375 1027.50402832031 1041.07250976562 1051.73803710938 1055.78527832031 1058.07019042969 1066.94201660156 1072.49572753906 1076.36779785156 1077.638671875 1084.92431640625 1093.15771484375 1102.14526367188 1111.13073730469 1124.67578125 1136.02563476562 1136.56005859375 1150.83349609375 1160.40612792969 1154.75500488281 1157.82287597656
952.799499511719 950.104919433594 948.92578125 955.111267089844 956.547119140625 958.530883789062 960.289733886719 966.031066894531 972.18603515625 973.157043457031 979.442504882812 975.409240722656 976.98486328125 970.355834960938 973.857971191406 977.032104492188 985.716125488281 976.313537597656 973.011108398438 960.976684570312 966.104248046875 960.425659179688 964.779968261719 968.873291015625 961.439453125 975.068481445312 977.592041015625 973.342041015625 964.34228515625 963.868469238281 977.774169921875 984.692321777344 976.698791503906 969.735473632812 972.196166992188 982.0341796875 965.436889648438 965.782348632812 960.151123046875 966.414733886719 966.472534179688 970.831115722656 965.268981933594 947.379516601562 955.456726074219 966.637023925781 974.929260253906 972.364013671875 967.142517089844 968.556762695312 979.860961914062 981.278442382812 981.682434082031 981.278503417969 974.482299804688 964.139465332031 966.708618164062 965.550598144531 973.600219726562 976.824401855469 981.150085449219 972.357666015625 977.820007324219 980.133544921875 973.070373535156 969.58984375 977.88525390625 981.184326171875 968.000305175781 964.781188964844 961.926086425781 966.140808105469 972.111877441406 976.585327148438 971.411437988281 974.816833496094 971.91259765625 972.23583984375 965.412719726562 970.9580078125 970.354125976562 973.6904296875 969.70166015625 968.944946289062 972.846435546875 966.670288085938 966.545715332031 966.133361816406 966.184997558594 972.154907226562 963.788757324219 972.622009277344 970.055358886719 973.34765625 973.106750488281 976.042053222656 982.347473144531 975.588623046875 975.452087402344 980.743530273438 981.811279296875 989.196350097656 984.034362792969 987.901306152344 993.077880859375 989.998840332031 992.583190917969 993.031860351562 1000.92779541016 997.294616699219 1001.83984375 1001.43908691406 1005.22290039062 1014.12371826172 1016.69934082031 1002.07739257812 1003.14288330078 1009.65203857422 1013.93408203125 1014.43035888672 1013.30236816406 1004.37194824219 1006.30377197266 1010.02380371094 1012.57568359375 1005.96697998047 1006.91882324219 1018.81085205078 1017.71240234375 1020.84411621094 1035.73095703125 1036.13818359375 1044.59240722656 1055.42126464844 1056.98852539062 1068.353515625 1076.70202636719 1078.99633789062 1092.52221679688 1097.38342285156 1094.88073730469 1105.27075195312 1114.55480957031 1125.890625 1135.69189453125 1135.60827636719 1144.19482421875 1149.10314941406 1156.63562011719 1147.02465820312
956.588012695312 944.21923828125 939.299621582031 948.605712890625 960.117614746094 967.499938964844 966.796691894531 970.189086914062 966.279846191406 967.933288574219 966.574035644531 964.370422363281 968.721618652344 979.204895019531 970.763549804688 975.071044921875 972.106689453125 981.607482910156 977.019165039062 967.055114746094 965.072631835938 968.073913574219 958.624206542969 969.884826660156 963.703857421875 971.310485839844 965.277709960938 956.269165039062 956.80517578125 972.456298828125 972.632019042969 977.226623535156 978.016845703125 970.663208007812 968.519592285156 970.129821777344 950.870727539062 946.108459472656 950.190307617188 961.099914550781 964.899536132812 970.956298828125 960.155456542969 955.50439453125 961.897583007812 965.388854980469 983.823791503906 974.084411621094 970.742370605469 961.413146972656 967.094299316406 977.750427246094 974.109985351562 968.613098144531 970.788391113281 964.390014648438 969.026977539062 967.93798828125 972.848937988281 972.637573242188 981.124938964844 978.651733398438 980.461608886719 975.797485351562 974.13818359375 970.3466796875 966.735168457031 969.8173828125 956.236572265625 963.973205566406 959.361267089844 958.218994140625 967.531188964844 972.270080566406 972.577697753906 969.456909179688 964.530944824219 968.817077636719 967.276550292969 968.895080566406 968.728698730469 974.288024902344 972.9140625 966.617797851562 966.352172851562 957.472961425781 960.387878417969 964.491882324219 963.75 961.073547363281 968.508239746094 965.34521484375 966.735107421875 963.835266113281 966.938537597656 973.289489746094 979.059997558594 982.531677246094 974.951782226562 968.067565917969 974.806274414062 979.259826660156 983.001647949219 983.860168457031 981.017395019531 987.600280761719 987.053405761719 992.25634765625 993.410461425781 999.283325195312 1010.41571044922 1009.92987060547 1009.96545410156 1006.23699951172 999.813110351562 995.358154296875 999.522705078125 1007.44116210938 1018.33728027344 1015.67053222656 1017.73205566406 1012.93811035156 1003.96533203125 1011.87994384766 1009.24298095703 1010.43609619141 1008.49664306641 1011.56188964844 1013.11981201172 1022.75372314453 1027.75708007812 1038.66662597656 1046.98596191406 1046.12170410156 1064.05517578125 1063.83935546875 1072.69311523438 1086.17272949219 1102.3740234375 1106.57141113281 1109.21520996094 1098.04406738281 1115.88610839844 1122.99426269531 1140.712890625 1131.42492675781 1139.97473144531 1136.51782226562 1139.72875976562 1145.35607910156
955.630004882812 950.487609863281 947.194946289062 954.583374023438 959.1474609375 967.474792480469 966.522094726562 969.863647460938 967.463195800781 963.813171386719 966.773986816406 967.648498535156 975.115356445312 981.112426757812 982.712829589844 976.884582519531 974.936279296875 979.098815917969 972.396667480469 967.947875976562 974.671081542969 965.560180664062 955.16748046875 962.410827636719 964.3759765625 958.193908691406 958.982666015625 964.243713378906 969.257751464844 964.511108398438 972.656921386719 982.64599609375 973.864807128906 976.643737792969 969.061096191406 960.593139648438 955.789367675781 943.007141113281 954.115295410156 963.948974609375 962.618591308594 965.421142578125 958.873962402344 959.085754394531 964.980346679688 967.81005859375 973.384948730469 967.903442382812 962.617370605469 961.837585449219 967.906677246094 970.670227050781 965.748657226562 960.524169921875 960.403991699219 965.279541015625 965.139526367188 965.820739746094 963.497314453125 964.481384277344 967.694274902344 976.522216796875 969.767333984375 975.769897460938 966.843627929688 965.922729492188 960.251342773438 962.665588378906 958.580322265625 961.61669921875 957.672302246094 964.772644042969 961.830017089844 969.639038085938 972.563659667969 962.530944824219 966.910949707031 966.586364746094 969.288696289062 969.132019042969 969.481811523438 972.648803710938 965.579406738281 972.114990234375 972.829162597656 965.248962402344 959.135192871094 962.968322753906 967.020324707031 963.258178710938 975.535583496094 970.94580078125 964.543884277344 968.67236328125 969.096008300781 975.911926269531 969.487365722656 967.843078613281 963.463562011719 965.455993652344 977.566162109375 977.141845703125 981.094543457031 980.331237792969 976.255859375 982.7119140625 989.055480957031 990.890380859375 998.511413574219 998.166687011719 1007.31866455078 1002.55236816406 1006.53564453125 994.67822265625 993.308227539062 989.752746582031 998.609497070312 1008.94921875 1010.3359375 1016.36450195312 1017.16015625 1014.45367431641 1003.67077636719 1013.00427246094 1011.86895751953 1013.82086181641 1016.76599121094 1017.50756835938 1014.64007568359 1025.73986816406 1029.54516601562 1037.33032226562 1040.078125 1048.06518554688 1063.48046875 1066.64233398438 1077.91442871094 1088.93041992188 1094.36560058594 1100.6435546875 1099.25476074219 1108.63146972656 1108.92993164062 1111.64379882812 1126.66394042969 1127.77563476562 1127.85876464844 1132.81823730469 1126.12133789062 1136.48901367188
967.717346191406 964.502136230469 953.830932617188 955.008666992188 962.722290039062 965.587646484375 973.3212890625 963.499694824219 971.906127929688 968.761474609375 976.934509277344 966.968017578125 972.730285644531 975.707397460938 980.462280273438 978.100036621094 976.480041503906 973.719543457031 971.462158203125 970.817626953125 974.889282226562 968.210510253906 965.068237304688 961.814331054688 959.9921875 953.451232910156 961.633728027344 965.802856445312 967.456298828125 964.934509277344 972.72705078125 980.038146972656 980.474304199219 973.249938964844 968.742065429688 967.549865722656 961.6796875 951.961242675781 959.832885742188 958.385009765625 958.435241699219 960.922729492188 959.974731445312 955.664367675781 971.56396484375 962.86279296875 957.414306640625 957.221130371094 955.210510253906 955.794250488281 956.225341796875 960.543212890625 957.364318847656 965.519897460938 959.56494140625 960.328796386719 960.234802246094 958.151916503906 962.917358398438 962.136169433594 966.317810058594 963.383483886719 959.73388671875 956.209411621094 963.371276855469 963.828491210938 966.931457519531 964.862731933594 971.879028320312 968.835510253906 967.235290527344 962.64501953125 962.542358398438 966.258666992188 968.679626464844 967.142761230469 974.4716796875 977.283386230469 974.602478027344 969.375793457031 965.853759765625 966.966979980469 964.507995605469 966.868347167969 965.348510742188 969.038024902344 965.687377929688 961.951782226562 977.3212890625 973.66650390625 976.628234863281 976.221923828125 974.755737304688 976.190124511719 967.77392578125 967.35302734375 966.692993164062 964.502868652344 960.904479980469 971.159606933594 973.838195800781 977.257934570312 978.736755371094 975.044860839844 975.272705078125 972.482421875 980.647521972656 985.078918457031 997.089660644531 998.875366210938 1002.04846191406 999.14599609375 1001.02532958984 997.725769042969 991.732299804688 986.723327636719 991.71337890625 1008.67852783203 1011.5087890625 1015.49591064453 1015.26647949219 1011.27770996094 1015.17639160156 1023.42791748047 1020.66955566406 1015.32116699219 1021.41729736328 1026.53088378906 1024.337890625 1029.64172363281 1029.44482421875 1041.51293945312 1050.21203613281 1050.66809082031 1061.81396484375 1063.5087890625 1075.74914550781 1084.91052246094 1092.24755859375 1099.31262207031 1109.42419433594 1103.779296875 1107.38720703125 1110.57177734375 1118.18359375 1112.68310546875 1120.32653808594 1118.46716308594 1115.49267578125 1125.09558105469
965.436218261719 966.049255371094 957.3271484375 959.290954589844 960.725341796875 971.485778808594 976.807495117188 973.6376953125 966.159912109375 971.651000976562 975.559997558594 970.636413574219 973.712036132812 976.156616210938 978.627624511719 976.60888671875 967.8828125 973.55029296875 969.899169921875 978.181762695312 981.360168457031 967.0087890625 963.034057617188 963.695068359375 957.150634765625 950.2431640625 957.543395996094 962.265625 963.229553222656 972.439575195312 970.026550292969 975.698364257812 980.440551757812 983.713195800781 976.030090332031 969.822937011719 969.075927734375 966.602722167969 967.926208496094 958.416015625 957.500671386719 960.953186035156 967.842102050781 967.308532714844 969.261901855469 966.491516113281 962.7861328125 963.745422363281 957.298889160156 952.721618652344 952.468566894531 953.828369140625 953.470031738281 953.419860839844 960.581298828125 954.404968261719 949.970581054688 953.215515136719 952.868713378906 965.96875 967.851501464844 957.07568359375 956.674987792969 958.134643554688 967.504028320312 963.648742675781 963.165161132812 957.287902832031 966.296569824219 969.073852539062 967.183471679688 961.473327636719 956.219787597656 966.850280761719 972.475708007812 968.535522460938 964.954956054688 975.580444335938 971.345153808594 970.237609863281 956.209716796875 968.021118164062 970.666809082031 976.853332519531 971.263061523438 977.369079589844 966.468505859375 964.978515625 972.529174804688 968.791870117188 970.925903320312 976.625366210938 971.822570800781 967.165771484375 957.669921875 959.698547363281 964.660339355469 966.244201660156 957.765502929688 973.901611328125 980.519836425781 971.595458984375 975.725463867188 976.4375 974.873291015625 973.116882324219 974.17041015625 988.453247070312 985.460571289062 989.936340332031 998.947021484375 998.895141601562 1005.12091064453 1005.73590087891 993.255493164062 986.770935058594 1000.45251464844 1007.13122558594 1006.34875488281 1012.68218994141 1016.53833007812 1029.50036621094 1030.77233886719 1035.79821777344 1029.61767578125 1033.15185546875 1027.78002929688 1027.42028808594 1028.74194335938 1028.48205566406 1032.2236328125 1041.39379882812 1049.74914550781 1058.5634765625 1059.37158203125 1078.54956054688 1090.48425292969 1095.14611816406 1101.48217773438 1102.47741699219 1103.37707519531 1104.37268066406 1092.27880859375 1107.44787597656 1103.05322265625 1106.53698730469 1116.23217773438 1116.72094726562 1109.40563964844 1114.98425292969
965.197692871094 969.775939941406 966.835998535156 962.087951660156 965.790344238281 973.018798828125 976.879028320312 967.906494140625 962.425903320312 973.557373046875 979.001159667969 969.222778320312 969.438171386719 974.092346191406 973.6396484375 965.707763671875 963.913146972656 967.619812011719 967.992004394531 979.323059082031 975.747802734375 973.474670410156 960.564514160156 963.848327636719 962.334594726562 957.035766601562 958.6240234375 955.084716796875 963.286560058594 971.117919921875 970.638427734375 967.763610839844 978.271911621094 976.328491210938 975.985534667969 971.461669921875 969.431640625 966.599243164062 961.104797363281 960.876770019531 956.029968261719 956.458984375 967.128051757812 974.691345214844 975.749389648438 967.366821289062 965.605285644531 959.235595703125 952.334777832031 956.042419433594 961.838806152344 956.599609375 953.328552246094 954.729431152344 962.405883789062 956.741943359375 950.421203613281 953.743591308594 960.960510253906 969.201538085938 959.548095703125 956.436950683594 952.525146484375 960.013427734375 960.748840332031 954.408569335938 955.573547363281 953.897888183594 967.407287597656 967.633850097656 962.961364746094 963.262634277344 964.710815429688 962.66552734375 972.38037109375 967.966857910156 965.711608886719 972.942077636719 965.178283691406 966.371398925781 960.033630371094 962.204956054688 971.925842285156 985.771057128906 974.162658691406 965.860168457031 971.538879394531 967.15966796875 969.936096191406 971.329467773438 968.100402832031 978.871887207031 974.212524414062 965.391662597656 961.565551757812 968.050231933594 975.037963867188 970.885864257812 970.040649414062 975.996765136719 971.38330078125 972.947937011719 971.656860351562 972.373352050781 976.276428222656 971.886291503906 974.6396484375 974.354125976562 980.255615234375 982.215148925781 995.745422363281 1002.82177734375 1004.03472900391 997.26123046875 985.704345703125 997.724487304688 1001.99517822266 1009.03558349609 1007.91436767578 1016.33862304688 1016.96826171875 1020.41906738281 1037.70104980469 1034.3759765625 1030.76110839844 1037.97204589844 1034.02038574219 1028.52221679688 1038.51452636719 1035.4814453125 1038.16455078125 1051.96423339844 1056.32055664062 1062.24011230469 1070.46264648438 1076.51708984375 1085.61169433594 1098.77746582031 1102.25170898438 1101.78259277344 1103.65588378906 1101.185546875 1091.3369140625 1090.94982910156 1094.44409179688 1097.34484863281 1110.69909667969 1105.80249023438 1103.78515625 1100.12329101562
965.709655761719 966.361022949219 972.0693359375 961.53857421875 966.083374023438 966.719482421875 972.378479003906 966.418823242188 972.785339355469 978.857482910156 981.150634765625 976.817932128906 976.539245605469 978.394165039062 974.698852539062 970.570495605469 963.786315917969 975.909118652344 972.655517578125 976.415771484375 975.071228027344 971.076599121094 967.690551757812 957.592834472656 959.747314453125 958.707275390625 952.697998046875 963.962951660156 968.125305175781 968.582702636719 964.357055664062 969.170288085938 969.461608886719 968.302062988281 968.145690917969 966.479614257812 966.196105957031 969.391906738281 957.533508300781 961.692993164062 961.167724609375 957.784423828125 975.89794921875 973.2158203125 968.3515625 969.377563476562 965.550415039062 964.326477050781 951.377746582031 957.759765625 953.979675292969 956.831909179688 963.40283203125 958.956848144531 954.700012207031 965.94775390625 970.126281738281 957.739013671875 960.846313476562 958.626220703125 957.825012207031 954.439208984375 955.756103515625 964.15185546875 962.197570800781 956.302185058594 954.506286621094 956.82666015625 960.410705566406 967.669921875 962.592346191406 961.517517089844 960.413696289062 955.792358398438 959.702575683594 962.551330566406 965.576477050781 963.415283203125 966.830993652344 961.981140136719 970.67626953125 975.865234375 975.368469238281 983.545104980469 979.41357421875 966.36865234375 963.260681152344 964.88818359375 970.60400390625 972.593017578125 964.889343261719 961.982177734375 963.942443847656 973.576110839844 967.362243652344 963.407775878906 971.704162597656 985.635803222656 971.674011230469 978.557067871094 974.823669433594 978.665710449219 978.646179199219 974.513549804688 976.758117675781 975.311096191406 979.545043945312 967.895141601562 976.700561523438 992.749328613281 991.333679199219 991.744201660156 1006.22760009766 1003.10211181641 1000.38568115234 999.134338378906 1000.56994628906 1010.65649414062 1014.57586669922 1015.76507568359 1020.16156005859 1024.36730957031 1028.25500488281 1030.83569335938 1034.56726074219 1034.23754882812 1029.76062011719 1023.36779785156 1029.08032226562 1037.90783691406 1039.822265625 1050.73205566406 1059.23815917969 1068.32983398438 1064.85119628906 1084.98400878906 1091.54333496094 1093.57312011719 1094.556640625 1088.62316894531 1099.24682617188 1093.70776367188 1089.46826171875 1086.29040527344 1087.16235351562 1089.78637695312 1097.83605957031 1097.65979003906 1098.189453125 1089.01220703125
963.596862792969 963.908081054688 969.172180175781 971.049865722656 978.434936523438 972.78662109375 974.048645019531 977.158447265625 981.008666992188 972.63671875 969.070556640625 971.115417480469 974.390625 970.472717285156 971.155822753906 970.160522460938 963.685913085938 967.162841796875 972.802307128906 973.581115722656 979.064697265625 966.0302734375 965.558288574219 954.580261230469 959.543090820312 953.810546875 950.586547851562 958.928466796875 962.154296875 966.8076171875 965.872009277344 958.166870117188 964.467590332031 958.557250976562 958.533020019531 959.177368164062 965.938415527344 959.557739257812 963.200622558594 955.861572265625 964.075439453125 968.908752441406 975.655700683594 969.922973632812 963.274719238281 962.325866699219 953.206176757812 956.668518066406 957.340087890625 957.169921875 955.611022949219 962.271179199219 964.783386230469 957.610534667969 954.804443359375 962.821655273438 963.303100585938 964.387390136719 962.975219726562 952.918029785156 959.555541992188 965.703796386719 956.8447265625 955.255310058594 956.472778320312 956.000427246094 952.55419921875 950.271057128906 963.087707519531 962.239318847656 962.75048828125 960.005798339844 961.333801269531 969.167175292969 968.001037597656 963.221008300781 958.1474609375 956.225830078125 958.878967285156 966.237121582031 973.962707519531 970.999450683594 974.954956054688 982.094421386719 983.019592285156 967.582336425781 958.020324707031 959.47265625 964.078063964844 972.870544433594 970.282531738281 958.058959960938 963.569152832031 966.383178710938 970.640502929688 973.730285644531 970.873657226562 979.648376464844 979.234680175781 974.530639648438 974.402465820312 975.294372558594 971.138549804688 967.722778320312 966.015991210938 976.594360351562 970.155151367188 974.921875 978.615173339844 983.848327636719 993.374572753906 994.150695800781 999.902465820312 1004.48284912109 999.061767578125 993.15283203125 996.912475585938 1004.77484130859 1011.97058105469 1014.68731689453 1019.29840087891 1025.63525390625 1025.37219238281 1036.41931152344 1038.37426757812 1037.79089355469 1033.16003417969 1032.41247558594 1031.45678710938 1035.93627929688 1046.68603515625 1055.73840332031 1058.90026855469 1066.4873046875 1074.17468261719 1080.14294433594 1082.39331054688 1090.38720703125 1090.93969726562 1087.7255859375 1090.0400390625 1090.61181640625 1080.34533691406 1081.85241699219 1082.58898925781 1083.20812988281 1084.25817871094 1087.87487792969 1093.30480957031 1085.55541992188
967.00439453125 965.990356445312 966.27587890625 965.287231445312 968.885498046875 976.310729980469 975.383422851562 970.812866210938 974.881042480469 973.699645996094 962.467529296875 969.274353027344 968.046752929688 968.111145019531 974.177124023438 971.768188476562 976.55712890625 971.668151855469 966.819885253906 975.746032714844 969.008728027344 963.215393066406 956.100341796875 960.582397460938 961.500549316406 964.333435058594 958.987182617188 956.635620117188 965.1142578125 966.313659667969 965.634033203125 956.531860351562 953.447875976562 962.525390625 959.555419921875 955.996459960938 963.392578125 958.724853515625 953.520080566406 952.4560546875 958.684143066406 975.286743164062 968.705688476562 961.792114257812 964.925170898438 960.993713378906 957.780090332031 960.81884765625 956.122680664062 952.517395019531 956.613708496094 960.268371582031 965.0263671875 956.6982421875 953.880737304688 956.333862304688 954.405212402344 951.553649902344 957.201782226562 953.177429199219 959.910339355469 957.71240234375 965.222412109375 962.691955566406 965.866149902344 959.939025878906 959.280578613281 967.346496582031 958.148193359375 963.875732421875 966.069763183594 967.551452636719 961.963317871094 969.263610839844 965.839660644531 963.273193359375 954.721313476562 959.005554199219 957.089660644531 959.413757324219 962.08349609375 967.9482421875 969.542419433594 973.322814941406 975.883605957031 972.257202148438 960.358520507812 956.285827636719 951.936401367188 960.558837890625 965.025695800781 962.776977539062 965.468078613281 959.740234375 971.6123046875 976.667114257812 969.481506347656 972.104919433594 978.593078613281 978.059997558594 980.032348632812 978.007385253906 980.592102050781 974.869079589844 976.579772949219 976.184448242188 974.372131347656 976.253662109375 974.27880859375 983.472106933594 980.061462402344 988.445739746094 995.870788574219 991.475280761719 989.419128417969 996.20068359375 996.713562011719 1006.21624755859 1006.27758789062 1016.05102539062 1011.96337890625 1013.77362060547 1020.59814453125 1027.39428710938 1040.05493164062 1034.46032714844 1031.70495605469 1032.84045410156 1038.96826171875 1044.904296875 1054.35302734375 1061.78991699219 1065.69311523438 1070.01037597656 1072.72192382812 1083.43591308594 1087.68103027344 1084.06396484375 1087.59985351562 1088.24365234375 1088.64587402344 1086.634765625 1084.1611328125 1086.35900878906 1079.35107421875 1081.63488769531 1072.26818847656 1077.50537109375 1085.4228515625 1073.24658203125
966.46533203125 963.586669921875 962.444458007812 965.774047851562 974.262634277344 971.307373046875 968.706359863281 968.803771972656 969.099609375 975.473449707031 975.534057617188 970.590148925781 967.681457519531 965.397216796875 969.373413085938 968.868286132812 970.6953125 968.963439941406 968.218139648438 963.172607421875 963.355407714844 954.978698730469 959.550231933594 952.7626953125 961.386047363281 957.185546875 959.038757324219 961.4873046875 964.146362304688 956.068359375 957.893310546875 954.219909667969 959.934692382812 954.942199707031 958.511474609375 960.705322265625 958.397033691406 949.430786132812 949.402221679688 947.286437988281 953.667785644531 965.237915039062 964.3427734375 956.269958496094 955.758972167969 952.801635742188 952.902954101562 958.376525878906 959.614562988281 957.717407226562 958.928405761719 950.993469238281 956.854125976562 955.587829589844 946.29296875 954.440185546875 959.072021484375 963.14013671875 959.643493652344 959.189880371094 956.07177734375 967.445068359375 962.796325683594 958.493530273438 952.342407226562 956.184875488281 953.166748046875 962.595520019531 967.170593261719 974.51904296875 969.614013671875 974.567443847656 966.412780761719 959.680419921875 960.1376953125 959.594299316406 963.295166015625 960.047546386719 957.791320800781 958.369506835938 959.422302246094 967.52734375 970.572570800781 972.67138671875 972.30615234375 965.789611816406 958.035461425781 957.789855957031 961.015319824219 964.103454589844 970.090087890625 969.055908203125 965.521362304688 966.777526855469 977.675720214844 985.131042480469 984.905029296875 983.512939453125 983.412231445312 985.126525878906 980.540649414062 973.505676269531 976.110656738281 969.743041992188 980.883056640625 980.106262207031 972.692443847656 972.11865234375 981.19384765625 977.707092285156 983.146423339844 982.502075195312 990.779052734375 991.384155273438 992.529235839844 994.688415527344 994.329284667969 1004.05133056641 1007.22436523438 1003.78900146484 1015.87139892578 1016.20489501953 1009.04467773438 1019.03894042969 1021.60906982422 1033.37658691406 1036.20532226562 1034.22631835938 1042.50476074219 1047.43908691406 1058.68408203125 1056.24182128906 1063.67346191406 1080.38317871094 1088.22729492188 1090.89331054688 1096.37255859375 1090.29626464844 1084.79943847656 1088.66442871094 1090.904296875 1081.04235839844 1078.28088378906 1077.10620117188 1067.49450683594 1060.53735351562 1057.67565917969 1065.36657714844 1064.38903808594 1062.31762695312
959.918518066406 953.963256835938 962.168640136719 965.79736328125 975.213623046875 975.682983398438 971.275329589844 979.408813476562 976.921997070312 968.889892578125 967.491394042969 967.693176269531 966.077453613281 967.268737792969 963.116516113281 966.822082519531 966.581237792969 969.956115722656 963.251892089844 959.599243164062 951.504638671875 953.269958496094 951.149963378906 947.018981933594 952.207702636719 952.958068847656 951.024475097656 952.373229980469 955.804992675781 949.677307128906 947.837890625 955.636413574219 956.590148925781 958.9716796875 965.131530761719 964.315124511719 962.889038085938 953.828125 948.597412109375 948.956359863281 952.913452148438 953.583190917969 958.93603515625 946.087341308594 963.277587890625 951.069030761719 942.444396972656 949.076416015625 953.294067382812 953.344665527344 954.472717285156 961.068664550781 960.179565429688 949.650817871094 950.871887207031 954.577880859375 956.183715820312 955.301696777344 958.341186523438 957.04443359375 963.657958984375 971.908264160156 962.055114746094 961.662841796875 963.217712402344 948.986877441406 955.203002929688 974.228393554688 983.316955566406 981.560913085938 970.236267089844 969.422668457031 964.707275390625 956.209777832031 951.009704589844 953.421875 968.675964355469 959.760375976562 966.218933105469 960.487976074219 971.404418945312 965.797729492188 967.269653320312 959.930114746094 966.668518066406 963.519104003906 966.71337890625 960.642211914062 969.4423828125 972.813415527344 975.982116699219 972.495971679688 970.631225585938 969.320983886719 980.844543457031 989.344055175781 981.683288574219 976.129028320312 979.860412597656 980.893737792969 975.246398925781 976.706237792969 982.113830566406 980.259033203125 982.288208007812 976.970947265625 981.712768554688 979.020080566406 987.900207519531 992.672424316406 986.357238769531 993.988220214844 989.924621582031 996.690002441406 1001.34259033203 1004.57470703125 996.659606933594 999.706665039062 1010.82403564453 1006.94409179688 1013.677734375 1012.06298828125 1004.86828613281 1011.90264892578 1020.69177246094 1023.37683105469 1035.4716796875 1034.9189453125 1048.38623046875 1053.212890625 1053.75122070312 1048.45568847656 1060.38732910156 1081.01489257812 1089.69030761719 1095.50988769531 1096.51440429688 1092.88354492188 1096.77465820312 1082.76306152344 1080.68542480469 1074.18774414062 1065.08056640625 1067.63562011719 1059.10205078125 1053.05041503906 1047.69702148438 1048.47021484375 1055.50402832031 1060.38439941406
960.76416015625 956.454711914062 960.365844726562 971.075988769531 971.367614746094 971.228210449219 971.649597167969 981.924011230469 974.138793945312 970.770263671875 971.335327148438 970.917114257812 967.979614257812 971.333862304688 964.596923828125 977.149963378906 971.935974121094 968.700073242188 966.417419433594 961.385375976562 950.387512207031 948.360900878906 943.998779296875 948.116149902344 953.206909179688 954.101135253906 949.300476074219 942.230041503906 945.797546386719 954.914123535156 946.306884765625 955.214904785156 959.629211425781 954.426025390625 952.047607421875 951.448364257812 955.346801757812 955.111328125 954.931640625 950.71484375 946.240356445312 948.384826660156 945.358459472656 949.521789550781 953.112121582031 946.760009765625 948.42822265625 947.493103027344 953.993286132812 951.500427246094 954.341979980469 949.875183105469 951.886291503906 952.122680664062 956.001098632812 945.202697753906 951.020202636719 955.916687011719 966.35498046875 970.079223632812 967.879211425781 971.467529296875 971.816040039062 970.001953125 953.888671875 946.689086914062 958.679260253906 962.855651855469 975.001708984375 981.146606445312 966.677124023438 973.179931640625 962.794311523438 952.875 955.60498046875 946.932006835938 958.674438476562 959.675354003906 962.484558105469 959.090270996094 959.865600585938 965.320617675781 962.699890136719 963.863220214844 965.295654296875 965.013427734375 969.576904296875 967.0859375 971.270690917969 971.05615234375 969.214965820312 964.383422851562 959.995971679688 965.109375 977.66943359375 979.132141113281 970.513488769531 978.5751953125 980.674682617188 979.04150390625 980.844299316406 977.006164550781 984.814636230469 984.492126464844 982.990600585938 983.378723144531 990.998901367188 997.035461425781 997.13623046875 993.0966796875 991.684875488281 994.12890625 996.234191894531 1009.85589599609 1018.32403564453 1007.3984375 1001.41387939453 1002.609375 1005.14050292969 996.317016601562 1009.68505859375 1007.22973632812 1006.48217773438 1006.24157714844 1024.650390625 1030.38232421875 1021.10949707031 1028.22961425781 1041.81311035156 1047.97814941406 1041.64892578125 1045.56823730469 1058.30114746094 1070.70861816406 1080.91845703125 1087.271484375 1092.79016113281 1090.39294433594 1086.62365722656 1084.31311035156 1075.79431152344 1061.26635742188 1047.46838378906 1051.71691894531 1042.62072753906 1040.14270019531 1040.42004394531 1041.5966796875 1053.74194335938 1048.89489746094
959.545471191406 955.404907226562 951.094665527344 964.912353515625 970.034057617188 966.871154785156 973.767639160156 968.441284179688 968.7373046875 968.109191894531 966.887817382812 963.491394042969 961.760375976562 966.177307128906 970.513305664062 964.095153808594 964.635070800781 961.724365234375 966.177612304688 962.872009277344 957.925170898438 944.679748535156 947.1953125 948.832397460938 951.994812011719 947.272277832031 942.987182617188 937.927673339844 942.72265625 948.896301269531 950.394470214844 955.086059570312 962.941223144531 948.321655273438 948.638610839844 951.239196777344 948.310913085938 947.45263671875 954.085266113281 953.626892089844 950.6875 939.663513183594 944.310791015625 946.96484375 959.885070800781 957.205932617188 952.296569824219 941.757690429688 955.559509277344 957.526245117188 959.0546875 956.372314453125 952.985534667969 955.589782714844 948.841369628906 950.4775390625 949.2958984375 949.795654296875 962.356506347656 963.237548828125 973.556762695312 973.618957519531 966.619384765625 966.785888671875 957.183715820312 954.442749023438 962.916625976562 960.769165039062 966.982666015625 964.374633789062 965.374206542969 967.838012695312 969.565856933594 962.960876464844 949.739501953125 952.572265625 957.056701660156 964.461608886719 966.210266113281 970.212524414062 967.51953125 965.395751953125 961.431335449219 966.509155273438 965.562561035156 969.850341796875 962.169250488281 969.550231933594 971.428955078125 969.236877441406 964.32373046875 962.744995117188 967.776977539062 966.872009277344 966.665466308594 970.144653320312 976.658569335938 976.662658691406 980.932250976562 979.602600097656 975.240844726562 978.878356933594 983.583374023438 990.422424316406 993.918518066406 995.313781738281 1002.73895263672 1005.60705566406 1008.71508789062 1006.91052246094 1010.42114257812 1010.06231689453 1012.83062744141 1021.64562988281 1025.28930664062 1018.79998779297 1010.18322753906 999.3984375 997.445129394531 998.182922363281 1002.34997558594 1002.44421386719 1001.97229003906 1007.412109375 1018.66912841797 1024.46362304688 1027.04064941406 1026.62707519531 1035.5693359375 1033.63037109375 1040.67700195312 1043.72290039062 1052.09558105469 1066.69482421875 1078.78479003906 1081.85888671875 1087.40649414062 1081.68933105469 1084.17626953125 1082.27355957031 1068.10827636719 1057.02661132812 1046.59753417969 1041.9228515625 1033.26391601562 1029.62036132812 1042.04858398438 1044.00219726562 1039.55212402344 1042.64855957031
957.453979492188 960.206848144531 951.576049804688 964.535705566406 966.972534179688 967.534606933594 967.287292480469 969.638488769531 961.066833496094 961.309509277344 958.066589355469 957.866821289062 967.04736328125 970.3818359375 964.325988769531 965.128845214844 961.343444824219 961.899719238281 954.752685546875 956.198364257812 948.602783203125 944.969543457031 940.824279785156 942.612609863281 940.193969726562 945.601867675781 938.874816894531 938.076049804688 945.157958984375 946.693115234375 952.30810546875 951.289489746094 954.671081542969 951.629943847656 948.473876953125 949.068054199219 948.005981445312 943.454650878906 951.491577148438 956.798278808594 951.421875 953.513793945312 947.727416992188 953.467956542969 953.567504882812 963.197021484375 959.303283691406 948.150512695312 955.784851074219 953.305725097656 956.01953125 952.047546386719 958.464050292969 961.002197265625 953.333068847656 950.009399414062 953.243835449219 949.652709960938 964.466796875 963.65966796875 969.316162109375 971.599426269531 965.175659179688 965.119689941406 958.161010742188 956.018676757812 961.350952148438 962.773376464844 969.92529296875 961.803894042969 964.988586425781 972.359741210938 965.122436523438 961.589294433594 956.702453613281 960.229125976562 961.765686035156 966.237487792969 969.04443359375 973.440979003906 971.675659179688 974.948181152344 961.642639160156 977.307678222656 971.852966308594 969.182189941406 974.221923828125 974.133911132812 971.007202148438 972.210998535156 962.223571777344 960.713745117188 970.806213378906 963.724975585938 960.10986328125 962.208984375 971.278991699219 974.827514648438 980.7236328125 977.568725585938 978.49755859375 987.141174316406 981.892211914062 990.019775390625 995.673400878906 1003.37139892578 1007.91900634766 1012.97857666016 1008.36358642578 1016.40216064453 1009.70727539062 1021.50366210938 1017.47015380859 1027.35607910156 1014.95971679688 1012.10559082031 1005.47619628906 1006.53717041016 1010.34216308594 1002.24401855469 1005.89978027344 1004.05615234375 1004.48852539062 1004.72540283203 1014.18939208984 1012.69158935547 1024.07873535156 1032.3291015625 1030.83020019531 1026.38391113281 1037.59533691406 1040.71154785156 1056.52233886719 1065.13195800781 1069.74450683594 1080.35974121094 1065.02038574219 1070.78454589844 1066.22680664062 1068.78381347656 1056.37780761719 1038.46704101562 1028.99304199219 1035.06726074219 1031.27197265625 1036.59313964844 1043.56323242188 1045.5810546875 1030.79089355469 1037.02905273438
958.697021484375 953.122741699219 953.216857910156 958.662963867188 960.899597167969 969.976257324219 971.606140136719 975.921569824219 962.72412109375 958.405151367188 964.130676269531 964.108947753906 966.300842285156 971.45703125 958.383544921875 955.11328125 963.147644042969 968.045837402344 954.841003417969 946.166809082031 947.26025390625 945.7939453125 940.947265625 937.5927734375 937.335510253906 949.621154785156 941.63427734375 940.768371582031 945.578063964844 950.067565917969 947.575988769531 956.885131835938 948.984191894531 945.58837890625 946.748779296875 950.735107421875 955.615051269531 947.056396484375 948.029418945312 953.219543457031 955.853576660156 953.688415527344 948.57763671875 958.414184570312 948.481018066406 955.498352050781 956.704895019531 957.131896972656 954.24169921875 949.422424316406 953.885498046875 961.744140625 950.580932617188 958.847900390625 961.3505859375 960.458801269531 955.242797851562 958.828002929688 971.840393066406 970.738525390625 970.533508300781 971.792114257812 972.4970703125 968.960144042969 960.104675292969 954.877624511719 961.788208007812 953.865600585938 966.757568359375 962.528259277344 964.525695800781 964.809204101562 961.948120117188 960.145385742188 966.291748046875 965.412719726562 965.632019042969 971.65478515625 967.747802734375 966.495788574219 972.455993652344 972.61669921875 965.140014648438 976.246276855469 982.000305175781 971.793518066406 971.829711914062 973.497436523438 978.55126953125 979.371704101562 969.585083007812 966.125427246094 965.421997070312 966.944519042969 963.211059570312 964.744018554688 964.808410644531 965.838623046875 974.093200683594 976.08251953125 980.89306640625 986.808410644531 991.608520507812 1002.51995849609 1000.67132568359 999.332336425781 1002.94317626953 1007.31408691406 1016.64617919922 1024.9892578125 1021.0927734375 1021.67333984375 1026.384765625 1025.4970703125 1024.09777832031 1019.11096191406 1008.08129882812 1013.01086425781 1013.56756591797 1012.99926757812 1015.71429443359 1018.77471923828 1010.53411865234 1017.19049072266 1019.93603515625 1021.31628417969 1024.01879882812 1029.52746582031 1037.03747558594 1026.55725097656 1028.13403320312 1039.41015625 1051.23742675781 1061.38452148438 1067.9794921875 1052.60009765625 1057.35375976562 1049.072265625 1057.05810546875 1059.37390136719 1056.39038085938 1045.05407714844 1032.83166503906 1022.39208984375 1020.51995849609 1026.48205566406 1040.12890625 1040.24536132812 1032.1357421875 1031.94104003906
962.657836914062 950.683166503906 957.177795410156 962.512268066406 962.754577636719 962.184387207031 963.298400878906 973.021484375 967.674377441406 958.303405761719 958.433288574219 956.96630859375 963.821472167969 962.556396484375 948.942321777344 953.474487304688 952.99560546875 954.822509765625 946.026916503906 942.540161132812 941.06396484375 943.486083984375 935.950988769531 938.376281738281 942.657287597656 944.154968261719 936.816711425781 947.939758300781 952.234680175781 951.887268066406 955.541931152344 950.413269042969 949.467407226562 944.617919921875 941.382690429688 947.905944824219 954.688232421875 958.509582519531 949.00927734375 952.147827148438 949.597595214844 946.713439941406 949.168701171875 947.854187011719 950.643005371094 946.858581542969 961.812072753906 956.058959960938 951.995300292969 953.853515625 957.600952148438 964.029357910156 964.478271484375 958.022766113281 957.423950195312 957.653137207031 950.272766113281 960.890686035156 959.300231933594 969.3544921875 958.136840820312 967.072570800781 963.034362792969 966.292846679688 963.474426269531 960.296752929688 965.570129394531 970.102783203125 959.085815429688 964.914794921875 966.133666992188 957.026611328125 961.446655273438 963.078857421875 959.427185058594 968.980895996094 970.393249511719 975.77490234375 976.553283691406 964.064147949219 964.161315917969 959.748352050781 969.90576171875 975.999755859375 979.155456542969 979.32958984375 978.734130859375 980.266845703125 980.032409667969 973.882873535156 970.060241699219 970.034545898438 962.895935058594 960.701721191406 967.46728515625 966.151916503906 959.24560546875 959.522399902344 969.331176757812 971.485229492188 977.498840332031 989.918090820312 993.738403320312 993.240234375 988.825622558594 993.002136230469 997.179443359375 1004.71343994141 1015.1982421875 1028.77368164062 1020.17053222656 1032.44421386719 1025.07604980469 1019.14660644531 1019.04467773438 1012.06915283203 1014.27520751953 1015.79614257812 1019.50469970703 1019.12622070312 1018.91400146484 1017.49700927734 1024.79895019531 1020.2451171875 1017.30340576172 1027.58129882812 1019.35009765625 1028.38171386719 1018.07672119141 1029.1259765625 1024.35107421875 1032.43420410156 1046.50415039062 1052.87524414062 1046.93920898438 1039.95678710938 1043.03076171875 1040.04541015625 1046.67211914062 1046.84777832031 1053.13745117188 1050.98303222656 1034.23974609375 1023.08270263672 1017.28845214844 1022.59967041016 1025.25805664062 1040.33898925781 1031.572265625 1027.97033691406
963.395629882812 951.610717773438 960.161437988281 960.750183105469 962.336791992188 958.465698242188 963.587951660156 964.181396484375 966.235168457031 966.927917480469 959.651000976562 953.268371582031 947.841552734375 954.882019042969 953.298095703125 945.568359375 947.379028320312 942.007019042969 943.349853515625 942.886962890625 950.141235351562 951.708862304688 936.017395019531 936.264343261719 939.936462402344 938.794372558594 941.544311523438 955.422241210938 962.252990722656 946.247802734375 951.565490722656 946.409118652344 960.658386230469 947.925048828125 946.860717773438 945.868347167969 954.5810546875 958.761596679688 957.90869140625 954.56689453125 956.443786621094 952.7138671875 956.740417480469 946.758544921875 945.099365234375 943.828186035156 947.606018066406 962.283996582031 953.404724121094 959.355651855469 960.457824707031 958.217956542969 958.597961425781 962.251586914062 958.184509277344 958.987670898438 957.418029785156 959.891174316406 960.42041015625 959.544494628906 968.656982421875 965.831237792969 960.464965820312 973.182312011719 960.086242675781 961.015014648438 965.665893554688 972.814147949219 968.395629882812 967.157348632812 957.554809570312 950.706298828125 961.163940429688 964.978820800781 962.840942382812 974.999633789062 976.456787109375 968.4375 969.518798828125 973.37451171875 969.965942382812 968.741455078125 974.330505371094 976.921813964844 981.537292480469 977.932373046875 977.345458984375 980.409606933594 985.284790039062 972.622009277344 975.177124023438 967.091003417969 962.008483886719 965.489929199219 969.912048339844 974.446899414062 963.856262207031 961.133605957031 959.206665039062 971.668212890625 974.150634765625 979.668334960938 985.21435546875 988.554443359375 996.321044921875 994.043029785156 997.857482910156 1001.45489501953 1017.65570068359 1022.14672851562 1026.52087402344 1035.26110839844 1030.58190917969 1030.5771484375 1008.68542480469 1008.49884033203 1013.82232666016 1019.46606445312 1026.5048828125 1013.6669921875 1014.97113037109 1013.61810302734 1022.11895751953 1027.53796386719 1029.51440429688 1026.12475585938 1020.41857910156 1022.0068359375 1024.44458007812 1021.44427490234 1024.33544921875 1030.90661621094 1044.29077148438 1044.42797851562 1043.87451171875 1036.75244140625 1040.18103027344 1031.78637695312 1044.48364257812 1045.61352539062 1040.4716796875 1034.42663574219 1032.4853515625 1027.08813476562 1016.91778564453 1022.62658691406 1015.90618896484 1022.21685791016 1020.79656982422 1021.70184326172
955.979858398438 956.346740722656 959.857360839844 961.311340332031 964.473388671875 952.904724121094 961.284729003906 958.9326171875 968.069152832031 968.031799316406 962.05859375 949.117919921875 940.676696777344 946.478088378906 941.620483398438 943.375793457031 938.183532714844 939.716369628906 935.255065917969 940.402221679688 941.749694824219 942.550109863281 934.334899902344 940.841247558594 935.910705566406 943.74755859375 946.392578125 944.790283203125 951.951232910156 953.680603027344 953.797790527344 948.143981933594 946.304443359375 943.611450195312 949.701843261719 950.971801757812 956.619201660156 963.672302246094 962.998046875 969.889709472656 965.4462890625 952.394897460938 956.38232421875 946.828063964844 947.131652832031 952.25927734375 950.132019042969 951.586120605469 953.4560546875 959.371826171875 965.977966308594 969.052612304688 974.83984375 970.116882324219 971.723449707031 961.912841796875 962.440734863281 960.613037109375 965.741943359375 972.088195800781 960.281066894531 952.55078125 969.422790527344 961.827697753906 957.136352539062 963.749816894531 970.019470214844 969.315002441406 976.733825683594 967.091857910156 960.603881835938 963.270141601562 961.973876953125 966.51123046875 971.238952636719 967.486572265625 974.550842285156 969.359802246094 978.329772949219 976.367553710938 981.042175292969 975.227416992188 981.038696289062 983.801025390625 981.157287597656 978.235534667969 966.453430175781 983.251342773438 979.776428222656 981.37939453125 983.212890625 969.423583984375 965.913940429688 963.502075195312 970.996032714844 969.192443847656 970.782653808594 969.500122070312 966.384887695312 970.2666015625 969.601257324219 981.294311523438 981.748718261719 993.191101074219 996.2001953125 1001.31311035156 1000.77484130859 1006.11492919922 1011.51959228516 1014.93963623047 1022.77642822266 1031.20092773438 1030.03173828125 1021.98413085938 1008.48156738281 1012.67248535156 1018.59002685547 1022.40069580078 1012.76013183594 1011.87054443359 1018.3388671875 1020.01391601562 1024.81958007812 1030.09289550781 1031.32202148438 1023.43957519531 1020.49346923828 1024.11120605469 1026.42590332031 1024.32409667969 1020.96166992188 1026.22924804688 1036.74084472656 1047.54504394531 1039.55017089844 1036.10510253906 1026.89379882812 1034.18054199219 1030.95349121094 1037.59252929688 1041.31079101562 1038.87194824219 1025.20739746094 1018.87213134766 1024.22595214844 1018.13543701172 1017.42449951172 1014.86517333984 1013.01098632812 1007.34338378906
952.414489746094 948.851318359375 961.661743164062 962.876831054688 966.14111328125 956.493103027344 959.189758300781 957.060668945312 952.598388671875 952.854919433594 954.090576171875 943.169006347656 955.127563476562 948.911682128906 943.7578125 939.759155273438 937.000427246094 941.955444335938 939.801147460938 934.324096679688 948.440185546875 940.130310058594 931.699768066406 943.637634277344 948.832092285156 939.717956542969 947.828186035156 946.084838867188 950.986145019531 954.564208984375 955.887084960938 953.55224609375 945.863098144531 941.662109375 953.708251953125 951.353698730469 939.982727050781 951.7041015625 961.467590332031 973.7490234375 966.394409179688 953.906433105469 949.873962402344 954.458312988281 950.862670898438 955.611328125 955.562927246094 955.689331054688 958.240051269531 958.750366210938 967.774780273438 980.127868652344 983.835693359375 979.662902832031 966.284790039062 964.765930175781 962.388427734375 962.341918945312 970.964477539062 971.587768554688 966.029357910156 957.650512695312 962.605651855469 963.290100097656 963.530090332031 975.004699707031 975.287536621094 975.764282226562 972.327758789062 970.146606445312 971.765502929688 967.663818359375 965.4130859375 961.103576660156 970.538696289062 968.667297363281 977.478149414062 976.244079589844 970.911437988281 973.208740234375 985.266662597656 980.901000976562 981.811340332031 983.041198730469 987.415283203125 984.66845703125 969.806762695312 969.805236816406 978.368896484375 982.95849609375 976.534790039062 970.827758789062 972.827514648438 975.444946289062 980.649291992188 978.286071777344 982.008422851562 974.678039550781 970.922180175781 973.706604003906 975.708068847656 983.246276855469 993.657470703125 995.980224609375 1002.65264892578 1006.34875488281 1003.06036376953 1011.48040771484 1009.60424804688 1013.82952880859 1021.52587890625 1028.75085449219 1025.69494628906 1032.91186523438 1023.00549316406 1010.4169921875 1012.04382324219 1024.56921386719 1029.91540527344 1030.40307617188 1031.10925292969 1029.29821777344 1032.28332519531 1028.92272949219 1027.00537109375 1021.96350097656 1021.08526611328 1024.06030273438 1027.66491699219 1031.13830566406 1026.71948242188 1031.70190429688 1031.88159179688 1030.08178710938 1037.35607910156 1044.60400390625 1030.01208496094 1033.12866210938 1031.70458984375 1025.033203125 1027.92797851562 1024.20092773438 1019.0546875 1019.55615234375 1018.86767578125 1019.12017822266 1020.68444824219 1008.4892578125 997.797485351562 997.119323730469
956.601379394531 953.343078613281 962.144409179688 963.4267578125 961.452880859375 955.379638671875 955.498229980469 949.121276855469 946.058227539062 940.154235839844 933.106384277344 939.455261230469 941.430236816406 950.551818847656 941.228698730469 936.934631347656 939.904846191406 948.828491210938 950.59423828125 941.554809570312 945.414855957031 948.424438476562 940.983642578125 942.333618164062 943.027587890625 939.756103515625 942.574401855469 947.91455078125 942.522521972656 946.831176757812 951.741333007812 946.019653320312 945.7587890625 938.90478515625 946.580749511719 960.645629882812 958.622436523438 953.489135742188 966.577758789062 968.548583984375 964.627380371094 956.020568847656 954.983337402344 958.97998046875 953.77587890625 964.202575683594 957.792541503906 958.513244628906 965.771301269531 963.0830078125 964.920715332031 970.162231445312 989.70263671875 980.49951171875 983.872802734375 973.575012207031 978.551879882812 981.778747558594 981.642272949219 971.345703125 966.376525878906 963.134033203125 960.476379394531 969.558349609375 962.27587890625 969.454040527344 976.778747558594 977.283386230469 969.332092285156 969.183044433594 976.206298828125 970.210632324219 963.456604003906 973.266296386719 965.559020996094 973.7451171875 982.626220703125 979.426330566406 983.948425292969 975.297180175781 982.719848632812 983.333435058594 986.691040039062 979.876281738281 982.205078125 983.130920410156 980.529174804688 983.749694824219 983.823852539062 986.514770507812 984.002319335938 977.958557128906 982.467102050781 983.322570800781 982.508239746094 982.037048339844 984.148986816406 971.060791015625 977.282470703125 976.1357421875 972.560302734375 983.556091308594 997.708374023438 992.603881835938 997.144714355469 998.945190429688 1008.24475097656 1005.47412109375 1007.15313720703 1013.45770263672 1014.19744873047 1025.95043945312 1022.81115722656 1021.67065429688 1009.18798828125 1017.69671630859 1020.74627685547 1026.193359375 1036.2685546875 1031.80285644531 1035.45471191406 1031.92370605469 1033.009765625 1040.35034179688 1021.96948242188 1015.38104248047 1018.51611328125 1010.21978759766 1019.30871582031 1012.55780029297 1017.09362792969 1025.23693847656 1031.37976074219 1031.82202148438 1038.83666992188 1036.19689941406 1037.66149902344 1035.994140625 1030.44604492188 1030.34631347656 1021.89721679688 1016.86944580078 1012.44097900391 1021.18194580078 1018.71350097656 1017.32806396484 1011.34722900391 1008.60198974609 1005.10406494141 1002.1982421875
954.359985351562 951.800964355469 957.587097167969 960.625244140625 964.249206542969 951.461791992188 948.747436523438 949.460510253906 947.618774414062 940.234191894531 929.818664550781 916.526977539062 935.367126464844 943.700317382812 939.880310058594 943.602416992188 948.171691894531 953.11083984375 959.992370605469 956.867492675781 949.225891113281 953.9951171875 955.72119140625 943.598937988281 946.938842773438 944.863098144531 946.391845703125 946.714965820312 942.495239257812 948.526184082031 954.03173828125 959.770141601562 947.763916015625 943.431030273438 951.921997070312 953.236694335938 961.952026367188 964.583679199219 967.656066894531 976.563903808594 966.7109375 960.379821777344 962.23095703125 958.4697265625 958.393798828125 967.500061035156 967.251159667969 969.362060546875 974.632995605469 966.581787109375 966.371215820312 976.815795898438 980.599731445312 989.954284667969 985.461181640625 986.527099609375 978.193237304688 980.10595703125 977.474975585938 974.991149902344 980.439147949219 968.039916992188 967.706787109375 960.001953125 965.667175292969 971.912475585938 976.725402832031 971.319152832031 970.669372558594 973.418884277344 974.037536621094 973.923889160156 971.876708984375 976.334716796875 967.198913574219 983.447570800781 981.336975097656 979.384216308594 981.717407226562 974.718627929688 977.826477050781 979.372131347656 981.90869140625 977.359130859375 986.828735351562 987.033630371094 986.272705078125 988.329040527344 984.317443847656 976.894287109375 980.26025390625 980.820556640625 981.328002929688 981.456481933594 984.555603027344 989.165832519531 983.709411621094 982.052185058594 978.036682128906 975.247131347656 986.319580078125 987.196044921875 999.916870117188 995.456298828125 996.199340820312 1003.31793212891 1009.73529052734 1005.57647705078 1004.69525146484 1010.24133300781 1012.54339599609 1018.13873291016 1016.83184814453 1018.01568603516 1017.69055175781 1021.43035888672 1022.68682861328 1029.21801757812 1045.36474609375 1033.64953613281 1033.96264648438 1030.09313964844 1033.07202148438 1036.59729003906 1030.13244628906 1023.14208984375 1025.6572265625 1018.48333740234 1014.54321289062 1010.80615234375 1016.54370117188 1021.03948974609 1028.63916015625 1034.32299804688 1033.35095214844 1034.45104980469 1034.74291992188 1036.7607421875 1034.45422363281 1022.00152587891 1024.55212402344 1012.81927490234 1008.55139160156 1012.69061279297 1010.91625976562 1010.33142089844 1005.99737548828 993.782287597656 990.740905761719 999.894836425781
951.878051757812 949.539916992188 954.780212402344 966.032958984375 960.087951660156 951.338317871094 945.094360351562 950.65234375 947.300598144531 933.210266113281 925.087097167969 930.611145019531 937.392944335938 939.380310058594 943.299133300781 939.042175292969 957.831604003906 959.79638671875 954.351135253906 960.633605957031 958.45361328125 957.513305664062 957.523010253906 950.227905273438 955.868041992188 945.540466308594 947.157104492188 954.177734375 951.614440917969 951.490844726562 951.451049804688 957.260803222656 952.500732421875 950.0791015625 957.345642089844 962.321594238281 957.215087890625 960.480834960938 967.099670410156 971.391784667969 971.206298828125 975.551208496094 968.289428710938 958.399841308594 958.576232910156 965.816711425781 977.424865722656 977.469482421875 982.653686523438 971.594787597656 964.952575683594 984.364440917969 978.112731933594 985.440795898438 983.993713378906 980.97509765625 986.046875 973.436096191406 984.871704101562 982.817260742188 980.188903808594 972.543823242188 967.599792480469 957.108703613281 965.025207519531 961.201416015625 973.669128417969 969.590942382812 981.834533691406 972.530090332031 978.741394042969 986.07763671875 978.406372070312 970.340454101562 972.057006835938 979.253112792969 978.672424316406 975.976745605469 984.500671386719 978.117065429688 979.146789550781 977.079162597656 972.093017578125 976.526489257812 984.931640625 982.084533691406 983.448486328125 984.860229492188 981.037109375 977.026733398438 978.046752929688 985.917358398438 981.402893066406 976.045227050781 985.42333984375 990.469421386719 988.418823242188 985.194458007812 989.472229003906 982.7890625 985.969177246094 987.1953125 996.273803710938 1009.11242675781 991.306274414062 1005.19403076172 1005.73425292969 1008.45727539062 1016.00555419922 1015.11022949219 1018.35260009766 1014.21398925781 1013.23699951172 1019.42004394531 1015.17077636719 1019.48712158203 1027.99230957031 1042.78552246094 1038.5439453125 1040.84973144531 1044.10229492188 1036.93493652344 1031.47717285156 1026.93872070312 1013.40985107422 1021.84716796875 1019.08129882812 1016.63726806641 1008.47784423828 1010.59216308594 1015.20922851562 1013.20623779297 1022.02166748047 1030.53271484375 1038.48205566406 1028.09582519531 1032.4248046875 1032.708984375 1030.01538085938 1017.47296142578 1014.76092529297 1010.61242675781 1007.08557128906 999.537048339844 1010.32537841797 1002.75714111328 1003.65795898438 1002.91333007812 991.477172851562 991.434143066406
948.224426269531 941.635559082031 942.095703125 952.002258300781 948.276184082031 940.567443847656 944.301391601562 945.436096191406 950.503479003906 936.220397949219 940.48974609375 934.981689453125 940.790649414062 943.600219726562 948.095458984375 958.165161132812 965.148315429688 970.7158203125 956.420227050781 960.189270019531 957.620178222656 950.77197265625 961.484313964844 957.712097167969 955.536804199219 957.083862304688 957.888000488281 963.712219238281 959.577392578125 955.224243164062 945.425231933594 944.760498046875 956.016418457031 950.180786132812 959.046203613281 965.23095703125 971.371459960938 969.370544433594 978.350830078125 978.948547363281 977.1953125 978.175109863281 974.900085449219 971.267211914062 966.035339355469 964.1318359375 977.34814453125 991.125610351562 989.694885253906 978.622802734375 980.962951660156 984.006469726562 976.9228515625 975.099487304688 987.780700683594 985.237976074219 979.65185546875 971.2724609375 979.0166015625 968.063415527344 967.091613769531 962.746215820312 966.735656738281 969.576477050781 964.800048828125 970.762878417969 975.656127929688 972.707641601562 977.190246582031 976.833435058594 979.99755859375 977.257629394531 977.794555664062 977.477355957031 977.273864746094 980.522583007812 979.048950195312 979.7919921875 979.528259277344 984.136779785156 983.059753417969 986.161804199219 976.528930664062 981.553344726562 985.054321289062 984.420349121094 984.176452636719 980.998107910156 973.856628417969 975.527465820312 977.681091308594 982.931945800781 981.802917480469 980.962280273438 991.279235839844 991.7646484375 990.695251464844 989.686645507812 983.95556640625 987.438293457031 990.509338378906 992.494262695312 992.843200683594 991.905578613281 995.021240234375 1003.92010498047 1014.0986328125 1008.42321777344 1020.44232177734 1018.05859375 1012.34979248047 1001.658203125 1013.60009765625 1019.19836425781 1024.49206542969 1022.39215087891 1031.88854980469 1036.83154296875 1037.15881347656 1043.91430664062 1043.42211914062 1041.83435058594 1043.90930175781 1036.34118652344 1024.23901367188 1020.20153808594 1025.91198730469 1017.0556640625 1015.37976074219 1005.03845214844 1014.63854980469 1023.705078125 1027.93872070312 1028.49694824219 1033.73217773438 1031.09545898438 1028.20666503906 1039.19616699219 1025.94885253906 1017.04418945312 1018.09100341797 1013.21685791016 1009.63336181641 1002.21789550781 1004.72882080078 1007.2705078125 995.559204101562 993.782531738281 987.645141601562 1001.28265380859
955.498352050781 943.489624023438 942.478515625 944.920654296875 942.821105957031 933.762145996094 942.644836425781 941.349243164062 941.7734375 941.020324707031 941.114318847656 946.797912597656 943.73291015625 948.138549804688 954.978393554688 961.664428710938 972.245666503906 971.749633789062 969.0224609375 966.223999023438 965.376525878906 962.751708984375 969.040100097656 961.798522949219 960.279663085938 967.383483886719 966.536315917969 970.770080566406 964.727355957031 959.701232910156 951.52392578125 956.191467285156 958.588439941406 955.158996582031 962.612060546875 967.479064941406 977.50732421875 981.703979492188 987.490539550781 979.792053222656 980.560424804688 977.881103515625 983.250122070312 976.382080078125 976.803527832031 986.651000976562 983.682739257812 989.677062988281 996.882263183594 989.122497558594 990.984619140625 983.124206542969 973.493774414062 975.01708984375 975.349670410156 970.824096679688 970.251281738281 956.716552734375 973.79931640625 970.993347167969 970.080200195312 970.127807617188 964.804260253906 973.801330566406 970.362121582031 975.666015625 968.6318359375 975.505126953125 975.8330078125 974.848388671875 978.969909667969 993.403747558594 979.377014160156 988.103088378906 982.680786132812 976.269104003906 979.926147460938 975.500915527344 980.627197265625 976.111877441406 987.764404296875 975.952209472656 982.588500976562 991.848999023438 986.678649902344 987.239685058594 976.147766113281 975.301879882812 979.516540527344 984.036071777344 980.371704101562 981.785339355469 982.072326660156 991.853698730469 984.09765625 990.053161621094 995.720703125 1000.31518554688 987.314453125 993.784606933594 991.328796386719 985.383178710938 987.05615234375 989.636474609375 997.044860839844 1011.39251708984 1014.60009765625 1015.29699707031 1012.37591552734 1017.49963378906 1017.25982666016 1016.26623535156 1023.6279296875 1018.88665771484 1017.47613525391 1027.78234863281 1032.60205078125 1039.279296875 1038.66809082031 1045.73181152344 1046.2373046875 1043.93151855469 1045.75512695312 1039.71899414062 1031.9541015625 1019.30773925781 1011.04577636719 1024.8544921875 1021.2041015625 1008.83209228516 1015.19189453125 1022.35498046875 1021.29895019531 1024.53259277344 1030.52709960938 1033.92980957031 1023.86285400391 1029.38940429688 1026.4501953125 1018.54943847656 1014.52874755859 1009.68902587891 1000.59606933594 999.997131347656 1001.48498535156 999.967712402344 990.986938476562 992.708557128906 990.82177734375 997.330261230469
944.108215332031 942.751953125 945.772338867188 950.700134277344 947.981811523438 931.569458007812 933.538696289062 935.231140136719 947.003540039062 943.341491699219 948.896667480469 948.520874023438 954.288452148438 955.441772460938 957.226257324219 958.892211914062 967.501403808594 966.991271972656 966.331604003906 964.579528808594 962.948547363281 961.580749511719 966.620849609375 974.483581542969 971.327270507812 964.454528808594 974.205139160156 969.55078125 965.634582519531 963.75 961.650085449219 958.566345214844 951.613708496094 964.239990234375 963.523803710938 966.110656738281 967.233154296875 974.433349609375 980.189147949219 975.402709960938 978.605773925781 982.971435546875 991.618530273438 978.22216796875 982.240539550781 983.273315429688 976.78662109375 979.157104492188 976.190979003906 985.200500488281 990.088439941406 979.940124511719 980.491149902344 985.595703125 976.6884765625 975.692260742188 975.102844238281 974.537231445312 966.882507324219 973.416564941406 969.934692382812 972.100524902344 970.55712890625 970.467956542969 977.258911132812 967.308776855469 974.891784667969 980.815063476562 979.550354003906 975.129150390625 975.998657226562 981.2265625 987.582397460938 979.992004394531 980.422058105469 983.218811035156 981.879272460938 977.847351074219 981.350952148438 983.3310546875 992.800170898438 981.743957519531 987.596374511719 989.198059082031 988.157958984375 978.90087890625 969.957946777344 980.710876464844 980.178588867188 976.525085449219 974.432312011719 984.954223632812 984.908020019531 997.768737792969 996.610473632812 1000.38763427734 1002.45599365234 1005.65515136719 993.2861328125 991.218566894531 984.128295898438 995.470764160156 986.446228027344 991.874450683594 996.448974609375 1006.35675048828 1013.64282226562 1019.60308837891 1022.04168701172 1027.14733886719 1029.37231445312 1026.5498046875 1030.73486328125 1021.44390869141 1030.12573242188 1028.43566894531 1025.51220703125 1035.39599609375 1038.72106933594 1036.44274902344 1042.45153808594 1049.44641113281 1038.33422851562 1040.97790527344 1034.1552734375 1016.47448730469 1014.02874755859 1015.95599365234 1026.13684082031 1016.35052490234 1015.05963134766 1026.78039550781 1026.12377929688 1026.65100097656 1025.74365234375 1025.8037109375 1024.29467773438 1019.15991210938 1032.66369628906 1020.25939941406 1009.94061279297 1008.83538818359 1000.60083007812 995.849060058594 988.140441894531 987.893310546875 987.942993164062 997.649963378906 992.475891113281 1001.55981445312
936.790771484375 941.257995605469 942.322875976562 952.159057617188 946.7314453125 940.878051757812 944.255615234375 942.940185546875 941.06787109375 944.951049804688 947.821716308594 958.307556152344 957.572387695312 953.555847167969 963.014038085938 971.773620605469 968.2548828125 967.371154785156 973.937133789062 968.241455078125 972.179016113281 971.974243164062 973.789855957031 974.860473632812 969.580200195312 969.618713378906 982.027404785156 971.517517089844 966.830505371094 963.249145507812 955.928649902344 958.238159179688 961.273010253906 967.431762695312 963.255432128906 963.471862792969 976.190368652344 969.221862792969 975.358337402344 976.334350585938 983.488159179688 989.880004882812 997.338684082031 989.461791992188 982.627563476562 988.678649902344 979.350769042969 973.578674316406 979.790893554688 986.649658203125 986.551513671875 982.657592773438 979.063598632812 991.449035644531 985.780151367188 977.883361816406 982.092834472656 977.522033691406 976.643859863281 980.105041503906 969.946533203125 973.969299316406 976.708984375 971.42529296875 970.263793945312 972.355529785156 980.535827636719 980.254089355469 979.936706542969 978.488464355469 983.776672363281 981.242553710938 989.131225585938 979.3544921875 979.027893066406 983.369689941406 987.5361328125 988.200378417969 983.107238769531 977.341186523438 981.213012695312 991.142456054688 998.5322265625 989.230712890625 984.827880859375 982.506713867188 981.877990722656 979.780090332031 988.903930664062 979.930786132812 971.079345703125 979.269592285156 991.479919433594 992.860290527344 995.384521484375 997.069274902344 1002.43713378906 998.906433105469 991.930908203125 992.502136230469 992.423583984375 990.363586425781 988.786682128906 992.640625 995.60791015625 1006.21612548828 1016.58166503906 1020.10955810547 1019.36309814453 1030.37646484375 1026.29504394531 1029.79296875 1031.07702636719 1027.97094726562 1038.73693847656 1035.26000976562 1032.92846679688 1036.55749511719 1038.54699707031 1041.46936035156 1035.30126953125 1038.24792480469 1040.29846191406 1039.59057617188 1030.43981933594 1025.36840820312 1017.748046875 1017.09710693359 1014.04046630859 1009.27362060547 1017.60101318359 1025.35852050781 1024.6806640625 1022.72137451172 1024.07666015625 1016.09918212891 1017.31146240234 1018.18933105469 1016.7685546875 1012.19525146484 1007.08599853516 998.446960449219 998.395263671875 1004.96258544922 995.993408203125 985.737182617188 989.520629882812 996.531921386719 994.302856445312 1002.90002441406
933.403930664062 940.144775390625 936.794372558594 944.216613769531 941.715576171875 938.734130859375 940.340393066406 945.94140625 956.184875488281 952.762634277344 955.737365722656 956.79736328125 959.524169921875 958.358154296875 970.49755859375 978.601745605469 981.289123535156 968.926147460938 976.077941894531 972.305603027344 976.349426269531 977.080017089844 982.196350097656 978.030639648438 971.043762207031 977.753784179688 981.924560546875 967.585510253906 974.059875488281 975.166870117188 964.242614746094 965.2177734375 961.403137207031 969.049499511719 973.382019042969 977.411499023438 970.49951171875 980.546142578125 977.981750488281 974.641174316406 977.092956542969 994.1796875 1005.31958007812 993.513977050781 991.862365722656 996.310852050781 988.679931640625 988.97314453125 987.489440917969 991.685302734375 992.546569824219 986.289306640625 981.81982421875 987.075622558594 989.351806640625 993.085266113281 986.42724609375 979.27001953125 972.27978515625 972.965637207031 974.539428710938 971.95263671875 969.174072265625 968.494567871094 967.613098144531 978.169738769531 977.207946777344 979.38232421875 980.313171386719 984.416015625 993.682556152344 984.975219726562 986.918273925781 985.418823242188 987.811645507812 986.139404296875 997.609130859375 982.795349121094 988.03955078125 992.355651855469 984.755554199219 995.111206054688 997.34033203125 998.139770507812 990.80322265625 993.651733398438 989.408996582031 983.985595703125 984.674133300781 984.380737304688 976.402648925781 982.141296386719 986.328125 994.130249023438 998.7998046875 1003.01409912109 994.456176757812 991.992980957031 991.757202148438 988.89501953125 982.438842773438 991.1083984375 999.77392578125 999.828491210938 1000.5615234375 1012.77532958984 1019.87622070312 1023.48284912109 1029.69030761719 1025.42578125 1030.94543457031 1034.42456054688 1034.96057128906 1038.46557617188 1039.24230957031 1033.89086914062 1031.29309082031 1032.43273925781 1028.59448242188 1031.53234863281 1031.05358886719 1031.21362304688 1029.03454589844 1027.27685546875 1031.20288085938 1027.01770019531 1019.71905517578 1010.28668212891 1005.50152587891 1016.84283447266 1017.18823242188 1024.46325683594 1021.82177734375 1023.70703125 1019.19366455078 1022.39733886719 1011.94403076172 1018.60321044922 1021.93572998047 1015.25640869141 996.470336914062 995.381591796875 997.211547851562 1006.59320068359 996.167602539062 996.940246582031 989.446838378906 991.079223632812 994.802856445312 1006.80987548828
927.72021484375 932.800842285156 934.870361328125 932.170715332031 934.487182617188 936.5380859375 938.94677734375 936.816162109375 951.234680175781 950.303649902344 962.926879882812 958.360595703125 967.423522949219 969.144348144531 980.536865234375 985.486755371094 988.419982910156 979.186096191406 972.763000488281 988.654174804688 991.731079101562 986.097473144531 985.894104003906 972.47998046875 970.988037109375 973.241577148438 990.584228515625 980.753479003906 980.010437011719 974.886047363281 972.650695800781 975.710693359375 967.911193847656 974.326293945312 982.832397460938 975.308959960938 976.771240234375 975.620483398438 968.608825683594 975.254333496094 991.586975097656 997.973999023438 999.336181640625 998.425964355469 994.312316894531 997.836303710938 1000.70086669922 997.065734863281 999.641906738281 1003.91204833984 992.432495117188 998.177856445312 999.012390136719 999.143615722656 987.881652832031 986.0966796875 989.576904296875 982.61474609375 972.749816894531 975.919738769531 967.817626953125 980.169738769531 972.134399414062 977.173217773438 967.812133789062 971.38720703125 970.051635742188 975.186645507812 980.189697265625 984.150207519531 992.884460449219 990.900695800781 987.916687011719 990.335327148438 989.865234375 995.496459960938 1000.67047119141 994.133605957031 993.415893554688 993.801086425781 991.099792480469 992.526062011719 997.374206542969 997.716979980469 995.856506347656 990.211669921875 988.83935546875 984.132873535156 982.770629882812 985.1171875 982.8486328125 984.738098144531 982.346374511719 989.380920410156 991.792541503906 999.960021972656 1001.63940429688 1002.39251708984 1003.03125 995.044677734375 994.137329101562 994.1240234375 999.502685546875 1006.56829833984 1006.13757324219 1010.56219482422 1013.73101806641 1027.185546875 1024.60583496094 1019.72351074219 1023.89208984375 1030.40148925781 1035.00964355469 1041.62927246094 1033.27099609375 1028.98071289062 1029.0224609375 1022.2080078125 1016.27941894531 1032.94067382812 1029.47790527344 1027.11791992188 1033.20776367188 1027.93432617188 1027.69616699219 1020.89947509766 1017.90966796875 1014.21520996094 1007.57269287109 1015.20635986328 1018.40557861328 1014.37786865234 1015.19146728516 1011.92437744141 1021.58776855469 1015.86517333984 1027.15002441406 1015.90338134766 1010.44500732422 1008.28247070312 996.561157226562 995.189819335938 998.794372558594 998.990600585938 996.568176269531 989.521057128906 987.121520996094 987.778198242188 1001.47467041016 1003.39459228516
937.233032226562 927.627624511719 922.989013671875 935.285705566406 932.47802734375 934.595458984375 935.510131835938 933.384216308594 944.418334960938 950.764709472656 960.456665039062 966.6962890625 966.863586425781 975.482788085938 978.082458496094 980.514343261719 980.592590332031 985.870910644531 979.274353027344 981.940124511719 988.253845214844 977.384094238281 982.925842285156 985.008850097656 977.659240722656 980.392578125 984.513305664062 987.840148925781 989.022033691406 976.603942871094 977.797546386719 975.448303222656 970.69580078125 975.831176757812 978.641723632812 974.195251464844 979.256713867188 974.309753417969 978.6826171875 979.027099609375 991.923461914062 992.761962890625 1001.28393554688 999.769836425781 999.435180664062 1002.47125244141 1001.74273681641 1004.12786865234 1000.46661376953 1000.28875732422 994.460510253906 996.5263671875 996.811767578125 990.233764648438 992.40185546875 989.547241210938 987.067687988281 981.319641113281 974.190002441406 964.466613769531 978.666687011719 975.241394042969 982.818908691406 974.58544921875 964.940795898438 974.287902832031 970.136535644531 972.751525878906 983.425537109375 984.444458007812 985.530151367188 991.839538574219 992.252319335938 986.272155761719 989.887878417969 990.764343261719 999.541931152344 1002.90850830078 996.470153808594 1002.71746826172 1001.24682617188 997.349365234375 1003.3720703125 997.026062011719 991.712829589844 986.765930175781 989.097595214844 981.841491699219 989.004150390625 982.516296386719 981.376403808594 980.79296875 985.783874511719 989.279479980469 997.441955566406 1004.66101074219 997.349182128906 999.779235839844 993.763854980469 997.512023925781 998.051696777344 1003.20025634766 1005.55883789062 1015.68792724609 1012.14520263672 1011.70812988281 1018.79803466797 1020.97528076172 1030.259765625 1014.83819580078 1024.85473632812 1023.67016601562 1036.73852539062 1031.26501464844 1027.38037109375 1026.99865722656 1019.79229736328 1009.79895019531 1018.81134033203 1025.37524414062 1028.52856445312 1029.705078125 1027.10717773438 1016.13635253906 1023.28961181641 1023.00518798828 1016.15814208984 1008.53131103516 1003.98980712891 1005.14965820312 1020.7158203125 1018.29754638672 1005.32189941406 1005.87640380859 1016.50512695312 1013.78393554688 1014.83209228516 1013.70135498047 1004.76611328125 1001.62451171875 993.448852539062 997.301452636719 991.700317382812 993.795776367188 992.357116699219 992.021423339844 982.116577148438 979.757690429688 994.958679199219 1008.70172119141
936.245361328125 926.674011230469 924.4365234375 933.868408203125 924.667236328125 930.626098632812 931.935913085938 940.885192871094 947.058959960938 957.126586914062 971.103637695312 973.476257324219 966.677185058594 980.1826171875 980.866638183594 979.899291992188 985.116821289062 987.060180664062 981.053405761719 976.842834472656 982.664916992188 993.926696777344 990.414855957031 992.681396484375 990.226196289062 989.986267089844 994.469360351562 990.509399414062 998.2021484375 980.205078125 982.967834472656 979.106506347656 977.868041992188 975.735290527344 985.836242675781 975.7978515625 983.855529785156 987.969482421875 984.515686035156 987.502624511719 987.300354003906 1004.8212890625 1002.8671875 1001.20355224609 1002.43463134766 1001.42816162109 1007.07666015625 1009.99499511719 1004.38342285156 998.131591796875 996.536560058594 995.435241699219 991.711364746094 985.719909667969 995.914184570312 992.255737304688 987.542297363281 980.7919921875 975.136962890625 975.785766601562 975.024536132812 982.22265625 978.828125 973.720397949219 971.065673828125 975.649230957031 975.862487792969 976.610900878906 985.263854980469 991.311889648438 997.520385742188 988.6640625 991.235534667969 992.589111328125 989.933288574219 997.638977050781 995.503723144531 1003.36614990234 1006.00604248047 1006.23101806641 999.945373535156 1000.46527099609 1005.78448486328 993.958984375 990.377014160156 987.738952636719 984.955932617188 986.9599609375 980.408203125 975.794128417969 985.106201171875 984.01220703125 989.429748535156 995.755432128906 997.502990722656 1001.42413330078 1005.84020996094 999.04443359375 991.901794433594 994.398559570312 998.317199707031 998.756408691406 999.764099121094 1013.19763183594 1017.02520751953 1020.20971679688 1019.86108398438 1025.33154296875 1029.82189941406 1028.76831054688 1023.81402587891 1027.61328125 1020.66027832031 1028.97875976562 1033.48718261719 1029.07995605469 1015.38226318359 1023.16137695312 1026.79040527344 1032.39501953125 1037.4296875 1025.19348144531 1026.0673828125 1015.85461425781 1025.025390625 1023.57086181641 1019.56890869141 1010.78558349609 1000.70031738281 1005.42547607422 1009.97509765625 1005.09405517578 1007.8525390625 1013.95123291016 1011.02722167969 1011.03778076172 1014.42047119141 1011.93395996094 1008.84576416016 1006.53204345703 1001.05444335938 990.187377929688 978.547729492188 988.512573242188 996.008850097656 993.964111328125 978.742858886719 979.369140625 993.089477539062 1003.74078369141
939.02392578125 935.978942871094 930.223327636719 937.62451171875 937.040283203125 936.17822265625 934.548706054688 942.405639648438 947.077880859375 953.051147460938 964.024169921875 967.280700683594 965.254943847656 972.091003417969 973.160827636719 978.065612792969 986.91552734375 989.747802734375 994.074340820312 984.43896484375 989.669189453125 992.840515136719 985.161437988281 986.219055175781 992.331298828125 999.712890625 998.329223632812 993.428894042969 990.826416015625 981.826721191406 991.380187988281 982.275207519531 985.466491699219 975.866027832031 977.326110839844 975.247924804688 987.792175292969 992.140319824219 989.690368652344 985.349426269531 989.018005371094 998.710998535156 997.85693359375 1009.25445556641 1011.95837402344 1005.69244384766 1022.42510986328 1019.30712890625 1003.77850341797 1002.05065917969 995.733825683594 995.957763671875 997.376953125 984.64599609375 987.476135253906 985.7353515625 985.456787109375 984.253540039062 969.892211914062 974.462585449219 974.878723144531 978.150268554688 979.139038085938 975.288146972656 980.458557128906 976.946960449219 978.081726074219 977.835021972656 983.046813964844 986.008728027344 990.789672851562 988.903442382812 992.912414550781 1000.65417480469 1002.78344726562 1002.56158447266 998.658203125 999.691955566406 1000.28936767578 1008.04180908203 1007.23474121094 1009.09320068359 1007.173828125 999.935729980469 992.476440429688 987.981201171875 984.907653808594 981.054504394531 976.806457519531 983.447875976562 977.063171386719 980.5947265625 986.336547851562 986.645812988281 990.299438476562 1000.63171386719 1004.04010009766 1000.34887695312 1000.60943603516 1003.64422607422 999.024536132812 1005.26861572266 1007.40179443359 1018.56958007812 1018.18572998047 1019.60711669922 1028.19079589844 1027.09948730469 1031.15734863281 1030.38732910156 1034.32751464844 1033.40258789062 1020.86950683594 1030.38854980469 1024.91467285156 1026.0302734375 1022.33404541016 1016.5771484375 1026.06799316406 1038.74304199219 1033.50219726562 1036.85595703125 1024.37377929688 1022.23962402344 1026.46423339844 1016.72515869141 1007.83703613281 1005.08740234375 1002.71514892578 1009.38629150391 1001.91326904297 1002.86376953125 997.877868652344 1003.42083740234 1003.85736083984 1004.63031005859 1006.89001464844 1008.01574707031 1008.91876220703 1004.11102294922 999.274291992188 994.612915039062 984.510803222656 981.180603027344 985.420654296875 991.979187011719 989.091491699219 985.937133789062 989.057800292969 994.072204589844
951.137512207031 939.548400878906 937.619018554688 939.049255371094 936.476806640625 937.974426269531 935.773254394531 934.62255859375 946.798828125 950.21142578125 958.929992675781 972.079162597656 970.011413574219 975.257202148438 974.279052734375 977.648803710938 986.08154296875 981.10400390625 979.423767089844 981.749938964844 988.645141601562 986.353698730469 984.702026367188 990.794250488281 994.776123046875 993.593872070312 987.496337890625 991.321716308594 988.278503417969 979.237609863281 978.109619140625 980.130249023438 980.004638671875 989.839416503906 979.159545898438 984.37744140625 992.868591308594 991.284362792969 985.039855957031 987.542175292969 990.782958984375 998.895324707031 997.721862792969 1000.97448730469 1015.79010009766 1009.30828857422 1020.02697753906 1021.93005371094 1004.6748046875 1006.96795654297 999.76318359375 998.48876953125 980.920349121094 988.355346679688 987.00927734375 988.895263671875 987.17626953125 991.774597167969 991.357849121094 986.92578125 983.583251953125 980.746887207031 978.381103515625 973.742919921875 971.555541992188 973.812377929688 973.226135253906 980.060852050781 978.781066894531 980.462280273438 986.913818359375 988.064880371094 993.150146484375 1005.42083740234 1009.08416748047 1008.63702392578 999.321166992188 1005.48315429688 1004.19525146484 1008.58178710938 1007.640625 1010.82385253906 1015.60101318359 1005.12188720703 996.415649414062 989.483154296875 982.84521484375 984.889831542969 979.53369140625 988.476013183594 988.245239257812 983.739379882812 980.576721191406 983.79296875 995.829406738281 1008.71423339844 999.821105957031 993.840576171875 998.9619140625 1007.48419189453 1004.92364501953 1009.39337158203 1008.83477783203 1003.65521240234 1010.08117675781 1020.36517333984 1024.16772460938 1027.57006835938 1031.18054199219 1030.43774414062 1036.20947265625 1040.57629394531 1035.51806640625 1028.48254394531 1026.48352050781 1033.9462890625 1012.26953125 1020.10498046875 1030.84436035156 1040.02966308594 1039.97912597656 1032.42114257812 1020.77862548828 1027.30261230469 1017.97515869141 1014.75701904297 1009.77862548828 997.876159667969 1004.91857910156 1007.91656494141 1005.03961181641 1001.65374755859 998.319519042969 999.989379882812 996.430725097656 1002.79705810547 1005.32373046875 1002.22412109375 1012.29614257812 1000.04595947266 994.824279785156 989.494812011719 986.238159179688 977.589416503906 983.956115722656 988.171264648438 991.307922363281 986.943908691406 986.122009277344 996.4892578125
953.555847167969 951.273254394531 944.803283691406 947.579345703125 946.603515625 946.123657226562 934.511779785156 940.261108398438 943.611083984375 952.081298828125 967.816955566406 968.028564453125 972.220031738281 975.093627929688 976.768005371094 973.676208496094 978.228881835938 977.673156738281 976.9716796875 987.206909179688 984.3740234375 985.623840332031 985.27734375 988.640502929688 998.12646484375 993.525939941406 985.71923828125 989.797119140625 987.642700195312 986.718627929688 984.495544433594 984.625854492188 979.992065429688 978.424560546875 985.973083496094 993.256958007812 991.007629394531 992.02490234375 983.812316894531 979.506286621094 982.929321289062 997.218322753906 996.355224609375 1003.65460205078 1008.99230957031 1012.5986328125 1014.21026611328 1013.82336425781 1002.35046386719 1010.49035644531 997.142822265625 986.371948242188 987.962524414062 995.933837890625 987.755920410156 987.892333984375 995.507690429688 1002.92340087891 989.849670410156 985.512573242188 981.628356933594 978.010131835938 982.422485351562 973.942016601562 967.658081054688 972.423706054688 977.023254394531 969.464172363281 975.891845703125 985.120178222656 988.690185546875 993.005187988281 992.651550292969 1004.12030029297 1009.02209472656 999.203369140625 999.256713867188 1005.08996582031 1003.39630126953 1010.97564697266 1005.32684326172 1009.01257324219 1012.09582519531 1014.85961914062 994.456665039062 989.91845703125 996.591918945312 995.224853515625 986.288269042969 992.522277832031 988.159301757812 984.696533203125 992.467468261719 994.582214355469 1005.16650390625 1006.88500976562 1001.37963867188 1000.50659179688 999.557006835938 1006.57733154297 1010.74609375 1004.35491943359 1006.13562011719 1009.47869873047 1017.54132080078 1014.20153808594 1019.07220458984 1028.97033691406 1027.16943359375 1033.47351074219 1036.71472167969 1045.75134277344 1045.77978515625 1040.6572265625 1039.41284179688 1030.97253417969 1022.57299804688 1028.552734375 1024.20373535156 1033.47778320312 1034.71105957031 1035.47106933594 1029.72399902344 1025.35827636719 1021.9482421875 1015.01770019531 1001.04510498047 1005.62933349609 994.614624023438 997.5107421875 998.851684570312 1004.53363037109 1008.46765136719 998.966003417969 1000.92803955078 1004.81018066406 1010.05401611328 998.949645996094 1000.57110595703 1003.51531982422 993.465148925781 988.185180664062 983.304138183594 974.9296875 978.218872070312 983.294616699219 993.561462402344 988.177795410156 999.071716308594 991.174987792969
954.890380859375 960.2294921875 943.849243164062 943.288696289062 942.172241210938 941.677490234375 947.634826660156 944.688781738281 946.5458984375 954.401733398438 962.640319824219 958.769348144531 964.205993652344 977.544616699219 968.846557617188 967.521911621094 966.663146972656 976.835876464844 971.200500488281 980.180969238281 979.923461914062 981.592468261719 990.548400878906 998.538330078125 994.899047851562 992.082153320312 988.648742675781 986.012390136719 988.216735839844 985.228759765625 982.448486328125 977.906311035156 973.463073730469 977.314025878906 988.935363769531 988.634338378906 986.973937988281 986.068420410156 996.156127929688 988.616638183594 988.434692382812 990.381774902344 1000.22998046875 1003.44812011719 1000.8056640625 1010.16369628906 1015.32769775391 1010.91369628906 1014.19689941406 1002.64660644531 995.201843261719 986.687316894531 990.590942382812 985.519592285156 987.5859375 982.688354492188 996.342651367188 995.321105957031 992.420471191406 979.378234863281 975.734069824219 980.61181640625 981.132873535156 981.231506347656 968.559204101562 971.882690429688 970.183471679688 973.248046875 975.84033203125 979.791870117188 985.111755371094 988.585144042969 990.71240234375 995.058898925781 999.936340332031 1000.36743164062 998.734313964844 1003.88952636719 1000.77459716797 1008.80584716797 999.945617675781 1004.62805175781 1011.51550292969 1011.49755859375 999.003051757812 1006.26452636719 997.290588378906 996.184997558594 992.950378417969 1000.48883056641 992.756225585938 998.315002441406 995.637451171875 991.440368652344 994.593994140625 1003.56597900391 997.397644042969 1001.4814453125 1007.73468017578 1008.3671875 1006.37268066406 1009.80950927734 1005.33569335938 1013.81109619141 1016.32696533203 1016.3671875 1022.51739501953 1026.1962890625 1027.38500976562 1039.58117675781 1041.27038574219 1050.5009765625 1049.02612304688 1042.44055175781 1049.26525878906 1040.23522949219 1030.02880859375 1030.86572265625 1026.10437011719 1032.03857421875 1035.45971679688 1031.22265625 1020.78375244141 1021.44396972656 1021.23962402344 1004.64263916016 1003.0322265625 998.689392089844 1002.04388427734 994.978515625 998.875854492188 1000.55895996094 999.685607910156 1000.33880615234 1004.40991210938 1005.97485351562 998.004089355469 998.452880859375 989.634887695312 1000.48638916016 991.189697265625 983.466796875 978.263916015625 976.692016601562 977.827514648438 985.293395996094 985.611999511719 987.333312988281 996.092651367188 997.957214355469
952.670532226562 951.740478515625 948.802734375 937.311157226562 943.847534179688 940.750854492188 944.254638671875 941.449462890625 953.47802734375 956.060363769531 964.220886230469 969.259765625 961.991455078125 969.578369140625 959.872985839844 961.377258300781 968.561462402344 972.670349121094 971.423889160156 973.766357421875 975.921875 978.973571777344 983.198547363281 977.010070800781 984.546264648438 994.931091308594 986.29052734375 982.214233398438 985.485534667969 983.449401855469 978.689331054688 975.811889648438 963.499328613281 970.250854492188 980.468505859375 991.197265625 990.482360839844 997.207092285156 990.714477539062 986.910949707031 987.77734375 994.07470703125 995.462707519531 1002.58605957031 999.566284179688 1006.02978515625 1009.32501220703 1003.90679931641 1004.27404785156 995.412780761719 988.208251953125 988.025756835938 987.975158691406 989.595764160156 990.778076171875 983.426147460938 990.41015625 988.97314453125 985.0439453125 981.2275390625 982.789001464844 978.546630859375 974.44189453125 974.9306640625 967.241027832031 969.425231933594 975.21630859375 980.752868652344 983.207641601562 981.744262695312 983.428161621094 987.039184570312 989.873291015625 988.921447753906 990.5400390625 1001.86761474609 1005.01611328125 1003.36981201172 994.79541015625 1001.00213623047 1007.20080566406 1008.83001708984 1011.97155761719 1013.15289306641 1012.88458251953 1006.85430908203 994.090148925781 984.567993164062 993.815856933594 1000.38568115234 1003.92694091797 1001.18914794922 1003.25408935547 996.723327636719 1001.07476806641 998.203308105469 1001.54766845703 1007.79498291016 1006.94921875 1014.42950439453 1009.52673339844 1005.62316894531 1007.67474365234 1014.70025634766 1019.93933105469 1020.96063232422 1032.36804199219 1022.64544677734 1025.99475097656 1035.23254394531 1040.30004882812 1053.33471679688 1056.36352539062 1047.61975097656 1044.85827636719 1044.59045410156 1040.8330078125 1036.35778808594 1034.03930664062 1033.70080566406 1039.88745117188 1032.91809082031 1019.94024658203 1019.99017333984 1012.35925292969 1000.17169189453 1000.26983642578 1002.95550537109 995.392150878906 994.150329589844 994.724243164062 999.966735839844 993.509216308594 1006.9814453125 999.188659667969 1002.40051269531 992.634887695312 991.437683105469 985.246520996094 981.89404296875 991.866088867188 983.140563964844 972.567626953125 968.445007324219 967.240966796875 981.736389160156 986.050537109375 982.291809082031 979.018127441406 988.906188964844
951.295043945312 941.598510742188 945.033020019531 948.448303222656 938.785522460938 935.486877441406 937.634826660156 938.377319335938 946.724365234375 953.5703125 965.821411132812 966.589233398438 960.646667480469 965.725463867188 961.680969238281 961.651733398438 960.484130859375 963.599243164062 960.317687988281 960.510620117188 967.528625488281 978.351623535156 981.658508300781 977.174743652344 983.668884277344 979.015258789062 981.564880371094 978.265258789062 980.402404785156 975.987487792969 974.361633300781 973.435852050781 970.55224609375 970.338439941406 972.387939453125 992.111328125 990.495666503906 993.6162109375 988.146728515625 991.9599609375 998.870727539062 1004.67364501953 1004.40802001953 1000.37548828125 1000.95831298828 1002.333984375 1006.42584228516 1002.48687744141 1000.19476318359 997.74853515625 993.41552734375 984.52490234375 988.559020996094 989.549133300781 992.15087890625 982.457885742188 988.4794921875 985.807678222656 983.468872070312 984.941040039062 979.75146484375 978.272338867188 980.553955078125 967.426086425781 971.173461914062 969.508666992188 974.637329101562 980.636291503906 981.317016601562 982.899780273438 985.300537109375 985.778076171875 982.181762695312 989.633911132812 988.433471679688 994.832763671875 1003.96313476562 1002.33636474609 997.438293457031 1010.08703613281 1004.412109375 1009.76306152344 1020.79388427734 1010.69805908203 1007.69061279297 1002.16949462891 998.015747070312 990.424499511719 999.629089355469 992.336547851562 995.071472167969 994.997314453125 999.29345703125 991.925354003906 990.708557128906 999.10205078125 1003.89630126953 1006.52496337891 1006.74267578125 1011.98034667969 1010.84332275391 1009.09497070312 1007.71160888672 1014.38037109375 1024.22448730469 1028.02197265625 1023.35565185547 1029.58618164062 1034.98046875 1040.36499023438 1043.70764160156 1039.46655273438 1050.93054199219 1047.55895996094 1059.18334960938 1052.37841796875 1045.34692382812 1035.8310546875 1027.01342773438 1035.52331542969 1032.71459960938 1029.58044433594 1019.61120605469 1024.25964355469 1011.21325683594 997.659301757812 992.028625488281 990.280151367188 994.857727050781 989.875915527344 990.036071777344 997.041320800781 996.4990234375 1004.85876464844 1003.57299804688 994.959594726562 986.788818359375 986.995971679688 983.90087890625 981.714538574219 974.294738769531 974.733032226562 970.814270019531 963.978698730469 973.396667480469 980.248718261719 978.568237304688 980.888122558594 984.471862792969 983.212158203125
945.515563964844 943.073669433594 944.960388183594 943.898803710938 937.977294921875 932.689147949219 936.121826171875 944.031066894531 942.784851074219 955.581665039062 955.367492675781 963.802429199219 958.326293945312 956.9501953125 956.045776367188 965.996887207031 955.405700683594 961.241516113281 958.333618164062 963.040649414062 953.800354003906 973.418762207031 976.854919433594 979.749572753906 981.687255859375 968.230285644531 968.240478515625 968.324096679688 975.500061035156 974.344177246094 975.720336914062 976.71484375 971.37841796875 967.441162109375 978.881103515625 988.326538085938 990.19189453125 989.367858886719 993.794067382812 993.635864257812 994.342407226562 997.644958496094 1002.11389160156 1002.50744628906 1004.13903808594 998.935913085938 1003.83868408203 1008.6767578125 1002.16412353516 1001.24884033203 1001.12957763672 985.758605957031 985.497436523438 985.905029296875 988.007202148438 982.002868652344 984.388549804688 990.401977539062 988.176574707031 984.602172851562 980.493408203125 976.844360351562 986.538024902344 978.077880859375 976.42529296875 986.090759277344 985.547973632812 977.961669921875 987.51708984375 987.690673828125 986.444519042969 987.971069335938 989.524963378906 980.236694335938 984.088134765625 996.879577636719 1006.16021728516 1004.57690429688 998.878967285156 1005.77349853516 1014.81689453125 1015.07073974609 1013.31951904297 1015.82489013672 1001.10998535156 1001.15875244141 1004.11541748047 1012.10607910156 1007.58721923828 999.363159179688 996.426513671875 988.625793457031 982.518798828125 983.945434570312 990.197814941406 1004.07330322266 1001.47711181641 1007.33825683594 1014.61499023438 1007.21643066406 1001.85809326172 1008.09558105469 1002.25561523438 1008.81634521484 1015.16003417969 1027.51696777344 1022.40954589844 1031.85180664062 1035.83898925781 1043.33642578125 1043.59643554688 1053.78479003906 1055.1904296875 1058.92590332031 1062.92053222656 1058.61279296875 1046.10437011719 1035.33740234375 1033.85473632812 1033.85290527344 1026.68835449219 1027.40881347656 1022.17626953125 1017.70373535156 1012.8896484375 1005.58489990234 995.831787109375 987.954223632812 985.678039550781 995.277709960938 995.271118164062 995.707885742188 998.475646972656 997.861877441406 1002.7939453125 995.958435058594 988.898193359375 988.628967285156 985.028076171875 978.692993164062 972.232604980469 979.394409179688 974.098571777344 971.095642089844 959.417236328125 970.630187988281 975.396423339844 980.697021484375 977.248596191406 978.755187988281
