NCOLS 150
NROWS 37
XLLCORNER 7394249
YLLCORNER 4842539
CELLSIZE 30
NODATA_VALUE -9999
939.540649414062 953.195739746094 955.06494140625 955.536560058594 954.542358398438 960.514892578125 958.257507324219 954.460632324219 966.171813964844 963.5205078125 961.096557617188 964.185485839844 974.104675292969 965.54345703125 971.636962890625 977.9775390625 978.424255371094 970.395324707031 966.26220703125 958.467407226562 968.446411132812 961.49560546875 962.361389160156 955.907409667969 958.244812011719 977.676879882812 974.142150878906 964.987182617188 973.5732421875 976.406372070312 976.375366210938 974.423583984375 976.775634765625 986.0009765625 977.926696777344 974.084777832031 959.887268066406 966.790588378906 965.415161132812 971.596618652344 972.286560058594 974.763488769531 971.406555175781 974.216613769531 967.5859375 967.469970703125 962.37548828125 967.75244140625 971.686401367188 978.776916503906 977.552307128906 966.232177734375 971.744323730469 968.269653320312 961.999267578125 958.781311035156 958.5380859375 971.482055664062 969.599365234375 975.084838867188 973.235046386719 969.238891601562 970.944519042969 967.981262207031 965.412109375 966.287048339844 974.530334472656 972.605773925781 973.467468261719 972.219177246094 976.841979980469 970.703918457031 964.7216796875 962.156188964844 965.646789550781 964.087097167969 972.018188476562 976.645874023438 983.309692382812 982.8955078125 978.792358398438 970.706848144531 977.805603027344 975.167297363281 965.34130859375 964.209045410156 967.363464355469 969.836120605469 973.145690917969 972.242309570312 972.972229003906 979.529174804688 978.141357421875 981.423889160156 986.0654296875 987.278930664062 982.833984375 980.502990722656 980.822937011719 982.604431152344 970.90185546875 976.650329589844 978.888000488281 988.406921386719 982.700500488281 983.907653808594 986.32568359375 986.030395507812 990.070556640625 990.168701171875 992.399169921875 996.635192871094 1000.95001220703 997.415710449219 991.814208984375 1001.86053466797 1008.7734375 1003.43145751953 1004.52386474609 1009.09301757812 1009.07537841797 1002.17816162109 1000.4072265625 1006.67047119141 1016.2841796875 1020.84527587891 1017.22296142578 1019.87060546875 1021.5029296875 1030.220703125 1037.93420410156 1036.98645019531 1040.8955078125 1046.400390625 1044.2900390625 1055.68090820312 1071.97155761719 1072.33996582031 1075.75561523438 1084.16943359375 1094.23217773438 1120.00866699219 1127.25427246094 1128.97399902344 1141.31420898438 1146.18188476562 1152.25280761719 1174.158203125 1170.03344726562 1171.4765625
940.268920898438 953.43896484375 953.399963378906 951.367797851562 953.679626464844 951.620971679688 949.843627929688 950.821716308594 962.4892578125 964.613342285156 969.253723144531 964.6083984375 970.588012695312 966.133972167969 982.210754394531 974.371215820312 987.449645996094 982.8994140625 973.018737792969 965.661804199219 966.794372558594 954.584594726562 961.139709472656 965.02685546875 966.04833984375 962.816589355469 966.208984375 966.597106933594 972.580200195312 967.087097167969 977.983215332031 973.0576171875 982.078979492188 975.472106933594 978.365905761719 971.663269042969 964.941040039062 964.641540527344 963.1826171875 964.688049316406 969.420593261719 967.281433105469 972.448303222656 963.25 972.391662597656 967.237365722656 961.392517089844 974.589416503906 977.581481933594 978.324829101562 969.4599609375 963.919311523438 962.194030761719 960.869201660156 962.884765625 958.526428222656 955.94189453125 962.758850097656 977.77880859375 982.913696289062 987.760925292969 981.689575195312 973.249877929688 975.414978027344 965.263366699219 967.300231933594 970.264953613281 969.918640136719 970.306640625 972.63720703125 961.415588378906 966.245788574219 968.488891601562 964.629211425781 969.58251953125 965.166870117188 972.392944335938 966.553100585938 969.885803222656 980.020080566406 976.857299804688 971.057189941406 978.90673828125 964.937744140625 967.819763183594 963.478393554688 964.998107910156 964.462585449219 956.756042480469 964.812622070312 962.740539550781 973.179931640625 979.882568359375 987.166687011719 977.563598632812 981.565795898438 985.742126464844 979.691101074219 976.685974121094 974.074829101562 983.295593261719 988.944763183594 987.174072265625 992.391418457031 988.474792480469 993.025817871094 991.027770996094 989.198791503906 991.290100097656 995.033020019531 994.647338867188 997.899597167969 1001.55578613281 1006.73907470703 996.8310546875 1005.93865966797 1002.59710693359 1014.18969726562 1014.59527587891 1013.84265136719 1009.25347900391 1008.77038574219 1012.40032958984 1011.74200439453 1021.40405273438 1022.90808105469 1016.88067626953 1015.12969970703 1023.87170410156 1029.67114257812 1026.2861328125 1036.73193359375 1043.0478515625 1051.94677734375 1064.34814453125 1067.78625488281 1072.82177734375 1083.42663574219 1074.8251953125 1085.59411621094 1098.84045410156 1109.44604492188 1116.03723144531 1117.76806640625 1137.89636230469 1136.27917480469 1152.69763183594 1165.373046875 1166.51049804688 1161.81994628906
951.957763671875 953.348388671875 958.955810546875 953.179382324219 960.753662109375 961.676818847656 956.968322753906 958.954528808594 957.069152832031 960.717895507812 963.484375 963.615356445312 968.319641113281 971.176086425781 974.633056640625 984.09326171875 988.380798339844 987.473571777344 987.904418945312 974.555358886719 968.945861816406 964.149475097656 959.661437988281 962.324279785156 969.131164550781 970.860473632812 970.841369628906 973.449523925781 972.907409667969 959.175231933594 969.376770019531 971.01416015625 973.196899414062 982.483154296875 970.867797851562 969.093383789062 969.237731933594 966.561462402344 967.429382324219 962.589904785156 963.651733398438 973.3154296875 960.287414550781 969.558044433594 965.489135742188 960.999084472656 962.952209472656 969.254821777344 977.463623046875 975.6337890625 976.313903808594 966.374145507812 963.245849609375 963.582214355469 960.941223144531 957.658996582031 962.643371582031 959.786315917969 969.416809082031 977.550476074219 988.013488769531 992.766479492188 978.589477539062 977.436950683594 974.574829101562 972.699157714844 968.585205078125 965.50537109375 969.109558105469 973.65283203125 962.138244628906 961.0234375 959.396728515625 969.056823730469 971.224548339844 968.155151367188 967.877746582031 960.240539550781 961.745544433594 972.784729003906 966.045227050781 970.150329589844 971.704895019531 965.411987304688 971.630004882812 968.604187011719 967.842834472656 977.1220703125 958.57177734375 974.38671875 969.628112792969 968.297668457031 980.568664550781 983.731506347656 982.302734375 980.004089355469 982.072387695312 988.03564453125 979.543029785156 975.888061523438 984.956848144531 988.207458496094 979.318115234375 986.826354980469 984.234497070312 994.098388671875 993.719604492188 995.504028320312 989.590942382812 978.158752441406 994.752868652344 990.385375976562 998.206115722656 1004.18206787109 999.817016601562 999.452026367188 1001.38220214844 1011.38067626953 1014.92926025391 1018.02667236328 1011.35382080078 1009.94415283203 1013.83349609375 1020.19519042969 1028.36401367188 1031.81945800781 1023.81451416016 1021.07623291016 1025.65625 1029.25708007812 1028.54528808594 1038.01354980469 1045.927734375 1058.51391601562 1070.66369628906 1076.90600585938 1084.38879394531 1088.06079101562 1083.76550292969 1091.23974609375 1097.84924316406 1107.58325195312 1115.55932617188 1121.05383300781 1137.69763183594 1141.36279296875 1149.72619628906 1154.72692871094 1168.5390625 1158.24328613281
950.703308105469 959.949279785156 955.86474609375 948.207458496094 952.337341308594 960.658447265625 965.830871582031 969.553955078125 962.439453125 961.11181640625 962.870849609375 968.778564453125 977.738159179688 982.105041503906 977.525756835938 973.429809570312 972.695739746094 977.087707519531 979.403137207031 981.100646972656 965.631286621094 969.640869140625 964.886657714844 966.963073730469 963.316833496094 959.828979492188 962.851745605469 969.484191894531 968.364868164062 970.78173828125 970.018981933594 973.974548339844 975.592712402344 978.7353515625 966.067565917969 971.597534179688 967.345886230469 959.717651367188 961.924865722656 949.3203125 965.104064941406 960.232971191406 962.092712402344 961.614074707031 961.405151367188 957.856872558594 957.175476074219 962.439697265625 962.259399414062 971.56298828125 965.981994628906 978.258117675781 965.341613769531 966.615112304688 972.916625976562 959.738647460938 967.259948730469 969.295104980469 965.765686035156 972.989990234375 978.081176757812 984.581298828125 975.204467773438 978.29931640625 971.715759277344 975.474792480469 969.787963867188 972.134338378906 969.270629882812 972.789367675781 962.454650878906 959.580078125 966.082214355469 978.14453125 975.443542480469 971.141784667969 964.017944335938 963.346801757812 970.523681640625 969.667358398438 963.924987792969 971.610534667969 970.763916015625 971.74072265625 970.332458496094 970.862121582031 967.748718261719 965.947082519531 971.322570800781 968.092651367188 965.572692871094 974.559692382812 973.026184082031 978.91162109375 972.850280761719 971.518005371094 975.776306152344 975.388366699219 977.648193359375 981.92822265625 973.404113769531 981.859619140625 988.188293457031 990.273498535156 992.471618652344 995.300903320312 999.412963867188 993.840515136719 986.382446289062 983.461059570312 988.851440429688 992.331909179688 996.178588867188 1005.74139404297 1000.86376953125 999.753356933594 1005.32421875 1011.89654541016 1014.86071777344 1010.54296875 1013.72149658203 1005.91143798828 1016.47430419922 1025.89758300781 1034.61694335938 1035.79772949219 1029.42114257812 1025.3818359375 1033.11853027344 1040.05114746094 1035.10437011719 1045.49987792969 1055.68237304688 1062.89184570312 1076.85205078125 1084.51550292969 1086.64624023438 1095.02856445312 1097.54565429688 1100.92028808594 1106.07995605469 1104.24291992188 1110.28771972656 1119.61877441406 1129.68933105469 1144.04504394531 1152.86755371094 1149.40014648438 1151.46130371094 1158.98156738281
947.529235839844 958.158752441406 956.734130859375 949.473083496094 951.207397460938 952.172668457031 968.943908691406 967.825439453125 972.760437011719 970.124206542969 969.449157714844 973.405029296875 977.668701171875 978.857543945312 972.356994628906 972.1494140625 974.141418457031 974.952026367188 976.283447265625 972.891906738281 967.202453613281 968.480102539062 965.659606933594 972.492370605469 970.494506835938 966.063842773438 955.900329589844 971.101501464844 964.956665039062 966.729309082031 971.467407226562 972.287231445312 965.7646484375 964.20263671875 968.714172363281 969.485961914062 971.665649414062 962.090515136719 959.204284667969 956.846801757812 961.957824707031 962.051818847656 952.410766601562 954.362548828125 961.678466796875 959.448547363281 959.872131347656 967.2255859375 960.705444335938 961.681335449219 974.251037597656 976.161804199219 964.835144042969 957.0673828125 962.013488769531 964.122375488281 969.142944335938 964.524291992188 962.263122558594 970.927185058594 977.116577148438 976.871032714844 972.417541503906 965.647094726562 970.587097167969 970.508605957031 967.177795410156 975.031066894531 975.4609375 965.262023925781 962.538818359375 959.713684082031 966.872497558594 971.058776855469 971.217956542969 971.1953125 969.358703613281 962.861145019531 971.610778808594 976.324890136719 971.71533203125 971.5322265625 961.25 973.106262207031 978.669616699219 971.467712402344 967.349975585938 963.57666015625 969.62451171875 975.439453125 970.339294433594 974.435668945312 976.055847167969 982.725341796875 981.541931152344 974.018615722656 969.87548828125 964.592651367188 971.04150390625 976.729187011719 979.544250488281 984.279602050781 987.154968261719 987.531005859375 979.060363769531 986.213684082031 988.028015136719 984.632141113281 984.5380859375 981.6396484375 981.553649902344 987.366455078125 997.00830078125 1000.71185302734 995.042236328125 1000.25317382812 1011.1611328125 1019.546875 1013.39569091797 1018.31536865234 1018.38415527344 1020.89440917969 1028.43615722656 1030.62536621094 1030.15417480469 1026.64440917969 1025.96496582031 1036.49206542969 1034.09497070312 1041.92602539062 1047.22204589844 1061.43273925781 1061.55139160156 1076.08227539062 1084.58825683594 1096.87292480469 1098.91723632812 1093.47546386719 1095.05224609375 1105.83483886719 1106.44409179688 1101.77233886719 1114.54125976562 1116.59375 1126.22058105469 1142.310546875 1148.92626953125 1142.91015625 1150.24060058594 1157.66748046875
952.821472167969 965.148132324219 964.895202636719 961.331420898438 962.741088867188 964.957702636719 969.294311523438 964.874328613281 970.035278320312 973.198791503906 970.824829101562 977.858825683594 972.927795410156 972.955017089844 969.975769042969 970.822143554688 972.875610351562 966.584289550781 963.815979003906 963.959838867188 968.730773925781 966.289733886719 964.995727539062 962.796691894531 962.812133789062 967.473999023438 960.996459960938 965.332214355469 957.940185546875 963.816040039062 970.802917480469 973.007934570312 966.330627441406 962.753051757812 968.807495117188 960.698059082031 959.12890625 956.265686035156 956.3935546875 960.138488769531 960.190368652344 960.618225097656 960.605285644531 959.639282226562 969.41796875 959.140258789062 959.948120117188 968.182495117188 960.431762695312 960.936950683594 969.370300292969 968.583679199219 958.202880859375 955.76220703125 951.361694335938 956.626831054688 962.152526855469 956.475158691406 957.905090332031 965.185363769531 967.311584472656 958.045288085938 964.27001953125 958.89892578125 962.416381835938 958.766845703125 964.962036132812 980.679260253906 977.550476074219 968.68310546875 962.13330078125 958.253479003906 960.361633300781 973.776916503906 972.094177246094 968.604553222656 965.051574707031 963.292297363281 967.944274902344 975.216491699219 966.110290527344 965.960144042969 970.215393066406 976.951904296875 973.447326660156 962.231689453125 964.516784667969 967.2197265625 966.619262695312 968.422119140625 966.176635742188 968.120727539062 967.380737304688 974.720642089844 970.746643066406 971.696594238281 977.6611328125 969.646850585938 971.806457519531 968.10595703125 979.007690429688 982.001708984375 981.802917480469 981.42041015625 982.137573242188 980.486083984375 976.6669921875 969.242736816406 980.383728027344 982.693725585938 982.0029296875 995.0771484375 995.97314453125 994.097045898438 994.376708984375 1007.84954833984 1014.83374023438 1013.65051269531 1013.10894775391 1015.27239990234 1016.84063720703 1025.03674316406 1021.74206542969 1025.55749511719 1021.55181884766 1022.05480957031 1036.64733886719 1043.67309570312 1040.62353515625 1048.3583984375 1047.75646972656 1067.62194824219 1074.4267578125 1077.64221191406 1093.45080566406 1097.37121582031 1102.30090332031 1105.54870605469 1107.21704101562 1109.14086914062 1094.34228515625 1100.34680175781 1102.69116210938 1112.38635253906 1123.50939941406 1131.00927734375 1133.16821289062 1140.58850097656 1147.77709960938 1156.97521972656
958.4140625 962.389343261719 969.806823730469 973.173522949219 967.864440917969 965.628845214844 965.047973632812 972.230651855469 978.492065429688 976.581970214844 971.481384277344 970.097961425781 979.761291503906 976.293395996094 973.675476074219 970.795959472656 969.484069824219 971.503845214844 967.772827148438 968.371643066406 975.874084472656 978.509155273438 970.993347167969 965.069702148438 961.640380859375 973.173034667969 958.560119628906 964.653991699219 964.334777832031 972.612731933594 981.560913085938 970.762451171875 967.510131835938 963.958801269531 966.065063476562 962.59228515625 960.12890625 955.335021972656 955.459106445312 955.990173339844 954.14599609375 961.105590820312 956.414672851562 956.746398925781 963.348937988281 960.087219238281 960.670715332031 963.75830078125 970.905517578125 960.459167480469 960.496154785156 959.985229492188 964.604248046875 952.699951171875 954.584899902344 956.645385742188 951.153198242188 950.023559570312 957.340942382812 959.389465332031 959.212890625 955.977111816406 955.855102539062 958.218200683594 954.139221191406 950.521728515625 962.130981445312 966.126586914062 972.093994140625 968.388061523438 960.972473144531 956.917541503906 956.463989257812 965.786499023438 965.008728027344 962.493469238281 969.069152832031 969.948669433594 963.571350097656 964.953491210938 971.32421875 970.98779296875 973.029479980469 966.621032714844 971.656372070312 970.005187988281 969.965515136719 967.460327148438 972.942626953125 967.100341796875 974.721008300781 981.06201171875 973.674255371094 981.440734863281 974.866333007812 972.610778808594 975.965148925781 979.905944824219 968.233947753906 970.342712402344 978.826599121094 979.056884765625 980.698486328125 976.326171875 972.778137207031 976.262329101562 964.999755859375 971.827941894531 976.404052734375 982.498474121094 988.940002441406 990.998962402344 997.166381835938 997.294677734375 1002.0810546875 1009.35357666016 1014.59606933594 1014.13952636719 1016.18603515625 1018.001953125 1018.39874267578 1015.94146728516 1021.38439941406 1025.59619140625 1028.72155761719 1021.63714599609 1033.29931640625 1041.71875 1043.33764648438 1050.03002929688 1057.9462890625 1075.48254394531 1075.18933105469 1084.83959960938 1092.38940429688 1087.87487792969 1098.14270019531 1095.779296875 1100.51220703125 1107.60363769531 1102.63659667969 1102.0302734375 1095.58459472656 1105.7216796875 1115.57543945312 1119.9111328125 1121.69384765625 1126.63232421875 1133.92065429688 1144.40783691406
961.764526367188 967.054138183594 965.767395019531 965.583129882812 974.082153320312 966.035461425781 966.613952636719 974.022094726562 983.994323730469 978.006713867188 968.132995605469 976.48583984375 975.651489257812 978.454528808594 984.0771484375 967.481079101562 967.267333984375 962.755187988281 961.483947753906 975.594055175781 976.118957519531 981.863891601562 971.296447753906 966.130187988281 965.120666503906 960.365478515625 955.748901367188 955.546875 968.529602050781 972.592163085938 971.897277832031 969.875122070312 960.520874023438 965.648132324219 971.040222167969 953.677185058594 957.802673339844 955.379516601562 958.356811523438 967.925231933594 960.75390625 965.399597167969 963.080810546875 958.4609375 956.069458007812 960.859375 961.777282714844 959.498291015625 969.426452636719 964.357543945312 959.290893554688 959.783142089844 959.122924804688 955.796813964844 953.437316894531 959.142333984375 951.6103515625 950.469055175781 946.406127929688 951.452392578125 952.120727539062 958.087158203125 956.765930175781 953.387084960938 945.6015625 944.638671875 965.170104980469 969.152709960938 967.131286621094 962.580139160156 964.050109863281 952.440368652344 954.470397949219 962.727355957031 968.404663085938 963.038452148438 965.149841308594 960.411865234375 957.460510253906 954.051208496094 964.646484375 969.05517578125 967.412841796875 971.422302246094 964.427856445312 972.312255859375 965.894104003906 967.022827148438 962.603149414062 977.001037597656 979.449340820312 978.722351074219 977.778015136719 979.540771484375 978.509216308594 975.739624023438 974.597229003906 973.877075195312 976.824401855469 973.744140625 975.835571289062 987.872680664062 976.0986328125 977.068298339844 975.451965332031 976.521667480469 975.078491210938 982.482360839844 980.642028808594 982.266479492188 986.301879882812 991.76171875 989.092224121094 988.762084960938 990.72705078125 1000.77984619141 1007.32049560547 1014.17077636719 1012.58966064453 1016.62658691406 1008.92156982422 1014.62066650391 1026.08764648438 1025.82641601562 1034.37475585938 1037.75903320312 1029.21276855469 1033.59802246094 1043.654296875 1040.79821777344 1057.60046386719 1072.04077148438 1079.25695800781 1085.1376953125 1090.63330078125 1085.81774902344 1094.08618164062 1095.05297851562 1099.951171875 1096.96594238281 1092.75695800781 1099.16040039062 1097.67431640625 1107.60974121094 1108.54284667969 1119.65258789062 1123.39196777344 1127.09448242188 1117.84362792969 1116.80541992188
959.167724609375 966.655700683594 967.7822265625 972.265930175781 972.534545898438 976.916931152344 970.395141601562 971.142028808594 978.518615722656 974.121459960938 966.710876464844 975.578674316406 969.909851074219 980.335998535156 976.601745605469 969.016296386719 962.626892089844 960.403625488281 968.107543945312 966.9033203125 972.746276855469 973.1279296875 972.950927734375 965.932434082031 959.405395507812 961.529724121094 960.912170410156 953.340270996094 961.864013671875 965.629638671875 970.838928222656 965.594482421875 951.955017089844 966.154968261719 963.691345214844 949.791748046875 953.265991210938 960.436645507812 959.723815917969 964.229187011719 968.806396484375 965.444641113281 969.784790039062 963.175415039062 959.017395019531 964.917297363281 969.449157714844 971.674255371094 974.137512207031 970.220336914062 960.654907226562 955.943603515625 957.384216308594 960.625 952.054382324219 956.129943847656 952.623596191406 957.606079101562 948.05908203125 956.282165527344 961.956298828125 954.632934570312 957.933654785156 950.195068359375 950.107360839844 947.138854980469 954.918579101562 959.511474609375 963.172729492188 955.743286132812 961.383544921875 963.748779296875 961.321533203125 956.977661132812 967.751708984375 960.67578125 969.720092773438 962.96826171875 960.289733886719 956.299194335938 959.333251953125 966.607604980469 964.682373046875 966.309753417969 972.835327148438 976.819641113281 969.545288085938 970.207092285156 969.805419921875 972.308410644531 977.621948242188 984.428588867188 978.858581542969 976.637756347656 976.242065429688 972.300170898438 978.212097167969 970.142944335938 967.795715332031 967.280639648438 974.416198730469 979.741455078125 976.726623535156 973.039001464844 976.885437011719 982.859008789062 983.852966308594 978.673889160156 981.533325195312 980.610717773438 982.443664550781 989.52490234375 988.101989746094 986.625549316406 995.181579589844 996.657287597656 997.454040527344 1000.75054931641 1011.24346923828 1008.30969238281 996.942260742188 1006.65014648438 1016.13385009766 1021.54736328125 1023.38037109375 1024.40405273438 1016.94805908203 1026.18627929688 1031.08435058594 1034.75170898438 1046.50256347656 1057.56652832031 1071.005859375 1081.14428710938 1089.244140625 1089.85363769531 1096.46472167969 1102.19396972656 1097.52014160156 1094.70910644531 1101.14709472656 1098.79919433594 1101.36682128906 1116.02673339844 1114.658203125 1119.12145996094 1117.05871582031 1108.32434082031 1106.0185546875 1111.09973144531
959.061706542969 969.25390625 970.602111816406 967.638610839844 970.977416992188 973.592041015625 978.53662109375 974.39990234375 975.295288085938 979.985412597656 965.107055664062 969.976013183594 975.11181640625 971.443176269531 977.467712402344 965.012451171875 964.193054199219 972.017211914062 959.560913085938 962.581726074219 964.320251464844 965.010437011719 962.160217285156 962.373229980469 963.335693359375 961.548095703125 957.035339355469 964.626525878906 959.162475585938 966.675476074219 962.872192382812 966.8701171875 954.394409179688 956.796447753906 971.028747558594 959.907104492188 960.877258300781 962.485595703125 956.976867675781 955.011840820312 957.979614257812 963.628601074219 971.213256835938 970.920227050781 966.143310546875 968.553161621094 963.267578125 970.801574707031 972.539916992188 970.286071777344 954.906005859375 956.671630859375 964.800537109375 957.280639648438 956.683166503906 961.199523925781 951.878662109375 953.355651855469 955.445983886719 960.913024902344 966.6474609375 957.681579589844 962.409362792969 962.020935058594 955.00146484375 949.256164550781 944.595092773438 958.2373046875 961.219665527344 957.150756835938 956.607055664062 959.423400878906 963.216735839844 962.653442382812 967.196228027344 969.414367675781 960.892761230469 962.41162109375 962.826354980469 959.309997558594 955.003234863281 963.319763183594 969.415161132812 967.776611328125 967.429870605469 973.882690429688 970.247375488281 960.259643554688 960.017211914062 964.0078125 972.069519042969 971.189514160156 974.975280761719 970.982238769531 967.888977050781 979.714050292969 974.729736328125 968.536804199219 972.591369628906 977.115600585938 975.388366699219 972.59716796875 983.0966796875 973.345703125 973.784545898438 975.166320800781 980.272216796875 973.276245117188 980.679565429688 984.722229003906 982.411743164062 994.449279785156 990.798889160156 993.55908203125 992.015319824219 997.312683105469 1000.95770263672 999.393432617188 996.917053222656 998.12158203125 1001.54455566406 1011.08258056641 1017.56939697266 1015.84234619141 1012.2626953125 1008.53118896484 1009.1298828125 1023.2578125 1027.97253417969 1027.92114257812 1038.03771972656 1055.87475585938 1061.33605957031 1074.75036621094 1081.67980957031 1090.71252441406 1093.96179199219 1093.0341796875 1096.8720703125 1092.11694335938 1097.97888183594 1105.33813476562 1093.21984863281 1101.2939453125 1099.99670410156 1116.47473144531 1111.83288574219 1101.27331542969 1093.92138671875 1101.17114257812
961.655151367188 968.991821289062 971.455444335938 977.054443359375 979.894287109375 977.353637695312 978.354858398438 978.867004394531 973.994934082031 975.457336425781 966.797424316406 964.43994140625 966.162109375 968.018798828125 972.338623046875 965.059020996094 967.799499511719 972.308715820312 975.31884765625 971.507873535156 959.882019042969 966.321899414062 960.204040527344 958.94287109375 963.69482421875 961.463012695312 963.710021972656 964.880310058594 969.706848144531 967.592895507812 970.009643554688 965.730346679688 964.423278808594 964.409240722656 961.036499023438 956.787231445312 956.4033203125 952.920837402344 950.654663085938 946.861694335938 951.370788574219 954.968200683594 974.499816894531 977.005798339844 964.980041503906 957.6923828125 961.918579101562 974.730834960938 973.751220703125 965.414489746094 966.006042480469 958.43359375 953.159057617188 951.196350097656 957.093444824219 957.5068359375 955.331237792969 954.591491699219 951.158081054688 953.099670410156 960.588623046875 963.50732421875 962.527893066406 965.062744140625 958.660400390625 948.781860351562 956.656372070312 958.01806640625 960.535278320312 954.777587890625 956.988952636719 956.719848632812 960.804565429688 964.860595703125 960.984985351562 957.772277832031 960.315979003906 963.919799804688 974.523010253906 965.589660644531 960.515197753906 959.152221679688 963.237060546875 972.336791992188 977.440368652344 968.64990234375 969.341186523438 962.269409179688 964.843811035156 962.432678222656 970.640747070312 974.750732421875 971.092834472656 975.324645996094 970.716796875 973.835144042969 976.428161621094 978.751220703125 972.613952636719 980.482604980469 980.383544921875 986.292053222656 973.175415039062 976.438903808594 969.689086914062 964.874328613281 972.123168945312 971.039245605469 969.687316894531 983.708557128906 988.5927734375 997.935424804688 989.12890625 996.568237304688 997.823120117188 988.847717285156 997.46728515625 987.800415039062 989.52490234375 995.63525390625 995.4384765625 1010.22967529297 1013.95098876953 998.892944335938 991.668762207031 999.388732910156 1011.30133056641 1016.96844482422 1028.63134765625 1037.20227050781 1045.75183105469 1050.32629394531 1058.31140136719 1067.70092773438 1079.4609375 1090.42810058594 1088.2578125 1086.64013671875 1098.63146972656 1097.42395019531 1096.35461425781 1097.65002441406 1099.57690429688 1090.67053222656 1094.51794433594 1098.19787597656 1102.78149414062 1088.62524414062 1085.01611328125 1098.27624511719
954.29638671875 963.243469238281 972.359375 974.13671875 977.672485351562 976.672668457031 978.163757324219 979.376098632812 973.834411621094 973.817810058594 959.569763183594 960.452758789062 964.160400390625 962.471496582031 959.760681152344 963.148498535156 968.974792480469 972.385620117188 970.71435546875 973.167907714844 966.219604492188 963.397277832031 962.036499023438 962.537353515625 958.331726074219 951.261352539062 956.934509277344 963.75927734375 968.461608886719 967.482177734375 963.608337402344 966.617431640625 960.130249023438 964.668884277344 964.455932617188 955.29443359375 956.2705078125 946.086059570312 950.874633789062 949.234069824219 947.959899902344 955.002624511719 964.773315429688 962.375427246094 958.047790527344 951.140563964844 953.033508300781 959.191833496094 965.902587890625 956.907958984375 952.5966796875 954.392517089844 956.920471191406 955.624145507812 958.51904296875 954.612670898438 953.605590820312 955.777648925781 953.176818847656 956.307861328125 953.210815429688 960.708374023438 967.035888671875 965.387023925781 958.745849609375 954.607849121094 948.809448242188 966.865417480469 956.244750976562 956.842041015625 955.446350097656 958.730651855469 956.342041015625 959.563293457031 969.700622558594 964.349426269531 961.190490722656 956.098205566406 965.820739746094 960.080200195312 962.419311523438 956.039428710938 957.503845214844 967.031494140625 966.875854492188 974.520629882812 954.967895507812 964.047546386719 967.027770996094 957.869262695312 962.755737304688 973.344665527344 977.869384765625 977.508361816406 964.706970214844 969.637145996094 975.693786621094 982.383544921875 980.384216308594 980.956298828125 973.536437988281 975.629638671875 971.27587890625 981.020263671875 974.685363769531 978.825744628906 983.471557617188 973.426940917969 975.047180175781 983.3466796875 987.803649902344 992.306518554688 989.000427246094 992.196899414062 1000.12841796875 1001.60992431641 995.462036132812 988.36669921875 984.516174316406 993.958557128906 1006.95819091797 1014.70062255859 996.249084472656 995.558410644531 993.428894042969 999.537780761719 1008.87005615234 1020.00109863281 1024.61437988281 1041.67419433594 1038.77453613281 1045.81811523438 1062.69470214844 1063.4296875 1074.60620117188 1087.82092285156 1087.6513671875 1093.52978515625 1098.57678222656 1087.72595214844 1084.84887695312 1087.45959472656 1086.51318359375 1082.86730957031 1084.83203125 1080.80236816406 1073.75732421875 1077.95434570312 1073.73559570312 1090.9140625
959.214233398438 963.5966796875 971.332580566406 963.543518066406 968.603454589844 962.861572265625 968.820129394531 976.929809570312 973.09716796875 958.322082519531 954.29248046875 960.954284667969 964.0576171875 959.664245605469 966.990173339844 972.098876953125 975.496765136719 970.209289550781 969.707458496094 966.6787109375 963.173583984375 961.467163085938 965.328918457031 958.874328613281 953.857116699219 948.025512695312 949.708801269531 955.149536132812 965.410461425781 966.960083007812 964.874816894531 963.584716796875 963.538940429688 963.133178710938 955.358764648438 955.351318359375 954.367065429688 954.932983398438 955.658935546875 954.292236328125 956.506042480469 951.640014648438 963.625793457031 962.547668457031 959.134521484375 951.830139160156 950.667602539062 955.454772949219 953.554565429688 955.835693359375 950.110412597656 954.974914550781 958.552673339844 955.429870605469 956.319030761719 954.662902832031 950.816040039062 955.201965332031 957.300598144531 955.2900390625 957.926452636719 957.883850097656 962.994079589844 959.086608886719 951.572204589844 950.579162597656 954.3662109375 954.222900390625 957.442016601562 953.711120605469 958.015441894531 952.558837890625 955.080383300781 956.930908203125 960.119384765625 959.501281738281 957.126159667969 958.825134277344 957.948181152344 959.407653808594 962.591552734375 963.258605957031 966.293579101562 968.829711914062 970.315124511719 973.193420410156 964.568359375 965.593994140625 957.096435546875 959.781372070312 972.332641601562 973.632080078125 979.625122070312 980.081481933594 973.422058105469 979.121154785156 983.189208984375 981.767272949219 980.208862304688 978.117126464844 982.54736328125 976.002807617188 973.064880371094 972.582946777344 974.138366699219 988.050903320312 991.491760253906 982.746765136719 981.502136230469 991.625732421875 985.833862304688 987.479248046875 986.070129394531 992.718933105469 994.628173828125 990.979370117188 991.715698242188 977.19921875 976.494750976562 989.683715820312 999.609313964844 993.053527832031 994.695007324219 993.656555175781 990.158264160156 1001.97241210938 1005.86004638672 1017.29693603516 1025.53210449219 1042.61755371094 1040.44677734375 1041.52526855469 1060.49621582031 1061.39636230469 1068.64099121094 1077.84094238281 1085.02404785156 1086.26477050781 1081.25207519531 1080.0888671875 1072.01843261719 1077.83557128906 1078.46716308594 1072.58264160156 1065.65783691406 1067.75939941406 1063.85119628906 1065.62353515625 1072.93823242188 1072.22583007812
958.157104492188 962.318542480469 964.934875488281 971.881713867188 972.399230957031 965.404235839844 978.884094238281 972.543334960938 966.529235839844 958.042419433594 957.4794921875 957.549438476562 965.172058105469 955.740234375 967.275512695312 969.739562988281 966.190307617188 971.125183105469 964.953308105469 975.303527832031 977.436950683594 962.421508789062 964.457214355469 959.777648925781 952.3515625 955.217712402344 957.040344238281 952.283874511719 951.231750488281 957.739196777344 965.876770019531 955.762451171875 961.682250976562 955.368774414062 966.74609375 953.970581054688 960.817138671875 958.049621582031 952.989685058594 951.377807617188 956.024353027344 944.331970214844 958.403076171875 962.376403808594 950.23046875 951.829650878906 947.439392089844 948.084106445312 949.511352539062 953.263793945312 950.9736328125 955.259521484375 952.905944824219 949.518005371094 953.708618164062 953.964660644531 948.680297851562 953.39501953125 960.213439941406 961.450927734375 959.364868164062 957.445739746094 957.082092285156 952.591979980469 961.547424316406 952.826843261719 951.373474121094 957.386596679688 966.396057128906 956.934753417969 959.544189453125 956.373291015625 959.64501953125 956.632629394531 952.476623535156 956.264526367188 958.267395019531 960.718566894531 965.288208007812 964.694152832031 978.070739746094 968.483642578125 970.775817871094 971.67626953125 976.727722167969 975.835144042969 963.033386230469 968.337219238281 971.049133300781 972.752136230469 967.970458984375 978.619018554688 983.999450683594 974.581176757812 982.797729492188 980.630004882812 977.189025878906 978.382263183594 971.77587890625 984.16748046875 979.114074707031 976.895263671875 977.391784667969 984.097839355469 985.05908203125 992.358764648438 993.306213378906 986.844787597656 980.063049316406 992.958251953125 990.524963378906 983.784973144531 980.479919433594 996.415893554688 996.946533203125 996.532409667969 998.453918457031 990.219665527344 975.618286132812 987.901977539062 997.209045410156 1001.70568847656 993.281677246094 998.561096191406 996.010314941406 996.370788574219 998.211669921875 1016.26477050781 1026.1572265625 1041.65051269531 1045.904296875 1057.91967773438 1061.83557128906 1067.24719238281 1064.74438476562 1066.51879882812 1067.50964355469 1070.36645507812 1066.47058105469 1073.34411621094 1060.97766113281 1057.54309082031 1058.16064453125 1063.69299316406 1058.33276367188 1054.33972167969 1051.25280761719 1051.62768554688 1063.03845214844 1061.67028808594
965.648681640625 966.879028320312 965.059753417969 972.328918457031 971.762573242188 972.802917480469 976.790100097656 981.440551757812 962.32373046875 958.834899902344 955.524230957031 956.074279785156 953.665954589844 960.16748046875 963.380798339844 968.091064453125 965.441528320312 974.631713867188 973.844177246094 975.758605957031 975.947570800781 971.342407226562 966.804016113281 960.052856445312 951.3525390625 945.7900390625 950.702697753906 952.796813964844 950.28955078125 955.626647949219 959.487487792969 965.495727539062 952.210388183594 957.611083984375 955.337158203125 956.590942382812 956.603271484375 956.014404296875 947.745849609375 951.67578125 949.93115234375 953.876953125 950.121337890625 959.722900390625 958.716125488281 952.755493164062 950.6484375 944.432250976562 950.514099121094 946.34130859375 957.556396484375 956.07958984375 948.178955078125 953.795654296875 959.213439941406 949.834289550781 950.125610351562 962.9267578125 966.022277832031 955.178771972656 964.10693359375 968.833740234375 964.0244140625 961.236511230469 963.937316894531 961.221374511719 958.874877929688 962.775939941406 968.420043945312 964.306335449219 955.851928710938 955.344787597656 954.432739257812 955.404479980469 963.627868652344 961.485595703125 960.22998046875 962.388366699219 974.75634765625 970.638366699219 971.300170898438 971.325317382812 968.249877929688 977.373657226562 983.627380371094 973.622741699219 960.518249511719 973.14404296875 978.787902832031 975.815673828125 976.201721191406 979.259216308594 974.505310058594 974.985595703125 973.049011230469 973.609619140625 968.976196289062 975.576354980469 974.252258300781 977.285766601562 976.274230957031 982.333374023438 985.054138183594 987.638671875 991.40771484375 991.814819335938 991.921203613281 988.214050292969 988.801147460938 996.518859863281 989.839111328125 985.675231933594 985.815795898438 999.230346679688 995.376037597656 993.614074707031 998.555480957031 1001.65209960938 992.861694335938 996.047485351562 997.087524414062 999.309631347656 999.089660644531 1009.22125244141 1009.77429199219 1010.81512451172 1009.48138427734 1019.31018066406 1017.19567871094 1023.15338134766 1044.70495605469 1051.42028808594 1059.70458984375 1057.6357421875 1063.02709960938 1063.55297851562 1064.15576171875 1070.86901855469 1068.13415527344 1060.36376953125 1048.63098144531 1043.55200195312 1042.8671875 1050.22705078125 1048.22863769531 1052.93444824219 1048.66821289062 1055.12390136719 1058.71850585938 1055.77966308594
958.7275390625 965.020385742188 967.687805175781 973.256774902344 965.72216796875 962.108276367188 970.23779296875 976.831970214844 971.527954101562 967.836364746094 956.046508789062 962.679382324219 959.937194824219 963.30810546875 966.360229492188 961.869934082031 963.477233886719 959.697692871094 963.867614746094 974.475646972656 977.826110839844 974.725646972656 967.908142089844 963.935974121094 951.939208984375 951.443725585938 952.436218261719 956.42578125 947.964294433594 954.051086425781 967.315612792969 963.931945800781 962.399780273438 959.537231445312 953.883117675781 959.169860839844 952.964660644531 955.912963867188 951.892395019531 952.085754394531 953.410522460938 953.769897460938 947.986145019531 951.183227539062 949.571655273438 944.496276855469 938.61572265625 948.089660644531 945.660705566406 951.499450683594 957.953674316406 956.715698242188 945.314758300781 939.962036132812 957.245239257812 955.897644042969 958.880554199219 968.837646484375 965.313537597656 974.753479003906 974.982666015625 974.519226074219 966.366149902344 960.034118652344 960.343200683594 963.675415039062 965.703125 961.97412109375 964.760131835938 973.582946777344 964.265319824219 957.004272460938 961.98291015625 963.314514160156 964.595458984375 962.60595703125 962.968994140625 964.727478027344 964.739624023438 957.338317871094 959.990112304688 970.096618652344 966.406921386719 969.609741210938 968.83349609375 979.442077636719 973.832214355469 978.232360839844 980.025634765625 978.434753417969 974.333374023438 973.7607421875 980.850769042969 976.125244140625 963.500122070312 970.343566894531 971.136596679688 982.882934570312 974.299133300781 980.051574707031 983.676574707031 981.518249511719 987.124206542969 990.010986328125 1001.08746337891 996.092895507812 993.484802246094 992.389587402344 994.081176757812 986.159301757812 991.657104492188 1001.57373046875 995.153442382812 1000.52996826172 1002.91796875 1010.34405517578 1007.30438232422 1001.35815429688 991.068603515625 1003.94842529297 1003.06994628906 998.056274414062 1004.62170410156 1008.06976318359 1005.67578125 1021.77960205078 1018.53881835938 1008.19097900391 1019.42236328125 1029.78198242188 1043.31823730469 1047.91784667969 1044.61267089844 1049.49096679688 1056.37548828125 1062.90014648438 1065.9033203125 1064.9560546875 1060.74377441406 1048.01171875 1036.03674316406 1030.07275390625 1030.20153808594 1039.64453125 1042.11804199219 1052.57763671875 1047.83837890625 1051.33178710938 1051.52917480469 1044.0234375
951.816223144531 955.9306640625 958.148803710938 961.758056640625 961.847595214844 959.759216308594 966.133544921875 964.823974609375 969.0361328125 958.342407226562 963.802978515625 967.3720703125 964.703430175781 967.868347167969 970.127685546875 959.87255859375 960.055786132812 958.254943847656 962.618591308594 966.494812011719 970.343383789062 974.015380859375 964.704650878906 965.056091308594 964.994934082031 955.735778808594 955.630249023438 950.3623046875 948.870300292969 951.161193847656 957.8271484375 955.530822753906 959.654907226562 956.375244140625 952.307006835938 950.325378417969 952.206237792969 948.705200195312 952.090454101562 951.688842773438 947.544921875 945.633728027344 953.035949707031 951.353637695312 955.253295898438 944.175415039062 944.915771484375 945.138671875 943.696838378906 946.689086914062 958.584228515625 957.890258789062 959.080139160156 954.584838867188 952.866394042969 955.721313476562 958.919067382812 970.380310058594 971.455810546875 967.675964355469 972.048217773438 964.787841796875 970.142272949219 969.410522460938 961.084045410156 953.155151367188 959.585144042969 958.388732910156 967.416442871094 973.841674804688 972.331420898438 963.672790527344 969.995422363281 968.89208984375 963.775512695312 962.104919433594 976.958435058594 973.187683105469 966.746826171875 967.272888183594 956.8564453125 972.932983398438 975.345397949219 975.178283691406 971.573608398438 969.802429199219 972.883056640625 977.399108886719 970.680603027344 966.667114257812 973.006408691406 977.74560546875 971.966857910156 961.261474609375 955.481689453125 969.769714355469 971.046569824219 970.812438964844 976.455810546875 974.373474121094 980.465698242188 979.982177734375 984.656921386719 989.337646484375 999.114135742188 992.788269042969 997.541381835938 994.5009765625 990.586853027344 993.077880859375 990.780090332031 994.992004394531 1008.04547119141 1011.40759277344 1011.05072021484 1014.3359375 1008.61218261719 1000.76702880859 997.765197753906 1017.87915039062 1010.30218505859 1002.07250976562 1003.44989013672 1008.59814453125 1016.75360107422 1022.82611083984 1020.29107666016 1013.48303222656 1019.48760986328 1029.98095703125 1025.53747558594 1035.45654296875 1036.83740234375 1038.47912597656 1047.74877929688 1052.34521484375 1057.0087890625 1063.01745605469 1056.40844726562 1043.5283203125 1029.74829101562 1026.41552734375 1022.79760742188 1030.48168945312 1038.95471191406 1036.59020996094 1033.04968261719 1032.28527832031 1039.41809082031 1036.71472167969
946.92724609375 955.619079589844 959.100708007812 960.241760253906 965.095825195312 960.427978515625 963.703430175781 956.593627929688 960.126647949219 957.532592773438 956.341613769531 965.638061523438 971.381103515625 962.834045410156 963.635559082031 964.409973144531 960.042236328125 963.868408203125 954.687927246094 958.279663085938 959.817260742188 964.097534179688 967.357360839844 962.698913574219 956.387817382812 955.137084960938 955.525695800781 947.36181640625 949.982666015625 957.455017089844 961.728454589844 951.432983398438 952.81298828125 949.247985839844 947.323486328125 945.449584960938 940.968444824219 940.3671875 946.7001953125 944.042602539062 945.377136230469 949.1201171875 949.648986816406 950.490112304688 942.186340332031 935.509765625 934.356018066406 942.932678222656 946.711120605469 947.162841796875 955.42578125 960.340698242188 967.619812011719 963.065795898438 955.3583984375 959.012145996094 959.116149902344 962.419738769531 975.733215332031 963.160217285156 961.934936523438 972.828918457031 969.002319335938 968.164978027344 961.589233398438 956.971435546875 953.322509765625 948.037658691406 959.316772460938 966.219116210938 965.060363769531 964.871704101562 968.120056152344 970.106018066406 971.698852539062 966.066345214844 969.818786621094 975.773376464844 971.6650390625 972.122436523438 962.357360839844 974.713500976562 978.610290527344 976.134521484375 974.453369140625 972.566040039062 972.632690429688 974.337524414062 970.219909667969 969.458618164062 973.917419433594 964.077087402344 967.238891601562 961.637756347656 951.846374511719 960.911499023438 959.988830566406 968.358703613281 974.069885253906 967.966613769531 983.572509765625 977.53955078125 981.930358886719 991.184509277344 993.300170898438 991.196105957031 993.111083984375 998.996520996094 995.119750976562 997.537231445312 1003.68658447266 1010.50256347656 1013.32562255859 1009.59075927734 1008.43719482422 1019.43133544922 1017.2177734375 1010.76843261719 1012.86083984375 1013.66955566406 1005.31433105469 1008.59033203125 1007.88598632812 1019.03253173828 1017.46112060547 1028.669921875 1022.86663818359 1017.96514892578 1026.34887695312 1026.14733886719 1028.99145507812 1028.60266113281 1036.76904296875 1034.22766113281 1043.16186523438 1047.24621582031 1050.66918945312 1052.26049804688 1049.11694335938 1042.6787109375 1032.44140625 1022.96228027344 1015.78021240234 1020.08209228516 1025.08801269531 1027.08227539062 1026.43090820312 1029.08520507812 1030.86193847656 1039.525390625
947.112487792969 960.082214355469 961.256103515625 962.223937988281 962.668823242188 965.358642578125 964.559814453125 955.344299316406 939.081176757812 941.833312988281 948.05419921875 964.245056152344 968.825134277344 962.919006347656 958.910278320312 955.354919433594 963.557739257812 963.617492675781 962.171447753906 955.890747070312 948.951354980469 950.293701171875 957.217956542969 956.95361328125 952.110900878906 945.466247558594 946.826904296875 945.478759765625 948.458312988281 953.217529296875 957.545837402344 953.9677734375 948.698486328125 953.979064941406 944.6298828125 947.652709960938 942.317565917969 937.214965820312 945.077209472656 953.912719726562 953.195739746094 951.118347167969 956.962707519531 962.291320800781 948.8427734375 934.587158203125 940.215698242188 936.581237792969 941.311950683594 944.608520507812 951.224365234375 960.369567871094 959.090454101562 960.026733398438 960.554626464844 956.261169433594 960.478759765625 967.900573730469 969.999084472656 972.977478027344 968.418762207031 963.319458007812 968.561401367188 964.594421386719 955.125 959.947692871094 957.658813476562 955.520080566406 964.6787109375 973.936340332031 970.109497070312 967.41552734375 970.053955078125 969.091796875 973.389587402344 970.2744140625 961.816650390625 958.103088378906 971.753723144531 965.609497070312 968.3447265625 970.628967285156 981.325988769531 977.186401367188 981.911315917969 983.691589355469 984.53125 977.552551269531 974.868408203125 970.939697265625 969.935913085938 963.89404296875 962.447143554688 958.634033203125 961.289916992188 956.061218261719 962.329528808594 968.429870605469 980.994323730469 977.690307617188 980.636474609375 979.961364746094 974.327514648438 982.387390136719 994.933776855469 996.604187011719 1000.12017822266 1005.85375976562 1004.22485351562 1003.61779785156 1009.49407958984 1011.23162841797 1011.76470947266 1010.09027099609 1011.07409667969 1017.90838623047 1018.36737060547 1016.40344238281 1017.19097900391 1010.80126953125 1020.15380859375 1014.41961669922 1015.27038574219 1020.38714599609 1024.673828125 1033.61535644531 1027.08605957031 1025.61169433594 1025.50146484375 1028.19750976562 1026.6953125 1034.21923828125 1038.97924804688 1035.34765625 1039.55065917969 1042.40283203125 1049.43835449219 1052.40087890625 1051.95251464844 1043.70654296875 1031.78479003906 1029.44006347656 1025.45263671875 1020.94982910156 1018.99200439453 1022.75946044922 1022.84777832031 1023.90539550781 1025.90966796875 1029.48815917969
944.941040039062 954.131225585938 951.779113769531 955.210998535156 960.125854492188 960.339050292969 957.723327636719 943.794555664062 936.952819824219 940.970397949219 948.335510253906 955.468811035156 963.754089355469 958.152526855469 948.832153320312 944.601501464844 953.7607421875 961.838317871094 965.364807128906 952.31884765625 943.579711914062 952.606872558594 959.999328613281 953.305236816406 943.944946289062 947.085144042969 947.322692871094 950.198913574219 949.262756347656 947.449645996094 947.555603027344 943.86328125 946.389953613281 950.212463378906 951.363220214844 944.566650390625 948.796875 953.618347167969 950.619995117188 948.602966308594 948.810546875 944.728698730469 953.513488769531 959.620727539062 951.928039550781 934.783935546875 941.936340332031 939.982116699219 945.081298828125 943.940307617188 958.460632324219 959.70849609375 959.910034179688 963.448120117188 957.090454101562 967.947570800781 970.958190917969 974.066101074219 965.806274414062 970.281066894531 969.200439453125 964.611572265625 962.215637207031 960.220886230469 958.158874511719 958.248657226562 960.705383300781 967.191162109375 974.644592285156 980.224609375 970.991394042969 969.863098144531 974.787048339844 972.200256347656 969.108276367188 965.093688964844 966.985717773438 963.572875976562 971.883544921875 976.334899902344 983.073425292969 986.086120605469 978.23779296875 980.935302734375 985.874755859375 982.343505859375 978.1083984375 978.675476074219 981.932556152344 979.760559082031 969.173828125 957.413391113281 964.045959472656 965.431396484375 970.014282226562 967.282287597656 971.577026367188 977.894409179688 981.706115722656 982.254272460938 981.608459472656 975.910888671875 981.727661132812 983.256164550781 992.849914550781 991.620544433594 997.030639648438 1003.60540771484 999.523620605469 1007.81695556641 1015.13122558594 1015.26721191406 1020.96301269531 1013.84881591797 1020.56884765625 1024.13354492188 1016.48071289062 1023.61126708984 1022.53332519531 1013.11462402344 1019.77941894531 1024.23291015625 1014.80950927734 1017.14721679688 1020.49047851562 1017.80609130859 1022.72967529297 1016.81756591797 1030.65661621094 1029.42761230469 1028.07214355469 1030.11572265625 1032.01159667969 1030.84191894531 1039.30297851562 1046.06286621094 1051.21215820312 1051.00012207031 1043.3876953125 1044.26586914062 1035.38110351562 1022.96783447266 1023.69049072266 1023.82116699219 1016.26379394531 1021.89154052734 1025.46765136719 1023.45025634766 1020.04846191406 1023.83160400391
958.790771484375 954.316040039062 957.163024902344 959.687438964844 953.497436523438 948.43017578125 953.99365234375 955.585510253906 943.556213378906 940.493041992188 938.864868164062 951.176025390625 956.982543945312 945.544677734375 948.930603027344 944.044311523438 945.567016601562 951.341369628906 964.341796875 950.015625 949.152099609375 945.815612792969 951.398376464844 946.344787597656 943.922180175781 953.088928222656 943.266479492188 946.926940917969 945.626037597656 948.819396972656 952.886474609375 942.340698242188 945.381164550781 945.823120117188 947.166687011719 944.046264648438 952.578063964844 960.033813476562 958.689697265625 948.014099121094 954.328430175781 956.19287109375 953.005432128906 949.674499511719 950.957763671875 947.81689453125 943.805297851562 948.755432128906 952.945556640625 962.643981933594 968.473205566406 964.037414550781 967.829406738281 972.376831054688 971.049194335938 975.244262695312 969.914855957031 964.246765136719 975.700866699219 968.417724609375 960.449340820312 959.58642578125 968.671508789062 965.609252929688 958.068969726562 960.428039550781 963.314880371094 966.678283691406 976.378112792969 977.082275390625 973.059814453125 973.213073730469 979.614318847656 978.015075683594 979.262817382812 972.803955078125 976.741516113281 973.62451171875 973.363098144531 978.973388671875 988.082824707031 986.4326171875 982.445922851562 980.638244628906 977.131591796875 981.242431640625 977.95751953125 969.451477050781 980.323425292969 971.441528320312 968.97509765625 967.783142089844 972.783447265625 978.118591308594 984.026489257812 984.839965820312 985.766052246094 986.812683105469 982.262756347656 984.119018554688 981.492248535156 978.272338867188 983.298278808594 980.030456542969 983.527954101562 998.04833984375 1002.44842529297 1006.943359375 1006.28118896484 1016.41278076172 1014.5927734375 1014.23333740234 1019.14611816406 1020.96118164062 1024.67419433594 1022.50634765625 1031.83056640625 1017.92822265625 1010.78479003906 1017.19006347656 1019.46203613281 1025.97937011719 1018.44171142578 1016.42401123047 1018.26409912109 1015.47509765625 1017.39898681641 1025.59606933594 1019.70092773438 1028.2822265625 1032.91809082031 1031.36083984375 1036.32373046875 1033.92517089844 1033.16882324219 1045.32092285156 1048.59753417969 1042.64428710938 1040.30517578125 1037.82385253906 1038.34228515625 1033.49011230469 1020.04248046875 1016.49591064453 1023.56134033203 1025.54162597656 1018.39385986328 1019.01007080078 1023.53503417969 1025.52880859375
960.679016113281 961.298583984375 958.922241210938 954.968566894531 950.134033203125 950.525451660156 951.127685546875 944.084716796875 938.81884765625 940.906921386719 938.814514160156 944.529113769531 946.379211425781 933.660339355469 943.231811523438 950.715393066406 945.406921386719 950.806396484375 960.033935546875 957.565002441406 952.8544921875 956.73193359375 954.8701171875 954.444641113281 953.642517089844 952.358764648438 945.762329101562 943.585327148438 948.301818847656 942.566528320312 942.843566894531 950.4169921875 946.359924316406 953.970642089844 944.136596679688 942.46533203125 951.467956542969 960.666381835938 954.3173828125 943.9736328125 959.646240234375 955.109619140625 959.030578613281 945.93994140625 953.9091796875 956.869995117188 959.924438476562 965.576721191406 964.10693359375 971.32275390625 982.047241210938 979.084350585938 976.4736328125 976.528198242188 976.283386230469 972.798278808594 962.938171386719 968.570068359375 973.280944824219 972.22314453125 962.099853515625 956.710021972656 961.672790527344 956.245178222656 958.942138671875 966.392028808594 969.286682128906 973.580139160156 972.086303710938 975.170288085938 978.7177734375 976.156311035156 984.561767578125 986.625915527344 981.211608886719 971.480651855469 973.643127441406 977.406433105469 978.322875976562 972.838928222656 975.128723144531 981.566467285156 983.755187988281 975.819152832031 977.564086914062 983.148376464844 969.180786132812 977.296997070312 976.836669921875 973.99951171875 972.419250488281 972.313110351562 975.842712402344 980.658264160156 980.959411621094 986.667236328125 988.898315429688 987.232604980469 987.850463867188 991.300231933594 985.979125976562 991.027038574219 977.895263671875 977.229675292969 981.934448242188 1000.93212890625 999.042053222656 1007.21020507812 1010.50091552734 1017.83630371094 1019.2392578125 1020.43994140625 1018.93859863281 1032.94140625 1018.05938720703 1023.16424560547 1027.67041015625 1025.39501953125 1024.7958984375 1024.75231933594 1024.46398925781 1028.46618652344 1025.82971191406 1022.31408691406 1024.66296386719 1019.41265869141 1024.62121582031 1018.96691894531 1030.5947265625 1032.265625 1023.72076416016 1030.49328613281 1031.13586425781 1032.85485839844 1043.26550292969 1041.23742675781 1033.46704101562 1030.53002929688 1030.56555175781 1030.87658691406 1028.21838378906 1027.43737792969 1015.93756103516 1017.95971679688 1021.56622314453 1017.9501953125 1024.81970214844 1018.11206054688 1018.03454589844 1011.87091064453
962.135314941406 961.721862792969 956.046936035156 953.180480957031 955.690795898438 955.180908203125 940.247131347656 933.238342285156 934.515014648438 931.383178710938 939.929992675781 935.492065429688 934.731506347656 931.339782714844 936.33837890625 953.605224609375 946.934326171875 955.806274414062 956.819458007812 954.533264160156 952.16796875 956.944458007812 969.713500976562 959.230590820312 956.091857910156 949.004150390625 946.681091308594 948.821166992188 945.282897949219 950.690856933594 952.196899414062 948.666442871094 945.327087402344 945.307067871094 941.604064941406 945.310607910156 948.438659667969 950.727355957031 953.632995605469 950.592346191406 951.024719238281 958.016784667969 958.222717285156 948.671752929688 956.902160644531 953.625427246094 962.888427734375 978.059448242188 980.537231445312 983.014282226562 980.939270019531 981.899047851562 979.135375976562 975.022277832031 976.49951171875 972.370422363281 971.856201171875 968.714477539062 971.311218261719 969.616455078125 963.298156738281 966.133605957031 958.824157714844 967.991088867188 968.298645019531 972.948852539062 976.082702636719 968.708374023438 975.236755371094 980.395385742188 980.629943847656 976.469421386719 978.642333984375 990.004943847656 985.124816894531 977.146850585938 982.844665527344 986.833374023438 987.36767578125 974.870483398438 985.112060546875 983.070861816406 990.030151367188 984.766235351562 986.719970703125 989.231201171875 981.605346679688 977.164001464844 978.421813964844 968.998596191406 975.206481933594 974.973510742188 978.158325195312 979.809509277344 990.983337402344 994.427612304688 988.110107421875 983.795227050781 987.449401855469 994.531005859375 990.415649414062 995.510498046875 986.085632324219 986.726257324219 984.425598144531 994.414794921875 994.546447753906 1007.54901123047 1013.48443603516 1016.21722412109 1019.20007324219 1022.52612304688 1022.84216308594 1030.90625 1030.74206542969 1019.72503662109 1024.70141601562 1028.55383300781 1034.22473144531 1028.38647460938 1035.92736816406 1032.25317382812 1032.28735351562 1028.75830078125 1027.58312988281 1031.02856445312 1029.19177246094 1020.40020751953 1029.09814453125 1027.62927246094 1025.4287109375 1032.99609375 1032.72229003906 1039.67517089844 1040.62670898438 1033.91613769531 1030.53137207031 1023.55841064453 1027.40576171875 1022.77191162109 1023.92504882812 1015.68225097656 1017.89465332031 1014.48120117188 1017.72253417969 1014.73590087891 1021.30126953125 1012.94177246094 1013.93634033203 1006.44366455078
955.6728515625 971.423706054688 960.737243652344 958.994995117188 954.504699707031 950.382141113281 944.89892578125 932.632141113281 934.955871582031 940.116943359375 941.692687988281 943.09033203125 938.7099609375 935.617492675781 941.148010253906 947.393920898438 955.613586425781 950.968627929688 951.492614746094 950.488098144531 948.850402832031 964.739501953125 980.449645996094 982.765563964844 971.816711425781 957.299133300781 954.697204589844 953.168518066406 952.90380859375 958.840881347656 954.080444335938 957.519836425781 956.411254882812 951.791137695312 955.832153320312 957.5546875 948.114074707031 943.292846679688 950.173156738281 948.305725097656 955.682434082031 958.222961425781 970.218139648438 960.622680664062 960.224670410156 961.931396484375 972.413818359375 981.546875 984.702880859375 981.335021972656 986.535278320312 980.873046875 979.928344726562 986.429626464844 978.67724609375 970.17041015625 975.473571777344 978.979064941406 978.606994628906 970.531616210938 968.638488769531 966.574340820312 972.315490722656 977.198547363281 970.905151367188 972.665100097656 973.083618164062 971.543090820312 975.47265625 978.970275878906 979.47607421875 986.949645996094 980.938354492188 987.391845703125 991.112609863281 981.447265625 972.27099609375 990.632873535156 993.005004882812 984.903564453125 984.375 978.983276367188 974.460571289062 982.67236328125 987.146850585938 982.594055175781 986.773559570312 987.119079589844 984.258605957031 975.497619628906 982.988891601562 977.448303222656 977.325012207031 981.735778808594 987.670043945312 986.566284179688 988.522888183594 997.634155273438 990.390014648438 991.30078125 993.16796875 994.567077636719 996.247131347656 997.720153808594 991.584228515625 989.880432128906 991.03125 998.378234863281 1009.32501220703 1016.84387207031 1018.55639648438 1020.09686279297 1024.10327148438 1027.5205078125 1034.91760253906 1024.75866699219 1022.26184082031 1040.56213378906 1038.44165039062 1043.13928222656 1048.04663085938 1040.92785644531 1033.2021484375 1026.08715820312 1021.79541015625 1031.3935546875 1027.40393066406 1023.68719482422 1020.61846923828 1026.5361328125 1022.82403564453 1020.37603759766 1029.67810058594 1037.11645507812 1038.32836914062 1029.43664550781 1020.31829833984 1011.31829833984 1026.77819824219 1017.51007080078 1017.12017822266 1012.53112792969 1018.35107421875 1015.33538818359 1011.21539306641 1008.88171386719 1007.5068359375 1008.34851074219 1003.00524902344 995.349853515625
952.686645507812 967.178039550781 958.1806640625 955.401489257812 949.358947753906 938.848266601562 933.564575195312 942.708984375 940.478393554688 942.144226074219 939.971740722656 943.972900390625 942.752807617188 938.240844726562 945.325744628906 951.379821777344 953.693786621094 957.544677734375 960.045593261719 960.933837890625 962.785949707031 969.1162109375 991.238098144531 984.654052734375 981.0849609375 968.41943359375 954.973571777344 949.610961914062 954.92919921875 956.781005859375 955.596984863281 954.415100097656 953.177490234375 955.188232421875 957.145080566406 950.308410644531 953.325500488281 950.889221191406 952.021362304688 956.197326660156 951.811157226562 951.819091796875 955.009094238281 968.096618652344 958.320373535156 966.314025878906 980.936340332031 978.210144042969 984.409240722656 982.451293945312 984.407531738281 985.598266601562 984.739562988281 988.98828125 985.539672851562 983.039489746094 977.611938476562 978.963195800781 978.362731933594 967.982543945312 967.747985839844 969.244812011719 974.856689453125 979.052978515625 974.960571289062 972.601684570312 973.428344726562 960.564880371094 962.087707519531 972.956604003906 979.878601074219 977.411926269531 981.029357910156 984.261291503906 988.237548828125 987.316040039062 987.028015136719 984.201171875 991.543823242188 975.43994140625 970.801025390625 981.410888671875 984.4541015625 979.494201660156 983.872009277344 985.152465820312 987.165161132812 984.963439941406 983.532592773438 975.601745605469 980.610656738281 984.673278808594 989.424011230469 991.335754394531 992.304382324219 989.037475585938 990.383728027344 997.631469726562 982.673034667969 989.763916015625 985.482238769531 981.999267578125 992.29736328125 996.277709960938 991.918640136719 989.568603515625 984.810241699219 998.195556640625 1003.89282226562 1015.95684814453 1019.00408935547 1019.47058105469 1021.72058105469 1028.64978027344 1030.25012207031 1033.40686035156 1026.44970703125 1030.17260742188 1041.28515625 1043.51904296875 1044.95129394531 1046.41357421875 1039.39526367188 1034.43029785156 1038.11962890625 1035.2841796875 1026.66198730469 1021.83624267578 1016.72399902344 1016.50134277344 1019.19421386719 1009.02001953125 1029.31982421875 1031.25610351562 1030.96801757812 1017.93365478516 1012.81579589844 1010.85363769531 1017.58868408203 1013.19598388672 1007.64624023438 1010.65277099609 1017.00701904297 1016.49627685547 1018.75939941406 1010.73162841797 1009.12377929688 1008.03942871094 997.244506835938 984.708435058594
954.397277832031 960.621765136719 960.431274414062 950.902526855469 940.401611328125 935.127136230469 938.708740234375 939.532775878906 939.142333984375 944.959045410156 943.941223144531 944.755920410156 950.951843261719 951.048583984375 956.071166992188 952.753967285156 957.066345214844 967.013122558594 957.088562011719 968.942565917969 966.692016601562 975.9599609375 982.528442382812 983.639831542969 986.717224121094 967.948608398438 963.065185546875 961.720825195312 963.407592773438 959.986267089844 948.2724609375 953.161010742188 955.046264648438 958.112548828125 961.704467773438 966.127380371094 960.00830078125 953.010070800781 956.563110351562 960.727600097656 957.243957519531 963.1416015625 962.192443847656 969.956726074219 970.040771484375 976.503051757812 977.387084960938 991.199340820312 977.532897949219 992.834106445312 991.923278808594 992.94189453125 993.601623535156 993.382446289062 982.901550292969 985.959777832031 974.559753417969 984.007934570312 979.81005859375 968.776428222656 975.486572265625 975.893615722656 974.345520019531 973.613586425781 976.440734863281 977.517761230469 973.846374511719 968.327819824219 969.098205566406 973.726623535156 980.003479003906 977.039733886719 982.623352050781 981.386779785156 992.561584472656 989.568664550781 991.570861816406 982.338317871094 982.678466796875 975.802124023438 969.40087890625 982.634765625 987.95166015625 986.403137207031 979.242553710938 982.724304199219 985.819763183594 991.012451171875 983.069091796875 973.481750488281 976.985107421875 978.219665527344 993.281921386719 992.927551269531 991.330200195312 981.140258789062 991.773864746094 994.638671875 987.557739257812 987.446655273438 987.414367675781 975.35791015625 984.012756347656 984.912414550781 986.824035644531 988.19677734375 995.932250976562 1009.89709472656 1011.86590576172 1017.86627197266 1018.50189208984 1018.30999755859 1027.98010253906 1030.4482421875 1039.33203125 1029.75854492188 1027.98608398438 1029.96337890625 1040.02563476562 1038.8408203125 1045.01379394531 1036.98181152344 1043.19921875 1039.76245117188 1041.77648925781 1041.68322753906 1035.30358886719 1020.12982177734 1014.90344238281 1018.54339599609 1015.73510742188 1010.703125 1016.25445556641 1023.92816162109 1019.67889404297 1016.50830078125 1011.06042480469 1006.13079833984 1017.15905761719 1018.07177734375 1008.76031494141 1008.39385986328 1015.36071777344 1017.85565185547 1011.59936523438 1006.77893066406 1000.7841796875 1002.48980712891 991.188354492188 975.646789550781
953.889038085938 945.496704101562 945.570007324219 950.157653808594 945.165771484375 935.665405273438 936.776733398438 943.203918457031 941.772216796875 942.175537109375 945.320495605469 949.301513671875 953.385375976562 952.901306152344 957.013122558594 958.897155761719 965.939453125 974.514526367188 971.903198242188 964.163696289062 983.347595214844 986.349609375 991.090209960938 984.412963867188 981.545715332031 971.478149414062 962.794189453125 961.184387207031 960.369140625 962.037475585938 953.372314453125 951.153869628906 961.36474609375 961.305786132812 965.923889160156 965.274475097656 963.282104492188 964.649719238281 964.322387695312 959.289306640625 963.042419433594 961.194946289062 966.152954101562 979.514282226562 985.101806640625 993.93212890625 991.348693847656 993.8193359375 993.839721679688 992.758056640625 998.450988769531 990.539794921875 987.041198730469 994.142456054688 991.506713867188 984.794799804688 980.408996582031 982.802978515625 979.527648925781 974.443725585938 978.225830078125 977.299011230469 980.522888183594 974.121215820312 970.03173828125 974.492736816406 976.986511230469 976.817626953125 982.8388671875 976.729675292969 977.178649902344 986.563598632812 982.452880859375 985.836303710938 988.350036621094 993.233154296875 983.692810058594 991.238708496094 982.530029296875 975.541320800781 980.88232421875 991.82373046875 989.43115234375 988.038940429688 986.147399902344 982.299133300781 986.574645996094 983.744689941406 983.143981933594 980.198364257812 987.095764160156 979.01123046875 988.1845703125 984.298400878906 989.37060546875 991.870727539062 992.92822265625 996.330139160156 987.484069824219 988.914367675781 986.389587402344 984.647094726562 979.757080078125 980.705505371094 989.311767578125 989.780578613281 998.035461425781 1009.44262695312 1010.95288085938 1023.90344238281 1023.04602050781 1019.48529052734 1035.37353515625 1028.71203613281 1032.83190917969 1032.06994628906 1026.72058105469 1028.77685546875 1035.23107910156 1037.76379394531 1042.57092285156 1037.15942382812 1039.33605957031 1051.05200195312 1047.95727539062 1035.46496582031 1022.03607177734 1018.61236572266 1016.09191894531 1020.83087158203 1014.15515136719 1012.54577636719 1019.35729980469 1023.59295654297 1019.23675537109 1005.36456298828 1007.45611572266 1003.77209472656 1007.53509521484 1003.82769775391 1009.38330078125 998.856872558594 1009.91986083984 1014.50317382812 1010.85693359375 1008.02740478516 1000.45220947266 988.08642578125 986.834777832031 975.391540527344
948.637939453125 937.584289550781 945.953735351562 948.889282226562 945.789306640625 939.614440917969 943.034973144531 943.536560058594 950.585632324219 952.514709472656 950.139465332031 954.439331054688 956.8310546875 959.0087890625 956.724060058594 960.871887207031 966.744201660156 970.617858886719 975.995483398438 977.129943847656 987.904541015625 998.726257324219 997.374633789062 992.428588867188 989.025939941406 980.185424804688 969.480041503906 969.055725097656 969.728393554688 958.062561035156 956.719543457031 958.410827636719 959.321411132812 962.09130859375 964.753540039062 969.538879394531 964.973693847656 972.123413085938 973.347351074219 974.262756347656 976.269409179688 966.399536132812 972.217712402344 979.037231445312 994.238037109375 992.45556640625 1004.16809082031 1006.99731445312 994.834838867188 993.065490722656 991.529235839844 996.552185058594 992.709289550781 986.657287597656 993.895568847656 985.758972167969 984.218139648438 977.519287109375 978.597412109375 975.158020019531 973.05517578125 970.292236328125 976.97705078125 977.515197753906 978.698425292969 985.204162597656 983.934509277344 973.784240722656 983.346313476562 979.553894042969 978.629577636719 980.708923339844 984.557067871094 984.662475585938 989.984802246094 989.056945800781 980.036193847656 980.36474609375 983.493957519531 977.184997558594 988.263244628906 984.214294433594 987.256469726562 994.722534179688 990.495727539062 988.643188476562 981.907592773438 993.41015625 990.330383300781 981.170104980469 987.535888671875 988.279479980469 989.363525390625 993.512145996094 988.672973632812 985.0908203125 995.256652832031 1001.44885253906 998.189147949219 997.335144042969 988.755004882812 982.556701660156 986.682189941406 976.825439453125 990.096069335938 992.456420898438 992.460021972656 1005.25885009766 1017.55645751953 1015.462890625 1017.63800048828 1023.87194824219 1022.24957275391 1021.10321044922 1027.30737304688 1034.04919433594 1027.38842773438 1035.64367675781 1038.17260742188 1039.60693359375 1030.74108886719 1029.89685058594 1032.12292480469 1030.41760253906 1028.89685058594 1022.55944824219 1019.70159912109 1014.88134765625 1007.05682373047 1011.9951171875 1015.59075927734 1006.27471923828 1005.54229736328 1018.54577636719 1014.40093994141 1012.78887939453 1006.73645019531 1009.24328613281 1011.59930419922 1010.90057373047 1004.17175292969 1008.35296630859 1007.14929199219 1007.06823730469 1002.93109130859 999.395202636719 1001.36273193359 983.973327636719 986.427368164062 978.509948730469
948.106872558594 940.797973632812 943.043579101562 943.494445800781 942.9892578125 944.650756835938 942.436584472656 936.55224609375 944.211608886719 941.717041015625 950.983337402344 961.853210449219 968.707092285156 968.9306640625 963.987609863281 970.01171875 977.185119628906 976.035217285156 980.700073242188 983.633850097656 996.833374023438 999.37744140625 1004.4677734375 992.851745605469 987.239318847656 978.787536621094 982.432495117188 975.082641601562 976.298767089844 965.046508789062 971.184204101562 967.886413574219 974.472778320312 969.029113769531 968.390991210938 965.1923828125 962.098205566406 972.358459472656 978.966430664062 979.121704101562 968.4931640625 963.628601074219 972.309631347656 981.239868164062 994.356201171875 995.813903808594 1002.24255371094 1005.37127685547 1004.04614257812 991.178649902344 994.834045410156 996.400817871094 998.169921875 1002.50451660156 996.780944824219 983.635009765625 976.640930175781 974.182556152344 979.622192382812 977.2958984375 972.592224121094 975.8173828125 977.183776855469 973.947021484375 978.144897460938 983.795227050781 977.320922851562 980.979125976562 983.199645996094 988.215576171875 987.818542480469 979.183349609375 984.738586425781 980.854064941406 983.510070800781 984.097351074219 978.507507324219 978.215637207031 985.683349609375 984.720825195312 985.416748046875 980.785400390625 995.069274902344 992.253540039062 993.797058105469 988.224853515625 985.528625488281 989.877258300781 983.440795898438 977.609069824219 988.567993164062 989.719299316406 988.497253417969 982.163696289062 990.647521972656 990.866638183594 985.690246582031 985.545471191406 995.317321777344 994.617431640625 992.270202636719 993.222473144531 982.439147949219 982.240600585938 991.587219238281 997.393615722656 1005.41912841797 1011.39025878906 1011.53259277344 1013.78552246094 1014.57275390625 1017.38934326172 1028.40734863281 1024.93237304688 1025.94799804688 1027.43920898438 1032.84143066406 1024.71875 1023.33813476562 1039.72302246094 1038.02685546875 1034.29504394531 1023.58166503906 1026.26586914062 1023.51849365234 1020.8681640625 1017.30535888672 1016.26129150391 1004.0576171875 1010.81292724609 1016.10217285156 1019.74884033203 1014.44421386719 1025.17822265625 1023.42047119141 1020.32678222656 1011.18634033203 1000.07489013672 1006.72967529297 999.695068359375 1002.65545654297 1003.66857910156 999.17041015625 996.574523925781 993.641540527344 996.257873535156 998.02099609375 995.17822265625 989.530822753906 987.4228515625
953.553527832031 945.907897949219 948.8662109375 931.734924316406 939.654602050781 937.242614746094 931.649963378906 940.203247070312 948.96826171875 949.942443847656 958.075622558594 959.739074707031 964.653381347656 970.646606445312 977.569274902344 977.760437011719 971.797668457031 974.381103515625 981.892822265625 989.222778320312 993.858093261719 1000.77978515625 1001.04077148438 989.922790527344 980.88330078125 983.763977050781 983.529602050781 982.693969726562 981.681457519531 979.293273925781 965.970458984375 966.527465820312 971.359497070312 973.031494140625 966.751342773438 965.228576660156 975.635009765625 985.576538085938 986.919494628906 980.990051269531 976.386779785156 982.100891113281 988.004699707031 991.983703613281 992.549682617188 1004.54956054688 1001.83715820312 1007.55377197266 1002.17523193359 996.862731933594 986.1328125 990.928649902344 994.816284179688 1009.83843994141 1003.99182128906 985.644592285156 976.924133300781 971.848510742188 974.385131835938 976.025756835938 976.221618652344 980.338745117188 978.933837890625 987.23876953125 977.251892089844 984.464782714844 981.09912109375 980.641174316406 980.482849121094 989.612915039062 984.165893554688 982.928955078125 989.693420410156 983.259643554688 987.203491210938 977.626220703125 980.130554199219 986.171325683594 988.786865234375 989.993103027344 990.063537597656 999.322998046875 992.423583984375 995.558044433594 984.273803710938 990.851135253906 993.414367675781 987.526550292969 984.557434082031 982.288696289062 985.5625 987.907348632812 986.72607421875 982.491027832031 990.931274414062 989.616577148438 996.85791015625 987.786437988281 989.415954589844 995.053588867188 1002.35882568359 993.837646484375 992.776062011719 1002.38360595703 1002.67718505859 1007.41442871094 1009.47521972656 1019.82427978516 1016.30346679688 1021.47998046875 1016.20025634766 1021.99945068359 1032.564453125 1024.24438476562 1019.12280273438 1019.12078857422 1026.80737304688 1014.12670898438 1029.51428222656 1032.66748046875 1028.12231445312 1020.13739013672 1014.69903564453 1027.59106445312 1024.697265625 1023.06896972656 1010.50537109375 1009.65100097656 1014.64703369141 1004.87829589844 1014.23870849609 1014.56622314453 1013.38537597656 1020.82135009766 1015.06823730469 1016.19287109375 1005.69915771484 994.086975097656 995.351013183594 993.256103515625 986.160888671875 993.211791992188 992.4482421875 986.603637695312 987.852966308594 984.940307617188 986.975341796875 996.822814941406 1000.53918457031 989.455810546875
946.2001953125 950.053283691406 949.878784179688 927.599487304688 930.670959472656 936.561584472656 935.966979980469 936.095947265625 939.351745605469 952.025146484375 960.771911621094 969.144775390625 969.389709472656 975.993713378906 987.045532226562 979.997375488281 975.690734863281 981.278747558594 982.436950683594 987.787170410156 989.202819824219 993.238647460938 997.641052246094 993.464660644531 979.212341308594 978.466064453125 982.743957519531 986.594482421875 975.674499511719 965.409729003906 961.054138183594 964.567199707031 975.4091796875 976.745544433594 965.823059082031 975.652282714844 977.748901367188 987.111877441406 991.662170410156 993.307800292969 995.565795898438 997.737060546875 996.14501953125 1000.48413085938 1001.77825927734 1003.42724609375 1003.60974121094 1004.552734375 1005.9287109375 1009.68566894531 1006.08514404297 999.742248535156 995.352233886719 995.238586425781 992.5732421875 994.339416503906 980.433837890625 970.780944824219 978.027893066406 974.094421386719 978.119750976562 983.037719726562 977.835327148438 967.888305664062 981.860473632812 975.907958984375 980.610412597656 983.445495605469 981.584533691406 980.633911132812 982.505737304688 981.448791503906 982.629455566406 988.365539550781 992.399719238281 986.06640625 986.553894042969 988.2470703125 985.597290039062 993.674377441406 997.44189453125 1006.90539550781 1002.98327636719 996.560241699219 993.832702636719 995.736938476562 985.363708496094 986.553894042969 989.795593261719 979.807067871094 986.524230957031 989.166809082031 985.182495117188 984.799682617188 984.613708496094 1000.56427001953 1000.939453125 996.305908203125 990.354187011719 999.920471191406 996.471435546875 1002.75170898438 1002.0078125 1009.00347900391 1008.83697509766 1009.08917236328 1013.69451904297 1017.18572998047 1020.78125 1017.44097900391 1014.60119628906 1019.06005859375 1030.85925292969 1023.78759765625 1020.52551269531 1021.79248046875 1025.70251464844 1018.66754150391 1020.50537109375 1024.20178222656 1019.92138671875 1025.845703125 1026.36389160156 1029.21606445312 1022.49139404297 1018.18920898438 1007.74047851562 1006.53399658203 1011.42370605469 1002.83471679688 1008.08636474609 1015.06665039062 1020.21282958984 1016.53631591797 1014.77032470703 1013.53137207031 1012.76434326172 998.873107910156 985.063720703125 986.779174804688 992.02783203125 985.984069824219 992.370300292969 992.15771484375 984.78466796875 985.180236816406 988.064819335938 990.114868164062 997.672485351562 1001.55035400391
947.894409179688 942.02978515625 942.638244628906 935.551086425781 938.131774902344 940.773376464844 940.291320800781 942.677429199219 940.906799316406 957.317199707031 957.100769042969 973.3388671875 982.629089355469 967.927795410156 981.045776367188 982.911743164062 980.703125 985.277587890625 987.967590332031 995.2900390625 1003.72564697266 998.672485351562 997.895202636719 997.311462402344 986.876403808594 986.317565917969 984.897094726562 982.955139160156 980.757446289062 972.400390625 966.055603027344 971.145263671875 980.328674316406 981.224243164062 974.425842285156 973.243957519531 985.213256835938 987.664123535156 994.548706054688 997.056457519531 986.832336425781 998.708557128906 1002.93969726562 1004.48901367188 1005.72076416016 1006.58984375 1014.80548095703 1002.04833984375 1014.61383056641 1005.08001708984 1007.77746582031 997.670593261719 1003.44219970703 1000.02801513672 987.899963378906 988.107666015625 981.365661621094 979.253784179688 977.099243164062 979.223876953125 977.584289550781 978.877563476562 981.669860839844 970.654663085938 976.62841796875 980.647705078125 972.980712890625 983.267150878906 986.269104003906 990.160949707031 988.723815917969 983.009643554688 986.246337890625 989.527770996094 985.740295410156 987.446899414062 988.300415039062 986.452087402344 986.267211914062 992.398010253906 998.601989746094 1009.33245849609 1010.04840087891 996.4111328125 997.132568359375 996.039855957031 996.738586425781 987.854064941406 989.347473144531 983.295837402344 980.570678710938 983.242065429688 985.462280273438 984.818359375 989.840942382812 1005.31134033203 1000.3740234375 1008.80407714844 1003.88092041016 999.739929199219 998.943481445312 997.267517089844 999.300170898438 1006.08984375 1008.2607421875 1007.83673095703 1011.87969970703 1014.8310546875 1014.60968017578 1024.07080078125 1025.90014648438 1018.09625244141 1025.68420410156 1020.33203125 1025.99694824219 1025.1728515625 1021.6923828125 1012.53472900391 1023.30883789062 1021.55554199219 1026.47204589844 1024.13623046875 1031.60827636719 1017.12805175781 1021.52221679688 1020.9599609375 1009.34503173828 1007.66040039062 1002.62872314453 1007.40545654297 1013.74383544922 1018.32214355469 1011.54486083984 1010.54278564453 1005.88897705078 996.232788085938 998.454406738281 992.929443359375 992.648864746094 993.552734375 1003.7197265625 985.914245605469 982.567932128906 991.068481445312 982.504028320312 987.635131835938 985.53369140625 996.842224121094 996.782958984375 1005.18914794922
947.161315917969 947.953735351562 937.237121582031 935.7978515625 938.3193359375 941.77392578125 947.347595214844 945.016723632812 942.322265625 957.97265625 965.485534667969 975.463195800781 977.173583984375 972.951110839844 979.393798828125 981.805419921875 981.795227050781 987.435668945312 996.797790527344 1007.51550292969 999.598083496094 1002.99981689453 1003.08331298828 993.268859863281 997.928833007812 989.793762207031 981.276916503906 979.112731933594 975.313598632812 969.68115234375 963.92529296875 975.040649414062 976.200378417969 979.0244140625 977.773681640625 981.376892089844 989.208190917969 988.549255371094 994.145690917969 995.013610839844 990.42919921875 1000.89123535156 1011.38635253906 1005.33819580078 1003.59814453125 1015.23815917969 1020.27087402344 1019.06860351562 1015.53753662109 1012.58740234375 1001.36102294922 997.100341796875 1000.30139160156 993.511474609375 983.548645019531 982.391540527344 971.662841796875 977.046813964844 969.823852539062 986.907409667969 977.291381835938 979.45654296875 969.852905273438 963.487060546875 971.630798339844 980.696899414062 975.697692871094 981.5390625 985.985778808594 987.495666503906 988.858276367188 986.218200683594 994.639770507812 987.855224609375 987.516662597656 993.553588867188 986.795654296875 994.888427734375 991.161682128906 999.052062988281 994.844482421875 1008.12689208984 1016.72100830078 1014.02966308594 1001.53021240234 1005.14086914062 1001.81231689453 993.945861816406 1001.68914794922 989.663818359375 985.691955566406 989.166687011719 988.079162597656 992.353942871094 988.424560546875 1002.72674560547 1012.24615478516 1008.154296875 1008.17791748047 1006.22393798828 997.21533203125 1000.18109130859 1010.79370117188 1018.17193603516 1006.17901611328 1013.22955322266 1013.26977539062 1017.26794433594 1022.34686279297 1022.36956787109 1034.62768554688 1026.25952148438 1026.43017578125 1028.88403320312 1030.12170410156 1021.38897705078 1019.17657470703 1013.04962158203 1022.71112060547 1029.94763183594 1028.16882324219 1025.00512695312 1023.60168457031 1023.02459716797 1016.59948730469 1009.78070068359 1006.509765625 1005.3251953125 1011.45916748047 1009.98388671875 1013.11163330078 1014.94024658203 1011.21856689453 1003.95892333984 998.320434570312 996.064697265625 998.5166015625 991.046691894531 995.94921875 993.756774902344 997.973266601562 994.282409667969 980.188659667969 976.544921875 983.243591308594 988.050537109375 992.595642089844 985.382507324219 994.432495117188 999.321960449219
938.997985839844 938.642517089844 939.940490722656 941.259338378906 947.364624023438 945.040588378906 944.896362304688 933.778503417969 941.950927734375 950.479187011719 960.114624023438 962.325256347656 972.346008300781 971.62744140625 975.832580566406 975.157653808594 975.133239746094 983.113342285156 991.547302246094 1004.9638671875 1006.01788330078 997.891784667969 993.6416015625 992.7763671875 992.045043945312 991.314636230469 981.674743652344 978.136535644531 977.790832519531 974.990539550781 973.223754882812 976.444763183594 979.618835449219 978.140502929688 972.443054199219 982.122131347656 991.561706542969 996.804382324219 998.045654296875 994.557373046875 993.134826660156 1001.16467285156 1006.32849121094 1008.42889404297 1007.95245361328 1008.330078125 1008.10241699219 1012.06134033203 1007.23309326172 1003.48193359375 1001.29241943359 992.65625 995.878601074219 989.867431640625 995.642578125 985.910949707031 976.093505859375 977.313537597656 980.533325195312 982.365783691406 979.987182617188 975.177124023438 972.940673828125 971.870849609375 970.366516113281 974.939819335938 981.125610351562 987.26806640625 988.706909179688 989.262329101562 993.494567871094 990.43505859375 995.113464355469 995.667663574219 992.1875 994.319641113281 991.906982421875 992.933227539062 993.929382324219 1002.26312255859 998.584777832031 1004.73120117188 1013.92596435547 1017.44586181641 1007.45306396484 1004.3564453125 1000.59930419922 1000.16827392578 998.406555175781 990.212585449219 989.648559570312 985.454528808594 991.391418457031 985.197326660156 986.321655273438 991.794494628906 999.454711914062 999.817077636719 1009.87573242188 1008.03570556641 1007.16864013672 1001.34161376953 1005.84454345703 1008.36187744141 1009.12780761719 1018.98132324219 1019.82739257812 1017.96746826172 1023.43096923828 1025.00927734375 1027.14184570312 1031.92272949219 1034.96032714844 1031.17358398438 1026.45324707031 1020.71331787109 1015.14239501953 1011.75573730469 1013.63354492188 1020.75903320312 1017.21441650391 1012.90637207031 1009.17657470703 1020.58850097656 1009.38012695312 1005.53637695312 996.445617675781 994.123962402344 1003.8037109375 1002.48004150391 1000.32305908203 1008.46166992188 1008.79956054688 1001.72680664062 987.218078613281 991.254943847656 990.586120605469 993.847900390625 992.970581054688 986.604064941406 982.899047851562 982.47900390625 985.124694824219 984.972961425781 985.480346679688 988.499328613281 995.211853027344 992.390014648438 994.641296386719 992.682678222656
939.744506835938 933.755615234375 938.091064453125 936.5205078125 943.985412597656 940.853271484375 938.579833984375 932.191284179688 945.9716796875 950.969360351562 959.125305175781 957.266357421875 960.875793457031 969.331176757812 974.948547363281 968.208557128906 971.857971191406 978.774963378906 996.88330078125 990.078125 993.386474609375 989.743469238281 993.3642578125 988.689147949219 995.461791992188 998.694274902344 992.074157714844 984.834777832031 991.294250488281 978.075927734375 975.702575683594 976.762878417969 977.699035644531 979.7265625 981.552001953125 985.136657714844 991.289184570312 994.507690429688 997.840637207031 998.461853027344 1005.13073730469 1010.21008300781 1004.53570556641 1005.32257080078 997.176330566406 1009.40838623047 1007.68109130859 1008.08160400391 1011.63604736328 1005.50988769531 998.064086914062 997.619262695312 991.390991210938 991.026672363281 992.422912597656 989.408386230469 987.044494628906 987.658203125 978.110900878906 983.108154296875 977.745727539062 981.635070800781 979.960632324219 981.27099609375 972.884643554688 978.652282714844 980.195373535156 988.6142578125 982.77001953125 981.886901855469 993.705505371094 993.32421875 1000.41864013672 993.519714355469 991.356323242188 996.422912597656 994.382141113281 1001.34259033203 996.787658691406 1006.14172363281 1007.15460205078 1007.51275634766 1010.85498046875 998.895141601562 1004.82836914062 1009.41906738281 1008.46160888672 1008.27984619141 991.256408691406 987.661010742188 998.689025878906 995.724304199219 992.507995605469 992.460632324219 990.540710449219 989.255310058594 990.56201171875 996.1103515625 1001.4404296875 995.274963378906 998.469055175781 1004.86785888672 1011.47045898438 1010.16149902344 1007.96130371094 1012.66412353516 1030.17102050781 1010.77551269531 1019.05444335938 1020.99108886719 1027.22875976562 1034.3251953125 1031.90979003906 1026.00231933594 1028.85913085938 1019.16802978516 1016.32800292969 1015.66674804688 1020.94067382812 1010.67462158203 1015.68572998047 1014.03039550781 1009.07824707031 1004.16943359375 998.213012695312 996.576843261719 988.111450195312 989.643737792969 997.122375488281 1000.28338623047 998.319274902344 1005.25671386719 1000.04833984375 997.984252929688 991.106140136719 989.904846191406 991.515319824219 993.753295898438 997.766662597656 994.540466308594 993.609741210938 986.126647949219 982.909484863281 987.019714355469 985.603576660156 988.592956542969 986.810913085938 994.961853027344 992.061828613281 993.291198730469
937.638916015625 937.98046875 933.889831542969 934.471862792969 935.385681152344 940.528991699219 931.138549804688 940.462951660156 948.077453613281 949.825988769531 954.074951171875 962.394897460938 963.436950683594 975.088195800781 978.503601074219 974.053100585938 972.619506835938 979.899230957031 983.200988769531 983.348999023438 981.7119140625 976.736145019531 988.146728515625 983.513305664062 993.462646484375 992.692626953125 988.884460449219 986.623962402344 981.09716796875 982.137634277344 973.992492675781 974.50048828125 972.670715332031 975.558044433594 981.666015625 989.10205078125 993.347717285156 993.882080078125 993.494934082031 992.364501953125 1004.16424560547 1006.61840820312 1001.83172607422 1007.97027587891 1003.67706298828 1000.13311767578 1008.87280273438 1007.46704101562 1016.03942871094 1005.57391357422 1002.22729492188 1005.0458984375 1001.23156738281 988.518981933594 993.054504394531 988.720336914062 989.138366699219 984.841369628906 985.988708496094 974.507690429688 980.709289550781 970.038452148438 980.975219726562 977.695861816406 969.171691894531 971.483947753906 977.697143554688 975.585205078125 979.821472167969 983.361877441406 986.126098632812 981.801818847656 994.148986816406 993.988037109375 1001.12591552734 997.050415039062 998.463745117188 994.337890625 1002.27136230469 1001.13891601562 1008.69445800781 1002.77087402344 1007.37731933594 1003.20562744141 999.047973632812 998.868225097656 1002.57452392578 1003.95135498047 998.479309082031 985.948486328125 992.139709472656 997.734436035156 991.971557617188 992.294555664062 995.326110839844 988.009765625 993.447082519531 996.917602539062 991.690979003906 999.69873046875 1002.32513427734 1008.68621826172 1016.31793212891 1014.63037109375 1007.46820068359 1019.60205078125 1022.0263671875 1016.25390625 1020.01177978516 1018.96246337891 1021.50054931641 1041.27734375 1035.88171386719 1030.453125 1028.14501953125 1020.18756103516 1021.78192138672 1020.93310546875 1016.02239990234 1018.51843261719 1017.80529785156 1009.48492431641 1007.94445800781 1002.04339599609 997.278564453125 995.518432617188 989.072448730469 990.215942382812 1002.31256103516 1000.07531738281 999.946105957031 998.297119140625 996.473999023438 1001.99554443359 1000.90447998047 995.263549804688 994.608215332031 996.059936523438 993.389099121094 999.690185546875 992.827758789062 987.556213378906 984.716613769531 989.386779785156 988.081909179688 979.159729003906 984.138366699219 992.559020996094 994.2587890625 992.361083984375
951.28369140625 951.832641601562 945.407897949219 948.453979492188 941.62255859375 931.430908203125 933.295776367188 944.804077148438 951.900451660156 957.357666015625 955.0390625 961.383422851562 959.605712890625 967.043701171875 965.740844726562 959.617736816406 968.174926757812 971.549133300781 982.249084472656 984.385681152344 979.268859863281 972.264770507812 973.289123535156 972.133911132812 981.51416015625 988.055419921875 985.003112792969 985.652465820312 980.21923828125 981.5556640625 980.241333007812 966.016235351562 970.193359375 965.165954589844 969.096374511719 981.229858398438 991.015197753906 991.436096191406 1001.68743896484 999.489685058594 1005.19677734375 1000.43902587891 1002.08056640625 987.680480957031 989.521362304688 987.437622070312 999.087280273438 1001.85144042969 996.597534179688 1000.21710205078 999.824462890625 1001.91973876953 1000.48931884766 996.715942382812 996.504455566406 994.570556640625 985.2646484375 986.458068847656 975.338317871094 980.667175292969 982.261535644531 980.882751464844 980.229309082031 971.465881347656 975.398864746094 978.858764648438 978.3818359375 986.937866210938 983.444152832031 975.934020996094 981.994873046875 985.811279296875 995.746215820312 985.416076660156 990.682739257812 998.61669921875 995.219543457031 998.45849609375 984.55078125 996.347106933594 1007.26806640625 1011.91168212891 1012.12432861328 1004.29937744141 999.530334472656 1005.05322265625 998.809204101562 999.0517578125 993.007385253906 991.044738769531 999.4013671875 987.445678710938 989.008361816406 995.094116210938 995.544128417969 995.473266601562 999.222045898438 998.172302246094 994.429382324219 1010.20245361328 998.714904785156 1009.65814208984 1019.31427001953 1013.25244140625 1004.57482910156 1018.80871582031 1018.32330322266 1024.25036621094 1028.13671875 1036.74462890625 1036.33410644531 1042.77026367188 1045.18041992188 1042.720703125 1032.8232421875 1018.84204101562 1016.03021240234 1013.57702636719 1017.57147216797 1024.48425292969 1021.29803466797 1015.46014404297 1015.42346191406 1011.09368896484 997.213684082031 995.795104980469 991.884704589844 990.683349609375 996.342529296875 993.968933105469 992.112426757812 993.391418457031 991.756774902344 997.332824707031 992.3583984375 993.702026367188 995.366455078125 990.089477539062 995.231872558594 999.103515625 998.808227539062 987.923095703125 987.610656738281 992.281982421875 985.411376953125 979.341857910156 980.638244628906 982.95458984375 988.234252929688 989.430236816406
