NCOLS 150
NROWS 37
XLLCORNER 7394249
YLLCORNER 4842899
CELLSIZE 30
NODATA_VALUE -9999
938.690002441406 953.300109863281 957.5712890625 965.240905761719 969.48876953125 968.76171875 970.30712890625 970.7001953125 966.548217773438 966.504150390625 966.623229980469 969.828857421875 968.616760253906 973.060729980469 967.331176757812 977.810424804688 984.45654296875 980.138977050781 974.565124511719 981.9990234375 979.715209960938 987.101623535156 990.223937988281 987.528076171875 984.591918945312 985.681396484375 976.816467285156 982.971313476562 986.696411132812 992.171264648438 1003.05426025391 989.351867675781 980.600891113281 976.86767578125 981.595825195312 971.692199707031 967.727355957031 981.24365234375 981.198608398438 981.85791015625 986.966064453125 979.88134765625 985.290283203125 988.170471191406 984.294982910156 982.927185058594 980.90673828125 977.437194824219 973.059204101562 974.427856445312 980.899108886719 992.800354003906 984.719116210938 979.309143066406 981.858215332031 981.913269042969 991.102233886719 989.135131835938 987.638671875 989.423950195312 995.357849121094 999.826538085938 1001.73254394531 990.577880859375 988.810424804688 988.039916992188 977.783264160156 980.464965820312 974.49658203125 979.239685058594 983.585144042969 979.084533691406 978.520324707031 981.393310546875 984.692993164062 993.423034667969 995.211181640625 993.165832519531 996.384704589844 1003.65765380859 1008.42486572266 1006.90911865234 994.581970214844 1003.24835205078 1003.98321533203 1005.68054199219 1014.40386962891 1011.04235839844 1004.12255859375 1003.80718994141 1008.53527832031 1017.50360107422 1013.94799804688 1011.87780761719 1018.40319824219 1020.802734375 1020.94287109375 1004.87799072266 1005.89282226562 1000.34466552734 1001.17468261719 992.464721679688 994.250854492188 998.299255371094 1001.39044189453 996.764343261719 998.530334472656 987.839538574219 987.894409179688 986.48291015625 990.834106445312 974.494262695312 975.163818359375 969.75439453125 972.007751464844 970.623779296875 975.582885742188 979.943176269531 987.079650878906 998.14208984375 990.589416503906 1005.15362548828 996.933898925781 1008.65283203125 1017.10302734375 1019.21978759766 1021.16052246094 1024.65808105469 1029.27575683594 1028.46496582031 1021.75433349609 1023.27563476562 1022.01098632812 1023.32830810547 1017.35534667969 1011.07824707031 1014.44311523438 1033.75659179688 1040.11877441406 1054.37939453125 1065.87927246094 1067.51831054688 1077.55358886719 1084.45861816406 1088.59899902344 1086.73364257812 1097.39367675781 1107.53576660156 1115.65832519531 1118.22314453125
938.213684082031 951.086059570312 950.81396484375 951.165100097656 960.21484375 969.8984375 961.663024902344 968.403686523438 970.331298828125 974.245056152344 974.107360839844 977.858642578125 967.283874511719 963.022338867188 975.20068359375 974.310302734375 980.349426269531 969.552856445312 977.277465820312 982.560546875 985.64111328125 981.827087402344 985.94091796875 979.6826171875 985.516357421875 986.796997070312 983.118225097656 985.367309570312 980.468383789062 984.534973144531 995.653991699219 984.859619140625 969.787475585938 971.425842285156 967.718811035156 969.276062011719 967.777893066406 981.237487792969 985.252990722656 976.952392578125 988.495300292969 993.987548828125 988.463195800781 993.014404296875 981.1591796875 986.425598144531 975.916381835938 969.435180664062 977.441650390625 976.738708496094 982.452209472656 985.750183105469 976.366149902344 981.69921875 979.061096191406 979.711120605469 986.276062011719 985.440002441406 984.049133300781 988.503601074219 990.43798828125 990.827087402344 992.070007324219 993.10986328125 986.104309082031 982.360717773438 973.96435546875 974.838256835938 974.816284179688 982.347290039062 977.987854003906 973.423400878906 980.294555664062 986.532897949219 992.343566894531 990.695129394531 992.699951171875 989.534912109375 993.963928222656 997.971069335938 1007.31781005859 1000.02374267578 991.79833984375 996.710754394531 995.903991699219 1005.38562011719 1015.69439697266 1008.55358886719 1013.48309326172 1016.41564941406 1012.89654541016 1014.27911376953 1014.61291503906 1014.72985839844 1005.65673828125 1009.14093017578 1009.50604248047 1001.15100097656 1008.40893554688 1009.07659912109 1008.97387695312 1004.47760009766 993.623901367188 994.258544921875 1002.24145507812 994.133178710938 997.886047363281 995.24755859375 995.606201171875 993.721801757812 989.580322265625 980.491577148438 978.511596679688 981.873596191406 980.417297363281 974.337219238281 980.441284179688 988.165771484375 1001.64776611328 997.095581054688 996.466674804688 1003.45648193359 999.673645019531 1009.15997314453 1017.6650390625 1012.03491210938 1005.34680175781 1011.40515136719 1023.31365966797 1026.91296386719 1018.60137939453 1017.29754638672 1016.50500488281 1011.37152099609 1013.43756103516 1019.84875488281 1022.65863037109 1029.091796875 1040.23889160156 1054.34155273438 1069.45178222656 1078.27734375 1084.62609863281 1074.36547851562 1081.73596191406 1084.67883300781 1095.32885742188 1099.18957519531 1104.39147949219 1121.17065429688
945.973693847656 951.76513671875 953.089050292969 957.103393554688 957.420166015625 967.927429199219 970.960693359375 976.314575195312 969.514770507812 965.462890625 975.208312988281 976.788818359375 967.562133789062 975.237670898438 973.5380859375 975.304748535156 974.199035644531 965.223266601562 971.011169433594 985.850830078125 980.707336425781 986.793579101562 992.301635742188 987.002746582031 988.532531738281 977.164855957031 978.87841796875 981.6708984375 980.96826171875 982.803039550781 988.957702636719 989.280456542969 977.89990234375 966.2734375 967.721374511719 967.062744140625 966.905029296875 972.194519042969 981.494567871094 977.56103515625 983.113403320312 989.908813476562 987.111450195312 985.298400878906 978.587463378906 979.515502929688 976.241760253906 978.857971191406 976.484375 985.994445800781 985.565551757812 984.88671875 981.207275390625 977.535766601562 973.642211914062 980.800598144531 978.827697753906 980.481079101562 974.553588867188 983.205871582031 990.004943847656 981.760375976562 983.721923828125 979.256958007812 973.233093261719 969.729614257812 970.126586914062 981.783752441406 978.28662109375 976.767456054688 975.474853515625 977.828002929688 971.765502929688 990.26611328125 994.210693359375 990.407287597656 985.207092285156 986.858093261719 994.783508300781 1001.52392578125 994.953063964844 992.760192871094 988.70654296875 996.508361816406 996.58154296875 996.0849609375 1012.15686035156 1018.01013183594 1014.25769042969 1016.86608886719 1007.00286865234 1012.02362060547 1005.86639404297 1011.20422363281 1013.51306152344 1009.22637939453 1004.07427978516 1009.24884033203 1010.86187744141 1018.2998046875 1005.82855224609 997.969421386719 999.288757324219 991.099792480469 991.624328613281 994.367065429688 991.562377929688 994.107971191406 990.154724121094 992.638549804688 993.382995605469 990.187194824219 995.460693359375 999.52392578125 993.87890625 991.71240234375 994.684875488281 1003.83984375 1000.51531982422 991.687194824219 1001.23583984375 1003.75762939453 999.898010253906 1009.439453125 1012.73046875 1013.69549560547 1013.20141601562 1008.81158447266 1009.26428222656 1017.20654296875 1016.60803222656 1008.71197509766 1011.8056640625 1014.41790771484 1022.65411376953 1020.31604003906 1016.8134765625 1024.50964355469 1044.07849121094 1053.77783203125 1072.35168457031 1085.59680175781 1080.10803222656 1074.20520019531 1075.07104492188 1087.2607421875 1094.0419921875 1100.01293945312 1105.9365234375 1118.23803710938
953.613220214844 952.715759277344 959.959411621094 965.476928710938 967.446838378906 965.150512695312 970.136596679688 966.595153808594 962.003784179688 966.868286132812 966.491760253906 969.205688476562 965.767761230469 967.661071777344 968.572509765625 972.461975097656 973.047607421875 978.242248535156 973.858215332031 983.346496582031 982.270385742188 985.944641113281 988.802978515625 995.102661132812 986.564453125 980.74853515625 989.486938476562 975.414733886719 968.511840820312 975.375244140625 978.187805175781 975.95751953125 978.150329589844 971.901794433594 972.277526855469 969.837036132812 970.12060546875 976.008056640625 975.713317871094 976.769653320312 992.182434082031 983.584838867188 984.8896484375 982.1171875 977.03564453125 974.2099609375 981.140197753906 992.531982421875 989.572021484375 982.46044921875 977.121276855469 980.034790039062 977.288757324219 968.838073730469 977.9296875 979.614685058594 976.840270996094 971.327697753906 976.267211914062 983.657104492188 971.223022460938 976.150268554688 975.391845703125 973.667602539062 967.666076660156 964.151550292969 973.667663574219 973.220031738281 969.130676269531 967.653564453125 968.491271972656 971.870910644531 975.789672851562 985.214904785156 981.794006347656 974.792785644531 983.445068359375 981.865783691406 997.139953613281 998.981506347656 997.607116699219 992.730285644531 999.764892578125 996.2626953125 995.97802734375 1000.24853515625 1009.94122314453 1015.11846923828 1013.25653076172 1014.67529296875 1008.23303222656 1013.65716552734 1005.64489746094 1000.01525878906 1015.06890869141 1010.51318359375 1003.83624267578 1006.30310058594 1003.88195800781 1008.50067138672 995.093139648438 997.806579589844 994.997253417969 987.211730957031 993.541137695312 991.624816894531 986.365417480469 992.001525878906 985.070556640625 988.808288574219 992.306457519531 992.7822265625 990.538269042969 1000.79870605469 1002.39788818359 996.080871582031 1002.25994873047 1005.72509765625 1002.46099853516 991.656127929688 1001.24591064453 1011.68212890625 1007.09765625 1004.23901367188 1011.19921875 1008.45648193359 1005.96862792969 996.53564453125 998.860961914062 1010.91168212891 1008.16937255859 1011.29302978516 1017.24890136719 1026.73791503906 1022.97222900391 1018.39569091797 1011.77728271484 1035.2958984375 1044.78088378906 1058.20690917969 1074.48693847656 1088.43017578125 1092.337890625 1080.24487304688 1081.80456542969 1086.45056152344 1095.64331054688 1105.25708007812 1114.1220703125 1122.70031738281
960.993530273438 959.492431640625 963.987243652344 967.853637695312 973.76806640625 966.143432617188 966.959899902344 963.717834472656 966.59716796875 967.986267089844 971.324340820312 968.127319335938 969.516479492188 970.222473144531 972.32421875 970.931640625 973.510131835938 970.513427734375 976.230773925781 976.571716308594 972.140563964844 976.856201171875 977.797119140625 989.103942871094 991.111206054688 985.093383789062 978.194213867188 974.348083496094 966.985168457031 965.423889160156 967.005065917969 975.346313476562 974.633239746094 963.532653808594 965.518737792969 968.419311523438 971.208984375 984.796691894531 981.982055664062 976.3896484375 979.426025390625 976.04638671875 985.359497070312 976.039672851562 980.763671875 975.713989257812 979.290771484375 985.426208496094 978.560180664062 976.962158203125 977.392395019531 979.398559570312 971.795837402344 977.713928222656 969.853271484375 986.63916015625 982.350708007812 975.684387207031 974.329040527344 980.628356933594 973.600036621094 972.686157226562 968.803833007812 975.467346191406 971.75634765625 973.005737304688 979.463806152344 984.319091796875 978.501586914062 975.200866699219 971.441528320312 977.644226074219 973.8564453125 978.676452636719 983.034973144531 983.997375488281 975.739685058594 995.047790527344 997.712280273438 1004.61297607422 993.294372558594 990.187438964844 999.909484863281 995.069763183594 996.023864746094 999.78369140625 1010.72705078125 1010.55346679688 1008.28582763672 1007.34991455078 1006.8896484375 1011.29193115234 1004.65264892578 1004.12506103516 1010.79498291016 1012.28564453125 1001.16088867188 994.513732910156 995.355285644531 1005.74291992188 996.973937988281 995.897705078125 989.699279785156 989.940673828125 987.984436035156 979.93798828125 983.91259765625 988.959045410156 992.953674316406 988.123901367188 993.501403808594 989.945495605469 996.066650390625 994.3798828125 1000.326171875 990.441772460938 1009.70947265625 1003.70251464844 1003.03228759766 997.422668457031 1004.6865234375 1011.79705810547 1016.50494384766 1008.95336914062 1004.00347900391 1006.17102050781 1007.07025146484 1004.37542724609 1001.16662597656 1001.55236816406 1009.61657714844 1011.50091552734 1017.1416015625 1018.14874267578 1022.92218017578 1019.53106689453 1023.58935546875 1022.37567138672 1047.6904296875 1061.73962402344 1075.74645996094 1102.40771484375 1096.64282226562 1088.84948730469 1087.93664550781 1088.38842773438 1096.89038085938 1103.81909179688 1116.19567871094 1116.15734863281
957.448547363281 958.569885253906 963.390380859375 970.505554199219 970.287231445312 976.256713867188 956.843139648438 955.129516601562 960.480346679688 963.200012207031 966.863647460938 967.604858398438 959.062316894531 970.14404296875 971.942565917969 971.638305664062 973.564453125 964.608276367188 975.906616210938 976.563049316406 976.066040039062 979.391479492188 970.037658691406 975.002868652344 979.309204101562 974.8427734375 970.705322265625 966.8291015625 962.218994140625 965.061462402344 962.337951660156 967.956604003906 974.809753417969 967.57080078125 976.200561523438 970.839477539062 970.562683105469 979.168151855469 989.772521972656 985.242492675781 970.507995605469 959.775756835938 968.520324707031 972.032531738281 978.303527832031 979.761962890625 974.27978515625 972.934509277344 979.243896484375 982.292907714844 975.357666015625 971.275329589844 970.558715820312 979.4189453125 976.569396972656 979.479431152344 980.440002441406 972.791625976562 981.757263183594 973.059692382812 978.122375488281 966.951110839844 962.6494140625 971.299438476562 967.619018554688 978.090393066406 983.896240234375 987.082275390625 983.672729492188 980.269409179688 980.659362792969 975.295471191406 971.372314453125 971.942932128906 968.322082519531 972.580810546875 976.173095703125 982.304443359375 990.366027832031 991.764099121094 993.439453125 989.528015136719 1002.24890136719 997.321166992188 987.167907714844 999.4599609375 1010.96319580078 1008.62915039062 1009.08471679688 1016.23071289062 1002.55737304688 1003.81610107422 1003.20635986328 1004.17071533203 1014.03112792969 1006.91979980469 997.283935546875 997.281372070312 999.335144042969 996.466735839844 990.624877929688 989.203735351562 991.270446777344 988.641174316406 981.993408203125 978.999633789062 991.6748046875 979.490661621094 988.353759765625 997.220336914062 992.670288085938 992.92529296875 1001.29461669922 1003.953125 999.587890625 993.988098144531 998.925903320312 1003.08093261719 1003.68115234375 1004.42370605469 1013.14984130859 1013.12133789062 1009.43725585938 1001.02416992188 992.767944335938 997.165405273438 1003.18432617188 1007.13446044922 1006.31304931641 1006.60961914062 1009.38439941406 1018.0947265625 1017.70251464844 1017.02203369141 1022.51031494141 1023.63665771484 1025.60180664062 1033.68359375 1046.62463378906 1057.17932128906 1079.00524902344 1098.27087402344 1091.1904296875 1098.92700195312 1095.75854492188 1094.11315917969 1098.11633300781 1107.01904296875 1115.57568359375 1132.40771484375
950.553161621094 959.341735839844 949.996154785156 954.00830078125 964.567626953125 964.635131835938 956.549621582031 955.568725585938 960.910766601562 963.946960449219 963.518432617188 958.48193359375 962.127746582031 970.870666503906 982.180358886719 978.654968261719 986.6328125 976.271362304688 981.077087402344 982.655395507812 977.507629394531 975.243835449219 975.603637695312 972.467651367188 973.238647460938 975.960266113281 974.514404296875 972.93994140625 968.729797363281 968.8681640625 973.519897460938 983.877502441406 980.595397949219 977.282897949219 977.2978515625 978.173889160156 977.078002929688 984.382934570312 994.48291015625 979.410339355469 973.756774902344 965.080322265625 976.418090820312 972.516967773438 977.478759765625 975.585266113281 974.776000976562 970.370239257812 978.35302734375 970.785461425781 971.506469726562 969.345886230469 965.624938964844 976.589904785156 978.680053710938 977.544189453125 970.2236328125 973.620971679688 974.622375488281 969.844482421875 968.581848144531 965.908996582031 971.098999023438 972.841186523438 974.140258789062 981.71484375 987.30126953125 977.723449707031 979.676635742188 978.829467773438 978.643432617188 973.416809082031 975.736083984375 967.448059082031 964.198059082031 966.443176269531 975.708435058594 976.840209960938 982.953674316406 979.993103027344 987.945617675781 991.350158691406 995.841857910156 999.689208984375 987.981384277344 998.877380371094 995.006286621094 1003.31744384766 1005.88751220703 1010.43328857422 1011.10119628906 997.200805664062 999.108825683594 999.099182128906 1001.24151611328 1005.28570556641 1000.31237792969 998.291564941406 992.557067871094 987.187927246094 985.101501464844 987.654296875 995.564025878906 990.175659179688 981.376281738281 981.87451171875 983.498107910156 981.243041992188 986.303405761719 990.318420410156 992.591430664062 997.135192871094 996.767822265625 1003.59814453125 1000.12353515625 995.805419921875 993.56884765625 989.91748046875 994.002624511719 996.453369140625 1010.92364501953 1010.705078125 1004.83245849609 991.603637695312 992.135681152344 998.75390625 1000.62750244141 1013.1181640625 1009.24645996094 1013.74517822266 1018.99798583984 1018.41973876953 1030.37683105469 1029.60913085938 1026.37805175781 1034.5556640625 1036.38366699219 1036.80383300781 1051.8984375 1064.68774414062 1089.04321289062 1091.19445800781 1101.78051757812 1108.20446777344 1111.67456054688 1102.51599121094 1106.07104492188 1123.90954589844 1121.76440429688 1135.02404785156
952.830871582031 959.6904296875 952.881958007812 951.396850585938 953.477416992188 955.4599609375 960.501831054688 958.873107910156 961.598083496094 964.580261230469 960.725524902344 963.456970214844 969.874084472656 982.347106933594 988.218933105469 986.780334472656 982.069030761719 978.157592773438 977.780822753906 981.705871582031 976.049682617188 982.696105957031 981.359741210938 980.962890625 976.452819824219 974.16943359375 975.915100097656 977.875122070312 975.067138671875 978.671508789062 981.952514648438 977.139526367188 976.322204589844 969.187683105469 978.59228515625 980.227355957031 977.874267578125 978.234130859375 985.308898925781 983.214416503906 970.048400878906 969.951782226562 976.589782714844 969.135437011719 967.906311035156 966.834716796875 977.374206542969 970.836547851562 979.517517089844 976.781311035156 966.002685546875 973.658386230469 975.838623046875 974.510803222656 970.6005859375 970.067504882812 966.755004882812 965.785217285156 967.363037109375 972.254638671875 965.782287597656 964.874755859375 971.267883300781 974.098876953125 971.973693847656 979.850341796875 985.734008789062 976.616638183594 976.597106933594 973.686767578125 972.17919921875 979.753234863281 977.588195800781 970.054321289062 963.216369628906 958.262023925781 958.078186035156 971.869201660156 971.164489746094 972.42431640625 979.855041503906 985.321594238281 986.537658691406 994.3125 990.7392578125 995.659240722656 992.396362304688 999.622131347656 996.647644042969 1005.61737060547 1001.16632080078 989.757568359375 991.116149902344 1000.47412109375 1001.37481689453 1001.70959472656 996.534301757812 994.546264648438 993.475036621094 981.375183105469 980.678649902344 983.667297363281 984.0673828125 990.405090332031 992.088439941406 980.503356933594 979.806335449219 976.765014648438 984.700805664062 988.336669921875 996.837097167969 999.102783203125 995.565307617188 999.64892578125 992.917724609375 1003.43560791016 998.287902832031 987.676574707031 994.211303710938 998.190185546875 999.129638671875 998.312255859375 1005.89434814453 998.264343261719 1005.18432617188 1009.26959228516 1011.67681884766 1018.97094726562 1011.98425292969 1016.9794921875 1025.04467773438 1025.08984375 1021.14410400391 1034.35815429688 1040.90185546875 1039.80541992188 1042.08837890625 1046.61206054688 1059.681640625 1076.60900878906 1090.45397949219 1100.5224609375 1108.8349609375 1112.46789550781 1120.98852539062 1112.87377929688 1113.50354003906 1127.93334960938 1141.29077148438 1145.57861328125
942.966247558594 947.517517089844 957.545227050781 960.52978515625 953.867126464844 949.717407226562 952.197143554688 955.535705566406 953.510986328125 955.915405273438 959.250732421875 971.894775390625 974.889404296875 970.919860839844 975.965026855469 978.736877441406 973.276062011719 977.75048828125 977.1025390625 983.517456054688 978.622924804688 990.258483886719 976.962219238281 979.2333984375 970.917175292969 970.131225585938 984.026000976562 986.8681640625 982.661315917969 979.502380371094 982.766662597656 979.585021972656 979.908081054688 968.599853515625 975.890869140625 978.645385742188 986.169189453125 978.170227050781 976.628601074219 984.477172851562 982.124328613281 969.327453613281 966.988830566406 969.142395019531 974.009643554688 968.941711425781 976.194091796875 978.708190917969 985.470458984375 976.193420410156 971.32763671875 978.2890625 973.960144042969 974.443420410156 975.607238769531 966.370422363281 970.210510253906 968.576843261719 965.016906738281 971.82421875 968.354125976562 968.800109863281 972.349731445312 974.09326171875 974.7919921875 978.432434082031 985.765563964844 979.819091796875 971.09423828125 970.191223144531 970.552917480469 972.144104003906 975.2001953125 969.111938476562 964.863830566406 955.992065429688 963.747802734375 960.058898925781 967.182495117188 970.164306640625 971.418579101562 982.320739746094 982.274536132812 986.241271972656 993.099975585938 982.3642578125 986.964172363281 992.674438476562 992.296752929688 998.86669921875 1003.29510498047 989.662353515625 981.191101074219 985.478149414062 989.782165527344 992.327941894531 984.634094238281 992.396728515625 980.960693359375 979.664489746094 978.70703125 984.206970214844 980.950500488281 987.233215332031 993.581115722656 988.457336425781 983.159423828125 984.970458984375 979.6865234375 983.0322265625 991.486389160156 990.5244140625 990.480651855469 993.356262207031 991.231567382812 1004.0927734375 996.780090332031 995.932250976562 996.8779296875 994.349975585938 996.679504394531 998.414489746094 996.418151855469 996.729553222656 1003.76049804688 1008.27569580078 1013.67260742188 1015.05877685547 1024.96520996094 1027.98486328125 1029.22216796875 1035.18811035156 1032.67333984375 1046.29565429688 1050.8466796875 1046.26232910156 1057.44689941406 1049.62756347656 1064.86328125 1075.72119140625 1098.712890625 1102.55798339844 1113.85363769531 1115.23791503906 1115.39721679688 1115.47802734375 1122.87182617188 1134.72448730469 1154.25524902344 1153.93395996094
947.497985839844 951.856506347656 955.195922851562 953.353149414062 946.224975585938 947.821472167969 954.199035644531 956.377258300781 954.733703613281 958.844482421875 962.182739257812 970.171508789062 971.421447753906 968.917114257812 972.876953125 974.348693847656 973.539916992188 976.225463867188 986.178588867188 987.830749511719 982.459655761719 994.259582519531 981.582275390625 975.508483886719 966.552490234375 972.705505371094 980.874450683594 985.596069335938 991.687744140625 994.180603027344 981.722595214844 978.626037597656 976.344604492188 974.151672363281 972.062377929688 978.729309082031 984.517517089844 987.035400390625 982.242736816406 980.455871582031 983.63623046875 975.476928710938 965.464294433594 970.131591796875 961.376342773438 969.031555175781 974.516174316406 980.688232421875 984.974609375 983.392028808594 977.278503417969 965.984680175781 968.313293457031 971.804626464844 973.161926269531 970.407897949219 967.272216796875 972.102233886719 979.408020019531 973.555236816406 979.41455078125 966.981994628906 960.535461425781 971.998779296875 977.599853515625 973.4296875 977.612548828125 975.912170410156 965.958923339844 964.238220214844 967.800048828125 967.09130859375 970.396179199219 973.427917480469 968.501220703125 965.641784667969 967.81640625 979.129943847656 974.954772949219 974.527221679688 980.250183105469 979.123596191406 979.99853515625 987.944702148438 988.93896484375 991.651000976562 987.947509765625 983.230651855469 986.0673828125 988.447204589844 997.850280761719 985.534484863281 978.752624511719 981.247253417969 983.974670410156 988.145446777344 984.694458007812 981.057800292969 973.928405761719 987.168273925781 980.593872070312 978.860656738281 980.912780761719 984.834594726562 986.48779296875 984.100219726562 982.711853027344 981.441162109375 981.72216796875 981.790893554688 988.427978515625 980.797302246094 988.242065429688 993.39794921875 988.8251953125 994.776916503906 1001.88879394531 1003.12878417969 992.606872558594 1002.724609375 993.016479492188 992.183959960938 991.611694335938 996.548034667969 1003.80792236328 1006.06494140625 1009.42260742188 1015.86102294922 1025.13098144531 1027.33605957031 1032.7529296875 1033.75134277344 1036.70886230469 1044.89831542969 1050.82580566406 1056.17504882812 1059.73962402344 1058.20727539062 1072.384765625 1087.51135253906 1095.25964355469 1111.08361816406 1113.01623535156 1114.9404296875 1123.958984375 1131.62817382812 1143.07641601562 1150.73937988281 1158.06262207031 1165.31469726562
941.894165039062 941.249633789062 953.012878417969 946.222961425781 953.483947753906 955.90478515625 961.937133789062 954.407653808594 961.829040527344 969.414001464844 966.677490234375 967.135559082031 965.288513183594 967.046936035156 972.509948730469 973.855407714844 978.201843261719 985.13671875 975.673522949219 989.797668457031 984.975524902344 983.265930175781 978.88134765625 972.073547363281 961.04052734375 964.888427734375 977.70556640625 980.520690917969 981.623046875 979.451721191406 974.919067382812 971.451904296875 969.374145507812 975.908142089844 971.844604492188 974.542053222656 980.119750976562 970.501159667969 979.815307617188 971.904968261719 971.71337890625 969.751953125 963.903991699219 961.862243652344 963.940246582031 967.444946289062 968.298950195312 974.426086425781 979.733032226562 981.466064453125 981.112243652344 978.975891113281 970.119995117188 969.620544433594 966.592468261719 974.100830078125 968.0751953125 971.584899902344 974.105590820312 981.850646972656 978.501586914062 970.807556152344 965.092712402344 967.1220703125 970.516906738281 973.808288574219 972.950622558594 973.807983398438 969.363464355469 967.115966796875 961.468933105469 964.730773925781 961.371887207031 970.738037109375 965.976196289062 962.916687011719 970.640075683594 968.85205078125 983.660888671875 979.565307617188 981.213439941406 973.739013671875 974.244018554688 984.805786132812 985.202026367188 988.425720214844 988.521850585938 986.260803222656 980.893798828125 979.414306640625 985.800903320312 982.145080566406 973.201538085938 973.294067382812 978.820983886719 984.392761230469 984.917358398438 983.04052734375 979.027893066406 984.610717773438 985.772521972656 985.885559082031 980.048278808594 986.148803710938 982.056030273438 982.885375976562 975.961547851562 990.648010253906 983.614379882812 981.890258789062 986.7607421875 989.131652832031 989.247619628906 990.010314941406 988.304809570312 993.218078613281 1000.35729980469 994.57861328125 995.491088867188 999.52783203125 1000.6318359375 999.747863769531 994.889099121094 992.732360839844 1006.86828613281 1013.4853515625 1012.263671875 1014.90081787109 1023.71343994141 1018.14892578125 1031.27111816406 1030.23461914062 1033.54333496094 1047.88842773438 1050.86572265625 1062.57189941406 1062.59521484375 1071.21984863281 1081.80151367188 1090.61596679688 1104.42944335938 1109.09155273438 1113.46154785156 1117.24548339844 1137.90612792969 1141.74560546875 1147.68566894531 1162.33166503906 1168.65014648438 1162.048828125
946.951599121094 947.647216796875 951.598205566406 952.51318359375 956.258728027344 964.651306152344 950.753051757812 959.361267089844 967.354675292969 972.316162109375 971.077270507812 969.136596679688 973.655029296875 968.749206542969 968.695739746094 972.1552734375 976.951599121094 976.5498046875 979.805297851562 980.435668945312 977.443298339844 982.427612304688 979.408081054688 970.069519042969 964.041564941406 969.195617675781 979.083679199219 982.154724121094 988.608581542969 979.848815917969 976.157653808594 970.463195800781 967.897033691406 976.1611328125 979.351623535156 984.336242675781 976.370300292969 970.931396484375 973.145324707031 971.72705078125 975.495666503906 976.234985351562 968.402465820312 963.801940917969 959.479919433594 969.224914550781 975.806213378906 972.194763183594 970.481811523438 975.073425292969 976.633178710938 976.216003417969 964.30419921875 965.11474609375 967.728576660156 976.058471679688 961.952331542969 963.013916015625 969.514587402344 976.652404785156 971.102294921875 968.945251464844 971.737243652344 974.609558105469 971.355163574219 974.450012207031 976.471557617188 969.671203613281 972.907836914062 971.433288574219 972.604248046875 966.434875488281 965.316711425781 968.379577636719 972.095336914062 962.04736328125 972.061340332031 967.315063476562 977.06005859375 977.908569335938 976.466430664062 973.414184570312 978.022094726562 980.676696777344 986.414733886719 985.069702148438 986.270812988281 977.251770019531 971.681823730469 976.528991699219 974.158752441406 969.730346679688 968.662658691406 976.408813476562 978.909545898438 987.221740722656 982.282409667969 980.027587890625 981.32373046875 979.011108398438 979.39013671875 997.308776855469 987.487182617188 988.622741699219 975.324462890625 982.019775390625 984.833679199219 985.628112792969 982.302551269531 976.303466796875 983.520446777344 987.112426757812 988.62060546875 982.863708496094 988.480346679688 991.337463378906 999.7841796875 1003.39752197266 1012.13427734375 1013.69696044922 1009.18310546875 1009.32293701172 1008.66748046875 1004.5263671875 1007.01025390625 1010.06793212891 1006.99969482422 1015.99700927734 1024.2880859375 1020.95812988281 1034.34448242188 1032.17004394531 1030.06909179688 1044.23571777344 1047.49475097656 1055.02734375 1069.64514160156 1082.13879394531 1082.05895996094 1091.85961914062 1101.74230957031 1110.43859863281 1117.25402832031 1123.54638671875 1138.75744628906 1151.08947753906 1158.90087890625 1167.74609375 1156.81225585938 1150.2734375
951.138732910156 952.762756347656 953.832458496094 955.297241210938 954.555419921875 955.723327636719 960.437194824219 964.702209472656 960.158630371094 965.761474609375 968.252197265625 961.1806640625 968.310546875 956.656677246094 973.613464355469 974.148681640625 979.0400390625 988.40478515625 979.111938476562 978.588806152344 977.751159667969 981.127746582031 974.261779785156 966.693481445312 969.3359375 980.203430175781 983.447387695312 984.688903808594 976.375 980.982299804688 979.209899902344 979.605712890625 975.962585449219 973.671813964844 969.012023925781 975.350280761719 973.573669433594 969.370544433594 971.05078125 973.622375488281 972.762512207031 969.860595703125 963.926635742188 961.93505859375 966.684936523438 972.265808105469 969.7890625 972.435607910156 968.777587890625 970.870544433594 971.34716796875 968.555603027344 958.713745117188 964.275634765625 966.37548828125 969.337829589844 966.79052734375 973.328186035156 973.135803222656 969.845092773438 972.691040039062 976.884826660156 975.661926269531 977.634033203125 975.364624023438 964.189392089844 969.343139648438 965.113586425781 974.3740234375 970.83544921875 973.116088867188 962.868591308594 966.577514648438 965.267822265625 974.716491699219 968.753723144531 972.70849609375 964.926696777344 964.100524902344 969.761047363281 968.489990234375 966.573547363281 970.123229980469 974.844543457031 974.451232910156 978.526550292969 982.139526367188 973.837646484375 975.633911132812 976.08203125 981.932922363281 965.183044433594 958.626586914062 968.899475097656 970.769653320312 968.028503417969 978.282836914062 971.634521484375 975.809753417969 977.201416015625 979.8056640625 988.73681640625 985.208435058594 976.933227539062 977.917236328125 984.918518066406 988.446044921875 985.794189453125 974.505615234375 976.646789550781 987.311340332031 992.441162109375 993.141418457031 993.088745117188 993.276306152344 990.213439941406 1001.11895751953 1018.59222412109 1023.53735351562 1017.58758544922 1018.78845214844 1019.11041259766 1019.92535400391 1012.85247802734 1004.18060302734 1008.06518554688 1012.98614501953 1012.8779296875 1023.64916992188 1023.51818847656 1031.35607910156 1034.29833984375 1039.57763671875 1044.82666015625 1045.77294921875 1061.21484375 1062.73413085938 1067.12805175781 1082.13391113281 1089.44836425781 1097.87255859375 1110.560546875 1122.435546875 1126.32763671875 1128.95971679688 1148.44104003906 1160.263671875 1176.36926269531 1161.48669433594 1158.49829101562
949.90380859375 956.1064453125 945.243713378906 946.942321777344 957.203552246094 954.3427734375 966.967956542969 971.762390136719 965.667114257812 971.157958984375 970.872009277344 959.265563964844 961.517639160156 966.642456054688 974.228210449219 963.179382324219 967.976257324219 973.3701171875 980.392150878906 970.733215332031 968.551330566406 969.90625 968.814880371094 975.182312011719 971.726501464844 980.197387695312 986.747924804688 980.841674804688 973.326416015625 968.760009765625 970.210266113281 971.366271972656 978.308898925781 969.372375488281 967.650512695312 971.6142578125 970.647583007812 972.794067382812 965.670837402344 968.655578613281 969.148071289062 968.418884277344 962.772277832031 962.058959960938 964.875732421875 964.752075195312 967.72265625 969.821533203125 971.749572753906 973.789978027344 972.172180175781 969.91650390625 966.619323730469 965.323303222656 967.861328125 963.207763671875 965.640808105469 972.96630859375 980.894470214844 969.931030273438 967.203857421875 969.653442382812 971.548706054688 969.480346679688 958.11669921875 965.121704101562 959.055297851562 966.180969238281 965.955688476562 964.250061035156 966.135375976562 959.91162109375 972.860412597656 972.337524414062 973.688354492188 971.195068359375 970.463989257812 956.585144042969 964.83544921875 973.027221679688 966.043151855469 963.449035644531 959.757751464844 965.772155761719 976.9794921875 972.872009277344 981.21875 978.81494140625 978.566955566406 976.423767089844 971.200378417969 972.380798339844 969.396789550781 973.385986328125 956.891174316406 963.824035644531 974.111694335938 965.636657714844 967.419982910156 969.334777832031 980.508239746094 986.229064941406 983.769226074219 986.415344238281 988.337036132812 988.909301757812 997.398864746094 995.073303222656 985.940002441406 983.650817871094 996.599487304688 999.201354980469 1007.97253417969 1007.59716796875 1004.26885986328 998.42529296875 1009.06768798828 1010.90423583984 1023.00628662109 1021.72772216797 1020.94421386719 1014.64178466797 1018.40887451172 1025.2138671875 1012.85565185547 1011.86676025391 1017.62493896484 1021.60778808594 1032.42883300781 1029.46032714844 1031.08264160156 1037.27490234375 1048.51770019531 1052.63110351562 1060.05493164062 1067.77587890625 1059.91223144531 1077.7158203125 1085.34301757812 1089.82885742188 1097.18737792969 1118.31213378906 1129.52868652344 1139.53759765625 1135.39892578125 1142.60510253906 1157.74890136719 1158.85473632812 1166.65637207031 1149.6630859375
953.386291503906 951.946105957031 951.218627929688 952.751037597656 960.185729980469 967.831176757812 966.189270019531 974.278381347656 968.559631347656 963.085327148438 965.990051269531 955.223876953125 961.226379394531 962.04443359375 968.738098144531 968.395874023438 965.368835449219 980.327697753906 982.331237792969 970.737487792969 974.565002441406 969.3359375 972.021484375 963.023620605469 965.598754882812 968.741638183594 976.19921875 979.582153320312 974.577087402344 977.833618164062 963.148681640625 959.820434570312 967.210510253906 972.9921875 971.101501464844 968.942687988281 964.786804199219 961.493347167969 960.875732421875 958.72265625 963.740905761719 969.4814453125 963.226989746094 963.344787597656 970.277770996094 963.57421875 972.046081542969 970.502624511719 966.99609375 976.584350585938 977.962036132812 970.2470703125 960.437377929688 965.159423828125 967.754516601562 969.841003417969 968.288696289062 971.652770996094 974.460083007812 973.267211914062 968.193603515625 964.514282226562 968.334655761719 973.900329589844 972.323913574219 965.439270019531 960.785461425781 959.012512207031 963.441284179688 959.722839355469 963.14794921875 962.820373535156 969.822204589844 973.395935058594 967.329528808594 973.585693359375 970.522705078125 965.262329101562 961.337829589844 970.93310546875 974.226196289062 966.353698730469 971.455017089844 974.001586914062 977.097534179688 973.029724121094 969.026794433594 972.402954101562 970.043701171875 974.2998046875 968.554138183594 974.588073730469 977.462280273438 968.463623046875 966.050354003906 971.162475585938 960.709655761719 968.184326171875 972.247985839844 973.125549316406 979.263916015625 979.616271972656 978.402282714844 990.515258789062 987.513366699219 997.939086914062 991.702270507812 996.020080566406 985.684692382812 985.001831054688 1001.7978515625 999.359191894531 1000.13854980469 999.513061523438 1008.50524902344 1007.29876708984 1015.29992675781 1013.43304443359 1010.06927490234 1013.40533447266 1014.068359375 1019.67071533203 1015.23254394531 1026.72497558594 1025.54614257812 1019.45397949219 1023.60601806641 1026.671875 1031.03515625 1033.40344238281 1038.29504394531 1042.26818847656 1049.31506347656 1061.91748046875 1057.69311523438 1068.10791015625 1075.41223144531 1079.66320800781 1086.66430664062 1096.37719726562 1105.00744628906 1106.69799804688 1130.53930664062 1133.12487792969 1143.75244140625 1148.27709960938 1154.80249023438 1157.4580078125 1157.65454101562 1148.2724609375
959.494079589844 948.996276855469 953.693176269531 956.051147460938 958.444396972656 957.460327148438 964.906921386719 968.993041992188 972.424438476562 964.884399414062 958.492492675781 963.425048828125 963.000915527344 969.129150390625 968.724731445312 977.908325195312 969.55908203125 981.149047851562 975.39599609375 967.776611328125 964.559265136719 966.960693359375 960.837524414062 961.056945800781 958.488037109375 964.752075195312 968.462768554688 973.805847167969 968.07666015625 967.486572265625 961.602661132812 967.145263671875 974.311157226562 965.769836425781 966.763122558594 966.850769042969 962.05712890625 963.092712402344 962.493408203125 969.31884765625 964.641540527344 962.776916503906 955.010375976562 957.514526367188 961.268005371094 967.9814453125 958.710327148438 965.257080078125 965.046997070312 972.831909179688 976.171264648438 975.847106933594 962.145568847656 966.216979980469 962.503479003906 963.276123046875 966.3291015625 973.879272460938 972.5751953125 967.638366699219 961.516418457031 959.938903808594 960.595825195312 966.01611328125 967.077209472656 966.1728515625 968.817993164062 966.742980957031 961.521850585938 959.157043457031 963.445678710938 968.730529785156 965.606567382812 971.626342773438 965.881530761719 962.881042480469 958.715576171875 954.905395507812 965.435485839844 967.860229492188 968.700073242188 974.060180664062 971.277038574219 966.375 968.273803710938 971.260681152344 968.1923828125 970.980407714844 967.369079589844 970.436584472656 968.029357910156 965.166381835938 965.619079589844 971.718444824219 963.518188476562 964.504943847656 972.3896484375 981.239807128906 978.156677246094 978.111022949219 977.422241210938 985.60498046875 994.881164550781 989.540466308594 990.363159179688 991.622802734375 980.689331054688 983.963134765625 983.307373046875 983.797668457031 996.307556152344 991.682861328125 1002.00830078125 1001.91613769531 1003.80261230469 998.785217285156 1004.39282226562 1012.11901855469 1004.93157958984 1013.28839111328 1016.48126220703 1020.98492431641 1026.55981445312 1029.60180664062 1025.46716308594 1031.74829101562 1029.03955078125 1036.12194824219 1030.20446777344 1041.41882324219 1038.44750976562 1049.42724609375 1055.59216308594 1063.70227050781 1070.55310058594 1071.0859375 1079.66528320312 1085.98901367188 1092.42883300781 1102.07238769531 1105.16748046875 1111.88049316406 1126.38513183594 1128.7001953125 1136.61022949219 1138.58020019531 1142.04357910156 1144.52856445312 1148.71008300781 1147.82165527344
958.40234375 955.042236328125 952.758666992188 963.284301757812 964.151306152344 961.962585449219 965.444641113281 969.061401367188 970.404602050781 970.343933105469 970.508972167969 965.623718261719 970.846496582031 962.063720703125 968.5478515625 976.970886230469 974.344848632812 974.668212890625 981.272521972656 967.068298339844 959.254028320312 964.406494140625 954.224670410156 952.286254882812 957.133605957031 959.477844238281 961.932250976562 964.224426269531 968.649230957031 975.104553222656 960.991577148438 965.534973144531 969.413146972656 961.541320800781 968.261596679688 971.5771484375 961.478210449219 954.070922851562 957.361206054688 963.638488769531 966.478515625 956.846801757812 958.85791015625 960.410705566406 963.567443847656 968.629821777344 952.239196777344 964.146179199219 967.6162109375 968.020446777344 970.931884765625 970.496398925781 962.402465820312 960.303405761719 959.335693359375 965.955627441406 960.569580078125 964.40869140625 959.227966308594 969.083190917969 967.5 957.5341796875 952.56201171875 962.687561035156 966.009033203125 965.2724609375 972.499084472656 963.058349609375 960.601806640625 954.596984863281 960.469299316406 966.204895019531 963.701416015625 962.43359375 964.074951171875 958.702270507812 963.803771972656 961.765930175781 964.271728515625 966.797485351562 967.274963378906 963.711669921875 966.254516601562 971.403930664062 971.876586914062 969.070861816406 966.242248535156 968.297546386719 968.573059082031 972.365539550781 969.379577636719 969.768310546875 954.311340332031 968.883605957031 968.127319335938 964.272094726562 974.17919921875 977.885009765625 976.001098632812 980.147338867188 980.354248046875 987.348510742188 991.349060058594 988.169006347656 987.523620605469 988.300476074219 977.769958496094 973.3837890625 979.080932617188 978.917297363281 986.956420898438 1000.19915771484 1001.51171875 993.842407226562 991.188720703125 999.51123046875 1000.13134765625 1006.51898193359 1012.87774658203 1006.35827636719 1006.3837890625 1010.9091796875 1027.638671875 1030.318359375 1031.04089355469 1029.52185058594 1042.63586425781 1032.60107421875 1028.94665527344 1041.46545410156 1045.724609375 1050.47961425781 1053.52282714844 1060.54626464844 1066.00744628906 1077.18151855469 1080.61499023438 1087.9326171875 1092.7392578125 1093.74829101562 1100.13012695312 1110.67626953125 1118.21667480469 1128.52807617188 1133.63745117188 1132.97058105469 1136.48266601562 1138.79833984375 1143.94873046875 1142.01672363281
960.313415527344 964.13720703125 960.762084960938 965.153503417969 966.726257324219 959.700256347656 965.570739746094 974.353698730469 973.569091796875 973.118896484375 974.772216796875 971.282897949219 969.624755859375 962.225402832031 960.748291015625 971.326782226562 975.832153320312 976.07958984375 979.146911621094 973.551208496094 965.028076171875 963.613464355469 958.436096191406 961.400756835938 957.718933105469 957.472045898438 962.571350097656 960.6923828125 960.952331542969 964.98779296875 974.992553710938 973.164855957031 968.014038085938 972.477722167969 971.564636230469 971.1796875 970.416687011719 958.096923828125 948.571899414062 960.650146484375 961.62060546875 961.446655273438 961.678894042969 956.974365234375 964.064575195312 962.526794433594 959.685485839844 965.724060058594 968.747680664062 957.338989257812 965.621398925781 966.771057128906 959.387329101562 958.515441894531 953.371826171875 952.621643066406 958.535034179688 960.788757324219 964.845581054688 967.838745117188 962.268005371094 953.681823730469 947.9169921875 947.548828125 949.1396484375 955.6552734375 962.97021484375 968.648742675781 964.622863769531 961.007446289062 960.317260742188 961.340393066406 957.342834472656 959.853393554688 973.664367675781 965.575805664062 961.273986816406 956.529296875 957.6162109375 966.511474609375 975.353820800781 971.015808105469 968.389770507812 973.734008789062 968.783996582031 975.316162109375 975.3330078125 971.111511230469 968.431579589844 963.115844726562 969.706359863281 975.470764160156 972.290588378906 966.112915039062 972.464782714844 966.183166503906 978.29345703125 981.356750488281 976.078674316406 987.590393066406 987.770080566406 988.953552246094 980.372802734375 981.073059082031 974.382873535156 973.560729980469 967.841918945312 972.170654296875 983.405639648438 984.511901855469 987.671875 996.074096679688 999.549255371094 992.093139648438 988.27490234375 988.317260742188 999.345764160156 1005.81237792969 1003.67694091797 1006.21490478516 1008.25927734375 1015.16778564453 1027.19384765625 1030.68798828125 1029.39953613281 1028.47143554688 1038.16784667969 1040.80004882812 1038.56030273438 1036.12121582031 1046.64282226562 1047.19787597656 1050.23022460938 1064.240234375 1067.11193847656 1074.34460449219 1091.91259765625 1089.3662109375 1097.92126464844 1100.16638183594 1102.59680175781 1102.34362792969 1117.00646972656 1122.25268554688 1123.21337890625 1131.22119140625 1131.84265136719 1135.49096679688 1132.42248535156 1139.64465332031
979.245910644531 964.070251464844 969.708312988281 974.492553710938 966.458984375 965.190490722656 972.5068359375 968.848449707031 966.822448730469 961.298156738281 969.6396484375 966.398620605469 966.13623046875 972.8427734375 969.710388183594 974.573059082031 974.935852050781 978.444274902344 979.052917480469 971.457153320312 967.328125 965.102661132812 965.918823242188 964.54638671875 959.550170898438 956.450561523438 960.503051757812 953.730163574219 960.362548828125 966.782348632812 969.26513671875 970.507934570312 967.994934082031 969.875244140625 974.013122558594 972.085693359375 962.403137207031 963.478088378906 959.06640625 953.498718261719 958.667297363281 965.480529785156 969.82373046875 959.336242675781 964.352416992188 968.443176269531 966.918518066406 962.476135253906 965.013916015625 954.08544921875 964.074462890625 960.561462402344 961.3740234375 952.801940917969 947.472778320312 955.370971679688 957.3173828125 953.701171875 960.49755859375 976.559936523438 962.909362792969 956.845947265625 958.3115234375 945.848999023438 939.800476074219 949.127136230469 963.647827148438 967.3505859375 965.195739746094 960.808349609375 960.753234863281 966.933837890625 961.47314453125 970.683349609375 967.792053222656 967.618347167969 966.149841308594 958.689270019531 960.108337402344 970.061828613281 981.483276367188 982.187561035156 975.263305664062 978.997741699219 971.760925292969 975.946350097656 973.977600097656 964.812255859375 968.068237304688 971.638793945312 969.5986328125 975.518798828125 972.852416992188 974.072448730469 978.287536621094 972.2021484375 978.415771484375 982.322082519531 979.801025390625 985.14111328125 986.828674316406 991.968383789062 993.556091308594 990.119812011719 981.502868652344 973.851623535156 964.279174804688 972.165405273438 985.024963378906 993.078552246094 986.149658203125 991.293701171875 988.390380859375 986.927368164062 983.198364257812 993.3564453125 998.566101074219 998.944641113281 1006.59802246094 999.629272460938 1010.92718505859 1016.53179931641 1015.25402832031 1025.24169921875 1027.80822753906 1032.8173828125 1034.10571289062 1048.708984375 1040.26147460938 1036.99145507812 1048.34265136719 1049.50573730469 1071.11694335938 1063.19079589844 1076.86010742188 1076.42810058594 1092.814453125 1102.70568847656 1095.64282226562 1090.29028320312 1100.61657714844 1102.40966796875 1113.72912597656 1115.46691894531 1114.71520996094 1119.87719726562 1116.48608398438 1126.40808105469 1116.22863769531 1126.68957519531
973.770385742188 975.950073242188 975.904907226562 964.080444335938 977.7177734375 976.168640136719 970.795837402344 971.375061035156 963.578735351562 965.869445800781 978.196899414062 974.433715820312 970.471496582031 979.440612792969 975.967163085938 981.53515625 979.067932128906 979.499328613281 971.122009277344 967.145385742188 969.965026855469 973.105041503906 966.954650878906 964.838989257812 957.019958496094 955.442810058594 962.332397460938 965.346313476562 960.975830078125 964.250610351562 968.221252441406 962.040466308594 970.047485351562 970.013000488281 970.751342773438 969.299133300781 962.100646972656 966.57177734375 961.643981933594 957.640380859375 957.818908691406 961.018005371094 968.6240234375 960.962707519531 966.017456054688 967.890869140625 966.322814941406 959.488220214844 966.331481933594 962.084228515625 955.415954589844 962.429138183594 956.47412109375 952.516479492188 951.286437988281 958.040405273438 960.316711425781 960.741577148438 964.404968261719 968.422546386719 964.054748535156 965.335083007812 953.242919921875 950.853515625 946.428771972656 957.897155761719 962.349853515625 970.928405761719 964.885559082031 953.803588867188 953.869445800781 959.348754882812 970.692260742188 970.115173339844 964.3525390625 959.716796875 963.02490234375 965.631408691406 960.599487304688 968.793212890625 980.903625488281 974.903930664062 968.048034667969 967.717102050781 970.584167480469 967.659912109375 967.775146484375 966.643737792969 963.6572265625 972.720153808594 974.481567382812 968.153259277344 972.6025390625 980.610778808594 977.648315429688 972.672058105469 978.205383300781 973.8544921875 974.173400878906 985.452392578125 987.392639160156 986.611511230469 992.681762695312 989.149536132812 982.016479492188 968.150695800781 960.772766113281 963.790466308594 971.468139648438 981.722290039062 987.082763671875 984.24462890625 983.777465820312 992.617858886719 994.236572265625 987.320495605469 998.505065917969 1001.65771484375 1011.16973876953 997.975952148438 1003.98046875 1012.12127685547 1023.734375 1025.25134277344 1031.51220703125 1034.21264648438 1034.69372558594 1031.15954589844 1030.74951171875 1042.30017089844 1046.19775390625 1061.65979003906 1068.53210449219 1072.96130371094 1086.93115234375 1084.00720214844 1095.54736328125 1102.79577636719 1094.26513671875 1089.13818359375 1098.52172851562 1107.01965332031 1115.72021484375 1109.38330078125 1109.31262207031 1119.36096191406 1121.65478515625 1119.96350097656 1115.50036621094 1112.23034667969
977.958374023438 973.334350585938 969.235046386719 966.975158691406 974.563293457031 968.491638183594 968.307250976562 972.220153808594 973.994140625 976.155639648438 976.20068359375 980.049194335938 983.385192871094 980.684265136719 975.495483398438 983.279907226562 967.725524902344 968.868041992188 967.651184082031 963.063537597656 970.793701171875 967.683532714844 958.699829101562 956.390930175781 963.999450683594 958.964782714844 957.389282226562 962.092346191406 958.803649902344 961.989501953125 959.439880371094 958.228210449219 959.407348632812 961.78466796875 963.280151367188 968.968383789062 962.405151367188 964.182983398438 964.773376464844 958.833801269531 956.838745117188 959.2978515625 959.109130859375 967.697204589844 964.318481445312 963.997741699219 955.983093261719 965.216369628906 965.998046875 956.06005859375 945.803405761719 946.035888671875 952.2509765625 952.928527832031 949.154174804688 959.876892089844 956.631896972656 954.462463378906 964.017944335938 962.25634765625 960.536254882812 959.3701171875 952.238403320312 951.773193359375 946.774047851562 965.050109863281 965.024108886719 961.215026855469 958.225036621094 959.834106445312 952.994445800781 964.955261230469 963.370422363281 961.666381835938 957.844055175781 955.504577636719 966.807373046875 973.331420898438 966.09814453125 967.751831054688 971.588684082031 967.314514160156 962.035095214844 965.534240722656 968.114868164062 968.764221191406 975.029907226562 963.350158691406 967.19921875 975.089599609375 969.878723144531 972.557373046875 979.754089355469 983.465209960938 976.441528320312 972.108642578125 976.158752441406 970.7060546875 973.677307128906 977.405883789062 980.901184082031 987.078002929688 994.099304199219 997.85400390625 977.206604003906 974.312133789062 968.798889160156 970.392211914062 978.009826660156 990.105895996094 991.351135253906 990.270629882812 981.262573242188 990.280883789062 992.034301757812 991.421630859375 1003.28918457031 1002.34014892578 1010.92645263672 1005.71142578125 1011.03637695312 1015.71459960938 1027.49780273438 1030.94396972656 1032.91186523438 1028.03259277344 1034.05969238281 1033.033203125 1030.58386230469 1048.60754394531 1051.52954101562 1062.99755859375 1070.38916015625 1073.83374023438 1078.64135742188 1087.25524902344 1089.53869628906 1088.76257324219 1094.6123046875 1090.54333496094 1089.24450683594 1094.76220703125 1101.1806640625 1105.40393066406 1113.40905761719 1105.29150390625 1101.23767089844 1104.87524414062 1107.07238769531 1102.84655761719
965.74853515625 969.605346679688 965.925903320312 966.645568847656 975.013244628906 975.003356933594 968.378356933594 967.1220703125 972.723876953125 976.981628417969 976.058715820312 987.339538574219 980.802795410156 988.209411621094 977.263977050781 976.756530761719 966.633361816406 965.470581054688 968.831481933594 972.690246582031 973.561889648438 969.185791015625 952.754699707031 955.402282714844 957.301574707031 951.126770019531 955.379028320312 959.110534667969 963.801086425781 962.760070800781 966.333068847656 965.174194335938 961.033081054688 964.547241210938 965.958557128906 958.161315917969 969.599914550781 965.112609863281 959.925231933594 961.978942871094 955.47998046875 955.614807128906 955.090698242188 956.514892578125 964.248107910156 959.998657226562 964.315734863281 965.195983886719 952.737182617188 959.322998046875 949.09521484375 942.834655761719 952.323913574219 960.11181640625 953.745971679688 956.308532714844 956.784545898438 957.757934570312 960.264404296875 960.584289550781 956.231506347656 950.566223144531 953.526184082031 949.525939941406 960.255920410156 973.006408691406 959.258850097656 957.738586425781 954.904113769531 958.362365722656 953.640747070312 956.441467285156 957.391540527344 954.8173828125 958.36572265625 954.720458984375 968.803527832031 968.912658691406 962.929992675781 959.293518066406 967.450073242188 962.896911621094 962.238220214844 969.151672363281 974.117492675781 975.64501953125 967.081115722656 965.294372558594 963.296875 966.161010742188 967.563171386719 972.970581054688 979.5966796875 978.947387695312 976.23388671875 974.240356445312 977.980102539062 979.00048828125 982.128173828125 975.518859863281 977.4462890625 983.302978515625 983.074279785156 984.974060058594 980.406555175781 977.929748535156 973.835083007812 968.268493652344 981.954895019531 991.168334960938 991.760375976562 994.749206542969 986.739074707031 979.872802734375 987.978210449219 1002.69274902344 994.39990234375 994.430236816406 1001.19879150391 1005.31219482422 1010.14599609375 1030.7080078125 1035.92150878906 1039.98620605469 1034.35119628906 1038.46325683594 1037.15295410156 1036.12121582031 1040.26794433594 1034.74145507812 1046.12585449219 1061.42663574219 1072.04870605469 1062.43090820312 1080.82214355469 1080.95703125 1080.6650390625 1093.18090820312 1092.017578125 1088.38562011719 1081.4130859375 1102.47863769531 1107.45263671875 1100.13342285156 1099.59289550781 1092.72814941406 1092.93383789062 1104.65502929688 1099.21276855469 1093.95617675781
964.703491210938 952.780090332031 959.524597167969 961.698669433594 970.188537597656 979.392028808594 982.637145996094 982.164489746094 978.619323730469 976.300537109375 966.288696289062 973.704467773438 985.949829101562 985.161682128906 974.86474609375 972.714416503906 967.76318359375 967.890869140625 968.046569824219 968.345275878906 974.947448730469 965.612548828125 965.024353027344 956.697387695312 956.571411132812 946.171813964844 952.05615234375 964.3544921875 958.658081054688 962.56884765625 959.954956054688 958.047302246094 961.013488769531 962.761291503906 961.6396484375 966.922790527344 960.658935546875 958.161376953125 961.155822753906 964.307861328125 952.5361328125 947.726806640625 950.646118164062 951.472412109375 953.084655761719 962.418273925781 961.287231445312 953.424438476562 954.350341796875 951.111206054688 956.612670898438 955.589721679688 955.229125976562 960.286376953125 954.052368164062 947.131286621094 946.835571289062 949.533752441406 947.063781738281 954.043640136719 958.657775878906 952.074462890625 948.410705566406 949.155517578125 957.886962890625 958.432861328125 968.243286132812 966.246154785156 959.135009765625 961.134216308594 960.951721191406 955.187744140625 956.955444335938 959.916870117188 954.153381347656 959.156555175781 960.697631835938 972.262451171875 963.498718261719 965.145446777344 957.564086914062 963.995849609375 957.754516601562 968.973388671875 967.788513183594 969.763854980469 967.713745117188 963.86279296875 964.930419921875 961.503479003906 965.928283691406 974.020263671875 973.256896972656 971.959167480469 971.100891113281 978.072631835938 976.403076171875 974.550964355469 970.819274902344 973.780456542969 972.547668457031 977.865173339844 979.751159667969 978.59326171875 984.365356445312 981.1591796875 976.834228515625 983.209594726562 984.73095703125 985.218505859375 998.471069335938 994.361694335938 986.771667480469 988.631408691406 993.576965332031 995.1259765625 995.261596679688 995.533020019531 992.0576171875 1009.65972900391 1010.86108398438 1023.94244384766 1034.13610839844 1037.41955566406 1033.09448242188 1040.77014160156 1041.23083496094 1042.74401855469 1041.89904785156 1043.38452148438 1046.13415527344 1062.4560546875 1062.21801757812 1068.98352050781 1075.7607421875 1090.97692871094 1095.83178710938 1094.88818359375 1090.142578125 1087.71215820312 1080.93664550781 1087.53051757812 1092.17663574219 1097.36193847656 1090.04846191406 1084.82580566406 1084.28759765625 1083.45300292969 1088.88989257812 1091.24426269531
961.351928710938 958.017395019531 958.920471191406 962.548217773438 968.571350097656 976.197143554688 972.006286621094 971.935241699219 978.828247070312 974.018371582031 975.302734375 966.573791503906 966.391052246094 970.946472167969 972.979736328125 978.796630859375 971.071960449219 971.715209960938 972.073852539062 968.467529296875 975.751892089844 977.704284667969 975.278259277344 966.907043457031 955.465881347656 952.616455078125 955.440185546875 961.443054199219 968.529541015625 957.138549804688 955.946228027344 950.236755371094 953.136108398438 950.463073730469 959.989135742188 957.413391113281 957.124633789062 965.07470703125 968.179443359375 968.209533691406 959.685852050781 954.849182128906 955.405334472656 952.295654296875 956.909851074219 955.225280761719 954.508544921875 951.861083984375 946.104797363281 952.670837402344 955.284423828125 958.3310546875 962.536560058594 956.043151855469 944.913146972656 946.518676757812 943.774475097656 949.376892089844 941.799621582031 946.211242675781 952.081604003906 952.267272949219 961.266906738281 951.599609375 952.752197265625 960.418884277344 960.893432617188 961.072814941406 963.907470703125 970.248901367188 966.228515625 962.504577636719 963.4306640625 956.859191894531 950.2265625 958.228271484375 962.407287597656 960.035888671875 960.867065429688 961.739685058594 963.148803710938 955.28369140625 957.619873046875 963.288024902344 966.974792480469 965.795349121094 965.688232421875 966.407592773438 969.985961914062 967.573120117188 961.93798828125 970.053100585938 970.652526855469 969.838073730469 972.664978027344 979.002990722656 980.759948730469 981.750305175781 980.796081542969 979.330139160156 977.673095703125 978.890930175781 974.777709960938 975.859741210938 977.857482910156 980.932006835938 977.380798339844 979.886596679688 987.76513671875 990.255859375 991.944213867188 988.850341796875 987.616821289062 992.382934570312 985.296508789062 987.750366210938 995.115539550781 991.093383789062 996.710205078125 1003.25793457031 1012.14276123047 1023.52258300781 1021.51879882812 1023.23065185547 1025.06164550781 1032.79406738281 1036.24658203125 1046.00903320312 1040.96862792969 1046.28137207031 1049.189453125 1052.93273925781 1062.37719726562 1068.67858886719 1085.56298828125 1085.49145507812 1088.96789550781 1097.7646484375 1086.57543945312 1084.91796875 1082.05651855469 1082.60510253906 1083.0234375 1084.42834472656 1080.17529296875 1075.14050292969 1077.20104980469 1080.94592285156 1081.91687011719 1074.82592773438
955.334777832031 945.270690917969 959.290222167969 970.237609863281 974.906555175781 968.233520507812 969.956237792969 964.869873046875 969.276489257812 971.601684570312 971.809387207031 973.337219238281 965.053405761719 958.132629394531 960.811889648438 966.341430664062 975.496459960938 973.782897949219 971.024169921875 972.215209960938 976.18603515625 981.737854003906 978.977905273438 964.239501953125 955.408081054688 954.315734863281 945.286926269531 948.519714355469 954.748229980469 961.026123046875 958.350158691406 958.484191894531 952.926330566406 950.20703125 946.153991699219 949.451293945312 954.85546875 957.486938476562 959.603210449219 964.376403808594 949.779479980469 950.956481933594 953.627563476562 956.170288085938 956.012390136719 956.859497070312 950.245483398438 951.679443359375 950.77587890625 949.216247558594 949.996337890625 960.545715332031 959.473510742188 953.189147949219 942.359436035156 952.970642089844 953.464416503906 943.256042480469 942.992370605469 937.65087890625 952.940124511719 954.54443359375 958.571960449219 956.607849121094 964.669311523438 959.422607421875 963.024658203125 964.248901367188 970.109008789062 968.615783691406 968.516235351562 960.120727539062 966.497436523438 957.424133300781 954.475524902344 955.701416015625 957.535278320312 969.382507324219 967.746337890625 963.433532714844 961.442504882812 964.8095703125 953.783203125 963.92333984375 967.815307617188 971.352844238281 967.670104980469 961.265747070312 974.819702148438 967.310729980469 959.299438476562 969.361938476562 973.975463867188 966.645935058594 969.249084472656 982.142211914062 981.542846679688 994.443542480469 988.475341796875 979.831909179688 976.852355957031 981.748107910156 968.359619140625 973.6650390625 985.189270019531 982.622192382812 984.840454101562 979.055419921875 985.835632324219 994.518005371094 990.878967285156 991.209106445312 994.112731933594 997.460144042969 984.467590332031 989.051696777344 992.043884277344 1002.38372802734 1000.67303466797 1006.47747802734 1011.83264160156 1012.27478027344 1015.16186523438 1015.10546875 1018.6728515625 1021.20092773438 1036.22375488281 1029.95690917969 1039.93981933594 1037.69104003906 1035.50854492188 1043.51550292969 1064.458984375 1072.34655761719 1076.52282714844 1085.04113769531 1088.2333984375 1092.03259277344 1091.33752441406 1079.67724609375 1074.322265625 1074.408203125 1066.07104492188 1072.89978027344 1073.88488769531 1070.52038574219 1078.35168457031 1077.42248535156 1066.21594238281 1063.00695800781
951.721130371094 954.513427734375 950.820434570312 969.4296875 965.681335449219 966.926330566406 967.086791992188 971.580932617188 969.530090332031 968.157653808594 966.247314453125 972.612670898438 966.981323242188 960.790405273438 959.531372070312 962.520629882812 971.656127929688 968.762878417969 974.822265625 969.326049804688 970.137451171875 964.015197753906 972.116333007812 957.96142578125 940.240295410156 935.040588378906 942.300842285156 955.14013671875 958.453735351562 958.448974609375 955.273315429688 958.631225585938 943.369079589844 944.885559082031 948.219055175781 948.389099121094 956.79443359375 951.330810546875 952.087768554688 953.781494140625 952.030822753906 947.943725585938 950.874938964844 946.766235351562 949.978881835938 952.23583984375 947.564514160156 949.286743164062 950.91748046875 957.394775390625 956.77001953125 960.597412109375 957.450378417969 956.244750976562 946.63134765625 956.538452148438 955.869934082031 952.4892578125 953.910461425781 949.441162109375 959.085083007812 961.088439941406 950.076904296875 957.182495117188 954.108276367188 963.108764648438 960.199890136719 955.668640136719 964.182800292969 968.913635253906 962.047302246094 967.796813964844 962.342407226562 962.886840820312 964.946472167969 965.344360351562 961.758361816406 974.712585449219 965.297973632812 963.757385253906 968.8466796875 969.213745117188 958.470886230469 964.88037109375 968.231567382812 969.290771484375 962.185729980469 966.138122558594 972.357177734375 971.306030273438 962.832763671875 964.878173828125 975.146484375 972.785461425781 978.882629394531 983.699890136719 984.072021484375 988.197204589844 980.593566894531 976.740417480469 981.3291015625 980.492309570312 977.067565917969 976.948303222656 985.419982910156 983.10791015625 981.230285644531 976.597473144531 983.81787109375 988.862060546875 992.646728515625 992.583679199219 992.064514160156 1001.82946777344 999.416320800781 985.520080566406 992.550720214844 996.082458496094 1000.43811035156 1003.98651123047 1009.64764404297 1012.37145996094 1015.40643310547 1020.44055175781 1014.06378173828 1019.75134277344 1027.85302734375 1024.4619140625 1034.9638671875 1039.31091308594 1040.478515625 1038.87719726562 1060.17517089844 1072.02783203125 1068.72802734375 1075.15222167969 1079.49291992188 1075.41943359375 1075.54162597656 1066.669921875 1056.099609375 1048.5966796875 1057.64831542969 1056.90856933594 1072.82531738281 1060.70300292969 1066.98388671875 1066.96765136719 1063.16296386719 1057.0458984375
954.236511230469 962.236328125 960.670104980469 970.645141601562 969.031127929688 968.185485839844 975.338623046875 974.7158203125 965.152587890625 968.927917480469 969.946899414062 965.146484375 958.470581054688 953.875183105469 958.639770507812 969.191772460938 965.543701171875 970.389587402344 976.409118652344 971.030639648438 969.679748535156 957.500366210938 959.945861816406 943.317199707031 928.288818359375 930.251342773438 928.862731933594 950.007751464844 958.7041015625 963.367614746094 960.284606933594 950.054260253906 937.303405761719 951.520751953125 955.744750976562 946.881042480469 952.606689453125 945.721801757812 949.03955078125 951.9697265625 950.646667480469 952.770385742188 950.263793945312 946.648559570312 959.874755859375 947.292907714844 953.84619140625 958.033081054688 954.837219238281 957.778930664062 956.404602050781 959.881408691406 955.793579101562 964.935546875 956.125793457031 942.825012207031 955.318664550781 957.006286621094 961.17578125 958.027465820312 966.191955566406 969.503356933594 968.896179199219 962.025085449219 963.743591308594 964.56005859375 962.798400878906 958.108947753906 959.440490722656 961.259582519531 959.849792480469 958.425231933594 960.396667480469 965.965515136719 966.616027832031 960.51611328125 966.957763671875 962.158996582031 966.9658203125 963.367370605469 971.739562988281 967.893432617188 961.297668457031 961.464904785156 962.149353027344 970.351501464844 963.830993652344 970.31005859375 975.211486816406 970.931701660156 974.42041015625 971.642761230469 971.764038085938 975.90771484375 973.836303710938 979.648620605469 972.445190429688 984.972900390625 975.566711425781 978.874267578125 982.485656738281 983.318664550781 978.413208007812 986.11328125 987.304931640625 1001.23431396484 992.752136230469 992.649963378906 996.372619628906 997.671203613281 996.940795898438 1003.677734375 996.384948730469 997.51953125 990.567260742188 992.928894042969 985.441284179688 994.074890136719 1000.32800292969 1002.70397949219 1008.09698486328 1015.27593994141 1020.2001953125 1019.46142578125 1016.51318359375 1019.70825195312 1027.47644042969 1029.07373046875 1031.03735351562 1034.27429199219 1033.98413085938 1043.00268554688 1058.75317382812 1060.14440917969 1068.78564453125 1059.75378417969 1061.54406738281 1061.18054199219 1066.78625488281 1056.92846679688 1045.12756347656 1042.42431640625 1039.73071289062 1053.57360839844 1054.36511230469 1054.93103027344 1051.88928222656 1053.35034179688 1052.3056640625 1050.40283203125
957.789428710938 963.197204589844 961.945434570312 966.667114257812 975.177551269531 973.330688476562 971.212951660156 969.910339355469 963.963317871094 963.881896972656 959.838073730469 954.747314453125 954.048095703125 956.413940429688 957.902648925781 960.593078613281 960.764770507812 965.765991210938 963.279968261719 967.17041015625 965.398742675781 959.307006835938 948.053344726562 938.044738769531 938.76025390625 936.696655273438 934.684020996094 940.136108398438 950.511047363281 959.14697265625 955.990051269531 951.561706542969 951.054443359375 953.665588378906 954.269775390625 960.260864257812 956.384887695312 955.612060546875 944.300354003906 944.369262695312 947.213806152344 959.270141601562 951.655883789062 951.060791015625 950.08349609375 959.186706542969 962.255981445312 965.239501953125 958.080749511719 952.407104492188 951.863830566406 950.438598632812 952.679626464844 957.8759765625 953.265686035156 950.748901367188 951.274597167969 957.970581054688 962.9365234375 964.716003417969 972.844482421875 972.182189941406 971.775024414062 970.489013671875 966.799621582031 961.022338867188 960.28515625 960.098266601562 965.174438476562 971.548522949219 956.927734375 959.262878417969 961.010314941406 961.31494140625 972.301330566406 966.637268066406 968.81005859375 967.44482421875 974.85595703125 969.031616210938 961.480346679688 966.906982421875 961.6259765625 963.887451171875 962.65576171875 962.433349609375 965.522277832031 965.932739257812 969.099975585938 978.607543945312 975.707641601562 980.425231933594 979.786376953125 968.1435546875 966.930786132812 973.75390625 971.591003417969 971.085327148438 973.963317871094 981.810424804688 989.591064453125 986.991943359375 984.718994140625 980.479919433594 986.779968261719 991.769348144531 996.023681640625 1001.75946044922 999.403686523438 988.668884277344 997.630798339844 1003.76098632812 993.455444335938 995.473571777344 992.229675292969 991.906188964844 984.046020507812 993.294372558594 1003.65075683594 1009.57257080078 1003.50433349609 1004.72772216797 1017.69183349609 1013.46014404297 1011.80017089844 1019.85540771484 1036.81994628906 1032.40026855469 1027.78149414062 1033.33288574219 1035.50427246094 1042.22631835938 1048.94567871094 1053.95849609375 1058.70959472656 1054.76257324219 1051.45422363281 1049.89331054688 1047.61218261719 1050.71411132812 1043.96740722656 1035.21984863281 1031.06225585938 1037.05297851562 1045.74975585938 1054.73840332031 1051.59704589844 1048.33996582031 1047.17834472656 1042.63232421875
946.367370605469 950.779418945312 954.195739746094 965.617919921875 977.570922851562 965.810913085938 967.051391601562 964.717102050781 964.528381347656 964.609558105469 964.1552734375 953.693359375 956.952880859375 957.321105957031 955.527648925781 962.030334472656 966.296447753906 969.679565429688 973.061279296875 967.506286621094 959.505065917969 957.003051757812 955.346801757812 942.478515625 936.736022949219 931.65380859375 934.132385253906 943.88037109375 955.28466796875 951.026184082031 952.926452636719 951.470275878906 951.95458984375 954.664184570312 951.56396484375 954.1689453125 951.279479980469 944.082580566406 939.00048828125 946.285522460938 949.455871582031 949.398315429688 951.68994140625 951.644104003906 951.258361816406 962.911071777344 970.093811035156 967.701354980469 964.332336425781 967.256958007812 953.641296386719 956.334716796875 952.245056152344 957.31689453125 963.122741699219 960.23388671875 956.366333007812 963.741638183594 959.417297363281 955.13671875 965.319580078125 969.189086914062 965.666320800781 972.474914550781 969.079650878906 956.130126953125 960.502685546875 958.107421875 959.6123046875 965.399658203125 972.803344726562 975.677490234375 968.553833007812 968.854797363281 971.351440429688 971.150451660156 962.386779785156 966.869995117188 967.491882324219 969.645812988281 966.978759765625 963.906494140625 967.705261230469 970.576599121094 975.858825683594 969.49169921875 962.733520507812 980.213745117188 977.148193359375 970.87646484375 966.219665527344 975.907592773438 970.132568359375 966.224365234375 970.859558105469 977.424865722656 975.425048828125 972.814025878906 974.853515625 980.571716308594 982.489196777344 987.470764160156 986.930541992188 989.790466308594 989.255737304688 1002.19647216797 1002.69036865234 1000.07232666016 997.235168457031 991.808532714844 997.7041015625 997.597290039062 1003.98114013672 986.6650390625 993.31640625 986.923522949219 983.240478515625 995.491943359375 1006.99377441406 1008.58306884766 994.3203125 1002.95642089844 1009.0078125 1008.27038574219 1011.49072265625 1012.72442626953 1028.00378417969 1024.36767578125 1031.83190917969 1032.00500488281 1040.98193359375 1046.9072265625 1050.02099609375 1054.06030273438 1052.65148925781 1045.69665527344 1047.83264160156 1051.50402832031 1043.87609863281 1035.38159179688 1026.98937988281 1025.37707519531 1026.22412109375 1021.5625 1034.50476074219 1040.98376464844 1046.85473632812 1041.49743652344 1041.74536132812 1036.49255371094
942.799682617188 950.858276367188 955.946716308594 967.091369628906 972.237915039062 973.308959960938 964.646362304688 961.250061035156 967.881530761719 967.242553710938 969.905334472656 962.740661621094 960.047241210938 948.94921875 948.096313476562 954.780517578125 962.719909667969 963.555847167969 958.416259765625 958.79443359375 957.751342773438 956.615844726562 943.483337402344 935.709899902344 940.531127929688 927.099853515625 930.150207519531 940.632568359375 948.067749023438 953.063293457031 949.492065429688 951.865051269531 950.296508789062 951.252197265625 953.209716796875 947.597229003906 958.918029785156 946.767944335938 946.8583984375 948.528930664062 956.892395019531 950.803344726562 950.665100097656 957.018005371094 960.007019042969 968.036376953125 968.779174804688 969.741638183594 965.624755859375 966.302307128906 974.729248046875 963.419494628906 961.536682128906 966.714904785156 964.173461914062 964.275817871094 967.368225097656 972.284851074219 966.20654296875 965.781494140625 966.264526367188 965.652221679688 964.387329101562 959.944213867188 961.690490722656 955.006042480469 955.740600585938 954.251098632812 958.507385253906 965.273620605469 975.207702636719 975.636413574219 977.192138671875 969.305419921875 959.765441894531 964.388916015625 961.14892578125 962.5712890625 962.745422363281 968.784973144531 964.083129882812 961.76806640625 974.646789550781 970.392822265625 981.855346679688 974.098266601562 972.737915039062 984.283630371094 981.385925292969 972.618469238281 967.057800292969 967.328796386719 966.501403808594 969.259582519531 956.972961425781 964.624145507812 975.565856933594 980.511779785156 984.849914550781 986.76220703125 984.931823730469 991.654113769531 995.911193847656 996.135009765625 997.766174316406 1004.77850341797 1001.93859863281 992.152282714844 993.731018066406 998.087890625 997.704467773438 984.835876464844 987.907348632812 989.722534179688 985.995849609375 997.559692382812 994.351135253906 1003.55725097656 1000.86895751953 1003.58245849609 1001.52642822266 998.218444824219 1006.91137695312 1001.37481689453 1010.53424072266 1013.16363525391 1020.50042724609 1025.36669921875 1042.58557128906 1044.84460449219 1053.455078125 1056.06970214844 1050.72045898438 1055.41564941406 1043.93432617188 1038.88330078125 1036.56213378906 1041.92443847656 1039.97216796875 1026.65893554688 1027.70104980469 1011.88775634766 1017.51336669922 1021.86712646484 1029.83129882812 1034.27465820312 1037.08447265625 1030.75061035156 1033.19616699219 1033.24829101562
956.354125976562 955.91748046875 955.463989257812 957.879699707031 962.943725585938 968.402954101562 966.034240722656 963.574951171875 958.918334960938 960.818786621094 958.533020019531 961.551086425781 949.419311523438 954.291809082031 950.36962890625 950.145202636719 957.07421875 948.033752441406 947.593933105469 947.720275878906 946.608276367188 948.134460449219 948.647766113281 940.41943359375 935.070190429688 926.431457519531 934.219299316406 933.853332519531 946.75439453125 947.297058105469 949.510498046875 947.173645019531 945.444030761719 943.511108398438 955.834411621094 958.257568359375 953.530883789062 958.47998046875 952.000732421875 958.612731933594 955.101013183594 961.26611328125 953.265319824219 957.381225585938 968.620300292969 975.194641113281 970.5048828125 961.881469726562 962.608703613281 970.65185546875 980.177856445312 972.635131835938 965.882629394531 968.646301269531 963.602905273438 963.289306640625 962.194641113281 966.054321289062 974.866271972656 969.750244140625 970.338439941406 972.411315917969 966.079345703125 951.349426269531 953.5126953125 956.855895996094 956.332092285156 959.976379394531 960.063415527344 971.682495117188 970.065551757812 970.157836914062 969.426818847656 971.309509277344 966.971252441406 966.490905761719 977.25244140625 967.126037597656 971.712463378906 965.553649902344 956.321411132812 956.4326171875 969.133483886719 981.9296875 990.310180664062 980.310485839844 977.967712402344 986.357849121094 985.184875488281 980.646118164062 973.866821289062 963.457885742188 967.374450683594 970.345031738281 974.222106933594 974.553588867188 975.475524902344 982.037475585938 990.894592285156 989.898742675781 988.872741699219 1000.68060302734 989.681091308594 1003.89721679688 999.43017578125 1002.44812011719 1006.05804443359 995.395690917969 1000.91247558594 997.645385742188 988.451538085938 981.222778320312 986.962341308594 986.500305175781 991.648071289062 998.089538574219 1007.69305419922 1008.11486816406 1009.13885498047 1009.96575927734 1009.7353515625 1003.08355712891 1002.62872314453 1003.57495117188 1003.74847412109 1014.85437011719 1016.50854492188 1035.64611816406 1035.87976074219 1042.46142578125 1047.91162109375 1051.13537597656 1060.78466796875 1050.97253417969 1045.49011230469 1039.99401855469 1037.52209472656 1024.56335449219 1032.33435058594 1026.60266113281 1016.47320556641 1005.23376464844 1005.20593261719 1011.1689453125 1016.34564208984 1028.84899902344 1024.74963378906 1022.90850830078 1026.17724609375 1023.09484863281
952.6865234375 957.560302734375 954.97705078125 956.820617675781 951.007263183594 949.420043945312 959.173156738281 943.874816894531 953.623718261719 952.106811523438 956.271057128906 957.826843261719 945.937377929688 951.1484375 944.733459472656 945.576599121094 945.837585449219 943.73583984375 946.9462890625 937.601501464844 935.89404296875 940.089660644531 946.11181640625 948.80908203125 940.638977050781 936.310180664062 932.996765136719 941.46142578125 945.88916015625 946.938659667969 952.405517578125 946.176025390625 939.585327148438 941.584106445312 951.843811035156 954.555908203125 959.653686523438 960.454345703125 960.432678222656 970.582885742188 963.500854492188 964.095458984375 949.1748046875 955.52001953125 968.328979492188 968.981628417969 970.169067382812 967.935729980469 971.690246582031 970.948425292969 973.9873046875 975.715576171875 970.342224121094 973.613586425781 960.014404296875 959.197631835938 971.591003417969 967.229858398438 968.666320800781 963.205322265625 970.498901367188 967.565368652344 969.309265136719 956.935791015625 956.948608398438 959.174926757812 951.37451171875 966.926940917969 972.669921875 966.094177246094 970.60595703125 978.474060058594 976.967956542969 967.196533203125 963.156860351562 966.006713867188 970.249267578125 972.832885742188 968.3134765625 975.19580078125 961.822998046875 970.079223632812 980.3671875 977.474365234375 978.844299316406 984.021850585938 977.924560546875 979.8056640625 976.481323242188 967.695617675781 970.033508300781 980.17431640625 970.474365234375 972.300109863281 984.162719726562 977.513793945312 985.84033203125 997.951232910156 991.968444824219 1000.65118408203 997.809020996094 1005.8564453125 999.222534179688 1000.14801025391 998.513977050781 994.968994140625 998.905944824219 999.299438476562 1001.24847412109 998.13232421875 991.738098144531 985.624450683594 989.603454589844 991.963256835938 998.738525390625 1014.41223144531 1011.44378662109 1016.48388671875 1021.15637207031 1016.29583740234 1017.404296875 1010.67755126953 1012.11212158203 1003.64831542969 1009.56311035156 1015.03106689453 1018.09429931641 1024.47253417969 1027.12927246094 1028.537109375 1033.08020019531 1048.32678222656 1050.15649414062 1044.38903808594 1035.53759765625 1039.66943359375 1036.37536621094 1029.94506835938 1019.33520507812 1018.66357421875 1006.79052734375 1008.12890625 1012.74890136719 1005.25726318359 1013.04858398438 1020.27178955078 1018.15014648438 1022.80187988281 1016.36743164062 1018.30249023438
951.313842773438 952.143310546875 959.464904785156 952.816772460938 955.275939941406 950.552490234375 953.345581054688 942.294494628906 949.835144042969 956.3642578125 956.040588378906 955.004760742188 962.049743652344 948.671508789062 936.227966308594 938.043762207031 943.57861328125 941.275695800781 946.752807617188 938.572631835938 938.585693359375 942.717163085938 949.167724609375 948.185241699219 942.984558105469 941.110290527344 936.681701660156 952.462219238281 945.368835449219 948.623413085938 952.678833007812 954.444641113281 943.657897949219 945.882568359375 940.303894042969 949.462158203125 956.252563476562 955.152526855469 968.923278808594 961.7333984375 959.022399902344 955.614807128906 951.033081054688 954.753601074219 952.629028320312 968.978210449219 969.252868652344 972.92724609375 965.158569335938 976.713562011719 974.873779296875 969.049621582031 968.512512207031 972.940551757812 970.267395019531 969.661376953125 963.434875488281 969.328125 967.183166503906 969.512451171875 967.962341308594 970.212646484375 970.04345703125 964.097961425781 965.992004394531 959.308776855469 962.231811523438 966.4814453125 984.220458984375 976.63134765625 967.834350585938 963.75048828125 970.086669921875 972.145141601562 962.076538085938 970.541564941406 978.122802734375 978.713684082031 976.315979003906 966.991027832031 969.353942871094 980.296997070312 977.28271484375 976.124450683594 976.556945800781 976.076232910156 979.236083984375 978.878662109375 978.452026367188 978.561218261719 969.48828125 976.3857421875 969.2939453125 974.708740234375 976.244201660156 982.081359863281 982.294250488281 991.562316894531 1003.19622802734 1006.56225585938 998.07421875 1013.19891357422 1007.96588134766 1006.64508056641 998.860290527344 1001.58459472656 1003.62506103516 1001.18572998047 998.425659179688 990.144226074219 994.176330566406 985.949584960938 990.842163085938 995.304077148438 995.481079101562 1017.95190429688 1020.67126464844 1030.2451171875 1025.28137207031 1024.59497070312 1024.25012207031 1025.92907714844 1021.43316650391 1011.91772460938 1010.056640625 1014.50750732422 1018.78900146484 1024.85046386719 1036.88525390625 1032.69738769531 1035.87170410156 1040.27954101562 1044.99243164062 1025.72607421875 1026.65539550781 1036.55163574219 1032.52905273438 1027.71813964844 1023.62054443359 1018.47729492188 1010.84802246094 1011.69427490234 1009.88983154297 1017.99658203125 1018.37939453125 1017.75030517578 1013.76593017578 1013.50848388672 1021.07971191406 1016.70971679688
959.246643066406 956.822204589844 958.668212890625 958.012939453125 956.278564453125 957.120300292969 952.773864746094 941.084411621094 945.976745605469 952.504455566406 955.883056640625 957.491394042969 964.337524414062 949.932250976562 940.001220703125 943.360290527344 941.375061035156 943.728759765625 945.811889648438 939.765075683594 938.524658203125 938.568237304688 944.5439453125 949.494323730469 940.468566894531 940.43017578125 950.368896484375 953.666198730469 956.300842285156 948.8447265625 956.162963867188 959.14501953125 945.424377441406 941.857177734375 952.5693359375 958.114685058594 955.496398925781 959.655212402344 960.802856445312 966.117858886719 961.398071289062 959.582885742188 956.001098632812 957.833068847656 958.870483398438 967.573303222656 972.6904296875 968.327087402344 974.567626953125 979.390197753906 971.116027832031 968.705200195312 969.930603027344 969.252624511719 969.0517578125 969.833068847656 971.130554199219 969.3505859375 975.126708984375 967.776000976562 970.026428222656 963.752624511719 960.094543457031 970.308776855469 956.702575683594 966.000366210938 961.497436523438 973.188903808594 981.152709960938 983.206726074219 983.061096191406 977.16748046875 974.581359863281 973.011352539062 967.498901367188 972.850402832031 981.377258300781 979.592224121094 976.626342773438 973.727844238281 980.527709960938 974.221069335938 977.938842773438 981.105834960938 983.175842285156 981.211059570312 979.245727539062 977.450744628906 980.586486816406 980.038208007812 978.639831542969 967.019714355469 969.714721679688 974.336669921875 982.445007324219 979.7119140625 987.552917480469 988.371887207031 997.595153808594 994.8330078125 991.129516601562 1001.46685791016 1007.60345458984 1002.24969482422 1001.49768066406 1002.33764648438 993.860534667969 990.733825683594 994.47412109375 997.601867675781 987.23828125 987.374816894531 985.616455078125 994.384460449219 1001.32305908203 1008.79113769531 1022.8173828125 1031.3955078125 1029.58666992188 1040.27172851562 1034.12292480469 1034.83239746094 1026.96020507812 1015.85095214844 1017.73815917969 1025.98083496094 1025.52111816406 1028.4013671875 1024.74523925781 1029.57360839844 1037.5048828125 1032.05261230469 1033.41577148438 1032.05529785156 1028.30224609375 1030.78759765625 1022.29351806641 1030.62231445312 1033.00817871094 1026.34912109375 1021.07574462891 1031.203125 1028.18786621094 1017.49951171875 1024.54479980469 1022.53729248047 1015.46185302734 1012.30609130859 1017.75573730469 1006.37512207031
958.485961914062 951.30908203125 959.868530273438 954.130798339844 943.60693359375 949.443115234375 951.416625976562 942.547058105469 939.458190917969 945.712524414062 949.50341796875 954.612121582031 958.299560546875 943.813903808594 944.611022949219 944.755798339844 948.321105957031 943.471801757812 945.926635742188 943.772766113281 947.575073242188 933.216125488281 943.267639160156 947.608032226562 945.655578613281 949.439819335938 952.017272949219 953.529907226562 960.183288574219 957.215209960938 948.584838867188 957.448303222656 953.57958984375 949.770202636719 957.484741210938 963.170471191406 954.87451171875 959.656860351562 958.033386230469 969.721740722656 967.404846191406 954.7509765625 955.9541015625 962.582702636719 966.894165039062 971.168212890625 971.482849121094 989.798828125 977.816345214844 974.374145507812 967.678344726562 969.54443359375 970.010803222656 972.062866210938 969.264282226562 974.230590820312 970.044982910156 976.5771484375 975.070678710938 971.452087402344 962.050354003906 960.416748046875 951.175415039062 960.079284667969 957.545043945312 959.381958007812 960.78955078125 971.174743652344 985.981689453125 979.97216796875 978.374389648438 977.217895507812 971.93603515625 969.095825195312 969.872009277344 972.08544921875 981.371276855469 980.762573242188 974.062927246094 979.014038085938 973.744750976562 975.324401855469 979.992614746094 980.055786132812 984.549743652344 986.576904296875 983.577392578125 978.425598144531 975.82861328125 978.0322265625 982.062927246094 974.011901855469 976.120666503906 978.245239257812 979.498229980469 985.918273925781 995.876098632812 995.992736816406 1001.58825683594 993.728515625 988.3974609375 993.645690917969 1004.64453125 1000.47595214844 1000.60375976562 996.723510742188 991.982238769531 993.359436035156 990.107299804688 998.230224609375 998.812133789062 991.663208007812 990.736083984375 1003.60797119141 1003.38244628906 1015.83166503906 1022.81823730469 1035.09436035156 1039.94189453125 1041.12658691406 1038.22961425781 1033.01550292969 1028.16613769531 1027.60314941406 1022.0537109375 1016.93304443359 1026.22009277344 1028.95861816406 1032.31457519531 1031.65466308594 1027.87524414062 1031.52429199219 1036.10571289062 1032.34143066406 1017.21466064453 1016.10052490234 1016.12835693359 1018.19854736328 1023.41052246094 1031.79125976562 1024.4638671875 1030.22924804688 1030.87609863281 1019.21142578125 1010.09118652344 1012.15856933594 1012.87469482422 1012.08416748047 1009.29650878906 997.708190917969
958.993041992188 951.791259765625 953.847351074219 949.355895996094 938.723571777344 944.379943847656 944.604309082031 947.73291015625 939.812316894531 946.610168457031 943.484497070312 954.798400878906 955.241455078125 956.165588378906 960.6240234375 955.395324707031 950.271362304688 951.728393554688 959.980224609375 960.103881835938 951.778686523438 956.048828125 945.385559082031 947.850830078125 954.693420410156 950.648681640625 958.332214355469 959.834716796875 973.541748046875 962.060424804688 954.079467773438 956.222961425781 951.651428222656 955.984313964844 963.498229980469 957.730285644531 957.371215820312 958.517150878906 953.925659179688 971.711547851562 963.981689453125 967.739868164062 965.751647949219 964.340454101562 973.3056640625 969.377197265625 964.248840332031 979.136291503906 977.019287109375 972.364074707031 976.009216308594 976.582458496094 971.380432128906 967.507751464844 971.865051269531 974.223022460938 969.331237792969 968.3671875 973.756042480469 968.94140625 967.201721191406 966.885375976562 971.668640136719 962.703369140625 961.564270019531 965.580383300781 974.169677734375 971.788452148438 971.771667480469 973.583740234375 974.160888671875 975.868408203125 970.842102050781 976.338256835938 973.527282714844 977.131774902344 979.759765625 974.137573242188 980.291137695312 975.124694824219 979.801574707031 979.963623046875 983.530212402344 984.392944335938 980.576049804688 982.227966308594 980.435302734375 976.707641601562 981.601928710938 978.298278808594 988.479431152344 983.460632324219 981.199584960938 985.381958007812 989.680786132812 990.08837890625 992.352905273438 989.409729003906 989.958984375 995.53515625 993.01953125 997.109619140625 997.16064453125 991.372924804688 989.918762207031 998.381652832031 988.55322265625 993.322692871094 997.293212890625 998.55029296875 1002.00323486328 993.384155273438 996.561706542969 1001.66156005859 1016.28875732422 1021.70385742188 1030.37585449219 1025.63562011719 1029.72644042969 1040.78173828125 1039.97668457031 1035.27612304688 1030.28796386719 1035.07604980469 1028.53186035156 1021.80267333984 1019.38195800781 1018.48175048828 1016.19897460938 1030.390625 1025.61401367188 1025.892578125 1028.86108398438 1017.40148925781 1013.23168945312 1018.41180419922 1017.61511230469 1025.04406738281 1022.16497802734 1021.52557373047 1022.71264648438 1013.28472900391 1021.90399169922 1011.12780761719 1012.32781982422 1010.48217773438 999.470520019531 996.614624023438 995.756103515625 988.7060546875
957.243469238281 950.335388183594 946.385498046875 950.553894042969 942.123779296875 942.271423339844 944.932434082031 949.136108398438 941.5146484375 939.882202148438 943.191162109375 944.626342773438 958.29248046875 961.659240722656 950.540100097656 953.534362792969 958.010437011719 966.755615234375 967.877197265625 968.285766601562 965.806884765625 964.36376953125 964.303344726562 963.863037109375 961.47412109375 955.587829589844 959.896118164062 970.642028808594 978.176635742188 964.621276855469 954.249755859375 959.30712890625 959.982055664062 949.673156738281 958.110900878906 952.560974121094 952.007751464844 965.099304199219 965.550659179688 958.341491699219 969.389709472656 974.06103515625 971.16748046875 970.806213378906 982.012145996094 974.906188964844 979.391479492188 978.280212402344 973.713989257812 972.195861816406 979.782958984375 976.234985351562 977.605773925781 973.877990722656 977.856201171875 977.962158203125 968.594970703125 980.1787109375 976.674255371094 970.200317382812 971.541320800781 974.046508789062 971.402709960938 965.6357421875 971.651184082031 968.800415039062 973.441040039062 966.075622558594 975.788208007812 964.654968261719 972.142517089844 973.316650390625 982.181213378906 975.208801269531 978.847839355469 980.422119140625 984.171569824219 978.504699707031 974.884582519531 978.430358886719 989.757019042969 974.674743652344 984.032165527344 987.188171386719 977.187866210938 986.862121582031 985.489807128906 980.489562988281 986.747680664062 980.203552246094 987.448913574219 983.381042480469 980.269470214844 982.293884277344 992.132507324219 987.662536621094 987.713806152344 992.440673828125 992.494323730469 992.148193359375 993.624267578125 992.4775390625 995.982666015625 999.728210449219 994.915954589844 993.466918945312 998.374389648438 1002.11071777344 1004.00360107422 1004.16766357422 1008.06732177734 1010.00341796875 1003.55212402344 1014.67462158203 1029.41186523438 1023.72863769531 1041.67687988281 1026.45153808594 1031.31384277344 1029.85473632812 1043.677734375 1040.15539550781 1030.47875976562 1028.51940917969 1033.64233398438 1030.232421875 1019.93817138672 1018.3154296875 1018.54522705078 1023.78662109375 1028.63073730469 1027.38537597656 1022.87506103516 1019.92822265625 1014.40161132812 1007.10601806641 1016.12078857422 1013.62280273438 1015.62951660156 1017.69525146484 1020.17266845703 1009.45391845703 1010.22729492188 1008.61376953125 1010.31866455078 995.927612304688 1000.93035888672 988.482971191406 992.186584472656 993.000610351562
