NCOLS 150
NROWS 37
XLLCORNER 7394249
YLLCORNER 4842299
CELLSIZE 30
NODATA_VALUE -9999
968.221801757812 979.59375 970.694030761719 972.819274902344 966.489440917969 971.906433105469 968.248107910156 977.551879882812 975.986511230469 976.747985839844 980.91748046875 976.886596679688 972.225158691406 969.686218261719 980.082336425781 975.766479492188 972.315307617188 963.846923828125 963.890075683594 957.590637207031 959.121887207031 954.489562988281 961.038818359375 964.365295410156 959.758239746094 973.802612304688 960.562438964844 961.459716796875 963.330383300781 974.306457519531 971.595031738281 965.67724609375 967.091003417969 964.719421386719 966.847534179688 974.749755859375 973.705627441406 960.112365722656 962.175354003906 961.095825195312 965.523071289062 961.556762695312 959.255859375 960.981201171875 961.355712890625 963.810241699219 958.456787109375 953.364990234375 947.319702148438 954.150634765625 953.681945800781 953.794311523438 948.126098632812 957.258972167969 962.801635742188 951.428344726562 955.524291992188 962.684509277344 961.561767578125 964.450805664062 955.246398925781 961.726379394531 950.8115234375 954.357849121094 958.420837402344 956.490600585938 949.757751464844 955.3779296875 956.214538574219 961.507141113281 960.036437988281 968.783020019531 968.986633300781 974.936828613281 974.531616210938 964.615173339844 961.1220703125 966.259033203125 966.166198730469 964.09521484375 962.086059570312 975.642700195312 969.975036621094 976.360229492188 963.615844726562 963.772277832031 966.679931640625 976.664672851562 965.364074707031 967.69091796875 970.446655273438 963.865539550781 967.550231933594 973.989501953125 975.610473632812 968.744201660156 969.412780761719 971.438171386719 979.108520507812 970.161437988281 965.490051269531 967.667175292969 973.319091796875 977.2802734375 977.273498535156 979.80517578125 976.23779296875 982.056579589844 985.368225097656 985.1201171875 985.990600585938 987.269897460938 997.168090820312 995.952941894531 1003.052734375 1011.13507080078 1002.85198974609 1003.33941650391 1006.80572509766 1006.43206787109 1012.37188720703 1015.82348632812 1030.80126953125 1031.25549316406 1038.06811523438 1033.0732421875 1032.78686523438 1029.71496582031 1036.10791015625 1042.04968261719 1062.20104980469 1068.73315429688 1070.1611328125 1073.85424804688 1074.77099609375 1083.27709960938 1092.49670410156 1093.77893066406 1086.470703125 1099.46240234375 1098.84497070312 1103.46008300781 1104.10021972656 1097.85949707031 1102.50134277344 1109.34106445312 1107.82238769531 1110.82592773438 1112.06372070312 1111.5400390625
969.293212890625 965.471008300781 977.748779296875 971.543334960938 974.533813476562 970.470031738281 971.840026855469 976.347045898438 982.181457519531 976.175476074219 973.161865234375 974.975891113281 976.034118652344 976.758666992188 973.387329101562 979.28564453125 974.849914550781 973.509399414062 967.192199707031 965.144409179688 965.291809082031 966.921508789062 963.990966796875 963.980590820312 957.792053222656 964.252502441406 960.746948242188 962.529052734375 959.480773925781 975.078552246094 963.3115234375 958.715515136719 959.118713378906 962.391906738281 956.920654296875 966.984619140625 966.53369140625 957.604736328125 957.562622070312 958.8896484375 963.845642089844 966.817260742188 958.336364746094 964.225219726562 967.360107421875 966.122680664062 962.321716308594 954.134765625 954.641296386719 949.803527832031 957.679809570312 954.999816894531 959.844482421875 953.302673339844 957.229431152344 958.029235839844 962.096801757812 964.980346679688 967.3779296875 956.342224121094 955.990417480469 961.131530761719 960.064575195312 963.104370117188 958.878234863281 955.268615722656 950.353942871094 953.382263183594 964.213195800781 958.807678222656 964.152221679688 961.967529296875 968.794982910156 973.632934570312 968.787719726562 972.576904296875 959.754455566406 969.494689941406 964.763122558594 962.316040039062 966.060974121094 971.220458984375 969.22607421875 960.368225097656 966.450317382812 973.098327636719 972.678649902344 975.8115234375 964.804626464844 958.407897949219 975.036865234375 975.012268066406 971.039672851562 968.751342773438 968.714477539062 971.473449707031 969.245788574219 973.795166015625 973.833740234375 971.171752929688 974.34619140625 970.253234863281 974.239318847656 966.339111328125 975.640197753906 980.268920898438 970.67236328125 980.715209960938 984.037841796875 985.18310546875 985.469665527344 995.554138183594 988.862670898438 994.867126464844 991.383850097656 999.145385742188 991.350952148438 998.263977050781 995.857727050781 993.795593261719 1002.59930419922 1015.40020751953 1030.38757324219 1027.62841796875 1029.15710449219 1027.849609375 1025.50305175781 1032.22802734375 1036.90844726562 1042.22644042969 1053.1904296875 1058.83129882812 1070.92492675781 1079.38635253906 1077.58483886719 1087.75378417969 1089.15795898438 1082.5107421875 1086.60437011719 1087.22412109375 1093.10461425781 1096.16247558594 1086.46545410156 1095.69409179688 1097.45874023438 1101.31091308594 1096.77172851562 1095.59057617188 1096.01818847656 1096.14782714844
968.466125488281 963.199279785156 973.619934082031 983.055786132812 972.576599121094 972.760314941406 971.277404785156 971.603576660156 969.062622070312 975.628601074219 965.790954589844 974.495788574219 972.609436035156 972.330871582031 974.941589355469 980.959106445312 979.769653320312 973.612609863281 971.099670410156 970.405822753906 971.759948730469 966.167846679688 961.401428222656 966.282104492188 967.754577636719 953.984436035156 954.727416992188 961.289855957031 960.018615722656 957.333923339844 953.356262207031 961.330017089844 963.314270019531 967.696228027344 964.480224609375 961.62353515625 962.507385253906 956.755798339844 961.025207519531 960.215759277344 960.749633789062 975.492370605469 966.830383300781 959.58837890625 965.896179199219 961.25927734375 955.725036621094 959.427734375 959.472229003906 949.658996582031 953.526428222656 965.960571289062 962.834106445312 957.841674804688 953.911376953125 964.6103515625 972.381774902344 977.357727050781 973.867553710938 966.081665039062 955.862487792969 952.296447753906 958.547790527344 953.447265625 959.070007324219 953.533142089844 956.634765625 959.049194335938 961.041076660156 960.128967285156 954.398986816406 961.802856445312 964.666809082031 974.196838378906 964.006469726562 970.637573242188 955.085754394531 957.702026367188 963.991760253906 963.923828125 966.172180175781 977.436401367188 968.300659179688 962.104125976562 958.763793945312 968.624816894531 970.429443359375 968.99072265625 967.681335449219 961.136413574219 966.926208496094 968.888732910156 968.079895019531 969.477783203125 971.390319824219 975.628479003906 966.59619140625 975.101989746094 978.666809082031 982.058776855469 978.426940917969 979.356140136719 977.334411621094 973.956970214844 975.660095214844 975.283386230469 973.925354003906 982.760070800781 989.943908691406 980.152954101562 984.375732421875 990.856506347656 988.966613769531 991.0888671875 994.574890136719 990.082885742188 988.746337890625 982.271057128906 979.47509765625 985.546752929688 997.602355957031 1014.78369140625 1019.98724365234 1013.78826904297 1016.62231445312 1010.09600830078 1016.25030517578 1020.16711425781 1027.57019042969 1036.25646972656 1050.45251464844 1061.73767089844 1068.66235351562 1080.05603027344 1071.72229003906 1078.22180175781 1085.73559570312 1081.41259765625 1083.205078125 1084.40270996094 1085.41662597656 1095.73706054688 1091.96923828125 1082.73840332031 1092.27587890625 1093.32824707031 1097.62048339844 1096.85437011719 1104.72534179688 1098.38159179688
963.915161132812 971.981262207031 968.638305664062 980.240783691406 976.402282714844 977.524597167969 977.367065429688 971.249267578125 963.538330078125 962.070922851562 967.677795410156 973.709228515625 967.426940917969 964.815307617188 978.832458496094 975.03271484375 968.926391601562 969.878723144531 975.959228515625 971.256958007812 965.784973144531 963.088623046875 958.43994140625 950.653259277344 952.745056152344 956.361633300781 946.776306152344 954.473754882812 958.604248046875 945.850708007812 959.156127929688 962.622863769531 964.981689453125 968.977905273438 964.426025390625 961.679504394531 964.934692382812 960.45703125 958.183532714844 960.37548828125 960.846984863281 967.978393554688 966.163024902344 959.244140625 955.811340332031 960.560119628906 955.907165527344 951.448791503906 960.337158203125 960.306701660156 957.446533203125 963.176391601562 960.603576660156 950.723754882812 952.372924804688 963.556640625 974.614074707031 969.860717773438 968.994812011719 963.569091796875 955.424743652344 949.632446289062 961.540893554688 957.504577636719 965.003051757812 958.63916015625 962.325134277344 966.359985351562 965.375122070312 956.4326171875 955.256591796875 957.627319335938 964.626220703125 973.380004882812 964.983215332031 962.898986816406 959.0146484375 962.038269042969 963.600891113281 961.735595703125 957.914794921875 970.836364746094 967.66552734375 960.811767578125 967.294250488281 966.705322265625 963.142639160156 967.670715332031 972.678894042969 963.129943847656 972.622314453125 970.052429199219 971.959899902344 972.339172363281 977.530212402344 974.205078125 965.091003417969 971.458862304688 978.636169433594 984.1748046875 981.081176757812 984.772399902344 979.742370605469 981.467712402344 986.551147460938 974.321960449219 977.84814453125 987.991760253906 987.36962890625 986.451843261719 983.781433105469 991.675170898438 994.862182617188 992.155944824219 990.0458984375 994.740966796875 988.05322265625 974.973754882812 975.617858886719 984.37744140625 997.187194824219 1010.62634277344 1016.05792236328 1010.23822021484 1011.15173339844 1004.05920410156 1004.10327148438 1009.02783203125 1022.16760253906 1036.58459472656 1047.751953125 1060.95837402344 1063.11877441406 1075.83898925781 1078.1494140625 1086.36730957031 1084.123046875 1082.23510742188 1082.89208984375 1087.3544921875 1084.51635742188 1078.46838378906 1078.87060546875 1077.43127441406 1083.26245117188 1075.62255859375 1087.17956542969 1088.77282714844 1092.63146972656 1088.56005859375
967.647827148438 961.015686035156 967.1298828125 970.862976074219 969.585510253906 972.405090332031 975.532470703125 966.632873535156 967.311828613281 969.604919433594 967.569885253906 964.375854492188 955.903503417969 963.131408691406 966.295593261719 973.673583984375 970.323120117188 964.298095703125 964.460998535156 967.475830078125 966.113647460938 960.646484375 954.71826171875 955.901062011719 957.443298339844 955.780517578125 941.474609375 953.146667480469 946.801208496094 955.956237792969 961.597839355469 962.54931640625 960.139526367188 960.521728515625 964.333251953125 966.301025390625 957.856140136719 961.16845703125 957.263549804688 960.940246582031 963.703369140625 959.548706054688 957.774230957031 956.416198730469 952.05322265625 957.70361328125 958.901733398438 952.993530273438 956.120239257812 958.665832519531 956.042785644531 968.756958007812 957.979309082031 963.873413085938 955.05029296875 956.655700683594 954.027404785156 959.749694824219 968.686950683594 971.204772949219 954.418212890625 947.060363769531 950.107971191406 957.705932617188 956.066467285156 957.513305664062 955.766845703125 962.368286132812 964.498596191406 963.424377441406 961.036437988281 954.425903320312 957.772094726562 961.112060546875 957.575439453125 956.50830078125 959.446472167969 967.044189453125 970.135925292969 960.636047363281 964.174194335938 973.033081054688 968.273559570312 961.421691894531 963.2919921875 966.749755859375 972.057434082031 974.411315917969 971.575012207031 973.407409667969 968.356994628906 960.881469726562 960.471801757812 970.08544921875 977.5341796875 964.787231445312 974.418823242188 977.619995117188 976.896728515625 981.684143066406 994.727478027344 994.017028808594 979.186218261719 978.6298828125 975.66455078125 978.74755859375 990.700622558594 991.380676269531 990.408203125 990.721130371094 985.051452636719 984.364624023438 994.917358398438 986.688720703125 989.649353027344 992.92431640625 992.984313964844 978.932250976562 978.603576660156 987.009094238281 995.820678710938 1010.73162841797 1006.32263183594 1013.11126708984 1016.45227050781 1005.58941650391 999.008728027344 1013.73590087891 1026.81457519531 1037.50939941406 1054.77783203125 1058.03002929688 1064.44799804688 1065.32678222656 1076.79187011719 1086.71081542969 1088.09008789062 1080.71740722656 1072.49145507812 1070.20166015625 1071.01330566406 1064.85192871094 1061.22644042969 1065.11682128906 1061.27502441406 1075.31176757812 1076.28100585938 1063.79638671875 1071.6904296875 1073.16186523438
961.493591308594 961.212707519531 967.741027832031 970.159423828125 976.166809082031 970.963317871094 964.419128417969 973.313598632812 974.695129394531 972.611145019531 968.115234375 960.627624511719 954.156799316406 954.373779296875 956.923889160156 963.064208984375 966.601440429688 950.709716796875 957.877380371094 957.557983398438 955.652221679688 966.493408203125 956.476379394531 958.807861328125 953.417907714844 962.174682617188 945.564636230469 954.510070800781 952.271362304688 956.486328125 957.722045898438 952.583679199219 954.712768554688 962.665161132812 964.728881835938 967.03564453125 960.89697265625 961.158813476562 963.251525878906 951.470520019531 956.64111328125 961.387756347656 955.587585449219 961.036682128906 953.959594726562 958.37060546875 950.680236816406 953.856811523438 954.2255859375 958.693237304688 956.146850585938 962.109069824219 961.960876464844 964.380554199219 953.750671386719 953.843994140625 953.174682617188 960.835815429688 962.363891601562 966.2685546875 961.148254394531 953.888610839844 948.67626953125 961.3671875 961.908996582031 965.116516113281 963.599975585938 961.243103027344 961.543518066406 965.317199707031 965.467407226562 956.686279296875 964.583923339844 953.330444335938 962.28857421875 960.809448242188 958.609985351562 956.664794921875 964.532836914062 965.139343261719 973.904846191406 970.160949707031 970.969604492188 973.154052734375 963.861267089844 968.367919921875 967.214660644531 976.387268066406 972.228332519531 971.863891601562 968.074523925781 966.621520996094 969.32861328125 980.9873046875 981.332275390625 973.156494140625 978.594909667969 979.844177246094 984.743041992188 981.249755859375 984.647399902344 990.457763671875 981.953002929688 977.107727050781 981.976440429688 985.475769042969 988.656066894531 996.251953125 998.107849121094 993.132629394531 995.857666015625 995.587341308594 984.165344238281 988.669250488281 989.719421386719 994.637390136719 986.330688476562 984.205688476562 980.811828613281 986.468688964844 995.205688476562 1006.17523193359 1000.54553222656 1006.61724853516 1009.1337890625 1009.41467285156 1009.85668945312 1017.10595703125 1024.1142578125 1036.04821777344 1045.30285644531 1051.19384765625 1055.15905761719 1065.67211914062 1068.4072265625 1081.05053710938 1082.20446777344 1064.06506347656 1060.32177734375 1059.70080566406 1057.57861328125 1058.80029296875 1050.24426269531 1053.17419433594 1051.27954101562 1057.16479492188 1056.57824707031 1059.44409179688 1059.56005859375 1061.79443359375
972.897216796875 969.536193847656 964.592529296875 972.794799804688 975.564270019531 971.514099121094 975.885925292969 972.2607421875 973.585205078125 974.200622558594 969.259704589844 958.416320800781 955.184326171875 948.604797363281 959.186584472656 962.864013671875 965.717346191406 951.676574707031 943.868408203125 946.838684082031 952.523132324219 960.468994140625 956.073303222656 945.785522460938 952.999938964844 954.489990234375 949.001892089844 953.722595214844 949.315368652344 947.153625488281 947.624267578125 956.635681152344 954.579284667969 952.508605957031 957.202758789062 971.608032226562 961.05517578125 960.363586425781 954.166687011719 948.493957519531 946.967834472656 955.18505859375 954.781982421875 963.262145996094 960.027709960938 950.974548339844 948.919311523438 950.272705078125 952.124877929688 951.716979980469 956.32666015625 953.142333984375 950.815795898438 955.17236328125 953.838134765625 955.853942871094 960.557922363281 967.914306640625 962.909729003906 967.473693847656 965.04443359375 960.536254882812 965.816711425781 959.324340820312 966.288208007812 960.671936035156 962.882080078125 970.246704101562 960.28955078125 963.1689453125 964.01708984375 964.413452148438 960.30224609375 955.204711914062 966.926818847656 958.738098144531 960.331298828125 964.768493652344 965.011840820312 963.069213867188 978.642333984375 972.515991210938 968.616638183594 966.513305664062 978.183288574219 968.868713378906 970.3857421875 971.817016601562 971.56396484375 967.729187011719 961.739013671875 966.719543457031 971.0068359375 980.520141601562 974.163696289062 979.419189453125 975.460510253906 971.553955078125 975.27099609375 981.1162109375 979.293640136719 978.031311035156 979.786376953125 977.211120605469 990.480712890625 995.043395996094 994.655334472656 995.799194335938 997.440307617188 1001.30401611328 1003.13159179688 996.0927734375 990.337768554688 992.261474609375 992.993469238281 992.050598144531 994.092956542969 985.727966308594 978.567993164062 983.286743164062 993.009765625 995.091918945312 997.977905273438 1001.11810302734 1005.13720703125 1009.67767333984 1010.58514404297 1024.99230957031 1028.23937988281 1043.46459960938 1049.58459472656 1046.1689453125 1059.44055175781 1068.65893554688 1069.72778320312 1078.91613769531 1072.52368164062 1062.205078125 1044.38952636719 1040.06616210938 1047.38195800781 1047.10290527344 1044.25671386719 1038.95153808594 1050.16918945312 1049.40222167969 1048.26623535156 1055.84057617188 1054.54284667969 1058.10852050781
969.293823242188 970.013610839844 963.6220703125 970.437622070312 971.95947265625 975.752380371094 977.7724609375 973.357727050781 973.900024414062 967.947631835938 961.286437988281 963.175903320312 948.766967773438 945.645385742188 945.594177246094 954.774047851562 967.423828125 964.257202148438 956.366821289062 950.582275390625 949.257202148438 949.416381835938 948.2880859375 948.376220703125 950.028930664062 954.019287109375 947.345825195312 953.235473632812 944.338623046875 947.392272949219 944.197570800781 951.999633789062 948.66015625 947.652587890625 953.08203125 955.126342773438 956.086059570312 955.613159179688 951.307495117188 941.55126953125 940.018188476562 946.196472167969 956.47705078125 960.391052246094 954.168334960938 951.734741210938 948.704772949219 954.367980957031 955.101257324219 955.215881347656 959.496215820312 959.335693359375 954.198669433594 953.041076660156 950.620971679688 962.103698730469 952.925476074219 958.90478515625 959.335876464844 959.151184082031 964.79296875 973.250244140625 961.112548828125 964.543151855469 960.565185546875 964.436706542969 966.360229492188 961.526428222656 962.981628417969 962.429748535156 969.196899414062 972.720153808594 973.62060546875 964.10791015625 962.28857421875 961.627258300781 964.529418945312 966.399169921875 968.733032226562 973.229248046875 979.169616699219 981.768432617188 970.777404785156 967.334045410156 971.912536621094 967.620300292969 970.235656738281 970.327941894531 976.968811035156 969.199401855469 964.326232910156 967.951904296875 970.799865722656 973.901123046875 970.615600585938 972.813293457031 974.416931152344 964.844787597656 972.262145996094 975.731567382812 966.293579101562 968.659057617188 986.363952636719 984.124816894531 990.738708496094 997.054138183594 1000.56365966797 997.218444824219 1002.97692871094 1005.99304199219 1007.35369873047 998.817932128906 991.488708496094 996.117797851562 996.475341796875 995.876525878906 1003.59381103516 986.89794921875 986.011413574219 989.629516601562 997.896057128906 1001.99035644531 1000.30926513672 999.644226074219 1013.77862548828 1016.28234863281 1009.06262207031 1014.47552490234 1030.48413085938 1042.39477539062 1053.61645507812 1049.72875976562 1062.69470214844 1065.19812011719 1070.14294433594 1066.11352539062 1060.77648925781 1050.04333496094 1036.41833496094 1039.62866210938 1043.56958007812 1035.27502441406 1026.05102539062 1031.47094726562 1039.19165039062 1040.36279296875 1046.34716796875 1051.65844726562 1048.65161132812 1054.16967773438
961.928588867188 964.441345214844 967.12451171875 967.052001953125 972.481689453125 970.25634765625 969.077514648438 970.829528808594 976.598510742188 965.883850097656 963.223815917969 954.251220703125 956.849548339844 945.080139160156 944.995483398438 949.110107421875 955.179077148438 961.650512695312 945.054016113281 946.565185546875 950.001770019531 945.258178710938 948.72509765625 941.8310546875 951.367736816406 954.121032714844 952.340759277344 949.451843261719 945.4541015625 941.519653320312 949.902954101562 953.611267089844 955.270141601562 952.571411132812 952.746215820312 951.837341308594 943.422912597656 947.0595703125 943.517395019531 945.009399414062 934.825927734375 944.296264648438 954.686950683594 951.649353027344 950.208129882812 946.944274902344 951.25 949.27099609375 950.256103515625 948.020568847656 962.049194335938 964.4658203125 960.426330566406 947.097473144531 953.163696289062 958.629150390625 959.4931640625 961.331665039062 956.771118164062 966.018127441406 967.999694824219 967.843444824219 966.880126953125 965.838195800781 968.338745117188 955.386901855469 957.3525390625 966.671020507812 955.857177734375 964.644348144531 973.144470214844 972.829223632812 966.45947265625 968.683349609375 964.929565429688 960.775207519531 972.132141113281 967.299743652344 966.416320800781 973.073913574219 976.682983398438 978.553466796875 979.2919921875 966.188110351562 974.034240722656 971.271362304688 974.623718261719 982.203247070312 975.19384765625 975.198486328125 964.953552246094 964.746459960938 969.434936523438 981.096557617188 981.663146972656 973.462951660156 972.7294921875 963.920715332031 961.239318847656 964.193969726562 973.319763183594 984.108703613281 987.840698242188 990.61572265625 991.638793945312 1007.32495117188 1013.94482421875 1007.06774902344 1000.33532714844 1004.47332763672 1005.8076171875 998.394409179688 995.108947753906 1004.86212158203 999.464233398438 1000.59802246094 998.186340332031 993.362060546875 994.967163085938 999.764343261719 1003.27374267578 1009.90393066406 1014.0546875 1011.81842041016 1011.58184814453 1021.93841552734 1019.47033691406 1020.42877197266 1016.82171630859 1029.72631835938 1045.94860839844 1047.58605957031 1058.94750976562 1058.90698242188 1079.49011230469 1068.22570800781 1061.59753417969 1050.61975097656 1046.90661621094 1026.7705078125 1032.7783203125 1039.91015625 1035.12072753906 1038.50805664062 1039.03454589844 1036.83264160156 1046.28234863281 1052.32055664062 1053.57019042969 1054.54711914062
959.970581054688 965.318481445312 968.379150390625 969.502990722656 971.969909667969 966.980102539062 969.958129882812 975.761413574219 967.941345214844 962.003112792969 959.0087890625 950.363647460938 952.035888671875 946.762634277344 946.427612304688 950.568908691406 945.146545410156 947.525329589844 944.2939453125 939.665405273438 950.4267578125 944.574279785156 946.469421386719 949.297973632812 947.529479980469 944.941772460938 947.154907226562 945.884155273438 948.865173339844 949.237243652344 953.295349121094 959.210510253906 952.467041015625 955.139831542969 946.851501464844 950.085021972656 951.8564453125 951.216552734375 946.236572265625 935.719055175781 939.174072265625 947.962646484375 949.843444824219 954.694641113281 946.774230957031 940.252014160156 949.481872558594 955.098205566406 952.931762695312 956.773986816406 962.496215820312 962.079650878906 952.581298828125 951.783874511719 962.678466796875 968.094299316406 964.894897460938 964.699279785156 957.732238769531 964.466247558594 977.12109375 968.678894042969 966.724792480469 970.260925292969 976.212707519531 962.19384765625 962.004699707031 968.583618164062 971.148498535156 962.275146484375 964.48291015625 964.598083496094 965.644348144531 964.258178710938 958.821105957031 959.5615234375 962.350708007812 965.392944335938 961.662414550781 968.428100585938 969.926086425781 980.643005371094 980.851013183594 971.675720214844 967.28955078125 969.700256347656 969.998291015625 975.18115234375 976.408569335938 976.864074707031 966.396728515625 964.397644042969 974.605712890625 981.70703125 978.548706054688 970.175964355469 971.181274414062 962.821533203125 964.292053222656 963.545104980469 965.824035644531 977.6953125 984.214233398438 989.473876953125 993.135437011719 1009.87036132812 1016.45355224609 1009.19659423828 1007.27563476562 1014.78741455078 1008.56982421875 1014.17651367188 1010.67022705078 1014.97833251953 1007.00329589844 1016.35620117188 1008.35687255859 1003.86785888672 1016.24670410156 1007.55096435547 998.915649414062 1006.79223632812 1007.70648193359 1006.81695556641 1012.06652832031 1016.00921630859 1013.45965576172 1028.67565917969 1033.34887695312 1037.52856445312 1042.79431152344 1053.59155273438 1055.40515136719 1059.30065917969 1071.37048339844 1063.49768066406 1063.56555175781 1049.25939941406 1034.03430175781 1022.85491943359 1032.87963867188 1033.90856933594 1029.74694824219 1037.19958496094 1036.56420898438 1037.09692382812 1045.57214355469 1046.47265625 1044.68420410156 1044.53588867188
960.441589355469 958.997009277344 970.651672363281 968.54638671875 973.047729492188 969.912658691406 975.385314941406 974.441284179688 974.214111328125 963.163879394531 954.983642578125 951.178833007812 953.974304199219 947.19970703125 950.364562988281 944.588134765625 943.912231445312 954.992431640625 946.779357910156 944.28955078125 941.475280761719 949.244140625 946.226318359375 937.915100097656 937.898071289062 940.486267089844 945.168640136719 941.800170898438 938.449401855469 943.021545410156 944.963928222656 957.526000976562 954.526489257812 950.109436035156 952.858703613281 948.265014648438 948.833862304688 951.97021484375 946.187133789062 944.103759765625 955.066223144531 948.8955078125 956.864074707031 942.487365722656 940.737365722656 942.233581542969 948.24951171875 958.376525878906 951.831115722656 955.112731933594 948.528869628906 957.234985351562 953.617614746094 953.750305175781 958.312866210938 962.604370117188 967.511779785156 964.575317382812 959.511169433594 967.038208007812 970.077026367188 973.539733886719 968.173706054688 971.302062988281 965.974670410156 962.491455078125 963.767700195312 969.010498046875 965.313842773438 965.865356445312 962.515014648438 966.191833496094 967.202697753906 965.740600585938 967.538024902344 967.287719726562 972.579406738281 975.666259765625 969.472595214844 981.0830078125 982.205932617188 982.826232910156 978.280395507812 974.742004394531 973.133422851562 976.466552734375 979.289245605469 977.425598144531 974.082092285156 970.542175292969 970.733947753906 969.239685058594 970.260864257812 978.66064453125 970.90380859375 980.489990234375 976.126586914062 976.268493652344 969.464050292969 973.864562988281 970.937561035156 974.792846679688 985.713317871094 983.914794921875 996.423461914062 996.946228027344 1011.51586914062 1011.06658935547 1014.58801269531 1020.70849609375 1017.76635742188 1017.59692382812 1011.27374267578 1008.46441650391 1004.48773193359 1015.14862060547 1022.61822509766 1022.79321289062 1011.16168212891 1011.41052246094 1015.22534179688 1005.74981689453 1008.60876464844 1014.45635986328 1015.25555419922 1017.02740478516 1017.0595703125 1019.80914306641 1040.01965332031 1040.78796386719 1042.22192382812 1046.85278320312 1053.03955078125 1055.83312988281 1054.67810058594 1053.41149902344 1044.53259277344 1042.41027832031 1021.68640136719 1021.58898925781 1029.63488769531 1037.43115234375 1032.84143066406 1032.49548339844 1023.55029296875 1025.90563964844 1033.30163574219 1030.07299804688 1033.86926269531 1020.99609375
950.561828613281 953.210388183594 958.008666992188 957.909790039062 953.262329101562 962.414978027344 966.063903808594 969.057312011719 961.700500488281 965.873901367188 960.094665527344 956.483947753906 945.763366699219 950.706726074219 940.470764160156 943.116394042969 952.859436035156 946.948852539062 945.82470703125 936.708923339844 939.666931152344 944.775207519531 939.814575195312 936.208068847656 935.823120117188 937.430480957031 947.262390136719 943.890502929688 942.292907714844 939.940307617188 944.493103027344 953.979858398438 954.002624511719 954.909057617188 940.201232910156 940.487731933594 947.360778808594 954.339111328125 950.086791992188 951.876281738281 957.4228515625 963.588684082031 961.692138671875 959.494689941406 957.016906738281 956.764099121094 956.873168945312 959.854064941406 957.084838867188 957.728820800781 952.401733398438 959.730163574219 962.087524414062 961.943664550781 966.919616699219 964.551147460938 967.815246582031 969.021728515625 965.215270996094 969.232788085938 968.948303222656 961.927368164062 965.144226074219 965.062438964844 967.008056640625 964.006469726562 977.765747070312 977.321960449219 979.141052246094 977.716918945312 972.594421386719 970.226196289062 974.2939453125 975.579956054688 963.142211914062 968.350036621094 981.238037109375 973.605895996094 975.285034179688 976.815979003906 979.423461914062 977.038940429688 981.333801269531 977.173034667969 975.841064453125 978.151184082031 981.244018554688 978.038330078125 978.1005859375 967.655944824219 973.027038574219 979.886108398438 981.306396484375 974.85546875 968.797241210938 977.204833984375 981.208374023438 975.739685058594 979.509155273438 974.279174804688 975.185729980469 972.957397460938 972.890258789062 992.670227050781 994.056213378906 990.782043457031 997.466125488281 1006.60491943359 1016.27337646484 1019.99346923828 1022.04217529297 1020.55743408203 1018.51165771484 1017.61004638672 1011.31945800781 1013.81292724609 1027.13171386719 1035.21899414062 1023.83367919922 1018.57666015625 1021.01306152344 1014.13879394531 1020.45379638672 1025.58020019531 1021.21575927734 1019.05804443359 1016.77270507812 1025.4111328125 1039.36352539062 1047.80480957031 1037.80578613281 1044.87390136719 1046.92297363281 1046.76184082031 1046.78173828125 1038.82568359375 1031.55102539062 1032.09423828125 1033.20300292969 1022.72241210938 1025.8408203125 1034.31677246094 1029.12951660156 1028.68981933594 1016.81555175781 1014.18103027344 1009.91125488281 1014.28350830078 1016.87542724609 1014.60559082031
954.615966796875 959.354736328125 959.577941894531 950.432678222656 954.485168457031 957.024963378906 953.548950195312 965.383239746094 956.033203125 958.1748046875 952.597229003906 958.87646484375 942.85595703125 951.261535644531 948.184020996094 946.488342285156 948.633483886719 945.541137695312 936.956848144531 938.273132324219 940.800476074219 939.885620117188 941.523254394531 944.587951660156 950.865905761719 934.453674316406 939.639587402344 944.9375 940.474975585938 954.977844238281 950.668640136719 954.4423828125 950.662963867188 951.942321777344 941.963256835938 942.452331542969 948.690185546875 949.407836914062 953.8916015625 951.239501953125 959.908996582031 961.246765136719 958.223266601562 962.782348632812 964.081909179688 963.129638671875 960.132690429688 969.513061523438 959.186950683594 954.951049804688 966.603515625 967.069152832031 958.064453125 958.804321289062 966.205444335938 966.889282226562 965.759338378906 967.66064453125 971.689697265625 973.569274902344 969.036499023438 959.863037109375 955.991638183594 953.0947265625 971.579406738281 966.778381347656 977.797668457031 979.568359375 977.3837890625 978.718444824219 976.929992675781 978.683410644531 976.896057128906 973.121398925781 963.136047363281 968.777404785156 978.01025390625 978.846923828125 971.329833984375 970.871032714844 966.010864257812 975.0205078125 978.513366699219 985.906921386719 982.5166015625 980.593017578125 980.593811035156 980.530883789062 972.342224121094 973.239990234375 968.262756347656 966.492370605469 973.963806152344 975.331237792969 977.310180664062 988.134216308594 971.867919921875 980.220703125 980.842346191406 978.272338867188 975.194763183594 982.507629394531 984.126098632812 989.115417480469 995.1064453125 996.495239257812 991.59033203125 998.674255371094 1019.81231689453 1016.32153320312 1017.72161865234 1021.93518066406 1025.60180664062 1013.52197265625 1016.25091552734 1012.44281005859 1021.8720703125 1024.15808105469 1022.46356201172 1018.90618896484 1017.58483886719 1022.68920898438 1019.21948242188 1016.32507324219 1024.07299804688 1028.537109375 1026.25048828125 1032.18383789062 1037.65747070312 1042.28723144531 1041.35461425781 1037.99353027344 1038.41247558594 1037.7216796875 1032.1015625 1033.00854492188 1026.28747558594 1034.76403808594 1032.5498046875 1032.568359375 1036.33850097656 1030.96459960938 1032.23828125 1017.29461669922 1008.18426513672 1010.20648193359 1008.09875488281 1016.14312744141 1007.67755126953 1006.47955322266
948.552001953125 950.153625488281 961.420166015625 954.603820800781 952.515075683594 958.357116699219 953.431823730469 949.7421875 953.525207519531 946.766662597656 944.096801757812 943.581481933594 945.461730957031 946.339172363281 941.012573242188 943.634948730469 943.830505371094 944.668395996094 941.026245117188 945.842346191406 942.779541015625 934.155334472656 941.97509765625 948.480407714844 940.26123046875 946.645874023438 950.950805664062 946.529602050781 948.289306640625 955.325439453125 954.391296386719 952.718811035156 949.202819824219 950.692199707031 953.152770996094 941.927429199219 945.519348144531 946.307922363281 954.35009765625 952.882202148438 951.789611816406 951.33837890625 951.181884765625 961.715881347656 975.056030273438 976.327575683594 980.229919433594 977.743774414062 967.664855957031 963.487121582031 967.423278808594 968.679809570312 960.651000976562 955.154663085938 968.865600585938 966.1318359375 965.503662109375 970.203430175781 978.147583007812 982.505126953125 976.446655273438 971.643798828125 961.088256835938 960.473693847656 967.669494628906 968.548950195312 977.053771972656 976.180053710938 979.366333007812 975.736145019531 982.6044921875 983.890808105469 985.475402832031 969.999633789062 969.260803222656 970.942687988281 980.105529785156 978.892211914062 976.227966308594 971.894104003906 968.409240722656 969.90478515625 986.908752441406 988.969665527344 981.238037109375 981.474853515625 982.751647949219 978.844909667969 972.249450683594 972.088073730469 972.678894042969 965.764709472656 977.877197265625 987.625732421875 993.447326660156 990.502868652344 986.525939941406 982.639587402344 983.804016113281 986.154968261719 988.541870117188 984.609497070312 986.511840820312 990.377258300781 998.607543945312 993.172302246094 1001.38861083984 1002.32495117188 1016.75048828125 1021.45074462891 1016.29669189453 1015.34448242188 1026.08056640625 1027.7421875 1027.88513183594 1022.38952636719 1023.080078125 1028.72680664062 1032.40454101562 1023.29180908203 1027.93872070312 1033.17553710938 1022.39440917969 1025.04064941406 1024.67346191406 1027.24084472656 1028.32836914062 1028.37780761719 1031.26098632812 1035.97094726562 1043.80883789062 1042.1630859375 1038.43615722656 1023.95574951172 1027.76672363281 1021.85919189453 1020.36047363281 1029.25891113281 1030.93444824219 1031.41088867188 1027.08410644531 1021.18835449219 1019.40838623047 1020.79400634766 1013.58227539062 1006.67651367188 1003.63909912109 999.46240234375 1005.09558105469 1002.27551269531
945.884582519531 956.595947265625 952.151672363281 949.9833984375 961.143615722656 960.452941894531 950.601196289062 950.146484375 948.888977050781 939.861755371094 938.719177246094 937.669250488281 944.14453125 942.331665039062 948.392211914062 948.15087890625 941.379455566406 944.919067382812 949.250061035156 951.140014648438 944.301879882812 942.682067871094 940.990173339844 947.510314941406 949.324523925781 946.461730957031 947.867126464844 954.354309082031 956.071716308594 957.446044921875 949.462646484375 952.355041503906 950.551086425781 955.305053710938 954.13671875 952.176574707031 936.1650390625 950.997924804688 952.483459472656 956.614196777344 953.427429199219 954.814514160156 956.533386230469 971.897277832031 983.41064453125 983.231262207031 982.185607910156 985.205993652344 981.208190917969 974.948303222656 976.939025878906 971.841430664062 967.811340332031 959.36865234375 973.423828125 966.933410644531 975.450073242188 982.869812011719 977.174682617188 978.849975585938 974.489929199219 970.179443359375 968.474975585938 963.01708984375 970.911254882812 972.001159667969 975.009399414062 976.693969726562 977.392395019531 982.012145996094 973.894409179688 975.840393066406 971.853698730469 974.144836425781 973.046264648438 975.999694824219 980.339782714844 981.345153808594 978.004760742188 971.812377929688 973.668212890625 979.854431152344 980.133178710938 983.922485351562 980.960510253906 983.717346191406 994.627746582031 987.636779785156 976.071838378906 972.546508789062 962.130737304688 966.491333007812 970.077392578125 983.244262695312 993.841674804688 999.437622070312 987.973754882812 988.356689453125 994.787292480469 998.553344726562 994.51318359375 999.630798339844 991.309997558594 986.947998046875 991.727294921875 991.209167480469 995.247314453125 999.117370605469 1004.21813964844 1013.72607421875 1012.6689453125 1012.88006591797 1016.60400390625 1019.71173095703 1025.43383789062 1021.03057861328 1024.32873535156 1030.46374511719 1036.85583496094 1036.10278320312 1041.70336914062 1034.60424804688 1025.0087890625 1038.06188964844 1036.30102539062 1023.1953125 1020.81646728516 1022.41510009766 1026.89111328125 1031.11572265625 1034.18908691406 1034.37280273438 1031.78247070312 1032.58935546875 1024.19470214844 1026.33374023438 1026.50183105469 1029.23352050781 1031.64868164062 1032.54260253906 1022.75622558594 1022.30108642578 1017.84643554688 1018.21606445312 1012.65496826172 1005.71630859375 994.891357421875 1002.94049072266 996.635925292969 1012.67095947266
946.513000488281 955.154357910156 956.094787597656 954.230407714844 958.112915039062 958.861511230469 948.421691894531 949.949584960938 939.946105957031 941.079406738281 948.923889160156 943.953552246094 948.806335449219 943.546142578125 943.131530761719 945.998657226562 950.033325195312 953.687133789062 955.348449707031 956.277221679688 945.91845703125 956.731628417969 941.978393554688 951.542236328125 951.228149414062 951.228393554688 949.690185546875 957.404296875 964.419982910156 962.570190429688 958.679077148438 952.442138671875 944.614624023438 952.330871582031 955.191345214844 953.694885253906 942.26220703125 949.469055175781 955.083984375 958.631958007812 958.83642578125 964.458251953125 965.405944824219 974.36376953125 984.97705078125 981.356567382812 986.952880859375 986.538879394531 984.429748535156 974.284973144531 982.535827636719 987.330749511719 978.309265136719 963.998229980469 955.471069335938 960.591247558594 971.278991699219 985.483154296875 987.049560546875 974.078552246094 973.988586425781 976.624572753906 981.691833496094 975.434326171875 974.250671386719 973.224426269531 978.819519042969 966.938598632812 968.320617675781 978.467346191406 980.644714355469 980.839904785156 976.193542480469 976.15966796875 979.411376953125 981.575744628906 979.976379394531 976.639953613281 978.775512695312 977.600036621094 969.39208984375 975.185363769531 974.379150390625 985.621643066406 981.601745605469 988.412719726562 983.846008300781 979.182922363281 974.260314941406 971.810668945312 970.2314453125 965.99169921875 966.416320800781 990.215637207031 997.051513671875 994.16943359375 988.830017089844 993.830810546875 1001.35601806641 1002.48486328125 997.607482910156 996.869384765625 997.78466796875 993.986938476562 987.884765625 993.664184570312 999.950134277344 998.780029296875 996.69482421875 1005.64465332031 1016.93481445312 1010.92266845703 1022.23907470703 1024.89001464844 1028.03076171875 1020.81213378906 1021.44085693359 1026.23059082031 1034.12878417969 1030.93481445312 1033.62426757812 1034.9736328125 1035.31298828125 1034.08044433594 1033.42077636719 1030.212890625 1024.58898925781 1019.34619140625 1017.44830322266 1030.41870117188 1034.46862792969 1027.30004882812 1030.51428222656 1020.06518554688 1026.98376464844 1027.88806152344 1032.21618652344 1030.56689453125 1033.17065429688 1023.38641357422 1024.73596191406 1024.70971679688 1010.70550537109 1014.44067382812 1012.87225341797 1011.40997314453 1006.81726074219 996.939147949219 995.651794433594 1001.87963867188
953.594116210938 951.4716796875 954.644958496094 950.094360351562 952.188842773438 944.976806640625 944.579162597656 936.020812988281 935.968078613281 940.102966308594 935.001770019531 937.99609375 945.323852539062 940.790649414062 944.832824707031 945.668273925781 952.054077148438 953.702270507812 954.200622558594 957.247131347656 961.110900878906 968.374938964844 962.568115234375 967.348083496094 954.201721191406 958.631286621094 955.605163574219 959.132751464844 954.85498046875 957.30078125 967.57177734375 960.280700683594 958.736328125 949.709533691406 951.197265625 948.457214355469 952.717468261719 957.863647460938 957.306640625 964.192443847656 960.742980957031 959.124816894531 965.702087402344 985.839416503906 994.699645996094 991.030700683594 990.246826171875 990.204223632812 987.150085449219 986.903076171875 989.874145507812 977.205017089844 977.265808105469 982.227416992188 971.595886230469 961.756469726562 975.086791992188 987.669250488281 980.693542480469 975.449890136719 976.064575195312 980.591735839844 979.861755371094 985.4169921875 975.489379882812 969.222534179688 968.361877441406 960.6337890625 956.821228027344 972.555053710938 978.393005371094 976.273803710938 979.495056152344 976.079345703125 975.765869140625 977.843811035156 978.962463378906 984.153381347656 972.237182617188 978.63525390625 975.120422363281 982.804138183594 975.218078613281 975.313415527344 980.594543457031 982.682983398438 981.904968261719 981.036315917969 972.039855957031 977.537536621094 973.416259765625 961.765991210938 967.64990234375 981.75341796875 991.760131835938 991.831359863281 995.400939941406 999.021118164062 1005.44580078125 1000.51580810547 990.464599609375 995.527526855469 994.19189453125 990.265258789062 993.268188476562 1002.16577148438 997.952575683594 1013.78283691406 1018.85705566406 1014.29931640625 1019.1669921875 1022.43420410156 1036.14636230469 1023.94573974609 1025.57189941406 1024.04846191406 1016.15063476562 1023.77618408203 1032.978515625 1035.79431152344 1040.09790039062 1046.91650390625 1042.94055175781 1034.20861816406 1036.30358886719 1023.53802490234 1026.82641601562 1025.94140625 1016.43615722656 1017.03753662109 1026.59619140625 1024.27392578125 1029.4482421875 1028.08386230469 1028.08813476562 1017.36474609375 1026.55065917969 1021.67327880859 1020.98236083984 1025.05151367188 1023.11596679688 1023.13208007812 1023.82971191406 1014.28649902344 1018.40692138672 1006.65844726562 1003.20684814453 1003.11334228516 998.138854980469 999.117492675781
954.497802734375 952.378173828125 939.994934082031 947.62890625 942.303405761719 938.09912109375 934.6787109375 936.193115234375 932.290405273438 929.025207519531 929.844543457031 933.834106445312 947.025695800781 948.964660644531 946.228881835938 955.9814453125 955.693725585938 959.02685546875 960.573425292969 967.867004394531 971.625122070312 972.155334472656 970.260559082031 971.964111328125 964.657287597656 963.112243652344 955.360595703125 953.256774902344 960.48193359375 973.875610351562 965.431884765625 965.294738769531 964.553955078125 957.139465332031 971.715942382812 970.129150390625 970.579345703125 971.285827636719 963.845581054688 962.190551757812 961.198852539062 962.4140625 971.487548828125 981.656616210938 990.0869140625 999.548950195312 985.081970214844 990.784606933594 995.427795410156 988.456970214844 979.416687011719 975.912292480469 981.400390625 981.411804199219 979.790649414062 978.764282226562 982.275268554688 979.735229492188 972.74169921875 972.111694335938 973.09765625 973.005432128906 977.297302246094 973.079895019531 969.414428710938 957.820861816406 962.615539550781 965.074279785156 968.906005859375 975.531494140625 976.211547851562 973.892456054688 978.984375 989.205993652344 988.486267089844 984.89501953125 988.697814941406 982.871887207031 981.562622070312 979.372009277344 985.636779785156 982.962768554688 986.515625 983.361511230469 991.279418945312 981.735290527344 985.215759277344 974.946960449219 982.770812988281 971.828063964844 979.811340332031 974.990112304688 977.138916015625 977.927917480469 986.277954101562 992.300720214844 995.904602050781 992.684448242188 1000.74969482422 1003.92858886719 996.751953125 998.176147460938 995.578918457031 999.276794433594 997.906372070312 1006.32238769531 1000.38970947266 1007.21099853516 1013.94958496094 1015.67150878906 1024.85864257812 1032.13061523438 1038.3427734375 1033.24340820312 1030.68420410156 1027.54650878906 1023.49151611328 1017.18640136719 1029.32360839844 1040.44641113281 1048.7392578125 1041.21838378906 1039.59692382812 1036.90515136719 1039.92468261719 1030.74169921875 1026.0185546875 1021.49505615234 1018.73687744141 1020.84869384766 1023.06768798828 1025.45178222656 1022.50152587891 1024.48388671875 1022.25653076172 1022.62036132812 1030.75122070312 1024.46716308594 1017.15191650391 1027.083984375 1024.72045898438 1023.69256591797 1022.88018798828 1013.84680175781 1010.31494140625 1006.12811279297 999.502624511719 995.783508300781 998.751037597656 1004.25646972656
962.604553222656 954.725280761719 943.909118652344 942.545104980469 939.420043945312 934.15234375 925.814758300781 928.416259765625 932.687622070312 931.024230957031 939.230529785156 945.250793457031 946.076538085938 952.876831054688 952.7666015625 955.321105957031 944.443542480469 943.338623046875 954.716003417969 976.160339355469 980.218078613281 979.9755859375 981.11376953125 972.575744628906 964.25732421875 965.243469238281 956.541687011719 969.312683105469 965.646484375 974.475891113281 976.788757324219 972.769348144531 975.401062011719 965.777038574219 969.117004394531 971.433410644531 971.539794921875 969.672241210938 971.45751953125 974.369384765625 966.105224609375 972.746765136719 979.804748535156 983.472290039062 992.334350585938 987.859252929688 988.525146484375 988.876220703125 986.75927734375 985.45166015625 980.176818847656 978.062072753906 975.598937988281 968.703857421875 971.492065429688 979.568908691406 982.616760253906 974.069091796875 973.031860351562 965.067321777344 971.402221679688 970.430419921875 968.567687988281 974.213012695312 963.805480957031 961.579406738281 966.22216796875 966.949096679688 969.776794433594 974.336975097656 971.778381347656 976.248718261719 978.943237304688 986.70556640625 991.433227539062 988.874389648438 981.738159179688 982.610656738281 987.118041992188 983.665100097656 988.184204101562 989.916809082031 987.989196777344 980.986267089844 985.447021484375 983.837158203125 973.747802734375 980.832641601562 978.877807617188 965.5009765625 964.873291015625 976.898010253906 986.615783691406 978.705810546875 983.474365234375 987.797180175781 988.077270507812 996.067504882812 994.568237304688 1006.33245849609 1011.13507080078 1008.00762939453 1006.0546875 1007.42199707031 1006.31280517578 1010.08801269531 1015.43334960938 1010.61822509766 1016.48345947266 1024.28283691406 1032.37512207031 1040.06665039062 1038.64855957031 1044.8115234375 1034.98046875 1036.59216308594 1026.35766601562 1029.24462890625 1035.06237792969 1036.72692871094 1041.68139648438 1039.35083007812 1041.57397460938 1040.49584960938 1042.08312988281 1027.73315429688 1025.28112792969 1015.82238769531 1017.25274658203 1022.51177978516 1018.60852050781 1026.728515625 1013.52453613281 1017.05072021484 1018.51934814453 1026.33898925781 1023.60614013672 1018.2705078125 1015.71496582031 1019.30969238281 1018.28265380859 1020.5068359375 1020.77777099609 1017.89263916016 1005.52429199219 996.206909179688 995.738525390625 995.632141113281 991.273010253906 1002.41796875
963.725402832031 958.853393554688 945.642883300781 939.421508789062 936.674621582031 938.310913085938 933.477355957031 940.464477539062 942.230773925781 936.869750976562 948.291320800781 951.24365234375 956.402221679688 962.96142578125 956.2490234375 958.117980957031 955.112182617188 964.349609375 963.701354980469 973.195983886719 980.450988769531 986.433410644531 982.158813476562 971.133056640625 974.73291015625 976.613830566406 976.65283203125 975.209838867188 965.893005371094 976.741333007812 975.241088867188 983.267761230469 973.829956054688 972.331848144531 977.677062988281 976.076599121094 983.594055175781 982.828979492188 976.417785644531 983.969482421875 980.366027832031 982.889831542969 996.503356933594 993.2822265625 993.014343261719 992.462341308594 989.46630859375 985.957580566406 985.069946289062 979.469665527344 982.688720703125 980.088134765625 962.386962890625 963.077758789062 969.352722167969 979.189147949219 981.994201660156 979.862182617188 979.995727539062 975.208984375 974.998962402344 959.764404296875 960.97900390625 969.525268554688 967.841491699219 964.439636230469 968.865661621094 962.946350097656 984.260131835938 978.908813476562 983.104736328125 982.800170898438 982.403137207031 983.721496582031 995.275207519531 992.996154785156 984.934265136719 987.915893554688 987.355651855469 988.177795410156 980.447448730469 993.026550292969 1000.83190917969 985.169921875 978.728149414062 984.109191894531 978.743103027344 980.909423828125 976.218811035156 965.633117675781 964.931335449219 964.662536621094 974.33251953125 978.333435058594 978.734191894531 984.898010253906 990.032958984375 991.128112792969 1004.49383544922 1005.10119628906 1005.01104736328 1012.33666992188 1011.27020263672 1017.19128417969 1014.81158447266 1007.9365234375 1008.44891357422 1022.04345703125 1031.37097167969 1034.22131347656 1035.63842773438 1039.39624023438 1033.67321777344 1049.75439453125 1041.40661621094 1030.04211425781 1029.25866699219 1033.75476074219 1034.33129882812 1033.16430664062 1034.19775390625 1039.69287109375 1042.068359375 1040.94860839844 1031.96765136719 1025.65563964844 1017.39782714844 1017.14410400391 1007.17022705078 1012.57940673828 1011.00012207031 1019.63385009766 1015.64471435547 1019.90991210938 1021.11486816406 1017.6337890625 1022.77331542969 1017.87664794922 1022.12664794922 1019.41131591797 1012.82202148438 1011.37133789062 1013.26495361328 1004.93780517578 997.253479003906 993.666198730469 988.770751953125 996.888122558594 993.853515625 1005.01000976562
965.786926269531 959.3447265625 950.282592773438 938.7470703125 932.261413574219 939.436889648438 934.066467285156 944.270446777344 945.495666503906 953.796691894531 956.829772949219 954.220520019531 960.517028808594 970.98974609375 965.693969726562 957.799499511719 959.797790527344 963.363098144531 971.111450195312 975.730102539062 979.231018066406 990.833374023438 983.044189453125 986.287109375 976.729431152344 974.891845703125 965.932495117188 968.004638671875 969.05859375 979.498657226562 968.768005371094 972.424194335938 978.171569824219 980.817443847656 981.756530761719 992.25146484375 985.961242675781 988.7587890625 985.76708984375 989.252868652344 992.095764160156 990.563720703125 993.898620605469 996.6953125 995.319458007812 993.502136230469 992.528381347656 991.051513671875 985.098999023438 991.930603027344 1001.66619873047 981.858825683594 975.373901367188 966.933227539062 965.52490234375 970.0966796875 970.572937011719 973.497985839844 977.73486328125 982.7314453125 977.575927734375 969.364868164062 969.609985351562 966.194030761719 962.829040527344 960.080993652344 961.504150390625 972.093933105469 991.607421875 983.316284179688 983.897155761719 985.8349609375 989.029174804688 996.814025878906 990.032348632812 997.597106933594 987.905517578125 992.446533203125 987.911376953125 988.55078125 982.340576171875 994.662780761719 998.835998535156 996.829772949219 989.371154785156 983.353637695312 982.597534179688 984.040466308594 979.906799316406 976.353637695312 970.354919433594 968.938171386719 975.467956542969 977.875183105469 976.895141601562 980.855712890625 983.771850585938 995.216613769531 1000.14166259766 1000.20947265625 1004.39294433594 1002.01574707031 1011.65441894531 1019.10998535156 1016.65155029297 1014.15100097656 1020.14697265625 1020.39739990234 1038.26037597656 1032.11242675781 1028.83911132812 1039.96545410156 1037.29357910156 1044.32055664062 1036.32434082031 1027.61218261719 1028.83996582031 1028.70239257812 1032.78100585938 1027.19104003906 1023.7333984375 1041.74731445312 1040.31567382812 1036.52758789062 1031.31384277344 1023.53332519531 1015.08343505859 1014.94647216797 1013.48303222656 1017.36584472656 1017.13793945312 1017.92034912109 1013.99572753906 1020.72259521484 1024.71740722656 1019.95886230469 1022.52313232422 1021.93988037109 1010.46295166016 1011.12823486328 1002.32415771484 1007.85864257812 1003.70184326172 1000.80627441406 1004.56170654297 993.6591796875 998.700988769531 996.228271484375 995.461853027344 995.267272949219
959.889953613281 957.205688476562 954.068908691406 936.413940429688 925.99609375 933.06396484375 935.197265625 953.175109863281 948.232727050781 955.476135253906 965.118347167969 961.310546875 964.223937988281 974.065551757812 979.401550292969 973.567199707031 968.597534179688 969.787902832031 981.960266113281 981.497314453125 976.175415039062 985.515380859375 986.130493164062 987.565795898438 982.930236816406 978.793823242188 971.463195800781 972.574584960938 970.516845703125 970.557250976562 963.7021484375 968.113586425781 981.314636230469 976.775085449219 984.699462890625 991.849914550781 990.523742675781 989.287902832031 990.842163085938 991.361877441406 997.753784179688 998.501098632812 996.619384765625 998.289916992188 998.430358886719 998.418090820312 1004.9375 998.119506835938 996.919982910156 1002.46197509766 1000.4443359375 992.501525878906 982.2705078125 974.689880371094 968.437316894531 968.977233886719 959.599426269531 969.341613769531 974.712585449219 980.546020507812 978.497924804688 972.62060546875 974.605712890625 967.92724609375 966.012023925781 960.36181640625 967.738159179688 980.7333984375 990.990173339844 987.510559082031 991.675170898438 983.874694824219 986.337951660156 985.496887207031 994.094482421875 990.345825195312 984.928588867188 993.7900390625 993.372436523438 992.873229980469 986.748840332031 992.224060058594 997.298889160156 1004.36022949219 993.466857910156 987.219787597656 989.974853515625 981.166381835938 979.972106933594 977.406005859375 977.613647460938 972.589965820312 981.224304199219 976.236938476562 972.736206054688 977.983947753906 987.036254882812 987.306213378906 1003.99542236328 1001.40356445312 1007.04382324219 1006.18011474609 1004.95068359375 1009.89453125 1016.18212890625 1019.11669921875 1024.52172851562 1025.07690429688 1032.71545410156 1030.39025878906 1029.447265625 1022.90765380859 1030.69592285156 1028.60388183594 1026.92700195312 1032.39929199219 1021.70391845703 1024.31506347656 1014.83599853516 1022.49011230469 1028.12927246094 1036.43957519531 1035.26940917969 1023.12084960938 1025.40258789062 1024.49108886719 1023.22631835938 1013.75909423828 1017.47967529297 1010.44543457031 1013.68395996094 1011.73931884766 1019.572265625 1015.20397949219 1021.14697265625 1021.45819091797 1017.17401123047 1016.05999755859 1016.66400146484 1004.01135253906 1005.36608886719 998.938537597656 997.420715332031 995.274353027344 996.550109863281 990.61767578125 1001.85003662109 1002.74365234375 997.690185546875 1002.56359863281
964.260681152344 959.02685546875 948.325744628906 935.693420410156 931.794372558594 924.7724609375 941.967224121094 953.943725585938 953.989318847656 955.607543945312 956.875671386719 958.054443359375 966.210327148438 976.425842285156 976.01513671875 974.851623535156 978.90185546875 975.329040527344 973.780334472656 976.571838378906 978.704284667969 985.47021484375 988.035278320312 995.205871582031 983.5966796875 979.370422363281 978.920043945312 978.83837890625 970.315795898438 972.976379394531 970.402587890625 974.973205566406 982.094909667969 982.421813964844 986.836486816406 993.779968261719 999.048889160156 993.949035644531 994.13232421875 999.967041015625 1004.59497070312 1000.70648193359 1002.35076904297 1001.14288330078 1004.99957275391 997.242492675781 1009.05804443359 1001.29071044922 1000.31097412109 1003.31182861328 996.771545410156 994.602478027344 985.561340332031 980.098999023438 972.896423339844 969.27294921875 972.413696289062 974.488830566406 972.673156738281 969.975524902344 969.797180175781 970.4990234375 972.061706542969 977.676208496094 972.923522949219 968.178771972656 978.590576171875 987.03564453125 990.259338378906 989.542358398438 986.871704101562 984.903869628906 983.890808105469 993.664245605469 986.565307617188 987.174560546875 991.112243652344 1005.56817626953 1002.29675292969 996.205444335938 995.0087890625 991.087097167969 1002.27752685547 1005.25 1005.97991943359 1002.59851074219 994.908020019531 987.096496582031 990.981201171875 983.850219726562 987.15673828125 974.187866210938 985.096618652344 983.572692871094 977.125732421875 988.16259765625 997.88671875 993.896301269531 1006.53094482422 1006.18835449219 1000.18304443359 1009.11419677734 1007.38977050781 1008.14410400391 1018.658203125 1032.89074707031 1026.62976074219 1030.87817382812 1033.64013671875 1033.52124023438 1034.4423828125 1031.41076660156 1034.21948242188 1029.61401367188 1025.6240234375 1025.13403320312 1019.86138916016 1011.80194091797 1017.94818115234 1023.08020019531 1032.44213867188 1025.91711425781 1025.01940917969 1018.71234130859 1023.73162841797 1020.01763916016 1020.39263916016 1013.83776855469 1006.59790039062 1009.62854003906 1011.40026855469 1002.18725585938 1014.61682128906 1012.89044189453 1015.14019775391 1021.32885742188 1012.10632324219 1011.01025390625 1006.19348144531 999.164428710938 994.088134765625 992.68603515625 995.348693847656 989.684692382812 988.227172851562 989.125244140625 999.568298339844 999.739501953125 996.656494140625 1004.93432617188
951.352966308594 947.835510253906 935.970764160156 934.576477050781 933.095458984375 931.164672851562 944.433288574219 949.422790527344 954.186889648438 955.48779296875 961.748962402344 970.262145996094 971.354797363281 982.600158691406 984.67529296875 981.113098144531 985.457885742188 985.942565917969 993.990295410156 982.0029296875 987.652893066406 983.980041503906 989.337951660156 997.9296875 993.220092773438 985.454650878906 978.518127441406 980.367004394531 983.698608398438 977.265991210938 981.672912597656 977.943054199219 981.214111328125 983.291320800781 982.22412109375 993.350524902344 986.751953125 987.983032226562 993.258056640625 994.324035644531 996.497619628906 1010.36590576172 1019.28686523438 1007.81146240234 1007.75354003906 1005.93426513672 1008.03112792969 1014.68572998047 996.921997070312 996.143859863281 992.556945800781 986.671020507812 984.272888183594 981.768127441406 971.445922851562 968.08984375 964.609191894531 974.680541992188 980.767761230469 975.14404296875 973.843872070312 972.114624023438 972.911499023438 976.475280761719 975.7666015625 976.218933105469 986.230773925781 987.103698730469 987.6572265625 984.494567871094 993.754699707031 991.140319824219 994.005249023438 992.227233886719 997.235595703125 992.189208984375 991.796203613281 994.966979980469 989.767272949219 1002.66485595703 996.947326660156 1010.82025146484 1004.47186279297 1005.58801269531 1003.94671630859 997.601318359375 992.046264648438 987.101989746094 990.579467773438 992.605285644531 983.639038085938 985.339294433594 989.059326171875 982.842895507812 991.365600585938 998.605712890625 999.583923339844 998.641784667969 1005.75567626953 1003.21520996094 1005.51287841797 1007.72418212891 1011.47729492188 1014.68365478516 1018.15075683594 1024.47058105469 1030.33215332031 1029.41979980469 1030.19897460938 1034.60205078125 1025.0302734375 1028.05578613281 1031.12524414062 1030.92919921875 1022.54058837891 1026.37097167969 1019.09478759766 1015.20434570312 1018.02282714844 1016.71923828125 1023.70880126953 1025.90539550781 1018.86334228516 1019.01580810547 1013.98626708984 1015.853515625 1016.27874755859 1011.90637207031 1005.87268066406 1001.85101318359 1001.65155029297 997.310424804688 1007.34326171875 1009.55883789062 1013.56774902344 1011.97314453125 1012.28137207031 1012.53662109375 1007.19604492188 1003.00646972656 999.421264648438 994.454833984375 986.948425292969 982.400390625 983.500061035156 987.890258789062 988.328491210938 991.045104980469 990.166137695312 996.887329101562
941.653991699219 937.856506347656 936.402770996094 933.935852050781 930.3984375 932.197509765625 939.14404296875 942.696350097656 952.8818359375 952.102233886719 963.945129394531 971.772094726562 983.928894042969 982.312194824219 984.495361328125 979.287475585938 991.598999023438 994.1953125 1000.40887451172 994.923706054688 995.578369140625 991.45751953125 990.510070800781 990.348999023438 989.396545410156 986.753479003906 980.479187011719 975.452880859375 979.902648925781 986.168212890625 986.749145507812 982.521545410156 980.31982421875 983.844909667969 984.590148925781 992.024291992188 991.530822753906 995.15673828125 995.504821777344 993.898132324219 996.982788085938 1001.87371826172 1014.84777832031 1011.76055908203 1008.25653076172 1011.61108398438 1010.64739990234 1018.19274902344 1013.27185058594 1003.31689453125 1003.2294921875 994.563354492188 993.607543945312 982.638671875 979.064270019531 980.269226074219 973.241882324219 985.211669921875 981.208068847656 974.932067871094 972.336181640625 973.857421875 965.396789550781 971.975341796875 971.699401855469 980.977661132812 983.8603515625 982.443481445312 987.380126953125 995.048950195312 990.802673339844 996.639892578125 995.904907226562 996.457885742188 985.45849609375 984.766357421875 995.32275390625 1000.65747070312 990.819030761719 1001.20068359375 1007.26745605469 1011.75146484375 1012.70056152344 1014.37933349609 1010.37811279297 1008.67266845703 1003.66229248047 995.044189453125 992.529052734375 993.440856933594 985.036865234375 988.090637207031 987.585815429688 989.985229492188 986.159851074219 994.242370605469 999.160217285156 1001.31671142578 1002.18627929688 1001.86376953125 1004.32666015625 1004.68743896484 1009.09649658203 1015.44555664062 1016.57727050781 1023.06091308594 1018.90319824219 1031.2607421875 1029.79077148438 1036.01318359375 1038.82592773438 1034.53564453125 1039.02368164062 1033.3583984375 1030.66577148438 1026.62194824219 1022.7041015625 1021.39196777344 1028.13781738281 1028.78576660156 1029.16467285156 1025.13232421875 1026.96655273438 1025.45764160156 1015.64868164062 1013.88269042969 1010.63177490234 1009.03149414062 996.151550292969 993.286254882812 987.026245117188 999.579528808594 992.674133300781 999.094848632812 997.762512207031 1001.7802734375 993.73583984375 1002.470703125 1002.78894042969 1012.18865966797 998.391357421875 993.422241210938 989.144287109375 990.159362792969 986.221313476562 990.778198242188 988.4296875 982.41162109375 984.2138671875 989.932067871094
948.351135253906 938.865478515625 936.84521484375 935.216613769531 926.976013183594 927.249694824219 929.677856445312 946.594909667969 953.296081542969 957.273315429688 967.555541992188 974.34814453125 981.976318359375 986.672973632812 983.477844238281 979.168518066406 988.299682617188 996.253967285156 987.575012207031 988.190795898438 992.139831542969 987.969482421875 992.31298828125 997.992065429688 990.129455566406 988.087585449219 982.145263671875 973.147827148438 984.015930175781 983.90625 979.04833984375 983.341735839844 982.904357910156 985.533508300781 986.753479003906 989.283142089844 999.226196289062 1001.18914794922 1002.04602050781 994.333862304688 989.439575195312 1003.80627441406 1012.57763671875 1009.06616210938 1016.61975097656 1014.31646728516 1018.68878173828 1019.09307861328 1008.87194824219 1008.47332763672 1001.57580566406 997.947082519531 998.76611328125 988.859191894531 989.601257324219 986.528381347656 979.3330078125 978.86474609375 982.089416503906 970.659851074219 973.769714355469 980.622375488281 974.6552734375 969.272583007812 974.780151367188 979.417236328125 979.028625488281 984.702758789062 983.732177734375 993.172607421875 995.197631835938 990.885131835938 991.301452636719 984.07421875 988.196044921875 990.162048339844 995.027648925781 1003.86999511719 1010.396484375 1004.51440429688 1008.51007080078 1005.29791259766 1013.63897705078 1010.24749755859 1012.15972900391 1019.76892089844 1006.70245361328 994.796569824219 992.843505859375 993.179138183594 996.869262695312 990.757141113281 985.005249023438 992.259521484375 990.680114746094 995.388549804688 987.658996582031 1004.34594726562 1000.91253662109 1002.35540771484 1000.4482421875 1008.66485595703 998.641235351562 1009.7294921875 1025.1201171875 1034.47692871094 1026.8486328125 1034.24487304688 1037.56481933594 1038.62719726562 1043.19494628906 1040.25793457031 1034.91381835938 1034.48718261719 1026.54553222656 1031.94360351562 1024.48547363281 1020.68011474609 1027.04077148438 1032.14208984375 1030.62561035156 1034.36560058594 1035.80798339844 1024.09326171875 1017.76922607422 1016.37750244141 1016.70263671875 1014.63482666016 999.372497558594 993.882751464844 992.066101074219 991.78564453125 990.892395019531 993.907409667969 995.831115722656 993.570617675781 996.917236328125 1012.26025390625 1006.39172363281 1007.17340087891 1000.15606689453 995.440307617188 992.852600097656 991.785034179688 991.128479003906 982.291687011719 977.86083984375 979.479919433594 985.080261230469 992.940734863281
948.836486816406 942.4052734375 933.268615722656 932.123901367188 938.818359375 929.040405273438 939.262023925781 946.993469238281 956.727111816406 956.36328125 973.394287109375 974.719543457031 971.613159179688 985.489990234375 970.919677734375 976.184753417969 987.553588867188 989.443176269531 981.421020507812 990.843566894531 990.452270507812 986.30126953125 985.865234375 990.838195800781 996.41845703125 994.419189453125 989.995544433594 983.508728027344 984.224182128906 982.178833007812 980.122375488281 974.995910644531 972.592041015625 976.629821777344 990.009521484375 986.506042480469 997.160827636719 1002.02349853516 1000.23046875 989.812561035156 995.036376953125 1001.3203125 1008.01715087891 1001.78802490234 1008.27777099609 1013.54553222656 1010.55529785156 999.287536621094 1003.51910400391 1004.49450683594 1004.54083251953 996.006042480469 995.792175292969 994.847351074219 988.297668457031 986.2060546875 980.966735839844 984.998168945312 977.095336914062 982.004150390625 973.231872558594 978.793334960938 970.654357910156 970.845153808594 981.251708984375 976.42578125 976.966796875 978.806884765625 975.78125 978.509399414062 987.433349609375 997.145935058594 992.575988769531 982.377258300781 988.558715820312 990.129821777344 995.755065917969 1005.12152099609 1010.23370361328 1008.45544433594 1009.01330566406 1005.16082763672 1008.63220214844 1006.79565429688 1011.67907714844 1009.92474365234 1001.24200439453 1005.60705566406 998.95458984375 1005.70361328125 985.60107421875 995.343811035156 989.524230957031 986.348876953125 994.2021484375 997.42626953125 999.821655273438 997.546142578125 993.437561035156 997.971740722656 994.650512695312 1009.24017333984 1005.73657226562 1005.56042480469 1020.76153564453 1024.78503417969 1037.76977539062 1034.28198242188 1039.12072753906 1039.13110351562 1038.08422851562 1026.18054199219 1023.73736572266 1031.35766601562 1036.73559570312 1038.81616210938 1030.302734375 1023.80029296875 1030.31726074219 1036.77429199219 1039.62084960938 1037.634765625 1029.16271972656 1026.11022949219 1015.05871582031 1011.50036621094 1014.00744628906 1012.57470703125 1001.01403808594 1003.55133056641 992.637939453125 982.564147949219 984.291320800781 990.406982421875 990.587097167969 995.758911132812 1000.63146972656 1001.37854003906 1006.08502197266 1005.83734130859 992.892211914062 988.986938476562 993.883483886719 996.749633789062 988.765563964844 969.822387695312 973.867980957031 979.604125976562 981.048400878906 994.458740234375
950.216369628906 946.942749023438 940.691040039062 939.520751953125 948.005676269531 939.117126464844 946.974975585938 944.16455078125 950.688781738281 961.494567871094 969.460021972656 975.999328613281 981.821350097656 983.906616210938 969.086669921875 969.97998046875 981.671691894531 981.41552734375 982.059387207031 980.821044921875 984.41796875 989.48828125 986.302856445312 991.013061523438 994.714477539062 993.239196777344 983.822326660156 983.099548339844 985.490783691406 980.903259277344 980.381591796875 971.403625488281 968.23291015625 978.490417480469 980.724731445312 986.074157714844 988.873779296875 1002.62512207031 997.35498046875 988.123779296875 995.711608886719 1000.83868408203 998.1123046875 993.8466796875 1006.32409667969 1014.74822998047 1001.94512939453 999.854370117188 1002.74145507812 1000.98883056641 998.268005371094 1003.10888671875 1003.21765136719 1001.90936279297 981.1650390625 989.677856445312 989.606079101562 981.337890625 985.367004394531 983.658630371094 981.61181640625 971.892700195312 971.928466796875 974.577209472656 973.811950683594 971.9736328125 968.737976074219 976.0810546875 975.204162597656 974.240539550781 979.352294921875 995.328491210938 993.598510742188 986.873779296875 982.883239746094 988.956237792969 995.100158691406 999.852966308594 1011.45477294922 1012.27667236328 1013.49688720703 1014.24981689453 1005.25299072266 1005.08129882812 1008.31579589844 1001.98950195312 998.811340332031 997.5400390625 997.977600097656 995.904113769531 991.221618652344 984.172424316406 990.574951171875 993.658447265625 995.564147949219 998.940307617188 1006.68383789062 1001.19366455078 1000.27618408203 999.34521484375 1005.24243164062 1007.67517089844 1004.71606445312 1010.74896240234 1021.64697265625 1022.56109619141 1021.38812255859 1034.47448730469 1044.89892578125 1032.88439941406 1029.51342773438 1030.65673828125 1032.04797363281 1036.34802246094 1042.59973144531 1042.34301757812 1043.05029296875 1042.34216308594 1045.11547851562 1046.20373535156 1038.81323242188 1033.43151855469 1027.81420898438 1024.29431152344 1012.65759277344 1008.77374267578 1000.77239990234 997.3388671875 1006.51300048828 997.363708496094 996.029174804688 992.539001464844 988.643371582031 1001.11419677734 991.330749511719 984.96142578125 994.144592285156 994.798706054688 1000.15844726562 999.5400390625 995.998657226562 990.408508300781 992.767333984375 991.70458984375 976.70068359375 980.144409179688 984.692565917969 977.197692871094 978.731079101562 995.547119140625
956.228698730469 956.805541992188 944.267456054688 940.338134765625 936.510681152344 943.737731933594 939.656494140625 941.066650390625 950.782348632812 952.896362304688 967.069885253906 971.297607421875 977.614624023438 977.590576171875 970.164001464844 973.163330078125 971.55126953125 976.067199707031 978.649597167969 976.568786621094 973.420227050781 987.222900390625 985.015930175781 985.822021484375 987.566101074219 993.70947265625 980.942199707031 977.089965820312 974.343017578125 979.213317871094 970.937377929688 970.372924804688 969.0732421875 972.873229980469 975.679260253906 980.522827148438 993.585571289062 994.453552246094 990.559265136719 983.609130859375 990.477600097656 998.098327636719 994.112426757812 995.722106933594 1011.36157226562 1004.33746337891 1005.56719970703 1001.02520751953 997.063049316406 1001.33013916016 1000.5322265625 1005.15606689453 998.265197753906 997.276184082031 993.518310546875 990.364807128906 993.760620117188 989.158142089844 985.696716308594 992.02001953125 983.291198730469 981.089050292969 975.291748046875 970.126647949219 968.324462890625 972.782653808594 973.870483398438 980.264404296875 969.826843261719 971.02978515625 977.756408691406 985.670227050781 989.677368164062 982.855834960938 977.592529296875 981.353637695312 989.315551757812 999.062316894531 1014.29040527344 1015.93609619141 1013.91668701172 1002.83618164062 1003.83660888672 1005.47454833984 1002.03833007812 999.447387695312 998.645202636719 999.210876464844 993.823547363281 990.797180175781 986.901000976562 991.294555664062 984.843139648438 989.820068359375 994.821899414062 995.336120605469 1002.6240234375 1001.78607177734 1004.10888671875 999.281066894531 1004.33758544922 1006.14544677734 998.661315917969 1006.40887451172 1014.26525878906 1016.80725097656 1027.28088378906 1027.94970703125 1031.28076171875 1039.44104003906 1036.97131347656 1041.65710449219 1036.62585449219 1040.07751464844 1039.33337402344 1041.99389648438 1048.71057128906 1049.13793945312 1049.25341796875 1044.42541503906 1043.90930175781 1026.67858886719 1020.83557128906 1021.47540283203 1010.30352783203 999.628479003906 997.875244140625 991.144165039062 1003.81274414062 998.836364746094 993.129028320312 986.250915527344 994.895202636719 994.992248535156 993.332336425781 990.763000488281 999.637634277344 996.116943359375 991.462890625 981.438842773438 994.165344238281 993.643249511719 996.951721191406 991.335021972656 980.246398925781 982.843383789062 989.946350097656 986.328247070312 983.980651855469 991.754455566406
954.130859375 948.656433105469 947.40869140625 948.628845214844 944.265502929688 940.281555175781 933.308288574219 940.968688964844 950.253295898438 952.730895996094 965.095275878906 966.362976074219 978.459289550781 971.829772949219 969.900207519531 955.895812988281 951.61572265625 961.844543457031 968.021728515625 960.3916015625 960.784301757812 980.093505859375 978.158142089844 982.135803222656 983.838928222656 986.301330566406 982.296813964844 970.676940917969 966.601257324219 960.497619628906 963.589660644531 973.608764648438 966.579772949219 968.828735351562 964.901672363281 979.139221191406 982.039794921875 988.803527832031 989.410217285156 991.1611328125 991.294860839844 989.178527832031 994.263244628906 990.805236816406 993.443969726562 996.344543457031 1007.94342041016 998.111633300781 996.731811523438 999.164123535156 995.75146484375 995.137512207031 1002.1640625 996.006591796875 999.297302246094 998.612426757812 992.606079101562 990.651611328125 985.794616699219 981.718872070312 981.210815429688 978.1435546875 974.303771972656 984.343688964844 976.923400878906 979.664916992188 977.445190429688 980.634094238281 976.933837890625 971.440185546875 977.443481445312 983.999145507812 992.141479492188 991.031188964844 983.859069824219 988.134704589844 991.642883300781 1004.36444091797 1009.77276611328 1006.84002685547 1005.34271240234 1000.72180175781 1005.26654052734 1005.66082763672 1002.68481445312 1001.04040527344 1001.81695556641 998.339111328125 1000.91900634766 1001.6826171875 995.745910644531 999.864562988281 995.193359375 995.560607910156 996.429382324219 991.248291015625 999.934143066406 998.894287109375 998.766479492188 1005.71459960938 1004.11010742188 1005.2001953125 1002.01171875 1006.42333984375 1019.333984375 1022.21765136719 1028.85717773438 1030.46325683594 1036.55639648438 1036.87561035156 1040.99755859375 1043.4208984375 1048.90051269531 1037.46813964844 1042.36535644531 1042.5283203125 1051.83740234375 1050.41625976562 1049.88098144531 1036.93627929688 1035.54541015625 1022.19366455078 1010.48162841797 1006.89331054688 1006.36614990234 1002.65386962891 992.573669433594 991.809936523438 984.706848144531 995.870849609375 984.830322265625 989.370483398438 993.891662597656 997.134094238281 989.369018554688 991.108703613281 987.447448730469 983.550964355469 991.343933105469 987.65087890625 989.939880371094 980.805908203125 987.451965332031 982.409545898438 982.120544433594 982.953002929688 974.396423339844 968.370544433594 982.353942871094 982.273986816406
958.786865234375 951.195007324219 947.72705078125 939.417663574219 939.881774902344 937.105834960938 937.252685546875 939.377319335938 950.321655273438 952.648620605469 968.096313476562 965.079162597656 961.056274414062 963.040710449219 959.317321777344 953.290161132812 952.698425292969 956.003967285156 963.26220703125 958.899597167969 956.031616210938 978.500122070312 971.584106445312 978.012390136719 979.601440429688 983.847717285156 984.366333007812 971.33935546875 971.037475585938 970.001281738281 962.471801757812 975.508544921875 965.814819335938 963.04541015625 963.814636230469 978.050842285156 976.818481445312 988.354187011719 977.244201660156 986.867980957031 982.1630859375 987.857238769531 994.269409179688 994.8134765625 994.478698730469 997.983032226562 1006.07867431641 1008.10986328125 999.338195800781 1003.66333007812 1005.80645751953 1004.99389648438 1001.04376220703 995.813903808594 992.94873046875 1002.40765380859 988.552001953125 987.263854980469 983.136779785156 985.273254394531 986.073425292969 979.514709472656 976.328796386719 982.31396484375 980.829040527344 978.112182617188 987.072326660156 980.775634765625 979.187316894531 980.140014648438 982.249206542969 978.851196289062 981.365783691406 985.924072265625 979.73876953125 988.176208496094 986.441711425781 1006.14172363281 996.38232421875 993.621276855469 999.889770507812 1007.48065185547 1008.00317382812 1016.05773925781 1007.21362304688 1000.84185791016 1012.56982421875 1007.9111328125 1001.09411621094 1002.58392333984 997.628967285156 1004.68133544922 1006.83984375 1001.87744140625 1001.18701171875 999.926391601562 1004.66174316406 1007.93017578125 1011.09741210938 1009.74615478516 1008.18634033203 1005.63610839844 1007.74780273438 1004.16333007812 1019.50018310547 1026.09631347656 1027.44738769531 1023.46612548828 1025.8203125 1030.82446289062 1034.41674804688 1043.32580566406 1050.38500976562 1047.06066894531 1050.79260253906 1048.55261230469 1045.47009277344 1049.021484375 1053.03454589844 1039.61584472656 1034.41284179688 1026.88452148438 1018.97961425781 1008.39288330078 1001.42468261719 1001.16613769531 997.695617675781 993.403930664062 985.538024902344 986.811462402344 982.203491210938 987.982971191406 995.446411132812 996.98779296875 989.559814453125 985.603698730469 980.010803222656 977.419616699219 984.276306152344 981.544311523438 984.014343261719 979.765075683594 982.016662597656 978.249389648438 975.836303710938 972.912414550781 976.444519042969 979.786560058594 976.958923339844 986.418762207031
957.473815917969 955.881774902344 959.439514160156 948.843872070312 942.8017578125 933.490234375 937.267395019531 950.879821777344 949.994201660156 950.959228515625 958.311767578125 960.735473632812 946.301818847656 951.550842285156 957.474853515625 959.906311035156 959.647521972656 955.067077636719 949.882080078125 956.5283203125 960.871215820312 968.947387695312 968.556762695312 969.174499511719 979.05615234375 980.741149902344 971.243530273438 966.932983398438 962.445983886719 962.736083984375 970.764404296875 969.130432128906 964.395568847656 968.122985839844 971.939636230469 979.492614746094 980.532409667969 984.687927246094 992.701171875 984.315612792969 980.559143066406 972.049682617188 985.329040527344 993.210266113281 997.211669921875 996.079284667969 994.828125 1000.68084716797 998.294555664062 1005.16302490234 1008.41613769531 1005.44580078125 996.490783691406 992.939758300781 994.115478515625 1002.77368164062 995.419677734375 987.601989746094 987.84765625 989.187927246094 984.979919433594 982.321594238281 980.910766601562 989.445861816406 996.298950195312 987.651794433594 979.083068847656 976.319641113281 981.37109375 983.556518554688 982.74853515625 979.984680175781 984.428466796875 987.647155761719 984.0087890625 986.301635742188 987.553955078125 994.1982421875 990.1083984375 986.343627929688 996.836853027344 1000.24353027344 1007.39831542969 1018.26379394531 1017.85461425781 1017.93859863281 1021.47052001953 1012.89898681641 1008.73455810547 1007.46453857422 1007.53363037109 994.590454101562 993.179870605469 1002.21325683594 1007.27355957031 1009.71032714844 1003.470703125 1009.14410400391 1003.70178222656 1006.98413085938 1005.94891357422 1006.52966308594 1004.17321777344 1006.77178955078 1016.27288818359 1024.80102539062 1024.24914550781 1020.98815917969 1025.23840332031 1032.666015625 1031.28527832031 1045.07238769531 1053.71325683594 1057.17370605469 1066.03491210938 1052.58459472656 1051.98693847656 1047.95031738281 1041.08459472656 1037.04138183594 1030.6513671875 1022.728515625 1016.43878173828 1006.65838623047 999.616760253906 996.779541015625 995.29443359375 990.659851074219 986.409362792969 984.299926757812 987.362548828125 981.231567382812 984.706298828125 991.958190917969 988.881591796875 990.406555175781 972.758361816406 971.138305664062 981.109436035156 980.027160644531 976.633911132812 975.993103027344 974.278869628906 964.744384765625 969.673706054688 967.624145507812 968.17626953125 973.768493652344 978.2080078125 982.454895019531
957.143798828125 957.839050292969 960.423706054688 951.53173828125 947.574829101562 943.188903808594 949.84619140625 947.594604492188 945.825500488281 934.329162597656 943.97802734375 951.026000976562 949.845703125 959.588317871094 959.448913574219 962.720764160156 958.402282714844 949.826843261719 952.107727050781 952.995910644531 953.322204589844 954.606384277344 963.733337402344 963.979675292969 967.306213378906 970.058349609375 962.149780273438 959.629699707031 963.292297363281 965.740783691406 958.184326171875 971.472900390625 966.645202636719 967.207092285156 969.939697265625 976.298522949219 973.440856933594 976.558349609375 984.714477539062 985.739379882812 987.504089355469 976.152221679688 982.048522949219 984.154602050781 989.632690429688 998.3740234375 998.688537597656 994.825378417969 994.712646484375 1006.02465820312 1005.01293945312 1003.47540283203 996.401733398438 991.601501464844 995.597351074219 1003.80786132812 992.418823242188 997.949645996094 994.184326171875 1000.28332519531 992.19921875 987.436645507812 981.036254882812 980.851013183594 994.858032226562 986.141174316406 979.778137207031 978.421447753906 979.195495605469 979.054626464844 984.919738769531 986.879821777344 987.315246582031 987.384826660156 987.307373046875 987.026916503906 992.814086914062 995.869079589844 984.056579589844 979.336181640625 988.987854003906 996.150756835938 1002.71746826172 1004.46636962891 1017.14025878906 1015.05682373047 1010.99267578125 1007.54370117188 1009.001953125 1010.96374511719 1006.75811767578 996.906494140625 998.044250488281 1002.89428710938 1003.03063964844 1014.14709472656 1009.18267822266 1002.40539550781 1014.01965332031 999.844909667969 1006.58557128906 1000.61004638672 999.792663574219 1013.74798583984 1013.53759765625 1019.70056152344 1018.23742675781 1019.72277832031 1022.5556640625 1032.52807617188 1033.64794921875 1049.73901367188 1054.56726074219 1062.23352050781 1063.95666503906 1063.107421875 1063.64294433594 1061.74145507812 1046.63952636719 1038.81665039062 1035.67333984375 1022.20648193359 1016.13916015625 1006.58410644531 989.55859375 997.75 989.895568847656 982.232360839844 975.493774414062 975.714416503906 983.295166015625 984.840209960938 974.35498046875 981.91455078125 979.040222167969 977.977172851562 974.603515625 973.799743652344 973.0029296875 973.080993652344 979.251281738281 981.605651855469 974.657104492188 971.665100097656 970.210754394531 962.589233398438 967.207214355469 971.826538085938 981.397888183594 972.357360839844
951.256469726562 956.819702148438 961.492004394531 951.935852050781 954.891662597656 948.751342773438 945.758483886719 948.224487304688 937.961791992188 934.628845214844 942.15234375 946.218322753906 946.386108398438 957.869384765625 962.6083984375 952.774780273438 959.821594238281 953.692810058594 953.707397460938 949.280944824219 946.990356445312 951.458251953125 959.774230957031 959.269409179688 956.937866210938 957.624816894531 954.868530273438 962.941772460938 956.800903320312 960.593994140625 956.366821289062 966.213073730469 968.091064453125 966.147521972656 965.069641113281 969.474060058594 963.887634277344 967.894775390625 977.359436035156 978.149536132812 973.824096679688 982.833984375 975.943908691406 980.703918457031 990.934387207031 998.580078125 999.543701171875 999.526733398438 1002.52758789062 1003.83001708984 1000.70989990234 994.63134765625 990.259948730469 986.639282226562 994.458068847656 994.933227539062 998.318359375 1000.32989501953 994.501525878906 996.090576171875 994.46533203125 991.584594726562 989.551147460938 985.064575195312 989.773193359375 987.848083496094 981.118530273438 986.217346191406 983.500793457031 983.139587402344 983.605773925781 994.410522460938 990.021667480469 986.437072753906 993.812866210938 993.834228515625 994.512512207031 993.74560546875 982.395263671875 985.1513671875 1000.87152099609 993.363647460938 995.335754394531 1003.69049072266 1011.58612060547 1017.23846435547 1009.79064941406 1003.54125976562 1007.78686523438 1010.59149169922 1007.49841308594 991.170104980469 995.55322265625 1003.47705078125 1006.59143066406 1008.24127197266 1008.65405273438 1012.18499755859 1003.89825439453 999.068969726562 1007.00775146484 1012.53546142578 1000.90710449219 1010.00531005859 1014.13610839844 1018.06219482422 1021.39562988281 1021.06402587891 1034.95922851562 1047.33361816406 1039.95520019531 1041.47583007812 1047.01965332031 1060.45788574219 1059.52758789062 1067.14770507812 1073.08239746094 1056.49743652344 1060.06262207031 1046.79650878906 1036.57751464844 1022.85223388672 1008.69232177734 1010.58245849609 1001.86956787109 993.838745117188 985.7880859375 977.439758300781 975.520874023438 968.00927734375 976.004760742188 979.567932128906 980.056579589844 976.8388671875 967.5703125 967.980895996094 971.123779296875 970.073913574219 974.435913085938 972.2138671875 983.238586425781 976.195983886719 970.172485351562 969.075134277344 970.583801269531 965.981628417969 972.270324707031 984.068969726562 977.248718261719 979.464050292969
958.292236328125 954.816955566406 955.909606933594 949.368896484375 945.916076660156 950.938293457031 942.747924804688 948.481872558594 939.423706054688 944.907165527344 944.569702148438 947.616577148438 946.890625 954.722106933594 947.825439453125 951.877197265625 962.495361328125 955.482116699219 953.829406738281 959.384338378906 947.641540527344 958.281616210938 958.825134277344 954.371520996094 952.242980957031 957.358093261719 954.886474609375 965.655151367188 954.754089355469 959.645263671875 957.171813964844 962.704040527344 962.211181640625 963.385864257812 963.978088378906 967.449890136719 962.798461914062 961.248352050781 969.79541015625 970.093688964844 981.725341796875 980.379089355469 977.944763183594 974.872436523438 977.627563476562 993.2080078125 990.163513183594 998.669860839844 1001.79217529297 1000.43994140625 998.721313476562 1000.19915771484 998.709716796875 1003.24816894531 998.205688476562 1000.169921875 1001.65374755859 1000.77618408203 998.305786132812 1002.54449462891 993.880676269531 997.362670898438 989.522644042969 988.057922363281 986.900268554688 981.775085449219 979.262023925781 984.285522460938 986.228149414062 986.244750976562 989.128601074219 990.240966796875 992.212890625 991.783813476562 995.645935058594 994.867248535156 997.111999511719 1003.70989990234 991.263671875 986.588256835938 997.723449707031 997.571899414062 993.003234863281 995.884643554688 1006.31481933594 1003.42474365234 1001.89056396484 1009.58697509766 1009.11450195312 998.231628417969 1008.03887939453 1004.94842529297 1004.68292236328 1003.48950195312 1005.55096435547 1009.11968994141 1011.62817382812 1015.92712402344 1008.62530517578 1015.68511962891 1015.30749511719 1017.31408691406 1017.08508300781 1010.30670166016 1015.39196777344 1025.609375 1030.25122070312 1038.92687988281 1044.23571777344 1051.91064453125 1048.25659179688 1050.67810058594 1052.89208984375 1048.99035644531 1069.53332519531 1068.04223632812 1070.96154785156 1060.48596191406 1048.10888671875 1055.64855957031 1035.47644042969 1033.10607910156 1019.22900390625 1018.03381347656 1010.91833496094 1008.92517089844 993.143981933594 984.602478027344 976.76611328125 972.697631835938 979.097717285156 980.607360839844 978.595275878906 981.257751464844 975.627502441406 968.862854003906 966.183898925781 969.401733398438 969.997924804688 970.983825683594 972.434020996094 969.445190429688 968.102661132812 978.757446289062 977.394287109375 971.539489746094 973.904724121094 975.641357421875 978.991394042969 973.816528320312
956.653198242188 955.197814941406 953.627563476562 950.914367675781 946.370788574219 950.716979980469 946.593627929688 944.993408203125 949.437438964844 946.537658691406 945.446166992188 945.327697753906 946.022155761719 954.645080566406 952.189514160156 946.648071289062 963.4384765625 964.422607421875 960.123779296875 962.0048828125 965.076293945312 959.616455078125 966.376708984375 958.091369628906 954.000610351562 958.205932617188 967.053344726562 968.1708984375 962.009338378906 956.268981933594 961.679809570312 956.027099609375 962.484680175781 963.788330078125 964.802734375 969.347778320312 974.708801269531 966.496643066406 961.671020507812 970.99267578125 970.455688476562 966.849975585938 967.698425292969 976.360046386719 981.735473632812 990.795654296875 987.373962402344 991.81982421875 995.748779296875 994.031311035156 998.834411621094 1000.34924316406 1003.77020263672 1001.07385253906 1005.14007568359 1002.30804443359 1002.61175537109 1001.25988769531 1004.78533935547 1003.05102539062 1006.2890625 1000.93524169922 991.024475097656 989.866271972656 991.724792480469 981.823974609375 986.71533203125 995.838806152344 989.687927246094 987.044555664062 983.003051757812 987.431030273438 986.119934082031 992.437866210938 996.622375488281 998.912353515625 1001.09289550781 1001.775390625 1006.19207763672 992.587707519531 999.716979980469 989.571899414062 992.879211425781 994.000305175781 1003.8427734375 1004.50677490234 1001.93627929688 1001.00952148438 1009.66241455078 1011.64630126953 1008.67083740234 1011.28405761719 1010.01715087891 1004.85595703125 1001.68853759766 1006.38336181641 1012.68353271484 1015.21301269531 1016.33843994141 1024.60925292969 1029.06628417969 1027.67846679688 1027.298828125 1022.92266845703 1022.33618164062 1027.71276855469 1036.70642089844 1042.44604492188 1041.59008789062 1050.48156738281 1052.7578125 1054.19311523438 1055.01037597656 1055.38305664062 1059.14611816406 1059.595703125 1061.18774414062 1054.57763671875 1052.95263671875 1053.69873046875 1038.29870605469 1034.98315429688 1026.15563964844 1024.61547851562 1017.56634521484 1011.74188232422 1003.88348388672 988.676086425781 982.684936523438 984.442443847656 980.993286132812 981.664367675781 979.720458984375 978.601623535156 970.132446289062 965.7900390625 966.603393554688 975.244506835938 976.218078613281 969.779846191406 968.719482421875 965.645690917969 976.108520507812 979.525024414062 976.021789550781 985.084228515625 980.981689453125 978.857482910156 983.109069824219 978.667236328125
965.384094238281 961.052307128906 958.825744628906 952.689086914062 943.420593261719 949.289672851562 952.086730957031 945.390686035156 950.107238769531 943.232360839844 952.245910644531 946.134216308594 955.699645996094 959.134155273438 954.0361328125 960.455505371094 972.567504882812 972.189636230469 971.321533203125 967.704284667969 970.731628417969 968.085754394531 965.945373535156 965.483581542969 960.223876953125 959.204833984375 962.534912109375 962.396728515625 965.240478515625 957.119506835938 956.568481445312 953.658630371094 967.101989746094 966.308776855469 969.741271972656 976.703918457031 976.692016601562 968.869445800781 977.039794921875 973.2724609375 977.064697265625 956.892883300781 964.855712890625 972.613586425781 979.08349609375 981.832275390625 979.345581054688 985.705932617188 994.409729003906 995.47216796875 992.929504394531 994.983215332031 1007.92926025391 1003.12561035156 1005.01812744141 1008.38549804688 1013.03179931641 998.713745117188 1001.99908447266 1002.67120361328 1012.853515625 1009.95263671875 1002.65185546875 997.790832519531 997.405456542969 996.924194335938 993.35546875 995.955444335938 996.319702148438 992.258361816406 986.632751464844 993.799499511719 985.054321289062 991.365234375 999.592224121094 999.056701660156 1004.06665039062 1009.67315673828 1005.66864013672 997.997009277344 982.975952148438 988.776000976562 988.349365234375 997.837036132812 997.110717773438 1002.265625 1008.31842041016 1004.69891357422 1012.22546386719 1007.90881347656 1014.10137939453 1011.06323242188 1012.31414794922 998.667236328125 1000.24377441406 1009.21173095703 1014.51843261719 1016.58581542969 1018.70031738281 1025.78515625 1020.81848144531 1024.18176269531 1026.36120605469 1019.2392578125 1027.16748046875 1036.21081542969 1035.248046875 1045.72900390625 1047.36218261719 1052.71069335938 1046.27526855469 1053.93078613281 1052.64331054688 1046.4658203125 1059.43981933594 1062.07287597656 1063.00891113281 1059.19140625 1049.21728515625 1044.1630859375 1036.50537109375 1032.20886230469 1021.43957519531 1014.18157958984 1023.94982910156 1015.12145996094 1003.51672363281 994.133422851562 995.070861816406 988.809875488281 989.949584960938 987.758605957031 978.392456054688 981.198791503906 972.377685546875 963.732177734375 964.597290039062 969.228210449219 975.161560058594 968.902099609375 967.186828613281 972.961669921875 976.574462890625 976.616027832031 972.837768554688 983.673095703125 985.720520019531 979.310852050781 982.028686523438 979.75
