NCOLS 150
NROWS 37
XLLCORNER 7394249
YLLCORNER 4843889
CELLSIZE 30
NODATA_VALUE -9999
1029.8427734375 1015.67755126953 1002.48474121094 1000.14080810547 1009.16082763672 1000.66107177734 1008.32983398438 1002.92535400391 1009.71295166016 1011.29510498047 1017.35107421875 1018.08587646484 1005.30853271484 1011.74908447266 999.41455078125 1001.07098388672 1005.00524902344 1015.02984619141 1014.57397460938 1022.18353271484 1026.15148925781 1028.3779296875 1039.24963378906 1037.65368652344 1037.62622070312 1031.19152832031 1036.49963378906 1039.17077636719 1039.5400390625 1038.32995605469 1035.4189453125 1029.16137695312 1027.6904296875 1016.73016357422 1020.27825927734 1024.09716796875 1033.94055175781 1030.83471679688 1026.19909667969 1022.04272460938 1028.08874511719 1026.9228515625 1019.37591552734 1008.21771240234 1003.55255126953 994.16943359375 989.957885742188 997.0478515625 984.834838867188 987.732421875 985.394897460938 1001.80590820312 985.927124023438 982.1015625 968.079650878906 961.692626953125 946.449157714844 948.541076660156 944.872863769531 937.893127441406 937.268188476562 933.408447265625 929.826843261719 918.923034667969 919.399108886719 904.733276367188 901.548889160156 901.64990234375 910.494873046875 920.916320800781 924.551635742188 928.724914550781 939.337585449219 939.168151855469 951.82421875 958.342834472656 960.860290527344 969.646667480469 968.369384765625 969.04150390625 966.210754394531 966.13671875 970.512084960938 974.382141113281 979.130249023438 965.671691894531 963.512390136719 963.642456054688 956.292419433594 941.70751953125 929.092041015625 937.100830078125 924.1962890625 916.058227539062 909.390197753906 909.156005859375 894.21728515625 891.513244628906 879.931396484375 869.858581542969 860.009765625 859.31787109375 859.534057617188 859.525390625 855.761047363281 852.708435058594 855.167785644531 855.14404296875 863.12548828125 869.409729003906 879.658325195312 887.753723144531 888.111389160156 903.585754394531 907.643981933594 901.391967773438 907.965759277344 913.148071289062 909.694152832031 907.896118164062 927.3857421875 921.707336425781 924.757995605469 945.743713378906 945.410522460938 942.281433105469 958.507141113281 971.6142578125 987.421325683594 994.761413574219 1005.37329101562 1013.93170166016 1026.41003417969 1028.1318359375 1047.45861816406 1057.94396972656 1072.02172851562 1067.83410644531 1064.04711914062 1066.14489746094 1077.92395019531 1078.83166503906 1081.61755371094 1077.37902832031 1067.3017578125 1062.05139160156 1059.63513183594 1062.93200683594 1048.51025390625 1047.060546875
1020.89758300781 1002.94165039062 999.962890625 1001.75360107422 1003.23712158203 1004.22180175781 1003.43524169922 1007.02075195312 1010.86175537109 1007.2373046875 1019.12139892578 1016.15106201172 1007.25823974609 1010.61047363281 1004.61920166016 1010.99188232422 1010.82354736328 1011.30938720703 1009.95721435547 1019.2861328125 1030.46862792969 1036.00573730469 1038.97583007812 1043.20068359375 1029.17761230469 1030.73156738281 1028.80895996094 1026.56530761719 1028.44799804688 1032.22338867188 1031.56335449219 1034.12829589844 1032.41943359375 1022.43481445312 1025.53369140625 1023.78680419922 1034.84716796875 1041.72802734375 1041.85266113281 1037.35083007812 1029.00708007812 1028.31750488281 1028.25512695312 1019.21691894531 1007.36828613281 999.986755371094 995.690612792969 988.005187988281 979.473266601562 983.081726074219 975.633605957031 984.307250976562 988.556457519531 979.158874511719 963.576599121094 957.243225097656 953.269348144531 947.037536621094 941.201232910156 932.951965332031 939.344482421875 940.487548828125 939.173034667969 924.975158691406 919.882751464844 908.394409179688 903.985534667969 900.08447265625 910.460754394531 920.897277832031 921.794372558594 934.74365234375 942.855895996094 954.447692871094 951.242492675781 964.260009765625 972.669189453125 973.683837890625 967.383666992188 967.53759765625 967.255004882812 970.576904296875 980.436340332031 981.929443359375 972.054992675781 965.539733886719 964.640991210938 947.022094726562 950.02197265625 944.598754882812 935.729919433594 932.217102050781 930.576416015625 918.475158691406 918.563537597656 900.987731933594 890.131652832031 881.240051269531 883.547424316406 879.188781738281 867.662048339844 864.975708007812 863.274963378906 862.426452636719 862.394409179688 860.628173828125 860.177734375 854.80322265625 860.013305664062 869.584716796875 872.515625 876.552368164062 886.634704589844 889.942504882812 895.544555664062 902.52294921875 904.966918945312 924.3203125 924.634704589844 932.0556640625 935.767211914062 941.471923828125 944.329040527344 944.9716796875 951.943603515625 955.716125488281 959.568969726562 975.948303222656 985.636474609375 986.487976074219 1000.80249023438 1012.59197998047 1024.08337402344 1041.94116210938 1054.97399902344 1068.88854980469 1072.86547851562 1065.72351074219 1066.99865722656 1065.74670410156 1091.38061523438 1091.18176269531 1094.34851074219 1086.00659179688 1074.51867675781 1071.98767089844 1066.79187011719 1059.53088378906 1044.71325683594 1040.98852539062
1007.36614990234 1004.01727294922 1001.83227539062 997.935302734375 998.4833984375 1002.78436279297 1002.59375 1005.22625732422 1001.89678955078 1007.61901855469 1023.56475830078 1020.69488525391 1012.91241455078 998.171142578125 998.641845703125 1007.72448730469 1010.85461425781 1011.56024169922 1009.02496337891 1020.20617675781 1023.15637207031 1033.16442871094 1040.18823242188 1039.74401855469 1031.95141601562 1030.60400390625 1030.31079101562 1027.03930664062 1022.24664306641 1018.73352050781 1024.68200683594 1029.32421875 1031.29711914062 1025.89123535156 1026.64270019531 1023.20086669922 1030.42541503906 1033.158203125 1044.26989746094 1043.36108398438 1030.52770996094 1028.27099609375 1035.00122070312 1022.11651611328 1003.1064453125 992.680114746094 985.789306640625 990.455505371094 983.181640625 988.898376464844 983.504699707031 984.855834960938 989.668212890625 981.216918945312 969.133728027344 960.188659667969 959.829956054688 956.338134765625 950.027954101562 950.902648925781 938.920837402344 943.29443359375 938.205871582031 937.127685546875 927.248229980469 911.932495117188 915.114135742188 909.8486328125 917.988891601562 921.314636230469 942.362060546875 944.801147460938 945.590026855469 954.587768554688 957.974243164062 980.635375976562 988.531860351562 985.727355957031 973.298522949219 979.684936523438 979.833129882812 981.74609375 984.767395019531 990.406494140625 975.792602539062 964.465881347656 965.373474121094 956.840148925781 950.309204101562 946.649291992188 934.074401855469 938.721618652344 931.806274414062 923.339538574219 909.826232910156 899.705932617188 902.174438476562 887.494995117188 888.646423339844 880.612609863281 878.351196289062 869.547302246094 866.052856445312 868.162414550781 867.917724609375 868.409484863281 864.05908203125 863.971008300781 863.596313476562 869.444702148438 876.497436523438 876.510925292969 874.249084472656 885.982421875 891.966552734375 897.272827148438 916.031921386719 918.6201171875 922.732604980469 936.314331054688 931.832763671875 944.6748046875 946.681884765625 942.129760742188 945.737426757812 952.793029785156 959.190185546875 965.888244628906 970.601318359375 986.29345703125 1001.30474853516 1007.56188964844 1022.09716796875 1036.11218261719 1059.64709472656 1070.12268066406 1066.970703125 1073.87414550781 1072.48718261719 1077.9208984375 1092.37817382812 1098.53076171875 1097.9453125 1097.53271484375 1091.31872558594 1084.13073730469 1069.69689941406 1063.568359375 1049.701171875 1034.79638671875
1003.99426269531 1003.96173095703 997.990783691406 996.7685546875 1001.90295410156 1008.21472167969 1004.41900634766 999.813659667969 1009.01605224609 1006.99548339844 1008.02667236328 1011.91564941406 1010.12036132812 1002.80120849609 1000.5126953125 1010.2919921875 1009.01837158203 1020.37396240234 1020.56848144531 1026.7900390625 1026.69055175781 1037.05822753906 1033.92541503906 1034.27697753906 1032.25476074219 1032.39099121094 1024.95141601562 1016.16802978516 1017.42108154297 1015.36145019531 1023.73883056641 1018.4599609375 1031.20385742188 1024.10974121094 1028.05383300781 1020.07000732422 1025.13427734375 1025.01977539062 1034.94421386719 1038.69396972656 1036.78491210938 1020.22576904297 1020.18566894531 1022.79888916016 1007.77056884766 994.783325195312 993.081237792969 990.661437988281 995.3154296875 989.027954101562 987.904663085938 986.961853027344 987.703918457031 975.118774414062 966.125793457031 962.749389648438 957.496948242188 959.905517578125 951.471740722656 953.994567871094 950.981140136719 948.405639648438 941.59765625 941.4365234375 927.375183105469 915.668518066406 924.232482910156 918.902648925781 916.778503417969 933.3955078125 942.329772949219 950.868896484375 958.679626464844 955.347778320312 972.736267089844 981.438903808594 973.738220214844 988.681640625 985.162841796875 986.362915039062 985.388122558594 991.111633300781 992.594116210938 989.975646972656 981.043518066406 977.846313476562 965.114318847656 960.857177734375 954.621215820312 947.693298339844 937.983703613281 939.058532714844 929.308654785156 923.778503417969 909.951904296875 901.387390136719 893.736328125 893.830505371094 890.782531738281 892.892211914062 875.80517578125 875.769165039062 873.115661621094 875.689025878906 872.201599121094 869.056518554688 864.431091308594 852.93017578125 862.702392578125 869.936401367188 870.032531738281 868.727172851562 879.949462890625 883.258972167969 883.895935058594 897.779724121094 915.501342773438 925.183959960938 922.139831542969 926.554504394531 937.869018554688 938.537231445312 946.935241699219 941.425354003906 952.359375 954.129211425781 959.583557128906 961.39306640625 965.509582519531 974.250671386719 996.589111328125 1007.93676757812 1019.53240966797 1039.6572265625 1043.33850097656 1057.19641113281 1060.54956054688 1071.85034179688 1082.49731445312 1088.62438964844 1100.78625488281 1102.68994140625 1103.8193359375 1107.69836425781 1103.91540527344 1092.51831054688 1083.97729492188 1075.99682617188 1055.06005859375 1044.7880859375
1004.80340576172 1004.44555664062 995.214233398438 996.517211914062 998.209167480469 1000.97229003906 999.552307128906 1004.67474365234 1012.81921386719 1005.41430664062 1006.69012451172 1008.13256835938 1012.69281005859 1001.85870361328 1006.35833740234 1010.55975341797 1018.45581054688 1021.69561767578 1027.4853515625 1017.34375 1027.22937011719 1036.1533203125 1044.63684082031 1031.18286132812 1031.20031738281 1022.03289794922 1017.45568847656 1015.73132324219 1011.62115478516 1012.00280761719 1018.54455566406 1024.50561523438 1029.66345214844 1029.77087402344 1036.95776367188 1017.59930419922 1013.32037353516 1015.6572265625 1024.41052246094 1025.82165527344 1026.21240234375 1015.24249267578 1019.18609619141 1014.16363525391 1002.90972900391 1001.06652832031 1001.13610839844 995.497253417969 998.301025390625 993.842834472656 991.230529785156 984.85205078125 981.966918945312 980.106872558594 970.535217285156 965.71728515625 956.131896972656 958.988891601562 960.883178710938 960.552917480469 953.96533203125 947.688842773438 941.723876953125 933.767211914062 928.605834960938 930.785461425781 934.049926757812 927.340515136719 928.375854492188 936.968200683594 944.14111328125 952.138916015625 961.067199707031 960.414611816406 973.888366699219 977.632019042969 986.072265625 1003.36193847656 996.448913574219 1002.45697021484 1003.45770263672 1003.29571533203 997.357421875 1000.21411132812 990.923034667969 977.349182128906 968.226745605469 967.60400390625 958.407592773438 949.92529296875 949.132446289062 932.212097167969 929.458801269531 918.696228027344 908.59912109375 897.939270019531 898.624694824219 898.370666503906 891.965942382812 887.827270507812 886.390808105469 883.859802246094 882.908203125 877.633850097656 871.477172851562 857.255187988281 865.353149414062 867.809692382812 870.670715332031 870.153137207031 868.681762695312 866.778686523438 868.863220214844 885.19384765625 890.5068359375 900.519348144531 904.608947753906 923.029541015625 921.703979492188 928.678527832031 936.38671875 939.049072265625 938.672302246094 945.208068847656 943.630676269531 951.868713378906 959.302429199219 972.41796875 971.879943847656 983.705627441406 986.336486816406 993.477661132812 1020.73864746094 1034.82153320312 1042.11145019531 1052.71032714844 1057.20483398438 1065.96044921875 1080.08605957031 1092.52575683594 1104.04406738281 1108.01135253906 1116.26989746094 1110.48193359375 1105.89526367188 1104.76489257812 1091.47485351562 1078.27514648438 1071.20129394531 1059.56030273438
1002.98071289062 1005.65148925781 1004.31811523438 998.15673828125 995.998229980469 1006.83251953125 1004.69152832031 1005.17315673828 1007.58416748047 1013.45190429688 998.586730957031 1000.71807861328 1002.57995605469 1008.27545166016 1002.67614746094 1012.76574707031 1016.62591552734 1017.03283691406 1012.15936279297 1022.51055908203 1028.7607421875 1030.66784667969 1031.75036621094 1027.67224121094 1027.50537109375 1024.1953125 1015.45532226562 1010.06982421875 1009.65338134766 1010.6376953125 1019.41101074219 1013.52258300781 1019.60699462891 1015.79821777344 1025.50646972656 1027.89135742188 1030.01953125 1017.70794677734 1018.87182617188 1017.12408447266 1023.685546875 1004.95526123047 1004.20654296875 1004.72320556641 1007.11871337891 996.882629394531 994.788696289062 999.110656738281 992.293884277344 999.847229003906 994.328308105469 990.255798339844 986.270751953125 986.493408203125 979.118469238281 965.538269042969 962.25830078125 961.516967773438 966.606811523438 970.337707519531 962.755859375 950.0380859375 947.650451660156 945.105041503906 947.650939941406 942.738464355469 943.068054199219 935.102111816406 931.278503417969 944.084106445312 944.63525390625 956.482116699219 961.34228515625 967.116516113281 980.639221191406 987.748962402344 999.870239257812 1008.57159423828 1010.83001708984 1015.720703125 1010.09674072266 1012.6357421875 1005.89898681641 1003.3359375 994.631469726562 988.597351074219 970.058166503906 964.110656738281 961.272827148438 956.297485351562 952.726806640625 941.394958496094 927.143371582031 928.605773925781 908.474670410156 899.553833007812 908.468994140625 897.928283691406 889.994201660156 892.401489257812 891.471008300781 889.421203613281 881.015686035156 878.854309082031 872.857421875 879.880737304688 882.258361816406 890.256958007812 885.243774414062 882.048156738281 879.163330078125 879.679260253906 887.742370605469 903.229370117188 906.287841796875 909.080749511719 907.738342285156 916.578857421875 921.338806152344 922.309936523438 931.643249511719 934.546752929688 938.141174316406 951.202941894531 951.913330078125 956.121276855469 967.81884765625 973.125549316406 982.037841796875 978.632202148438 993.579223632812 1003.42199707031 1025.89868164062 1035.60473632812 1038.09020996094 1060.37683105469 1069.310546875 1071.02001953125 1084.35217285156 1094.06164550781 1102.173828125 1125.42224121094 1126.50280761719 1119.55444335938 1117.46264648438 1118.94494628906 1102.67248535156 1094.16174316406 1086.44750976562 1089.88830566406
1006.65863037109 998.873840332031 991.458679199219 990.1279296875 998.984924316406 998.8642578125 1007.35900878906 1012.13226318359 1002.76635742188 1000.28668212891 992.609802246094 993.6005859375 1002.75354003906 1004.02911376953 1009.13726806641 1024.1748046875 1020.93310546875 1021.18182373047 1025.89245605469 1022.98614501953 1028.58959960938 1029.67016601562 1022.97314453125 1027.69616699219 1013.20288085938 1010.47735595703 1017.28936767578 1006.12335205078 1007.93560791016 1008.60784912109 1012.87744140625 1015.14599609375 1012.76647949219 1011.53332519531 1013.09393310547 1025.17626953125 1022.73712158203 1018.64666748047 1017.26409912109 1006.73901367188 1009.90814208984 1002.44104003906 997.591918945312 1000.41131591797 1003.65539550781 994.713806152344 998.561950683594 995.952575683594 989.740661621094 996.2158203125 987.903930664062 993.753662109375 997.744262695312 993.897827148438 989.992370605469 979.633544921875 966.489196777344 979.263488769531 987.577758789062 979.330505371094 979.310363769531 959.983703613281 966.644653320312 951.640197753906 952.574340820312 948.521911621094 951.765808105469 947.587341308594 947.306457519531 955.215698242188 955.074523925781 964.701293945312 966.566528320312 967.452941894531 979.485778808594 991.262451171875 1003.16552734375 1010.39416503906 1012.01702880859 1021.64215087891 1021.28118896484 1015.10461425781 1004.97119140625 1002.87329101562 992.754638671875 983.106872558594 967.588928222656 960.052368164062 955.740295410156 950.313659667969 949.415954589844 945.625061035156 933.740478515625 930.323120117188 916.384094238281 907.150268554688 909.589172363281 901.59130859375 891.045288085938 896.453735351562 895.130981445312 894.290222167969 881.851257324219 882.568481445312 880.032104492188 882.880432128906 896.846923828125 899.977905273438 903.309875488281 893.532165527344 884.635864257812 884.720886230469 893.662353515625 905.086181640625 899.184509277344 911.530578613281 908.698059082031 916.374816894531 914.018493652344 923.485473632812 927.251525878906 923.605651855469 935.779602050781 937.008728027344 942.034729003906 958.627685546875 957.248779296875 967.455871582031 980.300415039062 988.329040527344 988.816528320312 1006.21594238281 1021.70263671875 1033.80834960938 1043.7060546875 1060.92602539062 1071.40612792969 1075.4794921875 1085.90625 1092.22229003906 1112.38232421875 1122.2734375 1126.29223632812 1127.10119628906 1120.10827636719 1120.84350585938 1114.65783691406 1097.65441894531 1097.00268554688 1097.2919921875
1010.818359375 995.890686035156 990.396728515625 994.188049316406 994.6181640625 995.711120605469 1005.80645751953 1006.02062988281 998.637512207031 994.400817871094 994.980712890625 980.669189453125 988.821044921875 994.760864257812 1006.60894775391 1016.22442626953 1023.04040527344 1018.72308349609 1018.43060302734 1022.94421386719 1029.97814941406 1028.55102539062 1018.44708251953 1008.19848632812 1007.6123046875 1009.40966796875 1005.12664794922 1006.48986816406 1001.40856933594 1002.11712646484 1006.68304443359 1010.880859375 1020.74212646484 1005.36437988281 1004.69464111328 1019.30194091797 1022.81671142578 1022.65325927734 1011.77978515625 999.7431640625 1005.91027832031 1007.271484375 1001.65869140625 995.116027832031 994.185363769531 998.362609863281 996.372375488281 999.239501953125 988.272521972656 988.763671875 980.038940429688 1000.11389160156 1007.79119873047 1002.77777099609 1006.72589111328 994.234252929688 987.639282226562 989.621643066406 982.665649414062 988.185913085938 980.423767089844 964.654235839844 972.347412109375 965.412292480469 960.6787109375 953.995422363281 954.118713378906 957.09619140625 963.234558105469 952.037170410156 959.761840820312 970.174438476562 972.744323730469 977.011657714844 975.842041015625 993.492370605469 1004.96142578125 1010.69274902344 1022.94921875 1021.17059326172 1021.35894775391 1015.38861083984 1008.24450683594 999.352661132812 985.238464355469 974.022888183594 966.86376953125 957.174743652344 954.596435546875 952.213073730469 945.000366210938 940.399108886719 939.853393554688 937.733215332031 925.92236328125 910.418090820312 910.381408691406 901.84912109375 899.313171386719 906.51513671875 902.069213867188 901.391662597656 894.315979003906 884.962036132812 886.935913085938 889.867004394531 896.235473632812 902.990173339844 905.983764648438 900.927856445312 888.310791015625 895.098022460938 901.2060546875 897.562133789062 905.279235839844 911.557434082031 906.389099121094 908.989135742188 912.974731445312 919.762023925781 917.905151367188 924.84423828125 929.095764160156 933.949279785156 941.384887695312 954.063720703125 966.310363769531 973.754516601562 983.497253417969 979.0634765625 987.536010742188 1003.85595703125 1021.19287109375 1037.82116699219 1048.06042480469 1061.26733398438 1074.89819335938 1086.16784667969 1086.08361816406 1092.45617675781 1101.98083496094 1119.00256347656 1123.64721679688 1134.1875 1136.49145507812 1129.84167480469 1120.29138183594 1102.07861328125 1102.296875 1098.47692871094
1008.63781738281 994.414733886719 988.809509277344 998.239929199219 992.163940429688 986.222839355469 999.864685058594 1001.49536132812 996.546325683594 992.00439453125 993.346435546875 992.489562988281 987.076293945312 991.414794921875 1003.24847412109 1015.34454345703 1014.54602050781 1007.56365966797 1012.37115478516 1018.22210693359 1030.05773925781 1020.00427246094 1006.62017822266 996.484802246094 996.62890625 995.314758300781 993.717407226562 998.137084960938 998.339233398438 1006.82843017578 1005.58666992188 1013.26348876953 1012.39544677734 1015.24560546875 1014.63336181641 1010.96112060547 1015.49932861328 1015.75262451172 1009.41925048828 1001.29852294922 1014.13195800781 1016.064453125 1007.23803710938 1003.49176025391 1000.90789794922 1002.22747802734 997.257019042969 993.308166503906 995.482849121094 981.546875 983.858825683594 1001.27288818359 1005.11950683594 1001.45397949219 1001.53588867188 1001.86907958984 1002.73931884766 998.903991699219 995.029418945312 996.756408691406 985.807861328125 982.493103027344 971.285461425781 968.810791015625 964.301025390625 969.218017578125 965.878845214844 967.989074707031 963.698425292969 965.400024414062 974.973449707031 976.762268066406 982.316650390625 977.730285644531 980.12939453125 992.324462890625 1007.96868896484 1014.73052978516 1027.44055175781 1022.59912109375 1027.744140625 1019.89221191406 1009.35656738281 999.566467285156 992.326843261719 976.951477050781 968.191040039062 959.375305175781 953.50048828125 948.911437988281 946.275573730469 939.633728027344 936.291015625 930.980529785156 935.453674316406 930.283325195312 915.1279296875 904.553527832031 903.14794921875 894.59814453125 897.740600585938 900.922973632812 895.948181152344 894.480834960938 892.030700683594 898.458374023438 905.424621582031 914.858764648438 906.895751953125 900.341979980469 898.636840820312 900.023559570312 899.998718261719 908.326171875 902.472717285156 901.922790527344 914.205749511719 918.896789550781 921.401977539062 919.1943359375 914.437622070312 920.632446289062 925.274475097656 932.999877929688 946.893249511719 959.985900878906 970.945007324219 981.254211425781 986.402160644531 982.359252929688 1001.18011474609 1007.37127685547 1018.37261962891 1036.07873535156 1050.68225097656 1064.39440917969 1074.69250488281 1083.86767578125 1096.15258789062 1103.30297851562 1117.07507324219 1128.76550292969 1138.38610839844 1144.09045410156 1139.25354003906 1135.98864746094 1134.58801269531 1118.22436523438 1105.884765625 1107.87072753906
1004.20532226562 988.762756347656 994.635437011719 994.711364746094 995.138244628906 987.157165527344 994.061828613281 1000.30407714844 989.550170898438 990.468933105469 995.128112792969 993.254028320312 997.408752441406 997.732177734375 1010.94378662109 1014.5205078125 1017.98803710938 1007.10705566406 1003.73138427734 1014.75732421875 1018.18206787109 1016.42462158203 1007.92633056641 992.804870605469 994.524719238281 992.0400390625 996.118408203125 995.500854492188 996.478088378906 1006.02490234375 1007.38806152344 1007.51147460938 1007.71954345703 1016.38006591797 1014.22882080078 1007.28363037109 1016.67980957031 1008.38787841797 1014.53503417969 1010.77508544922 1012.99060058594 1019.81121826172 1007.859375 1015.15826416016 1012.87298583984 1006.72717285156 1004.84320068359 1004.12548828125 997.22021484375 990.657409667969 995.690734863281 1011.49639892578 1003.90368652344 997.564147949219 1001.44281005859 1006.11224365234 1004.9931640625 1001.45806884766 1005.88385009766 997.188293457031 992.453491210938 984.479431152344 978.762023925781 966.320922851562 972.252258300781 975.568359375 966.488342285156 971.469055175781 973.657897949219 966.673461914062 961.883056640625 972.183959960938 987.545288085938 982.591369628906 982.198303222656 993.257446289062 1004.29901123047 1022.56707763672 1028.02673339844 1023.61108398438 1020.07916259766 1019.52014160156 1009.423828125 1008.16937255859 985.393371582031 979.655090332031 974.236511230469 963.030029296875 955.004821777344 941.030090332031 930.911743164062 935.763854980469 934.684753417969 931.293212890625 931.960998535156 927.722106933594 918.399963378906 915.252136230469 907.661804199219 897.538696289062 901.206726074219 900.953735351562 902.905639648438 901.439147949219 899.441162109375 909.203735351562 907.366760253906 912.569763183594 915.110229492188 915.657409667969 912.756530761719 902.460815429688 904.7255859375 912.019165039062 901.851196289062 903.693115234375 914.192138671875 912.708374023438 918.650329589844 920.240783691406 916.983581542969 917.054870605469 928.39501953125 934.613464355469 942.989990234375 961.127136230469 967.191345214844 983.14990234375 982.216552734375 992.396606445312 993.460083007812 1002.85333251953 1018.53540039062 1034.70434570312 1052.34899902344 1073.60314941406 1081.87634277344 1085.21691894531 1097.76184082031 1099.84777832031 1121.60803222656 1132.95251464844 1133.81384277344 1140.67541503906 1132.45751953125 1141.935546875 1143.18872070312 1137.14343261719 1131.61401367188 1116.05688476562
998.291687011719 995.158203125 996.301086425781 991.461303710938 995.940734863281 999.828186035156 996.970764160156 992.922790527344 992.407897949219 988.820251464844 996.707275390625 992.889038085938 998.446899414062 1005.10675048828 999.02978515625 1019.72540283203 1013.70874023438 1013.73382568359 1002.46685791016 1009.30706787109 1012.67486572266 1007.67150878906 1000.04699707031 983.313049316406 985.554321289062 984.337707519531 997.213745117188 991.446044921875 999.874572753906 1009.89868164062 1007.91674804688 1006.74560546875 1011.74353027344 1018.56317138672 1024.3837890625 1022.56280517578 1018.10974121094 1016.99145507812 1019.67736816406 1011.42388916016 1017.43566894531 1020.07769775391 1022.19866943359 1019.35571289062 1010.67071533203 1008.48394775391 1013.59106445312 1009.69671630859 1005.81793212891 998.476745605469 1007.22082519531 1005.37945556641 1006.22998046875 1001.55804443359 1001.04705810547 1007.29901123047 1006.98181152344 1002.57360839844 1006.99737548828 1000.41082763672 1007.84722900391 998.395263671875 988.853454589844 978.369445800781 977.473571777344 980.658935546875 973.576782226562 972.295776367188 969.767395019531 968.517333984375 974.009399414062 976.718566894531 987.903930664062 993.517578125 990.321350097656 994.56591796875 1005.86151123047 1017.38720703125 1029.99938964844 1028.90576171875 1024.92272949219 1014.17645263672 1007.29577636719 1000.40563964844 992.606079101562 989.746337890625 976.559997558594 963.323364257812 950.086547851562 942.518493652344 947.578063964844 939.267272949219 935.493713378906 943.254211425781 942.487426757812 940.275573730469 931.265258789062 919.152770996094 908.825805664062 904.561462402344 905.256774902344 910.823181152344 905.369262695312 904.729675292969 911.131408691406 918.982360839844 927.221923828125 923.328186035156 912.537292480469 916.066467285156 910.79150390625 903.990417480469 919.207824707031 919.69091796875 911.907897949219 908.577758789062 902.628601074219 913.834777832031 915.379211425781 923.155212402344 921.517761230469 921.932006835938 932.597351074219 954.066650390625 954.171752929688 962.7841796875 975.263854980469 986.285095214844 994.251220703125 994.592529296875 1006.02532958984 1022.0380859375 1029.45336914062 1039.74975585938 1051.54406738281 1065.34887695312 1078.54626464844 1093.68225097656 1099.28295898438 1108.42565917969 1115.86120605469 1132.857421875 1136.94140625 1137.33959960938 1136.05126953125 1138.81591796875 1138.9599609375 1136.46252441406 1133.86401367188 1115.951171875
989.870971679688 984.833435058594 990.121398925781 993.359985351562 993.714172363281 994.8251953125 984.508728027344 987.189331054688 992.128845214844 983.901428222656 989.677368164062 988.675842285156 988.094299316406 995.890197753906 996.881774902344 1007.52728271484 1002.86511230469 1007.27813720703 1001.42340087891 1002.72570800781 997.195434570312 992.583129882812 989.700805664062 980.816528320312 983.342895507812 983.164184570312 994.915954589844 997.043701171875 998.059143066406 1001.10247802734 1007.16094970703 1013.78582763672 1018.08276367188 1020.67102050781 1021.57965087891 1023.69995117188 1030.39660644531 1027.92980957031 1023.34527587891 1009.28216552734 1016.19293212891 1020.63214111328 1020.88201904297 1022.58093261719 1015.92071533203 1012.63653564453 1009.73651123047 1005.74334716797 1008.72637939453 1006.26489257812 1012.67120361328 1006.53680419922 1009.26147460938 1013.26336669922 1002.49053955078 1006.2001953125 1007.57934570312 1002.40557861328 1002.72174072266 994.588073730469 1004.22607421875 1002.77111816406 1001.76129150391 989.748962402344 986.250183105469 984.667663574219 982.890258789062 986.570861816406 984.172119140625 976.591796875 980.98779296875 980.415283203125 989.343322753906 997.712951660156 998.861267089844 1005.68591308594 1011.16510009766 1017.51470947266 1029.79431152344 1038.33239746094 1023.71502685547 1016.27911376953 1015.61010742188 1002.42352294922 993.164184570312 988.418334960938 973.445922851562 965.167846679688 964.073486328125 959.526794433594 948.870544433594 952.42724609375 946.4794921875 950.719482421875 944.91357421875 944.431823730469 932.254333496094 923.866760253906 908.29248046875 920.484375 914.744079589844 915.107482910156 914.290954589844 921.800537109375 925.785705566406 935.333679199219 937.186096191406 929.129943847656 927.150024414062 922.070190429688 916.495300292969 926.613708496094 927.603698730469 930.679870605469 924.533325195312 918.310852050781 907.917663574219 908.124206542969 911.005126953125 909.095153808594 929.362487792969 934.486083984375 941.347045898438 945.38525390625 956.467102050781 962.028442382812 982.824523925781 990.080139160156 993.060791015625 1002.5830078125 1010.01422119141 1024.87292480469 1034.08825683594 1046.83410644531 1058.302734375 1062.95373535156 1071.26049804688 1084.84545898438 1089.373046875 1096.50891113281 1110.00854492188 1124.17932128906 1139.92102050781 1139.45471191406 1133.57153320312 1128.07568359375 1133.11560058594 1119.67456054688 1116.79272460938 1111.8974609375
982.988891601562 980.414794921875 983.7001953125 981.284057617188 989.867004394531 985.482055664062 984.080444335938 989.054260253906 991.299926757812 996.066345214844 984.627990722656 988.068237304688 988.986511230469 987.784423828125 992.538635253906 1003.29473876953 1008.90625 1005.3720703125 998.574340820312 994.729125976562 986.676391601562 980.464477539062 973.913024902344 977.1767578125 983.633361816406 982.527526855469 990.310241699219 995.874450683594 1007.00305175781 1011.77038574219 1012.46643066406 1009.41821289062 1016.39080810547 1029.43371582031 1026.08459472656 1028.46752929688 1039.77966308594 1046.10375976562 1033.78356933594 1034.25988769531 1032.04382324219 1024.64404296875 1027.76159667969 1026.03930664062 1024.46545410156 1013.26025390625 1017.65277099609 998.384399414062 1006.27593994141 1011.10070800781 1011.17260742188 1011.09326171875 1007.05255126953 1013.3798828125 1013.26300048828 1018.90734863281 1023.994140625 1013.98388671875 1011.46966552734 1002.59899902344 1008.97430419922 1004.32141113281 1013.15014648438 993.000366210938 989.917419433594 990.751403808594 993.199890136719 983.424499511719 987.108642578125 986.099609375 980.733093261719 992.421997070312 991.375915527344 994.455261230469 995.549072265625 1007.4990234375 1014.86431884766 1021.60473632812 1034.14379882812 1038.18872070312 1028.13647460938 1021.14129638672 1020.68927001953 1011.78277587891 1000.42376708984 994.723022460938 983.1943359375 975.900512695312 968.414184570312 964.064453125 958.634582519531 955.324951171875 956.136413574219 944.3134765625 945.773559570312 947.806091308594 940.943603515625 932.37939453125 926.739074707031 933.460388183594 925.408569335938 925.475463867188 919.486694335938 919.9599609375 932.74755859375 940.518920898438 939.512939453125 945.379028320312 944.773315429688 936.943359375 936.92724609375 923.592651367188 929.646789550781 929.870056152344 923.115295410156 920.150939941406 913.309448242188 898.308349609375 907.442810058594 924.158386230469 934.117126464844 940.908081054688 950.238586425781 950.155212402344 954.299194335938 963.674987792969 979.990844726562 994.775329589844 994.224548339844 999.200866699219 1015.11346435547 1024.67199707031 1029.58374023438 1038.97338867188 1047.80883789062 1058.19226074219 1069.08544921875 1075.49755859375 1088.22717285156 1099.35559082031 1106.794921875 1118.02282714844 1127.44860839844 1131.93615722656 1141.09558105469 1130.8271484375 1125.8134765625 1125.40991210938 1118.611328125 1115.140625
990.978332519531 976.196472167969 980.509521484375 979.375793457031 984.703857421875 986.459838867188 988.848083496094 990.176208496094 988.086364746094 987.532958984375 983.585205078125 989.424255371094 981.669067382812 993.264404296875 990.451538085938 997.976257324219 1000.15295410156 1005.76763916016 1001.69769287109 986.72509765625 992.865356445312 984.741333007812 972.943359375 975.926818847656 985.121276855469 984.477722167969 990.1650390625 993.00048828125 1001.73248291016 1017.04113769531 1022.6484375 1013.21240234375 1017.01538085938 1023.28393554688 1032.93347167969 1031.47302246094 1043.28503417969 1043.76135253906 1040.751953125 1042.17102050781 1033.76354980469 1029.40515136719 1019.43389892578 1019.33190917969 1016.66101074219 1012.90106201172 1018.56945800781 1010.48199462891 1010.71380615234 1007.17053222656 1007.60662841797 1014.98229980469 1012.87640380859 1021.62103271484 1020.03424072266 1022.35479736328 1027.60229492188 1017.57855224609 1019.04534912109 1013.30804443359 1007.55334472656 1013.71203613281 1012.43572998047 1000.86236572266 996.861633300781 997.394287109375 994.345275878906 991.786071777344 989.910827636719 992.55859375 987.338745117188 985.827941894531 998.070068359375 997.230590820312 1009.41088867188 1029.39855957031 1027.04833984375 1030.97473144531 1035.04650878906 1039.65869140625 1037.69140625 1026.9072265625 1024.55773925781 1014.96960449219 999.892395019531 997.258544921875 986.963562011719 989.105529785156 974.246765136719 962.121948242188 951.6494140625 956.417724609375 956.214294433594 951.249328613281 949.988952636719 940.330749511719 937.526184082031 936.949584960938 937.746826171875 939.72509765625 933.449462890625 931.947998046875 930.458374023438 931.118957519531 944.7080078125 953.0029296875 948.910278320312 948.783203125 948.066833496094 952.009582519531 949.139709472656 937.235168457031 931.950317382812 934.702758789062 933.988403320312 922.09716796875 904.397521972656 909.06640625 917.836791992188 927.322326660156 942.07080078125 951.667724609375 958.394653320312 958.201965332031 967.258544921875 973.78564453125 975.783508300781 990.995239257812 992.267761230469 998.906372070312 1011.75567626953 1021.01788330078 1030.69909667969 1035.37426757812 1042.36474609375 1048.76049804688 1068.98583984375 1079.96630859375 1079.39074707031 1089.49633789062 1101.70275878906 1116.97436523438 1116.79846191406 1124.43896484375 1133.73254394531 1132.34265136719 1133.54370117188 1121.78173828125 1117.783203125 1108.08569335938
984.033447265625 977.585205078125 980.272033691406 975.5673828125 979.429931640625 985.557983398438 988.922729492188 988.881408691406 979.786010742188 982.608581542969 981.802062988281 981.740478515625 985.180541992188 981.183044433594 994.976745605469 997.217163085938 991.175903320312 994.074829101562 990.440734863281 993.469177246094 984.097534179688 986.884826660156 978.336608886719 981.271606445312 985.477416992188 986.313720703125 994.648071289062 998.255187988281 1002.66009521484 1024.60375976562 1024.06872558594 1024.35327148438 1016.14770507812 1020.10528564453 1031.548828125 1030.37512207031 1044.02526855469 1046.60803222656 1035.17541503906 1036.25891113281 1028.31481933594 1020.6611328125 1023.28588867188 1018.49359130859 1021.00152587891 1010.57525634766 1021.32849121094 1015.18310546875 1006.544921875 1011.15014648438 1011.33459472656 1007.57788085938 1007.37005615234 1009.71990966797 1016.84075927734 1017.69128417969 1017.80773925781 1027.73657226562 1013.69171142578 1016.15069580078 1013.20758056641 1011.02764892578 1013.10510253906 1004.86950683594 1004.05010986328 1006.06854248047 1000.58587646484 991.283203125 997.335388183594 994.606689453125 989.333068847656 989.736633300781 993.690673828125 1002.68353271484 1013.86926269531 1023.06494140625 1030.81762695312 1032.30114746094 1037.74499511719 1033.12292480469 1029.09692382812 1031.83837890625 1029.64428710938 1019.1962890625 1016.33422851562 1003.03259277344 994.924194335938 991.129577636719 976.999816894531 955.901000976562 947.911437988281 948.091064453125 950.068725585938 951.032104492188 950.34765625 950.147888183594 951.581909179688 946.523193359375 942.543212890625 948.679138183594 945.277954101562 945.255615234375 947.721984863281 944.358154296875 946.325805664062 953.455810546875 954.383911132812 966.217224121094 964.138122558594 960.876708984375 956.074279785156 940.787109375 936.445068359375 940.226684570312 939.978942871094 928.788452148438 914.420288085938 916.172119140625 922.51513671875 937.0654296875 948.263671875 961.083435058594 966.351257324219 968.000427246094 972.533081054688 974.050598144531 978.879089355469 986.403076171875 993.699340820312 1005.53204345703 1010.79730224609 1025.07299804688 1031.93371582031 1030.74548339844 1043.90563964844 1048.32946777344 1060.47143554688 1073.08850097656 1079.3232421875 1086.18957519531 1094.01293945312 1099.83911132812 1098.64172363281 1117.65075683594 1129.50817871094 1132.38464355469 1129.53356933594 1123.58508300781 1114.41809082031 1109.25732421875
985.531799316406 983.374206542969 985.633178710938 972.036865234375 972.502380371094 980.955322265625 985.249633789062 987.423400878906 987.069458007812 974.051940917969 969.691833496094 969.740600585938 983.789978027344 985.136840820312 994.545227050781 992.912536621094 990.714233398438 986.014221191406 982.265441894531 982.569091796875 976.741577148438 980.794860839844 977.724304199219 974.688415527344 980.715454101562 990.382080078125 991.099914550781 1006.95703125 1016.69671630859 1025.11584472656 1025.71667480469 1027.72924804688 1028.15637207031 1032.28967285156 1028.79968261719 1027.09582519531 1035.91442871094 1034.43334960938 1036.17053222656 1037.59362792969 1036.92712402344 1038.73498535156 1028.21606445312 1014.91430664062 1012.86785888672 1018.50854492188 1021.25360107422 1019.42626953125 1008.68811035156 1013.18298339844 1017.77044677734 1007.81817626953 1001.32397460938 1005.57006835938 1006.20306396484 1005.99206542969 1012.35327148438 1026.19445800781 1012.52795410156 1013.51385498047 1020.78045654297 1018.57391357422 1019.64178466797 1010.05487060547 1005.38110351562 1014.57159423828 1024.50012207031 1015.90948486328 1010.59887695312 999.231750488281 1002.26812744141 1001.908203125 1012.31121826172 1015.94311523438 1019.50329589844 1029.60974121094 1033.95910644531 1039.71838378906 1037.28662109375 1033.52355957031 1030.10974121094 1031.43908691406 1026.1005859375 1024.74536132812 1026.30676269531 1013.08215332031 1010.54040527344 986.34423828125 981.624694824219 958.481079101562 952.004455566406 944.586242675781 959.182739257812 959.72314453125 966.154235839844 958.750427246094 953.940673828125 950.905456542969 955.038330078125 961.928466796875 964.433898925781 956.662902832031 961.472412109375 952.177001953125 959.765930175781 963.729919433594 962.197265625 969.799682617188 973.026672363281 979.364562988281 962.834899902344 949.25537109375 941.579284667969 940.793884277344 939.588745117188 928.52197265625 922.817993164062 920.953186035156 929.247314453125 940.517578125 953.603759765625 964.061767578125 969.815795898438 965.518737792969 968.62548828125 979.036315917969 983.958129882812 990.136413574219 1001.03210449219 1012.4873046875 1017.69757080078 1030.1689453125 1029.93432617188 1035.50231933594 1043.41186523438 1049.53295898438 1062.65002441406 1074.82885742188 1076.27331542969 1083.46801757812 1096.99792480469 1090.5537109375 1102.91198730469 1101.68041992188 1123.32580566406 1120.61059570312 1122.93200683594 1114.638671875 1108.58093261719 1099.92163085938
990.16552734375 988.123046875 979.984252929688 976.753051757812 978.533142089844 975.389343261719 986.128295898438 989.63037109375 985.189331054688 977.863098144531 969.993835449219 971.696105957031 973.010681152344 968.862731933594 978.519958496094 973.30615234375 972.017700195312 979.930786132812 977.028564453125 978.984680175781 966.932983398438 969.117553710938 971.147277832031 982.478332519531 993.004028320312 992.782836914062 1006.15783691406 1014.65875244141 1023.21533203125 1026.38208007812 1025.28430175781 1026.88488769531 1026.43811035156 1024.09143066406 1025.24975585938 1022.21105957031 1022.9931640625 1034.15893554688 1035.44982910156 1039.80224609375 1037.1240234375 1038.12365722656 1027.93115234375 1010.26391601562 1018.66278076172 1021.23278808594 1018.80297851562 1016.93835449219 1022.66143798828 1020.91943359375 1023.0166015625 1008.81988525391 999.640563964844 1000.75122070312 1005.08258056641 1013.69610595703 1011.39721679688 1016.73767089844 1022.99993896484 1011.08355712891 1019.52648925781 1025.85729980469 1026.92163085938 1029.32458496094 1028.63220214844 1023.63360595703 1029.46350097656 1025.41479492188 1016.98297119141 1009.36346435547 1006.39678955078 1009.65502929688 1016.12042236328 1014.4228515625 1015.46392822266 1024.12097167969 1029.81848144531 1031.21081542969 1041.09582519531 1041.68493652344 1031.21520996094 1020.96301269531 1021.86322021484 1023.60620117188 1026.97033691406 1023.02819824219 1011.77404785156 998.159484863281 976.031677246094 966.566284179688 948.822692871094 953.188659667969 965.804870605469 966.228881835938 975.411682128906 960.579284667969 968.019348144531 961.30322265625 965.169311523438 979.655700683594 972.822448730469 967.372131347656 967.549011230469 964.916625976562 956.546264648438 969.123596191406 976.338439941406 978.752624511719 972.728454589844 981.591247558594 970.743103027344 958.451782226562 943.937438964844 943.56787109375 932.868347167969 931.780334472656 927.428344726562 933.264282226562 935.239990234375 941.035217285156 949.495239257812 960.8603515625 962.669372558594 963.442443847656 971.590637207031 984.538818359375 995.627868652344 1000.65783691406 1007.32513427734 1014.15417480469 1026.49890136719 1033.91369628906 1032.42858886719 1032.75415039062 1046.03063964844 1051.21545410156 1057.08984375 1066.45581054688 1077.17150878906 1084.73510742188 1088.43505859375 1094.77453613281 1093.73706054688 1096.40063476562 1103.37158203125 1109.08190917969 1108.67443847656 1103.74035644531 1100.56970214844 1099.98388671875
979.140380859375 982.335205078125 975.004760742188 980.169250488281 976.794677734375 983.778747558594 983.704467773438 986.903503417969 988.836730957031 982.899658203125 971.931091308594 967.323120117188 965.935546875 968.709289550781 966.128723144531 968.282043457031 968.085266113281 977.85791015625 974.042541503906 966.114868164062 966.005859375 966.977966308594 966.229125976562 979.176879882812 993.106567382812 1009.87664794922 1006.96185302734 1008.03161621094 1020.61590576172 1020.96234130859 1018.23419189453 1014.17230224609 1027.75048828125 1020.57757568359 1017.09893798828 1011.27398681641 1020.00268554688 1033.01098632812 1041.69921875 1039.28540039062 1042.45776367188 1037.28247070312 1030.47448730469 1021.05908203125 1025.751953125 1020.89715576172 1023.99975585938 1023.666015625 1021.71771240234 1019.38238525391 1014.57769775391 1007.3515625 1008.69012451172 1002.18334960938 1002.10198974609 1002.90478515625 1010.11065673828 1012.69287109375 1008.07073974609 1013.89099121094 1020.58428955078 1028.45068359375 1032.23107910156 1032.70104980469 1028.10400390625 1027.37963867188 1032.95263671875 1033.26416015625 1024.19311523438 1016.39392089844 1013.7744140625 1014.57159423828 1015.07922363281 1020.82891845703 1022.06951904297 1022.33819580078 1029.19958496094 1024.34826660156 1031.93225097656 1034.05053710938 1024.89782714844 1022.50640869141 1019.76348876953 1020.74652099609 1025.0146484375 1007.85693359375 1005.78430175781 988.892150878906 979.946716308594 981.482727050781 973.763488769531 962.969665527344 967.949645996094 972.203369140625 975.337646484375 973.471008300781 970.406555175781 971.960510253906 966.9345703125 974.184631347656 982.602416992188 980.382690429688 974.141174316406 972.953308105469 975.663452148438 976.468688964844 977.405822753906 980.03369140625 984.209289550781 975.637634277344 969.5244140625 953.295166015625 944.411743164062 948.065002441406 933.794189453125 923.614562988281 927.28369140625 933.787780761719 936.600708007812 949.711486816406 952.192565917969 954.083251953125 964.296875 963.977783203125 971.681518554688 987.163146972656 989.860168457031 1001.68798828125 1008.42956542969 1013.17462158203 1021.62603759766 1029.79150390625 1035.94104003906 1039.46362304688 1049.32690429688 1056.01196289062 1060.25378417969 1063.2646484375 1079.4990234375 1084.05151367188 1084.19458007812 1090.94580078125 1085.29345703125 1085.54821777344 1090.46081542969 1095.05200195312 1095.27380371094 1099.88903808594 1096.18017578125 1091.60705566406
967.124572753906 970.634216308594 979.837585449219 979.446044921875 973.873596191406 980.543640136719 978.657836914062 977.524658203125 974.717895507812 973.570922851562 972.072692871094 966.741394042969 969.384094238281 957.070373535156 958.367736816406 970.143249511719 967.227355957031 971.711364746094 974.281005859375 963.710693359375 972.009521484375 969.481689453125 977.511779785156 987.797790527344 995.599182128906 1005.23870849609 1006.36047363281 1010.36712646484 1008.97180175781 1010.77563476562 1016.42303466797 1019.99682617188 1029.07495117188 1026.46313476562 1020.73382568359 1013.34027099609 1017.0400390625 1035.11376953125 1038.76403808594 1042.60595703125 1046.13134765625 1049.41125488281 1048.91345214844 1034.08374023438 1023.64611816406 1029.19055175781 1022.96038818359 1022.58050537109 1014.49426269531 1009.41729736328 1005.10626220703 1002.24993896484 1004.12719726562 1005.38427734375 1000.96624755859 1006.28112792969 1009.37854003906 1012.41918945312 1009.27862548828 1012.19915771484 1021.51025390625 1031.27111816406 1026.21325683594 1022.61535644531 1019.67529296875 1025.62194824219 1027.94909667969 1027.25366210938 1024.49743652344 1020.71960449219 1011.89349365234 1020.97698974609 1024.10473632812 1018.39196777344 1013.49920654297 1021.69421386719 1021.89514160156 1016.85168457031 1028.97595214844 1022.28125 1024.4873046875 1021.06060791016 1022.29406738281 1012.28558349609 1011.53948974609 1008.61358642578 1002.62103271484 987.639953613281 990.30517578125 984.14208984375 977.810729980469 972.552185058594 971.746643066406 979.785400390625 979.230529785156 981.314514160156 981.76611328125 983.311950683594 980.807189941406 985.317687988281 979.703491210938 982.537109375 982.859619140625 976.877746582031 973.505004882812 980.996337890625 978.449157714844 985.377380371094 991.695007324219 983.815795898438 967.174255371094 951.016357421875 949.724853515625 935.0419921875 932.766052246094 935.308898925781 932.219055175781 927.329895019531 927.877502441406 941.63720703125 955.715026855469 964.502746582031 962.2861328125 971.1083984375 979.532409667969 994.11865234375 1002.29937744141 1011.53356933594 1019.88146972656 1027.31298828125 1027.80456542969 1029.66491699219 1036.05407714844 1039.11975097656 1049.98474121094 1054.15698242188 1057.888671875 1065.84521484375 1075.43603515625 1074.60388183594 1088.15600585938 1090.72717285156 1084.46557617188 1081.78857421875 1083.85876464844 1083.46789550781 1089.70031738281 1096.01245117188 1095.29711914062 1082.22961425781
965.514770507812 972.454711914062 972.475708007812 968.565551757812 964.670288085938 969.031982421875 965.997314453125 965.619262695312 964.533142089844 967.525390625 967.013366699219 963.459716796875 960.8408203125 963.494201660156 960.199523925781 958.473205566406 956.196838378906 969.286499023438 971.831848144531 970.945007324219 979.997741699219 978.513366699219 973.19921875 986.646789550781 987.255065917969 996.169738769531 1006.59057617188 1006.42749023438 1014.21740722656 1011.87237548828 1011.20623779297 1015.63525390625 1022.82421875 1019.79406738281 1017.63922119141 1015.79840087891 1025.94775390625 1031.732421875 1029.28686523438 1040.228515625 1048.34802246094 1048.44519042969 1042.29907226562 1034.45422363281 1033.66967773438 1015.93334960938 1006.24603271484 1012.71862792969 1007.03503417969 999.919738769531 999.520263671875 1007.16259765625 1006.70825195312 999.224792480469 995.288818359375 1008.98016357422 1008.97344970703 1012.31097412109 1012.06945800781 1012.94812011719 1019.14068603516 1017.86346435547 1022.86968994141 1021.77374267578 1013.70989990234 1020.76037597656 1025.84716796875 1030.62133789062 1025.43725585938 1024.74291992188 1015.04455566406 1023.30596923828 1025.81042480469 1019.43566894531 1016.66821289062 1016.19500732422 1014.96014404297 1014.78277587891 1016.02941894531 1015.54815673828 1023.8681640625 1018.01049804688 1015.33135986328 1011.10125732422 1011.75433349609 1002.1708984375 1001.34936523438 997.731628417969 990.707275390625 989.587585449219 978.562072753906 978.063110351562 982.015014648438 980.2607421875 983.192687988281 990.062622070312 989.580383300781 998.308166503906 989.860473632812 989.758361816406 999.615905761719 991.378234863281 985.161315917969 981.824157714844 984.548095703125 985.992004394531 980.406005859375 992.018005371094 980.273803710938 970.790466308594 970.919189453125 961.994018554688 938.133850097656 932.715148925781 938.835998535156 948.227172851562 951.370544433594 936.795837402344 934.206787109375 945.04296875 955.990844726562 969.302062988281 974.685180664062 974.5234375 983.868896484375 1001.08410644531 1011.91918945312 1019.62573242188 1022.79309082031 1034.34631347656 1032.62890625 1043.23022460938 1033.52001953125 1033.56225585938 1036.95971679688 1044.64526367188 1052.47241210938 1059.83508300781 1064.31323242188 1073.51745605469 1088.81042480469 1088.51330566406 1076.3134765625 1076.81359863281 1079.32189941406 1082.8349609375 1081.03967285156 1091.64880371094 1095.51965332031 1093.57348632812
957.733947753906 963.215942382812 967.493225097656 963.429443359375 955.726196289062 959.07763671875 953.6884765625 955.609313964844 959.061645507812 954.58740234375 953.046875 958.3427734375 953.131469726562 960.324645996094 964.665893554688 960.208068847656 961.074157714844 960.222412109375 960.863403320312 962.853942871094 972.270141601562 966.888488769531 977.561584472656 985.773620605469 987.381164550781 987.962707519531 997.667419433594 1003.17877197266 1008.45367431641 1016.36535644531 1015.13818359375 1008.36694335938 1007.70166015625 1011.37561035156 1007.91802978516 1019.53955078125 1022.75500488281 1022.27130126953 1026.71423339844 1031.28369140625 1036.41552734375 1037.3681640625 1038.31518554688 1030.82153320312 1024.15869140625 1010.13397216797 996.700744628906 1002.32415771484 1006.95806884766 1010.10028076172 997.431518554688 999.159545898438 1002.41790771484 999.86328125 998.252380371094 1008.650390625 1019.63800048828 1011.87731933594 1015.0732421875 1016.91552734375 1017.91546630859 1020.27459716797 1016.82690429688 1012.80889892578 1015.701171875 1021.97332763672 1022.57635498047 1025.51000976562 1027.78430175781 1024.53283691406 1017.69909667969 1013.17266845703 1017.66235351562 1017.07427978516 1009.14343261719 1020.15057373047 1013.95275878906 1017.53558349609 1018.64935302734 1017.75555419922 1015.939453125 1014.86602783203 1017.16723632812 1003.09637451172 1009.37188720703 1006.341796875 1007.24835205078 988.912231445312 984.787048339844 982.594299316406 991.692138671875 991.484252929688 993.221801757812 992.648376464844 997.868896484375 1000.66680908203 1003.85406494141 1004.48333740234 995.40478515625 999.929321289062 1001.6162109375 988.724182128906 992.965393066406 992.398376464844 995.16455078125 986.901245117188 976.729614257812 981.085266113281 971.353576660156 962.7353515625 960.471618652344 955.803344726562 949.309814453125 941.925659179688 955.708312988281 946.7646484375 947.472717285156 947.405090332031 939.12744140625 949.498901367188 953.865661621094 970.63671875 985.078918457031 980.78271484375 990.181640625 1011.07720947266 1023.84875488281 1022.49475097656 1030.81286621094 1034.02819824219 1038.7529296875 1040.7236328125 1038.8603515625 1035.20849609375 1038.27697753906 1053.17016601562 1060.1201171875 1063.35949707031 1060.48901367188 1067.87182617188 1066.28564453125 1070.51623535156 1079.83740234375 1074.58715820312 1065.92321777344 1069.82849121094 1074.01965332031 1077.05737304688 1083.86706542969 1094.24096679688
960.295837402344 960.576904296875 958.50537109375 954.902954101562 948.445678710938 950.733642578125 950.523986816406 953.516174316406 947.96435546875 945.861206054688 949.507995605469 948.725158691406 954.377868652344 957.070922851562 957.262878417969 966.030944824219 959.564514160156 962.199584960938 964.727600097656 965.105102539062 967.059997558594 974.615234375 977.378479003906 981.343139648438 984.414184570312 988.652465820312 990.401550292969 1002.90295410156 1001.51342773438 1004.53167724609 1007.15893554688 1017.73663330078 1015.59283447266 1007.94226074219 1015.43371582031 1017.34875488281 1024.27319335938 1024.6083984375 1025.349609375 1024.36474609375 1025.73815917969 1024.47021484375 1024.37951660156 1007.99810791016 1014.591796875 1003.16778564453 1001.97467041016 1007.00225830078 1006.16876220703 1010.96319580078 999.781311035156 994.304016113281 1001.64996337891 1001.93322753906 1005.08898925781 1001.36560058594 1001.28308105469 1005.927734375 1009.83178710938 1010.03063964844 1014.89215087891 1009.05133056641 1011.02471923828 1016.18811035156 1019.09332275391 1014.29162597656 1025.34362792969 1029.86767578125 1032.9609375 1029.73510742188 1024.04968261719 1011.96893310547 1017.73321533203 1013.21319580078 1012.2978515625 1015.32879638672 1016.70104980469 1021.02813720703 1019.14862060547 1007.90869140625 1003.56280517578 1007.84057617188 1011.40844726562 1011.95776367188 1013.31573486328 1009.013671875 1007.61444091797 997.276916503906 997.820495605469 994.679931640625 1006.91558837891 1004.69348144531 1013.2646484375 1011.42504882812 1013.52490234375 1012.39007568359 1016.01513671875 1013.44598388672 1011.27392578125 1008.92956542969 1008.69549560547 998.337463378906 992.445617675781 993.5966796875 994.118591308594 994.030700683594 978.513000488281 975.812744140625 965.931762695312 971.4052734375 964.011657714844 955.627868652344 956.199035644531 954.899963378906 947.8623046875 941.242797851562 939.578308105469 939.043884277344 947.728088378906 960.16064453125 962.447265625 976.53271484375 990.025573730469 990.581115722656 993.399291992188 1015.40649414062 1028.63134765625 1031.41369628906 1034.10095214844 1035.12512207031 1042.04333496094 1045.20739746094 1043.74597167969 1040.93530273438 1043.75659179688 1048.27954101562 1060.21447753906 1065.40661621094 1060.048828125 1065.78955078125 1066.77783203125 1064.16564941406 1060.57946777344 1072.70104980469 1068.01013183594 1064.71997070312 1059.18920898438 1069.28735351562 1076.57165527344 1085.82202148438
961.670227050781 964.883117675781 962.559631347656 955.458923339844 942.888122558594 952.546203613281 950.743530273438 951.356872558594 948.569763183594 949.650207519531 953.246643066406 952.690673828125 952.851318359375 955.861022949219 954.190124511719 954.308410644531 951.9921875 950.132141113281 967.509826660156 965.2431640625 965.74755859375 968.038757324219 970.691162109375 969.248840332031 976.67578125 976.659484863281 991.944030761719 1000.130859375 997.152526855469 1000.85577392578 1004.63751220703 1008.76416015625 1008.68487548828 1012.02880859375 1016.61517333984 1013.03186035156 1015.24597167969 1023.44635009766 1028.92614746094 1023.45495605469 1021.67498779297 1014.22186279297 1020.87176513672 1016.13311767578 1011.21966552734 1004.39324951172 1006.31744384766 1001.28778076172 1005.95275878906 1010.36798095703 995.636474609375 998.619262695312 1001.42022705078 1002.24566650391 1000.62701416016 994.851440429688 994.401672363281 1002.17535400391 1014.99395751953 1013.93975830078 1018.40472412109 1018.29162597656 1010.14312744141 1023.30999755859 1023.38067626953 1024.39831542969 1025.30603027344 1030.03454589844 1033.20300292969 1020.50567626953 1022.84814453125 1014.98065185547 1018.32049560547 1010.95642089844 1006.96112060547 1011.72027587891 1005.70391845703 1013.54479980469 1013.49176025391 1011.92388916016 999.861938476562 1006.31341552734 998.732604980469 1003.45202636719 1008.56408691406 1011.12310791016 1007.55346679688 1002.30456542969 1004.32055664062 998.773681640625 1008.40924072266 1009.32879638672 1016.09106445312 1016.4326171875 1026.93005371094 1025.80346679688 1026.87194824219 1020.62719726562 1018.87713623047 1016.44653320312 1004.65667724609 989.869201660156 993.502685546875 1002.92041015625 1006.39270019531 997.561218261719 991.423889160156 987.789245605469 982.011596679688 972.90625 968.055725097656 958.267333984375 954.590698242188 959.20703125 948.393493652344 931.919738769531 939.080688476562 944.295227050781 953.015075683594 962.894775390625 975.148681640625 986.137939453125 993.462524414062 997.109375 995.099731445312 1004.21783447266 1018.32794189453 1033.69897460938 1035.81469726562 1042.67883300781 1040.29431152344 1056.9072265625 1047.22631835938 1042.98388671875 1049.31286621094 1052.8447265625 1055.904296875 1054.01623535156 1060.83715820312 1068.52062988281 1071.86840820312 1064.57092285156 1060.25305175781 1066.04638671875 1062.79858398438 1064.70434570312 1070.63073730469 1075.24157714844 1078.76220703125 1082.16638183594
952.142150878906 953.091430664062 953.460571289062 951.410705566406 942.331237792969 949.094787597656 952.319091796875 949.879638671875 948.3798828125 957.802124023438 958.827453613281 960.345642089844 952.852722167969 955.093139648438 960.393249511719 956.549072265625 963.010620117188 960.36474609375 968.001281738281 968.6474609375 969.879150390625 970.268859863281 966.501647949219 967.983947753906 983.188659667969 986.143981933594 987.083557128906 991.841613769531 988.840576171875 988.392578125 1005.2412109375 1010.18707275391 1008.97717285156 1014.34393310547 1015.22393798828 1013.23822021484 1018.85546875 1017.78106689453 1027.19311523438 1022.07952880859 1010.01147460938 1016.92590332031 1024.3193359375 1018.55114746094 1011.07354736328 1005.16729736328 1008.49920654297 1005.06469726562 1003.51934814453 995.320617675781 993.490295410156 1003.33874511719 996.952575683594 996.004638671875 999.251708984375 998.372802734375 997.640014648438 1003.50311279297 1006.86456298828 1010.40655517578 1020.15081787109 1023.29168701172 1024.41711425781 1030.50109863281 1033.240234375 1023.91796875 1015.310546875 1018.87878417969 1021.24407958984 1017.1630859375 1015.69116210938 1011.09973144531 1014.119140625 1011.18414306641 1007.32263183594 1015.36584472656 1008.48040771484 1007.44641113281 1009.83380126953 1011.74774169922 1006.99487304688 1000.32934570312 999.109252929688 1007.73162841797 1017.24896240234 1016.97351074219 1012.6611328125 1011.42474365234 1010.36633300781 1007.84326171875 1006.15246582031 1009.67932128906 1017.47998046875 1015.22192382812 1036.62756347656 1024.90869140625 1030.52905273438 1029.90124511719 1022.44732666016 1006.36334228516 999.898498535156 999.187866210938 999.34326171875 1006.22229003906 1009.97058105469 1008.02331542969 1002.70782470703 1001.93377685547 994.493225097656 975.9267578125 975.509521484375 958.75537109375 954.626586914062 948.166564941406 945.833862304688 942.958740234375 940.784790039062 947.992736816406 959.973327636719 970.843017578125 982.092712402344 986.96923828125 991.261169433594 993.542846679688 993.931701660156 1015.13659667969 1018.29840087891 1034.79077148438 1042.61706542969 1037.74816894531 1042.19201660156 1052.20947265625 1048.81115722656 1040.62329101562 1047.5654296875 1047.39111328125 1052.38793945312 1055.84033203125 1057.59765625 1064.84802246094 1063.98596191406 1064.74365234375 1057.22668457031 1054.82116699219 1060.3359375 1068.24499511719 1069.82104492188 1065.1982421875 1071.33825683594 1071.69714355469
941.934631347656 945.599060058594 943.095947265625 950.122619628906 957.199829101562 950.013977050781 952.237609863281 959.179260253906 957.519165039062 962.388427734375 961.115661621094 967.913696289062 953.7939453125 952.423522949219 968.541015625 965.160949707031 963.382995605469 968.633972167969 967.955932617188 973.070007324219 968.103332519531 973.568237304688 968.261962890625 976.2041015625 980.947692871094 986.579284667969 988.184265136719 980.804138183594 990.362487792969 998.962463378906 997.580017089844 1004.57385253906 1012.42126464844 1012.98767089844 1015.56109619141 1026.29077148438 1026.03051757812 1021.50830078125 1018.61004638672 1016.51721191406 1004.16333007812 1008.67926025391 1012.3486328125 1017.21368408203 1012.3857421875 1002.51879882812 1000.12646484375 1005.15966796875 996.732238769531 989.774108886719 990.155029296875 991.128356933594 991.367492675781 993.298278808594 985.608581542969 989.566040039062 1000.91821289062 1004.04248046875 1010.19641113281 1016.46508789062 1016.67779541016 1010.62750244141 1018.50622558594 1024.27075195312 1025.13000488281 1025.68872070312 1027.99499511719 1012.91961669922 1014.85870361328 1013.77709960938 1019.05078125 1007.53143310547 998.446838378906 996.516845703125 1001.93908691406 997.941955566406 1004.44049072266 1005.29895019531 1014.34906005859 1016.33892822266 1010.11444091797 1000.8955078125 1008.54541015625 1011.02923583984 1015.677734375 1016.79382324219 1017.43804931641 1007.60870361328 1012.86999511719 1019.72973632812 1015.34027099609 1013.23510742188 1014.50152587891 1020.84759521484 1023.62774658203 1023.98840332031 1029.48254394531 1020.78588867188 1017.53314208984 1005.20178222656 1006.09448242188 1009.22076416016 1008.17431640625 1008.26599121094 1006.44952392578 1011.25732421875 1007.53576660156 1011.05541992188 1005.30596923828 988.411499023438 972.078369140625 965.469665527344 952.463256835938 945.732788085938 955.054443359375 954.988891601562 952.0703125 954.408630371094 965.577575683594 980.730834960938 998.587036132812 997.585754394531 994.050659179688 998.634765625 1006.1552734375 1011.72735595703 1025.80627441406 1038.12023925781 1040.09228515625 1044.97375488281 1047.85803222656 1042.31188964844 1041.29296875 1043.142578125 1043.08666992188 1049.80004882812 1061.36267089844 1061.01147460938 1058.5537109375 1066.97351074219 1059.54016113281 1067.07214355469 1068.47863769531 1053.6845703125 1060.8759765625 1062.30200195312 1066.52404785156 1063.06237792969 1067.80554199219 1062.99633789062
936.718566894531 933.13232421875 941.1806640625 943.765014648438 944.056213378906 951.49853515625 959.511169433594 969.397155761719 965.905090332031 967.672302246094 969.682067871094 969.044738769531 966.125732421875 966.551330566406 970.617858886719 972.791259765625 967.536682128906 969.555969238281 978.277770996094 986.322448730469 984.178405761719 984.754333496094 978.292053222656 978.412353515625 985.4130859375 992.435180664062 998.251953125 984.479370117188 996.320007324219 997.761047363281 1001.15258789062 1000.82171630859 1007.73791503906 1015.71295166016 1013.70648193359 1019.17987060547 1021.78771972656 1017.76959228516 1009.43859863281 1006.005859375 997.033813476562 1000.45709228516 1007.14709472656 1008.408203125 1010.29901123047 1003.65887451172 1005.58410644531 996.873779296875 992.633056640625 985.832458496094 986.666381835938 995.9453125 992.013061523438 980.405578613281 984.622924804688 989.098510742188 996.4345703125 1009.20715332031 1010.51971435547 1021.43585205078 1019.48645019531 1014.703125 1013.73883056641 1020.05786132812 1020.63403320312 1020.96179199219 1012.58093261719 1021.22662353516 1016.40283203125 1026.26196289062 1013.86633300781 1011.78588867188 997.310241699219 991.208923339844 994.280944824219 997.944152832031 1003.00915527344 1003.62512207031 1003.68902587891 1018.44250488281 1011.28631591797 1006.78698730469 1005.61724853516 1006.03265380859 1004.08215332031 1012.31201171875 1013.01446533203 1011.49737548828 1009.39837646484 1012.34942626953 1016.85748291016 1025.53295898438 1025.09948730469 1028.10754394531 1029.52819824219 1028.78125 1030.52307128906 1021.44415283203 1018.54364013672 1013.65270996094 1006.49517822266 1003.43792724609 1007.83843994141 1006.69036865234 998.928588867188 1005.45513916016 1009.64642333984 1005.02093505859 999.389892578125 992.864318847656 975.176086425781 959.5595703125 959.50146484375 949.394226074219 945.505920410156 955.717224121094 962.921936035156 962.249145507812 976.586364746094 993.867431640625 1004.89349365234 1005.61773681641 1008.55682373047 1011.25494384766 1014.4638671875 1018.90649414062 1020.40081787109 1032.97155761719 1047.34045410156 1046.78942871094 1050.08508300781 1044.81225585938 1038.22509765625 1041.81262207031 1040.82446289062 1045.29956054688 1052.95776367188 1047.00390625 1062.93957519531 1067.66357421875 1069.97033691406 1068.20202636719 1057.27282714844 1055.38989257812 1052.20739746094 1062.00451660156 1064.04602050781 1068.16613769531 1067.6181640625 1066.86572265625
936.203857421875 934.447875976562 941.86328125 939.224182128906 949.861389160156 953.5244140625 960.380004882812 968.369689941406 974.45068359375 967.718933105469 980.045532226562 977.055297851562 981.533203125 977.848205566406 971.472045898438 966.121398925781 966.759094238281 977.467163085938 978.595458984375 981.719482421875 982.476501464844 983.805419921875 988.269165039062 987.967346191406 994.045043945312 999.661987304688 992.973937988281 988.585327148438 989.055358886719 992.864562988281 994.204711914062 995.633422851562 1002.47137451172 1006.70684814453 1008.07806396484 1011.94311523438 1008.53466796875 1002.14727783203 1006.10272216797 1000.384765625 994.335144042969 998.220031738281 1001.91729736328 999.93994140625 1009.42944335938 1008.84942626953 1004.56158447266 999.664428710938 993.945556640625 988.727600097656 990.808654785156 982.308227539062 984.466735839844 980.189758300781 980.400268554688 976.9990234375 994.187133789062 1003.04028320312 1009.56762695312 1012.23236083984 1020.78106689453 1014.06103515625 1002.77655029297 1005.62738037109 1005.49896240234 1008.38061523438 1004.57720947266 1008.38079833984 1008.23614501953 1019.48431396484 1020.08764648438 1010.802734375 1003.75909423828 986.068786621094 991.573547363281 996.08740234375 1003.38824462891 1009.08142089844 1007.93792724609 1011.80889892578 1015.69018554688 1006.26873779297 1005.75787353516 994.754089355469 1000.65209960938 1004.32727050781 1011.07269287109 1009.43798828125 1014.96215820312 1019.62628173828 1017.15771484375 1024.57775878906 1029.06774902344 1042.1474609375 1041.42175292969 1030.17614746094 1024.65026855469 1027.24682617188 1031.86145019531 1022.98962402344 1019.05456542969 1009.84002685547 1015.03869628906 1008.52966308594 1001.09356689453 1004.76776123047 1001.18957519531 998.423461914062 993.595092773438 990.644470214844 975.302673339844 969.7724609375 961.339538574219 953.891418457031 952.083068847656 954.321044921875 957.457153320312 960.853454589844 971.857727050781 986.142578125 1000.08502197266 1012.40814208984 1018.92260742188 1022.5830078125 1018.58386230469 1024.21801757812 1028.77502441406 1035.25170898438 1043.23889160156 1043.62976074219 1053.10241699219 1044.54858398438 1036.56958007812 1032.95373535156 1029.0927734375 1035.49768066406 1043.89599609375 1040.21423339844 1052.50366210938 1055.44580078125 1060.46459960938 1047.94799804688 1048.44946289062 1055.025390625 1053.099609375 1051.53039550781 1054.33776855469 1063.81237792969 1064.05029296875 1061.78137207031
940.794006347656 940.225463867188 944.948608398438 941.224426269531 942.533508300781 950.366516113281 961.314636230469 965.163635253906 963.023254394531 969.532653808594 971.177673339844 981.710998535156 977.623352050781 972.864929199219 979.636291503906 978.042541503906 976.4345703125 984.375183105469 979.465942382812 983.516967773438 988.229431152344 985.177734375 989.320434570312 987.275390625 988.565185546875 995.984985351562 996.99658203125 984.424438476562 979.803833007812 987.350952148438 993.823486328125 994.876281738281 995.954345703125 1003.71490478516 1003.70300292969 1011.64685058594 1007.86962890625 1005.02819824219 1000.6474609375 994.731384277344 990.45458984375 989.267944335938 1001.96661376953 1009.408203125 1004.05578613281 997.922668457031 995.232788085938 992.872497558594 993.143615722656 994.163940429688 985.423461914062 981.488342285156 979.042846679688 976.283142089844 977.868957519531 982.195556640625 987.652282714844 993.552612304688 1001.34588623047 1010.93536376953 1011.38812255859 1005.42181396484 998.051147460938 995.851440429688 1006.05889892578 1006.49029541016 1001.08703613281 1004.95288085938 1011.92169189453 1007.10430908203 1013.53784179688 1007.65667724609 1003.65142822266 993.666381835938 994.105346679688 998.909606933594 1000.15026855469 1005.3193359375 996.745788574219 1006.54608154297 1010.31091308594 995.90234375 994.644409179688 995.826599121094 993.662353515625 1007.33203125 1019.7158203125 1012.45916748047 1010.54107666016 1007.87060546875 1013.26751708984 1026.482421875 1026.06408691406 1038.1484375 1035.79187011719 1035.52722167969 1038.46313476562 1024.99438476562 1023.88098144531 1020.19561767578 1019.34405517578 1018.93548583984 1014.44598388672 1010.79327392578 1014.27600097656 1005.59429931641 1002.33905029297 997.197021484375 992.292785644531 989.896179199219 977.913818359375 965.329772949219 946.705078125 960.157348632812 956.254638671875 951.916687011719 949.749206542969 955.294006347656 967.065368652344 976.899719238281 988.292053222656 1009.98767089844 1017.76733398438 1019.80584716797 1019.6708984375 1024.88708496094 1029.93969726562 1034.99682617188 1034.05432128906 1037.46862792969 1048.28295898438 1037.03100585938 1029.1787109375 1029.70446777344 1028.673828125 1035.78234863281 1026.74182128906 1032.40026855469 1044.0146484375 1055.56958007812 1052.88793945312 1049.53564453125 1045.90502929688 1050.16198730469 1051.65698242188 1053.783203125 1055.94250488281 1065.34436035156 1073.32641601562 1074.81616210938
948.794799804688 949.092041015625 950.361633300781 960.108703613281 949.213989257812 964.720520019531 960.616943359375 965.994934082031 965.0859375 970.035766601562 971.460754394531 973.180053710938 969.736999511719 978.521057128906 966.9033203125 974.615356445312 980.067199707031 982.611633300781 988.050415039062 988.473266601562 984.56591796875 990.415466308594 987.799133300781 995.280578613281 992.607177734375 988.1240234375 991.510864257812 988.7490234375 991.382080078125 987.34130859375 998.3408203125 996.102478027344 997.723083496094 1003.04370117188 1003.07366943359 999.309814453125 1000.25067138672 997.848327636719 991.179992675781 992.032836914062 990.865295410156 996.575439453125 998.098388671875 1000.42926025391 994.973083496094 997.929931640625 998.999755859375 996.869201660156 994.086242675781 982.22607421875 980.727783203125 980.200744628906 980.362670898438 973.830932617188 981.994506835938 984.183715820312 985.079467773438 994.924011230469 995.030090332031 1003.16790771484 1002.93670654297 998.082397460938 998.735595703125 998.10693359375 1010.76568603516 1006.34399414062 997.819396972656 1012.88018798828 1009.56579589844 1005.55975341797 1011.10589599609 1002.87823486328 1002.50891113281 1000.51928710938 985.40380859375 992.848571777344 992.266845703125 993.126220703125 991.518798828125 994.065551757812 999.977905273438 997.645202636719 993.269714355469 993.20068359375 999.036987304688 1003.49975585938 1006.17309570312 1010.26086425781 1007.48870849609 1004.23962402344 1003.60034179688 1022.80767822266 1016.72973632812 1030.03442382812 1031.36767578125 1027.52099609375 1031.29797363281 1031.52795410156 1028.57629394531 1027.15832519531 1026.98376464844 1017.31225585938 1015.82061767578 1012.49096679688 1005.99908447266 1008.64678955078 1001.17663574219 996.346984863281 988.982238769531 980.398559570312 976.221984863281 965.431030273438 960.325927734375 956.413208007812 952.522338867188 946.596557617188 953.294189453125 960.365051269531 959.96826171875 973.671264648438 989.745483398438 1002.13812255859 1010.89984130859 1020.97729492188 1024.94702148438 1021.27508544922 1022.70922851562 1035.17346191406 1043.19677734375 1042.89172363281 1043.6796875 1040.98425292969 1026.54931640625 1033.61401367188 1022.06024169922 1022.60797119141 1030.67407226562 1032.66491699219 1045.17712402344 1046.40026855469 1048.58251953125 1048.35217285156 1049.93481445312 1056.36022949219 1056.12524414062 1051.88195800781 1055.33093261719 1062.24560546875 1064.80041503906 1068.05053710938
956.758972167969 957.164306640625 963.367004394531 957.487731933594 960.861450195312 956.395202636719 964.608703613281 953.682922363281 967.215393066406 971.816467285156 973.249877929688 979.661010742188 980.083190917969 974.833923339844 973.093017578125 970.96337890625 976.862365722656 981.362670898438 980.99609375 985.605834960938 983.226196289062 986.026184082031 995.283508300781 985.841918945312 993.564392089844 991.989318847656 987.900451660156 987.509399414062 992.781555175781 996.56494140625 1000.47784423828 990.26171875 989.188781738281 992.733154296875 992.509338378906 990.773071289062 990.947326660156 982.298400878906 987.644714355469 983.7841796875 991.891235351562 987.528564453125 995.169006347656 990.9267578125 990.558898925781 989.158386230469 993.353942871094 994.346069335938 990.212890625 975.109375 971.653930664062 975.914855957031 977.572998046875 985.083129882812 982.454284667969 985.203735351562 988.370483398438 995.354919433594 992.124267578125 999.253662109375 991.3330078125 992.767822265625 999.781066894531 995.943725585938 1002.01287841797 1008.21478271484 1001.64672851562 1003.07141113281 1006.03973388672 1001.31750488281 1014.93621826172 1008.67565917969 1000.55584716797 1000.64379882812 982.177551269531 985.148315429688 989.028442382812 980.821899414062 989.747863769531 999.581665039062 993.758728027344 986.095458984375 996.636901855469 987.255859375 993.945556640625 1006.66662597656 1006.67242431641 1013.05139160156 1010.44610595703 1005.09002685547 1009.2392578125 1008.89422607422 1012.15216064453 1020.65911865234 1017.26153564453 1022.4169921875 1027.66357421875 1028.19372558594 1025.78588867188 1025.50134277344 1025.04370117188 1018.01251220703 1012.44250488281 1014.14086914062 1018.65545654297 1008.27764892578 1008.38256835938 1000.47888183594 990.039855957031 986.421691894531 985.836730957031 970.914001464844 964.0927734375 950.906188964844 948.833312988281 945.160827636719 958.299194335938 953.272216796875 960.809936523438 980.513061523438 997.846313476562 1005.17150878906 1019.46301269531 1023.21417236328 1028.09606933594 1026.84948730469 1023.43200683594 1036.77087402344 1054.44641113281 1042.16357421875 1039.59265136719 1029.89965820312 1020.70385742188 1020.17913818359 1018.25006103516 1016.72442626953 1029.83996582031 1033.3779296875 1040.65502929688 1038.85583496094 1051.45568847656 1053.40954589844 1049.16003417969 1050.48669433594 1057.93640136719 1051.78332519531 1048.83459472656 1055.29382324219 1064.75317382812 1056.71008300781
962.694519042969 961.172668457031 969.665222167969 963.435546875 962.257629394531 961.078002929688 958.173828125 957.724426269531 965.026916503906 969.165893554688 967.562438964844 983.901733398438 980.690979003906 971.708740234375 971.408386230469 974.344543457031 976.655700683594 985.1669921875 980.5615234375 979.219848632812 978.201599121094 980.7802734375 978.650939941406 982.464294433594 988.776550292969 994.04638671875 993.997802734375 984.399108886719 988.736938476562 989.919250488281 988.281005859375 978.850524902344 979.214599609375 986.572631835938 988.142883300781 986.287902832031 991.590026855469 978.169860839844 977.132934570312 982.071411132812 984.366455078125 985.569519042969 994.399169921875 983.861450195312 997.428894042969 991.369445800781 985.481323242188 993.824157714844 990.212768554688 982.359130859375 967.021850585938 964.914001464844 970.591552734375 988.704528808594 981.914184570312 993.204223632812 996.787414550781 995.001098632812 1002.02722167969 986.419921875 995.642211914062 992.44189453125 999.955810546875 1006.47778320312 1006.34521484375 1004.31060791016 1005.82550048828 1001.67694091797 1000.59197998047 1016.26245117188 1010.76556396484 1001.26550292969 991.286560058594 991.877319335938 986.776000976562 985.925537109375 983.838012695312 974.418884277344 985.981140136719 992.863647460938 990.127746582031 986.793579101562 991.025817871094 994.065307617188 994.427307128906 1001.25964355469 998.177734375 1005.34606933594 1018.25427246094 1001.74438476562 1011.68524169922 1019.03070068359 1023.73455810547 1019.74102783203 1015.10034179688 1016.61938476562 1013.56890869141 1023.21057128906 1022.75408935547 1019.22741699219 1017.00689697266 1016.79022216797 1007.67633056641 1010.08148193359 1011.27386474609 1004.90496826172 1005.79858398438 993.990905761719 992.608642578125 981.273254394531 980.217041015625 966.764892578125 953.571655273438 944.745544433594 943.942077636719 950.732055664062 949.705078125 954.126281738281 964.467102050781 979.1650390625 987.566101074219 1004.28723144531 1017.04132080078 1027.47497558594 1026.04333496094 1020.77783203125 1022.02581787109 1034.06896972656 1037.26171875 1031.84375 1034.07727050781 1024.24951171875 1017.220703125 1014.88250732422 1003.90814208984 1017.45068359375 1024.65808105469 1024.99267578125 1033.38940429688 1035.77429199219 1049.27990722656 1062.73156738281 1052.39514160156 1054.79089355469 1059.12878417969 1062.59533691406 1056.92651367188 1061.00427246094 1069.67138671875 1069.02038574219
955.815246582031 961.60888671875 960.837646484375 967.454956054688 970.052062988281 957.267639160156 965.414123535156 969.613891601562 966.059692382812 971.439575195312 965.748779296875 974.492797851562 981.374938964844 973.747253417969 977.747131347656 982.06201171875 988.107299804688 987.061828613281 986.215209960938 983.336364746094 981.868225097656 979.03271484375 984.017822265625 982.196533203125 978.556518554688 988.693237304688 986.892883300781 974.244873046875 985.107971191406 990.196350097656 988.252075195312 976.712280273438 986.46533203125 981.242309570312 986.127868652344 984.191772460938 980.993286132812 977.4814453125 973.835205078125 980.23583984375 980.128967285156 981.639465332031 982.717102050781 985.831909179688 986.742858886719 991.014282226562 992.575561523438 995.038024902344 988.126281738281 977.05859375 973.811401367188 969.74267578125 975.687622070312 980.81298828125 990.659118652344 982.111938476562 999.5009765625 995.277526855469 994.389221191406 987.542907714844 993.9453125 993.546508789062 999.102966308594 998.583984375 1001.31225585938 1009.08172607422 999.829772949219 996.587341308594 999.946166992188 1003.57434082031 1006.33087158203 1001.66101074219 993.250366210938 988.291015625 985.802429199219 984.079284667969 981.261535644531 986.394592285156 990.464050292969 988.775939941406 985.501647949219 979.157104492188 986.203247070312 988.861022949219 996.896301269531 994.489929199219 993.9267578125 1001.78173828125 1004.30261230469 1009.62506103516 1011.44818115234 1016.18511962891 1026.49597167969 1018.00671386719 1011.36895751953 1004.48187255859 1013.82537841797 1015.2041015625 1019.26599121094 1017.80706787109 1009.04772949219 1003.68591308594 1000.87475585938 1008.78448486328 1012.71942138672 1012.10638427734 1007.56439208984 1006.42236328125 1001.80737304688 985.113159179688 978.404907226562 964.45654296875 955.658874511719 947.510803222656 947.612060546875 948.936706542969 946.696899414062 959.879150390625 964.60400390625 977.959777832031 991.749389648438 1001.38079833984 1006.72247314453 1012.63018798828 1019.27416992188 1019.80554199219 1027.00891113281 1037.8515625 1027.09838867188 1029.76879882812 1028.00439453125 1023.00537109375 1018.58947753906 1008.59588623047 1010.26123046875 1004.04052734375 1009.8955078125 1010.03967285156 1022.55133056641 1025.21264648438 1040.1552734375 1047.8212890625 1043.69201660156 1051.13098144531 1056.46215820312 1059.083984375 1064.01867675781 1062.45495605469 1066.32531738281 1066.52575683594
961.5771484375 958.896789550781 957.968139648438 961.750732421875 958.825012207031 962.662536621094 967.123657226562 965.848022460938 974.824951171875 970.049743652344 971.773986816406 976.263916015625 975.568298339844 971.676574707031 977.565856933594 982.097351074219 994.010620117188 984.028198242188 982.075500488281 980.534240722656 979.401123046875 987.60107421875 984.901733398438 981.307861328125 994.232299804688 988.207336425781 991.268798828125 984.570983886719 986.363037109375 987.754455566406 987.822265625 982.127258300781 987.338500976562 976.175903320312 983.415710449219 982.6640625 973.5322265625 973.707153320312 978.229187011719 974.996948242188 982.430908203125 981.606506347656 985.661926269531 981.738403320312 983.567932128906 990.167419433594 981.375854492188 984.067260742188 987.742797851562 979.653442382812 979.793395996094 979.730224609375 977.420104980469 980.542358398438 989.521545410156 983.531188964844 983.281860351562 983.444702148438 988.044006347656 984.349365234375 993.562133789062 994.596740722656 987.167419433594 990.481567382812 993.02392578125 999.673645019531 1000.95294189453 998.348327636719 994.776794433594 993.375061035156 985.647521972656 989.438598632812 991.66796875 985.736572265625 985.396545410156 989.609191894531 987.799072265625 988.287719726562 989.273864746094 996.431030273438 989.499206542969 986.233764648438 989.456604003906 986.427734375 991.619995117188 995.166931152344 993.216003417969 998.42236328125 1000.21685791016 1014.15692138672 1016.35217285156 1032.69946289062 1028.32922363281 1015.96820068359 1015.08776855469 1011.27362060547 1005.10571289062 1011.03881835938 1011.78363037109 1002.013671875 1009.37243652344 1007.99273681641 1007.48052978516 1002.06793212891 1011.845703125 1007.63171386719 1009.18206787109 1012.81573486328 998.819274902344 987.714050292969 979.725036621094 972.326965332031 961.655151367188 952.464721679688 952.384399414062 952.246032714844 958.029113769531 967.3369140625 971.959777832031 978.404846191406 987.030639648438 1001.25219726562 1007.35778808594 1006.10278320312 1015.94097900391 1019.36688232422 1024.49987792969 1029.83569335938 1033.60852050781 1020.27062988281 1024.54956054688 1009.67218017578 1014.76257324219 1011.56530761719 1007.71014404297 1013.44268798828 1020.47619628906 1021.84381103516 1023.67840576172 1028.76647949219 1033.228515625 1043.08654785156 1042.95910644531 1049.13891601562 1054.53308105469 1065.63989257812 1061.81701660156 1071.73779296875 1063.44506835938 1076.67858886719
952.937561035156 956.669799804688 960.09228515625 963.69921875 957.518798828125 962.6220703125 975.271179199219 986.595581054688 976.990234375 969.833435058594 972.167419433594 974.971252441406 974.617370605469 971.588562011719 973.729309082031 983.76806640625 982.073791503906 988.063232421875 983.905700683594 981.270080566406 977.261474609375 988.029541015625 984.466491699219 975.442932128906 988.756408691406 990.210632324219 984.296997070312 981.073852539062 981.346496582031 983.637329101562 989.116271972656 987.686767578125 987.355102539062 979.185180664062 979.971313476562 984.188903808594 976.669616699219 972.569030761719 965.639221191406 972.07666015625 981.635009765625 978.355102539062 980.411987304688 978.537231445312 985.998413085938 984.858154296875 984.013488769531 982.460205078125 993.010559082031 980.544006347656 979.552551269531 969.167602539062 971.793884277344 971.656066894531 981.783386230469 975.661254882812 979.532287597656 979.14404296875 981.318420410156 981.954284667969 994.105224609375 981.97509765625 980.664001464844 987.831970214844 985.193786621094 996.429443359375 995.280090332031 989.854919433594 990.423889160156 980.733459472656 984.233581542969 986.62890625 983.820251464844 985.543273925781 979.644226074219 979.868896484375 986.757385253906 993.134948730469 997.073303222656 990.768737792969 992.162536621094 994.34228515625 998.220764160156 993.459045410156 1004.69793701172 1005.43188476562 996.574096679688 990.635803222656 998.248107910156 1010.35974121094 1018.35650634766 1021.84838867188 1023.45355224609 1015.16156005859 1008.85021972656 1011.64093017578 1014.75439453125 1012.36029052734 1005.27264404297 1005.83422851562 1006.009765625 1007.63470458984 996.337280273438 1003.02111816406 1001.90325927734 999.786499023438 996.219299316406 1000.58050537109 996.475036621094 986.72216796875 984.666076660156 978.586120605469 965.368225097656 959.923583984375 950.764038085938 957.671997070312 972.180969238281 975.404846191406 973.575134277344 978.809204101562 986.989074707031 999.897277832031 996.370361328125 1003.068359375 1021.40991210938 1022.11737060547 1026.68969726562 1029.70654296875 1017.20526123047 1012.87835693359 1013.19616699219 1010.78045654297 1012.41662597656 1021.95593261719 1011.17358398438 1019.67395019531 1024.47290039062 1027.66174316406 1029.17797851562 1026.93103027344 1031.43737792969 1042.22155761719 1041.45275878906 1054.86206054688 1060.19128417969 1064.85717773438 1065.79541015625 1071.91857910156 1069.83190917969 1069.9296875
956.853088378906 943.646850585938 945.043640136719 955.328002929688 960.911743164062 976.851989746094 977.690612792969 982.647399902344 984.820861816406 978.152404785156 971.754638671875 968.244567871094 973.422485351562 973.640502929688 973.669860839844 975.72119140625 973.229248046875 976.008483886719 984.670349121094 973.228637695312 987.650451660156 980.423400878906 981.549560546875 981.755432128906 987.351440429688 984.404174804688 986.681274414062 976.131225585938 980.476135253906 984.19287109375 990.757690429688 987.809692382812 990.216796875 984.385498046875 986.988830566406 985.008728027344 984.470031738281 973.862670898438 968.743774414062 967.869934082031 977.561401367188 978.682434082031 983.00146484375 984.947814941406 978.582702636719 977.941711425781 978.713989257812 983.963073730469 985.988586425781 982.907836914062 976.615661621094 969.384338378906 971.99609375 976.848266601562 985.007751464844 972.235778808594 969.456665039062 975.853210449219 982.344665527344 988.769165039062 973.762939453125 974.832946777344 969.740173339844 975.227783203125 982.756774902344 977.83837890625 981.750122070312 988.409912109375 985.907653808594 981.883544921875 972.740356445312 979.172180175781 981.495544433594 991.473999023438 981.504028320312 978.50634765625 984.950561523438 989.079284667969 998.025939941406 993.1083984375 985.06640625 996.782531738281 998.636596679688 1001.2236328125 1006.25262451172 1001.92272949219 1007.87213134766 1002.83758544922 1007.18334960938 1014.07049560547 1013.50616455078 1015.89392089844 1016.94970703125 1009.58734130859 1014.06256103516 1003.70880126953 1013.71142578125 1007.02172851562 1008.51031494141 1009.63818359375 1002.19537353516 1003.76141357422 995.626770019531 998.303649902344 990.377380371094 997.848205566406 996.904724121094 996.445983886719 994.9521484375 990.128295898438 981.878173828125 981.81005859375 972.696960449219 965.168395996094 961.429443359375 964.103576660156 980.671325683594 978.812622070312 982.818115234375 981.230529785156 984.436096191406 995.829833984375 1002.07446289062 1011.19989013672 1011.28582763672 1004.62268066406 1008.21044921875 1009.8330078125 1008.04089355469 1010.47918701172 1007.23553466797 1012.50463867188 1015.79815673828 1020.36444091797 1017.19879150391 1024.46447753906 1025.39733886719 1026.45434570312 1032.33618164062 1033.02062988281 1035.83630371094 1042.01281738281 1051.13024902344 1054.57373046875 1062.63903808594 1067.22631835938 1071.96704101562 1080.17907714844 1072.00329589844 1074.61291503906
953.526306152344 952.788940429688 950.355712890625 958.247192382812 966.718933105469 978.066284179688 969.930969238281 983.001037597656 980.818237304688 975.324951171875 976.390869140625 969.464172363281 973.460021972656 963.789184570312 967.545227050781 970.925598144531 970.113891601562 968.688415527344 974.682861328125 972.690368652344 982.703491210938 976.055847167969 972.405822753906 980.289123535156 990.116577148438 987.939453125 983.53759765625 976.545593261719 983.094848632812 987.579956054688 990.766662597656 990.46875 992.017761230469 992.671691894531 990.481384277344 989.264038085938 987.032043457031 984.911499023438 980.7607421875 978.380126953125 979.473022460938 983.284057617188 985.621032714844 984.062194824219 976.942749023438 967.087646484375 975.727844238281 984.247253417969 981.324279785156 984.302307128906 980.945922851562 973.982543945312 970.835571289062 979.093078613281 975.7734375 972.132873535156 967.875671386719 969.297668457031 979.503723144531 983.088195800781 972.510375976562 967.068969726562 959.498168945312 969.156005859375 970.814819335938 964.129760742188 968.324768066406 981.971069335938 988.806701660156 985.545654296875 974.067565917969 975.744750976562 982.429138183594 987.651184082031 978.544311523438 989.496337890625 992.73828125 989.607604980469 991.153259277344 1002.76300048828 1000.72875976562 993.563049316406 1000.54949951172 999.4619140625 1005.77563476562 1008.03582763672 1008.48059082031 1014.68377685547 1002.6005859375 1011.32238769531 1009.32763671875 1016.95245361328 1006.25158691406 1011.1748046875 1004.82897949219 1007.45361328125 1011.3466796875 1012.99291992188 1005.19097900391 1004.60034179688 1006.64660644531 997.798889160156 998.874694824219 997.828002929688 990.767272949219 993.598083496094 991.55908203125 995.670349121094 994.522888183594 989.915100097656 981.698913574219 985.522033691406 985.927185058594 977.040771484375 976.420654296875 972.19482421875 978.010620117188 979.450378417969 980.720581054688 985.937622070312 986.435668945312 995.215393066406 998.253173828125 997.438049316406 996.635498046875 1000.67852783203 1005.99188232422 1009.80169677734 1008.28576660156 1004.20166015625 1011.40667724609 1016.00048828125 1020.42034912109 1017.66467285156 1021.67498779297 1029.15637207031 1030.31335449219 1036.57763671875 1039.61706542969 1042.23596191406 1048.90832519531 1041.86584472656 1049.13610839844 1055.6611328125 1068.88317871094 1080.146484375 1078.95141601562 1078.94519042969 1080.66284179688 1081.51037597656
947.822875976562 952.4453125 959.119812011719 962.172790527344 976.137878417969 980.618347167969 974.889099121094 975.265625 976.381774902344 971.077575683594 972.739318847656 968.673522949219 964.197509765625 966.742248535156 977.471618652344 979.411010742188 967.685119628906 970.355346679688 970.260437011719 969.360778808594 970.281433105469 973.60693359375 972.693237304688 978.079528808594 979.983947753906 987.700805664062 989.251708984375 974.496276855469 984.209716796875 988.294921875 982.286376953125 981.939514160156 998.285949707031 990.815246582031 989.779724121094 984.915344238281 980.68017578125 979.666748046875 976.227233886719 976.305480957031 977.382873535156 975.013732910156 985.140747070312 976.385559082031 973.843811035156 963.700378417969 965.537231445312 980.930908203125 978.8466796875 991.036376953125 986.413818359375 979.594970703125 981.534606933594 980.679626464844 975.22509765625 970.114135742188 971.232604980469 967.043640136719 973.798034667969 970.94775390625 974.960632324219 964.366516113281 962.485107421875 963.334350585938 966.902221679688 961.245971679688 971.668273925781 973.572937011719 980.687133789062 985.070983886719 975.819702148438 977.325317382812 976.976440429688 974.239868164062 977.558654785156 982.345397949219 981.973205566406 989.168884277344 998.451721191406 999.463745117188 997.949768066406 1004.53240966797 1008.76916503906 1002.96588134766 1007.52886962891 999.165466308594 1000.10992431641 1003.51409912109 1000.19116210938 1005.97186279297 1005.99499511719 999.895812988281 1006.21447753906 1010.65234375 999.671752929688 1002.44262695312 1010.25634765625 1004.01153564453 996.686889648438 1000.54473876953 1000.10748291016 990.660949707031 995.318542480469 998.46142578125 995.424194335938 995.028137207031 1004.24798583984 996.319702148438 994.195556640625 988.722534179688 989.614562988281 985.529052734375 989.63037109375 992.502685546875 983.168640136719 987.310180664062 984.803955078125 982.446105957031 980.276611328125 990.553466796875 991.520141601562 994.399719238281 996.257934570312 994.718933105469 994.50146484375 991.167358398438 994.550048828125 1000.49938964844 1007.62573242188 1004.19213867188 1011.08575439453 1017.10327148438 1016.73260498047 1013.11566162109 1023.47912597656 1027.12841796875 1030.38244628906 1040.09143066406 1047.22900390625 1051.49548339844 1064.43615722656 1062.74621582031 1065.14636230469 1064.81396484375 1067.69873046875 1078.53979492188 1087.86401367188 1088.95654296875 1087.77209472656 1091.81677246094
