NCOLS 150
NROWS 37
XLLCORNER 7394249
YLLCORNER 4843619
CELLSIZE 30
NODATA_VALUE -9999
992.543212890625 997.640991210938 987.463256835938 990.565307617188 997.241088867188 1003.44537353516 998.799072265625 995.180847167969 990.592590332031 998.016296386719 998.332397460938 994.574096679688 1006.81787109375 1001.78363037109 1004.92834472656 1002.96502685547 1016.10070800781 1022.82647705078 1022.94049072266 1020.57897949219 1020.57458496094 1015.33825683594 1017.18048095703 1016.02355957031 1008.70330810547 1017.96417236328 1013.64300537109 1003.16326904297 1006.21551513672 1009.65069580078 1006.88970947266 1005.29650878906 1014.43670654297 1015.59356689453 1013.25347900391 1015.98175048828 1012.70587158203 1014.42449951172 1005.62048339844 1003.91259765625 1005.93347167969 1004.35614013672 1002.53771972656 1006.62725830078 1003.39538574219 1003.40515136719 1007.18109130859 999.896118164062 1002.76922607422 1002.09893798828 993.202697753906 1002.01220703125 1008.33190917969 1024.07849121094 1011.19409179688 1009.6474609375 1007.73034667969 1013.16650390625 1010.83587646484 1001.68237304688 991.024230957031 989.588073730469 986.503356933594 988.396667480469 984.798706054688 991.713500976562 980.251892089844 974.479797363281 975.331176757812 977.082946777344 992.300537109375 987.959045410156 990.182800292969 987.653137207031 987.382202148438 1007.36981201172 1015.48010253906 1017.05010986328 1027.83862304688 1028.66613769531 1024.33520507812 1010.36279296875 1005.20391845703 998.131103515625 996.727416992188 990.929809570312 987.009094238281 966.60693359375 953.889221191406 939.062683105469 934.440002441406 937.525268554688 934.42431640625 934.387451171875 934.226867675781 928.231201171875 913.639465332031 918.807434082031 914.399719238281 921.367370605469 915.532531738281 913.657775878906 907.775146484375 896.555358886719 898.329528808594 905.617065429688 909.484497070312 917.845031738281 915.350341796875 914.990417480469 911.794555664062 903.600952148438 900.957580566406 911.729858398438 908.370300292969 901.731628417969 906.633483886719 904.069885253906 903.019958496094 915.003540039062 926.556335449219 934.155456542969 944.411315917969 961.179504394531 961.892639160156 968.920532226562 977.886779785156 987.980346679688 980.328857421875 983.258544921875 993.105651855469 1008.39929199219 1018.97021484375 1027.5947265625 1036.52514648438 1055.22534179688 1073.66662597656 1071.51721191406 1064.69372558594 1080.70703125 1097.9267578125 1111.33337402344 1115.0849609375 1134.64440917969 1145.27673339844 1143.17724609375 1134.57788085938 1131.98828125 1125.98352050781 1115.06713867188
989.336364746094 983.736572265625 983.892761230469 992.862060546875 998.284240722656 998.174926757812 1001.33770751953 990.911804199219 987.645263671875 989.923156738281 995.57958984375 999.786499023438 1005.90673828125 1000.8896484375 999.6787109375 1006.00793457031 1014.02734375 1023.66387939453 1014.53234863281 1011.81323242188 1010.20959472656 1003.2568359375 1017.01568603516 1008.59936523438 1004.11145019531 1012.31774902344 1007.06042480469 1002.24896240234 1000.42614746094 1007.05310058594 1000.81634521484 1003.31610107422 1011.00769042969 1007.52752685547 1007.18499755859 1007.34600830078 1007.798828125 1013.07257080078 1007.6923828125 1006.32342529297 1009.17333984375 1005.59808349609 1003.41375732422 1009.33386230469 1015.484375 1012.80310058594 1008.25915527344 1006.58221435547 1008.83459472656 1001.58605957031 1007.39990234375 1004.91027832031 1018.77221679688 1025.630859375 1012.37524414062 1010.3544921875 1003.78070068359 1010.642578125 1011.16564941406 1001.68371582031 996.296020507812 990.759399414062 981.208801269531 985.002075195312 985.647583007812 993.4189453125 986.686401367188 981.164489746094 976.675720214844 983.312133789062 989.694152832031 998.302978515625 999.337585449219 995.606262207031 997.014831542969 1007.79760742188 1015.58544921875 1016.23425292969 1023.14349365234 1025.71105957031 1018.71484375 1014.18121337891 1000.33953857422 996.976196289062 988.162353515625 991.958679199219 979.044677734375 964.07470703125 949.712768554688 935.358703613281 936.536254882812 943.450317382812 940.848510742188 940.937927246094 937.980407714844 926.345092773438 934.957153320312 925.6953125 925.746765136719 922.051940917969 924.684509277344 927.01904296875 911.610656738281 903.931335449219 917.505187988281 925.240661621094 926.799621582031 930.316528320312 924.852600097656 926.491882324219 912.25439453125 904.343505859375 911.476989746094 918.634887695312 911.962097167969 912.0283203125 897.559814453125 901.323974609375 900.849914550781 910.718017578125 927.448852539062 941.384033203125 941.004821777344 961.530639648438 966.177978515625 962.622314453125 983.205749511719 995.150756835938 988.581726074219 991.619323730469 1002.43218994141 1017.73937988281 1025.41796875 1025.96362304688 1026.94689941406 1053.85119628906 1066.150390625 1069.65808105469 1076.71252441406 1081.31225585938 1096.1572265625 1106.63415527344 1111.20910644531 1118.08911132812 1135.58117675781 1129.17907714844 1132.6044921875 1130.69360351562 1124.45349121094 1118.00927734375
989.79443359375 982.793273925781 983.178955078125 995.303161621094 1000.12322998047 999.112609863281 996.645812988281 988.489196777344 976.520385742188 987.43017578125 987.666015625 998.540344238281 1006.8486328125 1005.15026855469 1004.99169921875 1006.63055419922 1011.02160644531 1008.8369140625 1011.548828125 1012.09930419922 1009.34503173828 1002.43237304688 1004.28070068359 1004.89837646484 1000.86029052734 1003.80157470703 996.647033691406 995.510498046875 995.934631347656 1008.19653320312 1003.14569091797 999.815979003906 1005.50360107422 1016.52026367188 1018.24597167969 1014.95135498047 1010.85778808594 1010.35302734375 1009.58776855469 1011.87384033203 1015.95544433594 1008.24157714844 1002.16442871094 1005.83264160156 1004.60833740234 1012.22766113281 1011.51226806641 1015.87683105469 1011.49603271484 1008.97625732422 1009.30432128906 1014.30596923828 1018.17449951172 1020.57836914062 1007.64654541016 1006.66534423828 1012.73474121094 1014.52392578125 1027.05859375 1011.25482177734 1009.01147460938 995.7978515625 991.444763183594 985.7626953125 987.064086914062 997.826965332031 990.701843261719 985.281433105469 980.135803222656 986.851196289062 987.734558105469 988.277404785156 1003.98626708984 1012.02899169922 1012.99127197266 1014.79162597656 1030.81982421875 1027.5078125 1036.6875 1029.54675292969 1029.43395996094 1009.85455322266 1006.28784179688 1002.51043701172 994.335815429688 995.1962890625 974.397033691406 970.214172363281 955.653503417969 945.407531738281 941.505676269531 936.27294921875 953.072509765625 946.194519042969 938.998291015625 933.046997070312 933.142211914062 930.151672363281 933.992919921875 935.603393554688 930.47705078125 930.442077636719 924.801391601562 922.923706054688 929.366271972656 938.724060058594 939.557006835938 942.540771484375 935.091430664062 929.078247070312 922.480102539062 925.143005371094 928.120971679688 927.807006835938 919.5029296875 912.565124511719 913.437683105469 900.881896972656 912.144775390625 921.545288085938 941.350769042969 942.68115234375 956.807556152344 962.668334960938 971.729431152344 973.326416015625 987.228515625 984.3974609375 984.375244140625 995.236267089844 1012.45251464844 1020.74481201172 1023.80053710938 1026.55603027344 1036.30004882812 1046.61560058594 1060.97497558594 1072.88452148438 1074.03149414062 1085.33251953125 1089.58288574219 1102.44189453125 1112.22204589844 1120.04272460938 1127.24975585938 1131.52368164062 1129.04553222656 1124.50671386719 1119.3916015625 1120.29919433594
984.66650390625 987.848937988281 983.242065429688 987.61279296875 996.129028320312 998.356628417969 986.692443847656 985.022888183594 977.368041992188 983.995788574219 987.313354492188 988.839965820312 995.407653808594 1001.25524902344 1003.03784179688 1004.05810546875 1005.9453125 1007.85754394531 1004.9033203125 1003.97247314453 1009.30877685547 1005.30145263672 1009.12658691406 1001.80999755859 993.279052734375 984.274780273438 992.134033203125 989.761413574219 994.804809570312 1003.59924316406 1003.17407226562 1004.51892089844 1006.90551757812 1012.11853027344 1017.23052978516 1020.35827636719 1024.68237304688 1023.87969970703 1023.77185058594 1018.08404541016 1019.59442138672 1009.76226806641 1010.10205078125 1010.60363769531 1009.48291015625 1010.62646484375 1011.72729492188 1007.55346679688 1006.96783447266 1013.29351806641 1014.9921875 1013.244140625 1014.96069335938 1013.24725341797 1013.87188720703 1013.88751220703 1014.38903808594 1015.67639160156 1022.42578125 1019.33813476562 1016.68383789062 1003.81677246094 998.541748046875 996.037170410156 996.425659179688 994.842712402344 997.118041992188 993.461059570312 983.2841796875 979.342529296875 985.18798828125 986.378112792969 1007.45129394531 1013.83624267578 1020.29229736328 1022.29302978516 1025.6435546875 1028.68212890625 1030.03845214844 1031.16845703125 1028.31494140625 1016.41821289062 1009.29925537109 996.413146972656 994.169128417969 995.213745117188 982.024475097656 971.217346191406 964.6953125 949.289367675781 938.433654785156 944.812133789062 944.177001953125 946.494689941406 943.017700195312 940.320983886719 934.8447265625 930.778686523438 936.871948242188 933.609802246094 943.864501953125 936.352172851562 932.500915527344 936.499267578125 934.920776367188 940.758605957031 948.369384765625 942.965881347656 941.221923828125 942.252624511719 943.026733398438 939.325988769531 932.608581542969 928.09765625 918.5615234375 921.756286621094 919.116149902344 908.703491210938 916.135131835938 929.766906738281 942.625793457031 945.085998535156 950.91650390625 964.535217285156 962.827514648438 968.359802246094 974.190185546875 980.243896484375 996.991149902344 1003.71099853516 1014.65051269531 1022.95764160156 1029.85205078125 1036.13562011719 1037.72705078125 1051.83422851562 1067.79272460938 1073.10864257812 1074.42822265625 1075.85546875 1088.14514160156 1095.55432128906 1104.51403808594 1114.00622558594 1119.837890625 1127.79907226562 1130.03442382812 1128.35510253906 1120.8603515625 1122.10864257812
985.09130859375 987.328979492188 982.749328613281 984.034973144531 996.535278320312 992.694885253906 983.301513671875 981.720642089844 982.356872558594 983.5205078125 977.479614257812 976.468566894531 974.636779785156 991.801513671875 990.649353027344 1000.55328369141 996.549621582031 1002.41204833984 1001.00695800781 998.318359375 1005.24383544922 1002.17218017578 1008.38073730469 1003.61950683594 989.898986816406 984.102294921875 992.633117675781 999.07958984375 998.619873046875 1008.01110839844 1012.00671386719 1011.12731933594 1009.85363769531 1020.65319824219 1028.1865234375 1032.27563476562 1028.490234375 1029.12084960938 1029.37451171875 1031.30395507812 1022.18096923828 1029.83837890625 1028.16162109375 1019.84832763672 1015.99163818359 1019.88977050781 1019.58563232422 1016.28881835938 1013.013671875 1011.69946289062 1005.41687011719 1012.94775390625 1012.0009765625 1010.41949462891 1012.21899414062 1013.01733398438 1026.69970703125 1015.53381347656 1016.62213134766 1015.40484619141 1009.45520019531 1001.68438720703 1005.39807128906 1001.27520751953 1003.29290771484 996.318725585938 1001.84069824219 993.727722167969 988.161804199219 989.692932128906 989.249389648438 992.525634765625 1009.67095947266 1019.59002685547 1027.17358398438 1023.30651855469 1035.73889160156 1029.96801757812 1025.58178710938 1024.97265625 1028.43334960938 1027.93347167969 1011.29754638672 1003.05725097656 1003.43511962891 998.219299316406 984.117126464844 976.3857421875 962.869262695312 954.543395996094 940.4716796875 931.351379394531 947.364135742188 933.294372558594 939.582397460938 948.311401367188 941.656005859375 941.177795410156 946.912658691406 948.538208007812 950.830017089844 945.410705566406 946.411010742188 941.180786132812 941.95654296875 943.932983398438 945.745178222656 959.916931152344 950.54296875 955.093811035156 943.080810546875 943.268493652344 937.669189453125 925.834655761719 921.39013671875 914.196533203125 906.952331542969 904.569702148438 932.307495117188 934.719421386719 944.219360351562 953.1982421875 952.262451171875 963.723693847656 973.165405273438 971.245239257812 982.015930175781 982.786254882812 996.554260253906 1008.95861816406 1027.23168945312 1031.26647949219 1041.23950195312 1045.05737304688 1050.4541015625 1049.25451660156 1052.33032226562 1064.95129394531 1077.05151367188 1076.77380371094 1086.49597167969 1097.51843261719 1102.3330078125 1108.06188964844 1111.61120605469 1114.78894042969 1123.35095214844 1123.94885253906 1126.61120605469 1111.38012695312
985.475158691406 985.162414550781 986.285888671875 978.358276367188 989.352355957031 986.18408203125 984.428588867188 985.076416015625 984.06640625 983.835815429688 980.591735839844 973.713195800781 972.726440429688 982.40576171875 985.194213867188 993.784301757812 991.080688476562 992.967712402344 995.829406738281 998.461791992188 995.701538085938 994.637939453125 995.817810058594 999.1328125 992.228820800781 997.224426269531 994.988159179688 999.921203613281 1008.61138916016 1009.11444091797 1011.82019042969 1023.6181640625 1015.01525878906 1034.39831542969 1044.13586425781 1037.15808105469 1030.05029296875 1038.623046875 1036.47424316406 1036.54467773438 1032.83264160156 1040.04577636719 1034.91979980469 1035.5830078125 1028.080078125 1027.32080078125 1020.29638671875 1021.53491210938 1019.74786376953 1010.03894042969 1004.88879394531 998.665100097656 1007.20660400391 1003.40979003906 1009.64276123047 1010.15856933594 1015.06964111328 1018.04327392578 1018.87231445312 1026.03759765625 1015.34191894531 1015.30541992188 1019.11242675781 1011.99536132812 1009.09808349609 1006.43249511719 1006.76379394531 1001.62152099609 1000.72955322266 991.090515136719 992.572692871094 993.348571777344 1012.25463867188 1021.66815185547 1029.22912597656 1031.82690429688 1029.99426269531 1026.15148925781 1026.4091796875 1029.89001464844 1024.20947265625 1020.40612792969 1018.28216552734 1002.09387207031 997.701904296875 997.770446777344 989.236450195312 981.610107421875 968.417236328125 957.870666503906 933.208984375 935.93701171875 933.340393066406 933.54296875 944.721313476562 948.412048339844 950.245544433594 949.673278808594 954.365844726562 948.447021484375 961.271240234375 961.092468261719 954.228393554688 953.979553222656 964.434143066406 953.336181640625 959.390686035156 962.219360351562 964.798156738281 956.465637207031 951.139831542969 940.131225585938 936.568664550781 934.710144042969 931.821044921875 922.78515625 917.668884277344 915.150512695312 930.30126953125 940.797302246094 953.112731933594 960.815185546875 955.188354492188 963.454284667969 974.001586914062 972.257995605469 993.238464355469 999.431823730469 1005.00366210938 1009.49969482422 1015.92657470703 1029.7666015625 1039.53247070312 1051.96118164062 1049.30493164062 1045.35900878906 1053.29382324219 1057.0751953125 1067.78503417969 1078.23205566406 1089.3125 1087.74682617188 1099.7626953125 1100.29089355469 1105.72729492188 1102.82897949219 1110.29626464844 1125.66088867188 1120.54309082031 1115.34558105469
974.870544433594 980.743896484375 986.979064941406 979.362670898438 983.214660644531 982.807067871094 980.863708496094 985.577880859375 979.696105957031 980.614562988281 976.032287597656 976.760009765625 970.530517578125 973.269104003906 977.583068847656 986.491516113281 988.776733398438 984.458618164062 992.486450195312 987.286193847656 987.109069824219 989.035705566406 994.390441894531 992.40185546875 996.428283691406 1000.27001953125 997.008605957031 1003.21942138672 1002.72454833984 1008.79705810547 1016.92919921875 1018.33660888672 1019.32183837891 1030.45739746094 1036.75744628906 1035.72534179688 1037.05004882812 1037.15014648438 1043.17993164062 1036.03686523438 1030.00805664062 1044.13562011719 1035.03234863281 1040.98352050781 1048.19348144531 1038.43994140625 1021.22442626953 1014.52154541016 1015.64599609375 1005.697265625 1006.78680419922 1004.91754150391 999.674865722656 1001.30609130859 1003.70532226562 1008.78778076172 1006.83123779297 1015.42224121094 1028.38146972656 1028.55944824219 1028.16882324219 1029.861328125 1034.37438964844 1021.31396484375 1017.88677978516 1011.06243896484 1015.42449951172 1013.87329101562 1005.87420654297 995.97998046875 992.558776855469 997.601318359375 1011.71057128906 1020.88873291016 1030.61181640625 1032.32348632812 1042.43041992188 1035.27722167969 1037.99291992188 1037.41833496094 1023.58117675781 1024.33740234375 1015.12774658203 1016.76135253906 1011.85052490234 995.874450683594 991.255859375 979.573852539062 975.98486328125 954.896850585938 945.862915039062 945.320068359375 941.016052246094 949.308166503906 949.105224609375 952.287414550781 950.0224609375 964.830505371094 962.928466796875 975.646057128906 967.552185058594 960.820068359375 962.593505859375 962.696838378906 963.401428222656 970.013305664062 966.767395019531 973.806335449219 973.092163085938 977.035827636719 961.885925292969 949.060363769531 947.348876953125 933.835754394531 932.672180175781 928.505981445312 916.416748046875 923.638061523438 943.053466796875 944.958557128906 956.192932128906 959.141906738281 961.832214355469 969.18115234375 981.488586425781 993.082946777344 997.616943359375 1007.77606201172 1015.12133789062 1017.21441650391 1024.93212890625 1033.30615234375 1035.34545898438 1044.93347167969 1047.28332519531 1039.17333984375 1046.23059082031 1055.708984375 1070.77770996094 1082.072265625 1085.81958007812 1093.97021484375 1098.68469238281 1098.96887207031 1104.85144042969 1102.72839355469 1108.89318847656 1115.1669921875 1118.04846191406 1112.98034667969
972.841003417969 973.181884765625 982.793579101562 978.362182617188 979.711364746094 991.84619140625 988.453674316406 982.61279296875 983.34228515625 978.563171386719 979.554626464844 976.576049804688 963.1376953125 966.217651367188 964.174621582031 974.101867675781 985.47509765625 977.126708984375 982.124206542969 981.554931640625 978.818908691406 983.290588378906 991.022521972656 992.489074707031 1003.21545410156 994.553039550781 1000.47723388672 1001.83483886719 1003.28497314453 1010.53601074219 1019.92492675781 1029.23291015625 1020.76763916016 1032.72241210938 1036.36572265625 1033.86010742188 1030.65966796875 1033.99780273438 1041.99536132812 1035.9150390625 1038.00427246094 1042.60961914062 1044.76611328125 1037.23889160156 1038.22204589844 1035.27709960938 1018.61199951172 1020.00714111328 1022.25164794922 1022.30883789062 1022.15447998047 1010.31903076172 1008.26318359375 1007.13775634766 1001.48883056641 1008.84411621094 1006.86303710938 1014.99926757812 1018.75396728516 1019.57482910156 1029.24340820312 1035.07409667969 1031.083984375 1027.505859375 1022.48999023438 1022.48706054688 1020.28692626953 1012.73883056641 1010.21026611328 1004.86645507812 1005.84600830078 1004.49951171875 1017.87841796875 1015.58685302734 1031.69104003906 1033.62097167969 1040.70300292969 1040.32958984375 1038.72326660156 1047.79357910156 1039.58361816406 1033.79321289062 1028.84887695312 1029.63232421875 1022.26440429688 1011.84661865234 998.503723144531 991.216552734375 976.251892089844 968.381164550781 953.560791015625 950.113952636719 953.36083984375 963.164611816406 955.547058105469 961.576477050781 958.666625976562 966.455749511719 973.133544921875 977.558166503906 970.049133300781 974.353149414062 968.962951660156 968.331420898438 963.522338867188 977.898864746094 981.815368652344 981.5078125 979.531066894531 978.42333984375 967.271362304688 953.522521972656 945.281555175781 940.429443359375 928.918579101562 927.063354492188 928.683776855469 931.133728027344 942.749633789062 948.811889648438 955.880310058594 953.343505859375 960.995422363281 980.883911132812 993.653564453125 1001.63189697266 1018.29699707031 1025.42041015625 1017.11651611328 1019.89520263672 1030.43591308594 1037.02307128906 1033.7333984375 1040.73803710938 1048.71130371094 1046.41931152344 1049.73352050781 1059.35144042969 1075.70532226562 1078.08618164062 1087.50244140625 1091.46936035156 1095.98449707031 1110.88293457031 1108.92456054688 1108.69970703125 1115.06420898438 1115.78039550781 1114.51538085938 1107.4892578125
973.260192871094 980.4599609375 975.492370605469 973.349975585938 981.647399902344 991.37548828125 981.234191894531 988.316101074219 987.037414550781 981.241638183594 974.890869140625 973.206909179688 959.339233398438 961.254821777344 963.867797851562 967.315734863281 977.715026855469 977.447448730469 976.011840820312 979.130126953125 976.995788574219 981.459899902344 986.237487792969 992.644653320312 995.611572265625 1002.26135253906 1004.65344238281 1015.30480957031 1019.19958496094 1017.39825439453 1020.62982177734 1022.9287109375 1029.84741210938 1027.64599609375 1022.71362304688 1021.75903320312 1023.31085205078 1035.72241210938 1036.79858398438 1043.71520996094 1044.17016601562 1049.99597167969 1049.70520019531 1042.76818847656 1034.83715820312 1034.55847167969 1027.876953125 1025.67553710938 1018.87176513672 1016.3984375 1008.88616943359 1009.42803955078 1008.49597167969 1009.37438964844 1012.37921142578 1005.86206054688 1011.49310302734 1013.8125 1014.17248535156 1014.35369873047 1020.82684326172 1027.47094726562 1029.93078613281 1030.95031738281 1023.31268310547 1025.95654296875 1026.81774902344 1027.55847167969 1022.26025390625 1016.30792236328 1012.63665771484 1005.58898925781 1018.21038818359 1020.57916259766 1021.95770263672 1030.8291015625 1041.49072265625 1047.41772460938 1038.7197265625 1040.62951660156 1039.43469238281 1035.90283203125 1017.85217285156 1027.44836425781 1021.71142578125 1021.35815429688 1003.08471679688 991.404418945312 977.829223632812 967.52783203125 973.372619628906 971.271362304688 960.962890625 977.117431640625 981.973449707031 975.045166015625 971.235595703125 973.074279785156 974.338317871094 983.980041503906 977.961975097656 976.226318359375 986.942993164062 981.966918945312 980.66650390625 983.956970214844 981.796875 985.541748046875 989.238830566406 984.395385742188 973.108764648438 959.604675292969 951.218200683594 948.542785644531 932.373229980469 929.494018554688 928.236267089844 933.153198242188 942.682922363281 947.767028808594 956.622131347656 952.555786132812 960.481201171875 981.5078125 994.950256347656 1009.93414306641 1023.46820068359 1027.35205078125 1027.02819824219 1030.02001953125 1030.234375 1034.53039550781 1039.90258789062 1040.82250976562 1053.71984863281 1048.52600097656 1066.36267089844 1059.09094238281 1074.21130371094 1081.81005859375 1085.02185058594 1090.92626953125 1091.99951171875 1105.00610351562 1116.27624511719 1114.93444824219 1118.58239746094 1115.23852539062 1111.40258789062 1106.12902832031
980.318908691406 979.233337402344 976.600341796875 977.016357421875 980.747436523438 986.121826171875 984.645935058594 984.619201660156 984.887023925781 983.969848632812 977.640319824219 966.507446289062 962.68212890625 964.360473632812 962.723999023438 966.898498535156 975.111022949219 972.18212890625 978.607421875 972.719482421875 976.869140625 980.610778808594 983.806579589844 986.259399414062 988.923645019531 1003.27575683594 1012.68548583984 1023.86682128906 1021.97546386719 1025.30212402344 1028.03186035156 1026.10510253906 1021.25653076172 1021.80902099609 1022.13226318359 1015.56842041016 1014.77252197266 1010.57958984375 1023.47723388672 1028.72253417969 1038.95788574219 1039.29565429688 1046.42077636719 1035.60412597656 1036.52478027344 1029.12182617188 1023.53155517578 1029.40478515625 1011.18664550781 1012.6982421875 1005.00964355469 1009.74243164062 1005.84143066406 1011.16351318359 1013.37390136719 1017.42279052734 1022.31201171875 1013.68951416016 1010.60424804688 1007.77661132812 1014.36114501953 1022.08850097656 1025.1689453125 1032.67028808594 1026.60522460938 1024.19287109375 1030.69091796875 1029.39172363281 1019.65185546875 1016.53381347656 1015.96258544922 1023.49035644531 1028.28955078125 1021.00604248047 1018.35302734375 1028.00805664062 1035.62194824219 1032.2802734375 1038.27221679688 1029.23620605469 1037.26428222656 1031.10534667969 1025.23852539062 1020.21435546875 1026.34558105469 1015.68023681641 1011.46459960938 1002.10675048828 994.913024902344 988.657470703125 988.911437988281 984.276733398438 988.936584472656 992.147705078125 1001.1962890625 993.797241210938 990.969848632812 979.541198730469 982.381286621094 986.953430175781 983.646240234375 983.2392578125 990.5615234375 985.326782226562 989.179260253906 985.997863769531 980.773254394531 988.800048828125 989.439880371094 992.255920410156 988.351867675781 966.157897949219 951.787719726562 941.295349121094 936.119201660156 932.87353515625 931.377624511719 933.219970703125 950.633483886719 948.860107421875 951.647583007812 958.032409667969 963.692810058594 968.884155273438 990.950378417969 1004.90307617188 1020.97967529297 1027.13415527344 1032.36779785156 1036.20202636719 1036.55541992188 1034.78576660156 1033.66357421875 1046.62365722656 1046.61279296875 1054.18127441406 1051.64440917969 1060.1748046875 1066.91564941406 1076.89123535156 1087.89538574219 1081.8505859375 1087.8369140625 1095.13806152344 1099.39184570312 1109.56335449219 1110.22631835938 1102.31811523438 1098.80798339844 1095.29187011719
968.245239257812 976.752685546875 970.338256835938 968.936889648438 969.464782714844 975.69775390625 986.233215332031 986.49951171875 982.009643554688 972.875732421875 974.736511230469 965.981750488281 960.66650390625 960.902038574219 961.054138183594 963.197570800781 973.908386230469 966.903625488281 972.009216308594 969.147338867188 969.882263183594 980.409484863281 974.298645019531 984.542419433594 993.818481445312 999.026062011719 1008.65869140625 1015.66516113281 1022.20544433594 1014.49554443359 1024.79956054688 1015.0830078125 1019.07629394531 1017.00396728516 1022.53643798828 1015.73968505859 1016.42901611328 1007.26068115234 1014.73498535156 1023.69097900391 1032.8935546875 1039.99926757812 1043.70129394531 1038.06481933594 1041.22082519531 1033.44006347656 1024.43627929688 1014.03802490234 1016.59741210938 1006.61224365234 1006.52423095703 1014.80010986328 1006.03973388672 1003.53851318359 1015.29919433594 1017.40881347656 1024.81225585938 1017.36871337891 1015.53576660156 1014.06195068359 1012.11578369141 1020.92401123047 1033.48205566406 1034.74584960938 1025.4658203125 1027.16772460938 1033.27575683594 1031.98828125 1027.54248046875 1023.228515625 1031.71594238281 1023.57299804688 1025.79150390625 1027.25720214844 1022.79669189453 1031.19201660156 1029.20776367188 1024.68005371094 1026.11877441406 1026.12023925781 1027.37365722656 1026.72436523438 1012.45477294922 1019.39465332031 1021.00256347656 1021.49645996094 1008.8642578125 1000.04766845703 1000.19696044922 998.427734375 993.862548828125 1004.33715820312 1004.37731933594 1001.78204345703 1004.74969482422 1005.58392333984 1010.27026367188 1005.31433105469 998.34033203125 994.379699707031 994.570373535156 990.378112792969 992.701232910156 999.7646484375 998.790832519531 992.412170410156 994.435119628906 996.177185058594 993.19921875 991.314147949219 984.412231445312 957.036193847656 945.649108886719 945.907653808594 936.202392578125 932.491394042969 935.592895507812 935.668884277344 933.570678710938 939.826110839844 949.42626953125 970.949279785156 972.628479003906 982.880187988281 997.144470214844 1010.80865478516 1032.2705078125 1042.4658203125 1036.72216796875 1045.77355957031 1037.45422363281 1038.50207519531 1039.88439941406 1043.287109375 1050.90991210938 1051.90637207031 1056.23486328125 1062.08764648438 1059.96813964844 1081.10241699219 1086.01599121094 1082.82958984375 1080.99951171875 1090.31359863281 1095.83947753906 1101.88439941406 1109.75427246094 1099.21203613281 1096.24047851562 1099.90942382812
971.432006835938 970.343383789062 954.640686035156 956.956909179688 957.164306640625 963.896362304688 970.622619628906 979.672302246094 972.309692382812 967.401000976562 972.961669921875 965.61767578125 962.925964355469 963.666625976562 953.586547851562 965.382995605469 970.729736328125 968.774841308594 962.22607421875 971.788513183594 972.574645996094 977.737915039062 977.700073242188 979.969299316406 984.204833984375 997.291320800781 1009.51434326172 1011.08184814453 1013.70941162109 1018.75598144531 1020.11145019531 1020.24780273438 1019.55993652344 1011.30615234375 1012.37829589844 1014.61334228516 1013.08941650391 1013.96411132812 1006.65667724609 1016.36828613281 1018.95953369141 1020.95672607422 1029.2900390625 1033.43225097656 1031.31884765625 1022.43725585938 1016.46984863281 1012.50164794922 1012.30364990234 1000.85052490234 1004.15551757812 997.366760253906 1007.65362548828 1010.38531494141 1014.50140380859 1019.00323486328 1016.54663085938 1027.38403320312 1023.92260742188 1013.83081054688 1013.95861816406 1021.22106933594 1026.19836425781 1033.87109375 1019.28515625 1015.28094482422 1020.46838378906 1025.30346679688 1024.07250976562 1025.7431640625 1028.61279296875 1016.49774169922 1012.94293212891 1015.99853515625 1021.39715576172 1029.30407714844 1024.21142578125 1021.82946777344 1026.39807128906 1019.36120605469 1022.81970214844 1014.33850097656 1012.29522705078 1027.65161132812 1032.85607910156 1028.576171875 1018.79711914062 1013.0244140625 1009.470703125 1009.59655761719 1006.45520019531 1009.61169433594 1011.27423095703 1014.21563720703 1016.04815673828 1015.77642822266 1018.39239501953 1014.2451171875 1006.25726318359 1003.93646240234 1007.74108886719 993.889709472656 994.33251953125 1002.29736328125 1003.41986083984 1000.52691650391 981.175964355469 995.01318359375 992.425842285156 985.643310546875 968.654479980469 953.993530273438 950.091064453125 938.13916015625 933.914672851562 934.796203613281 939.943420410156 943.672790527344 940.660278320312 942.791015625 949.846313476562 972.009094238281 977.350036621094 993.321899414062 1011.16241455078 1021.37390136719 1035.97412109375 1043.73620605469 1034.52307128906 1042.89367675781 1042.435546875 1041.00207519531 1039.28625488281 1046.03198242188 1045.85681152344 1056.59436035156 1053.16088867188 1051.28198242188 1054.37280273438 1076.0146484375 1078.24633789062 1080.1435546875 1081.57568359375 1082.71057128906 1093.75183105469 1096.18884277344 1097.13037109375 1099.71716308594 1093.87280273438 1090.701171875
959.242919921875 962.471496582031 944.558715820312 949.398864746094 958.248779296875 966.001647949219 965.589782714844 959.777282714844 968.5302734375 969.811584472656 965.851623535156 966.025146484375 963.1201171875 962.115539550781 959.273986816406 959.013916015625 961.995239257812 966.480895996094 970.581420898438 971.825866699219 970.547119140625 980.031372070312 978.030578613281 973.662536621094 988.962036132812 996.858703613281 1006.11053466797 1011.55242919922 1011.07019042969 1013.13293457031 1024.78271484375 1012.80413818359 1009.74749755859 1011.65899658203 1013.16802978516 1017.07104492188 1010.05810546875 1022.02630615234 1019.08740234375 1006.55718994141 1004.94244384766 1007.85821533203 1026.16479492188 1027.39587402344 1021.87640380859 1005.89715576172 1008.44024658203 1008.32641601562 1002.19775390625 1000.94274902344 999.117736816406 1000.20062255859 997.798095703125 1000.36358642578 1005.52551269531 1010.41253662109 1015.85217285156 1018.02264404297 1012.44476318359 1022.99963378906 1019.97717285156 1016.44964599609 1012.89788818359 1015.98577880859 1027.11071777344 1004.88079833984 1018.71734619141 1021.47833251953 1024.93359375 1020.62829589844 1025.38586425781 1019.74639892578 1009.27856445312 1007.39636230469 1002.96276855469 1024.72351074219 1022.30474853516 1018.27850341797 1017.98681640625 1026.14440917969 1021.54364013672 1017.99053955078 1020.62463378906 1014.68395996094 1018.81799316406 1024.48315429688 1018.84643554688 1019.1123046875 1016.42059326172 1002.96276855469 1016.11145019531 1020.34741210938 1022.89599609375 1020.40625 1019.16052246094 1019.59924316406 1008.50347900391 1012.67504882812 1006.05529785156 1007.89807128906 1008.90228271484 1000.02166748047 999.103515625 995.486999511719 990.385131835938 993.18310546875 989.624328613281 992.360473632812 989.581604003906 976.697143554688 969.794311523438 954.520629882812 940.925537109375 934.885986328125 938.374633789062 935.300415039062 940.035949707031 946.707885742188 951.304138183594 955.766174316406 957.270202636719 972.851684570312 994.062622070312 1006.55895996094 1019.421875 1028.529296875 1035.66577148438 1049.07360839844 1043.37902832031 1028.94250488281 1033.63781738281 1043.88464355469 1047.09558105469 1045.23413085938 1056.10766601562 1050.02856445312 1048.47436523438 1057.40515136719 1062.00646972656 1073.94506835938 1084.09777832031 1077.05737304688 1083.69128417969 1083.24938964844 1093.42004394531 1094.38073730469 1095.69860839844 1108.66284179688 1110.45153808594 1103.45703125
952.786193847656 950.691528320312 939.434875488281 945.364624023438 953.034545898438 962.251159667969 958.787658691406 950.16748046875 956.096923828125 960.380615234375 961.5791015625 954.620971679688 965.280334472656 962.9892578125 964.214172363281 961.686279296875 950.875 957.66357421875 968.313415527344 965.048767089844 964.234558105469 978.977844238281 985.115234375 986.6044921875 986.64794921875 1004.79333496094 1001.99090576172 1009.69836425781 1006.62939453125 1000.41754150391 1008.91546630859 1004.97198486328 1009.40930175781 1002.8994140625 1016.322265625 1019.89642333984 1023.71942138672 1017.87786865234 1012.06396484375 1009.97082519531 1014.01049804688 1015.46520996094 1019.05780029297 1015.51745605469 999.485717773438 999.136047363281 996.329528808594 999.274230957031 997.773010253906 995.709350585938 993.928466796875 995.621154785156 994.875610351562 998.711791992188 992.498229980469 1005.6162109375 1010.06915283203 1009.54425048828 1008.35034179688 1016.64270019531 1025.22387695312 1019.3642578125 1008.84143066406 1012.33825683594 1020.54266357422 1013.62554931641 1013.57012939453 1014.45910644531 1008.93878173828 1020.9541015625 1020.44860839844 1020.03778076172 1008.85400390625 1000.33807373047 1005.5224609375 1015.80291748047 1018.19421386719 1014.70672607422 1007.59515380859 1009.69763183594 1016.77746582031 1018.38305664062 1015.58679199219 1006.34765625 1010.40838623047 1015.12463378906 1008.99383544922 1007.06451416016 1022.60125732422 1019.09539794922 1022.42553710938 1021.45135498047 1024.28515625 1027.41174316406 1030.12426757812 1023.57220458984 1023.89923095703 1024.96142578125 1011.50823974609 1005.07489013672 1006.10882568359 1008.44213867188 1001.16528320312 994.551879882812 991.920349121094 999.520751953125 993.535278320312 997.682678222656 989.836181640625 975.634094238281 971.524658203125 953.884399414062 946.203918457031 937.114501953125 939.688293457031 951.446899414062 952.384033203125 964.017395019531 958.839233398438 960.147766113281 966.842468261719 981.539123535156 991.135070800781 1007.51519775391 1023.13696289062 1024.16491699219 1037.75 1043.49743652344 1047.67126464844 1037.30517578125 1041.79577636719 1044.83154296875 1047.38891601562 1046.88708496094 1050.81225585938 1053.19714355469 1057.90795898438 1062.73876953125 1064.2392578125 1073.69958496094 1076.21545410156 1076.47009277344 1081.28527832031 1083.89343261719 1095.4326171875 1093.72326660156 1097.92602539062 1113.24597167969 1118.49621582031 1115.32702636719
941.043701171875 942.495910644531 931.971862792969 944.804931640625 949.886108398438 945.154541015625 948.628845214844 951.9228515625 955.729919433594 953.412719726562 955.331970214844 949.957763671875 958.968933105469 961.833984375 961.735229492188 956.825988769531 952.588745117188 954.487854003906 965.982788085938 959.748291015625 970.095825195312 982.868530273438 984.139221191406 997.927856445312 1000.02941894531 999.443725585938 1001.59069824219 1001.56127929688 997.867004394531 999.205749511719 1003.2216796875 1005.45532226562 1002.28326416016 1010.80017089844 1017.72778320312 1016.61206054688 1021.87524414062 1019.91137695312 1015.05462646484 1009.91662597656 1013.49041748047 1004.74151611328 1015.68609619141 1014.94659423828 1008.10168457031 999.090393066406 989.561218261719 990.270690917969 991.469055175781 991.099182128906 992.485290527344 999.201293945312 993.805358886719 999.415466308594 990.415710449219 1001.32312011719 1013.82678222656 1013.39080810547 1012.03314208984 1012.60961914062 1018.25299072266 1009.42156982422 1002.38726806641 1009.06329345703 1017.80023193359 1017.36572265625 1019.48608398438 1016.20812988281 1008.34063720703 1009.78723144531 1017.29895019531 1015.10052490234 1007.82934570312 1006.228515625 1003.22875976562 1002.94616699219 1000.61419677734 1003.49401855469 1004.27947998047 1012.97332763672 1011.93438720703 1008.73388671875 1012.10144042969 1006.21203613281 1011.93450927734 1011.36669921875 1012.24157714844 1013.82293701172 1014.20007324219 1022.26483154297 1012.37237548828 1015.57061767578 1020.99365234375 1028.99780273438 1026.75939941406 1020.63055419922 1023.35076904297 1027.10974121094 1019.92041015625 1008.72760009766 1009.77258300781 1005.96734619141 996.943786621094 1001.24780273438 998.768798828125 1002.35491943359 1001.98175048828 1004.70556640625 1003.98120117188 985.644226074219 971.972290039062 960.518493652344 963.194091796875 956.57861328125 950.677307128906 954.545104980469 953.935363769531 971.336791992188 961.421264648438 964.889526367188 984.675720214844 986.516235351562 1003.10040283203 1012.95086669922 1020.87200927734 1023.15264892578 1037.00537109375 1038.67077636719 1034.443359375 1036.11828613281 1041.36303710938 1047.8125 1051.06884765625 1053.27734375 1047.77307128906 1051.91491699219 1055.35400390625 1059.96826171875 1066.37731933594 1072.12768554688 1068.0302734375 1072.19641113281 1081.44714355469 1091.61975097656 1095.49890136719 1097.58642578125 1101.30883789062 1107.57531738281 1117.47326660156 1119.68664550781
953.476745605469 951.0205078125 941.30224609375 946.220520019531 943.579162597656 942.227966308594 942.849548339844 956.048889160156 956.941711425781 959.712341308594 963.92041015625 966.52880859375 976.748474121094 973.905883789062 971.623413085938 965.069763183594 963.405456542969 960.331420898438 970.653015136719 969.682373046875 978.113464355469 979.333557128906 991.263366699219 990.406494140625 999.033081054688 996.876037597656 996.902954101562 1000.13244628906 998.385314941406 994.137084960938 997.491027832031 998.885681152344 1003.71044921875 1004.18334960938 1014.10705566406 1019.05804443359 1023.99774169922 1018.919921875 1011.04119873047 1008.0654296875 1003.43444824219 997.97998046875 1006.49676513672 1005.91143798828 1002.79168701172 995.730773925781 985.882385253906 996.772827148438 995.881103515625 988.465393066406 987.802185058594 980.661987304688 999.186950683594 995.166870117188 994.116455078125 1002.82287597656 1000.99841308594 997.802917480469 1002.65264892578 1000.54779052734 1000.83636474609 1000.17376708984 1004.19366455078 1009.39056396484 1020.73876953125 1026.1005859375 1024.14636230469 1021.42352294922 1013.40844726562 1019.93359375 1009.59893798828 1013.76782226562 1018.72601318359 1020.29290771484 1011.60845947266 1000.2705078125 1001.17822265625 990.604797363281 1000.8955078125 1008.326171875 999.329345703125 1005.90808105469 1000.19122314453 996.559387207031 1009.79602050781 1017.40783691406 1014.78326416016 1008.69647216797 1020.23138427734 1021.76702880859 1015.85687255859 1019.13562011719 1026.35400390625 1029.82263183594 1032.99755859375 1023.58215332031 1026.88940429688 1025.35510253906 1022.71600341797 1009.37457275391 1008.26702880859 1006.71966552734 1001.86071777344 1004.28918457031 1007.69268798828 1011.37274169922 1009.77075195312 1001.65350341797 998.221313476562 989.718078613281 977.224060058594 960.487915039062 959.76806640625 956.556396484375 957.894287109375 963.117492675781 966.510131835938 973.412353515625 970.822204589844 983.218627929688 997.936889648438 1003.89453125 1014.57977294922 1020.81005859375 1026.4306640625 1034.80395507812 1040.15710449219 1041.17565917969 1036.197265625 1044.7607421875 1043.5595703125 1041.45703125 1051.40502929688 1059.20056152344 1044.61706542969 1054.71520996094 1059.59240722656 1058.64465332031 1059.80322265625 1069.16955566406 1070.45092773438 1075.337890625 1090.73461914062 1098.98876953125 1103.35375976562 1105.32775878906 1108.98034667969 1112.2353515625 1114.48022460938 1110.88635253906
951.237548828125 955.263977050781 947.241027832031 942.680847167969 941.402709960938 949.542236328125 948.19482421875 951.513793945312 959.348876953125 962.573974609375 970.907592773438 971.204406738281 973.8505859375 975.723937988281 990.036010742188 970.963195800781 965.292724609375 966.298522949219 961.115417480469 975.399536132812 986.367858886719 976.418273925781 993.927856445312 989.145385742188 995.032531738281 989.337829589844 995.244934082031 983.331115722656 992.832458496094 987.867980957031 988.647888183594 993.907592773438 1004.83526611328 1004.24572753906 1008.90563964844 1018.33843994141 1018.01812744141 1010.47430419922 1008.10235595703 1001.1591796875 1000.64428710938 1000.91290283203 994.844665527344 1006.71301269531 999.886901855469 999.637390136719 994.421081542969 994.019287109375 993.237426757812 996.812927246094 993.687683105469 992.51416015625 988.808776855469 996.558227539062 986.634765625 998.421142578125 999.575622558594 997.949340820312 989.962036132812 995.947326660156 994.262939453125 992.437072753906 1004.86657714844 1007.69152832031 1015.61651611328 1020.10882568359 1016.15209960938 1013.91845703125 1014.47576904297 1013.22467041016 1019.09759521484 1022.21856689453 1014.37701416016 1017.22015380859 1014.00866699219 1002.40075683594 1001.83416748047 995.009094238281 1001.18859863281 1000.65289306641 1007.81475830078 1004.80633544922 1004.25885009766 992.662780761719 1006.31994628906 1010.17749023438 1009.77435302734 1010.96466064453 1015.79107666016 1017.25347900391 1020.21246337891 1027.24145507812 1020.67736816406 1020.94390869141 1021.11346435547 1023.20373535156 1024.40905761719 1020.25622558594 1012.81079101562 1009.14721679688 1003.82232666016 999.231994628906 1004.54742431641 1001.91143798828 1008.86041259766 1013.8583984375 1008.970703125 1009.45349121094 999.578430175781 993.807312011719 977.170715332031 965.184448242188 957.808410644531 952.675476074219 948.177734375 958.466857910156 959.126159667969 970.908752441406 979.337036132812 983.703063964844 998.14697265625 1010.35443115234 1020.43469238281 1028.93615722656 1037.71496582031 1038.68981933594 1042.859375 1047.14685058594 1032.97900390625 1041.25830078125 1045.02807617188 1047.58703613281 1051.7744140625 1049.31689453125 1056.37426757812 1052.55883789062 1061.3193359375 1056.46520996094 1055.43334960938 1064.29223632812 1073.35119628906 1076.95886230469 1079.00610351562 1091.73901367188 1097.03454589844 1100.20227050781 1101.94519042969 1103.80444335938 1108.50952148438 1110.09399414062
940.946411132812 948.55810546875 958.961181640625 957.340881347656 958.376953125 954.291076660156 953.199829101562 960.247802734375 960.973876953125 969.116149902344 966.734802246094 967.233093261719 972.142883300781 979.725280761719 981.526977539062 976.163330078125 963.748046875 963.844299316406 976.756958007812 978.797790527344 975.283630371094 978.672180175781 983.775451660156 988.596435546875 992.87109375 998.474182128906 991.529724121094 990.402282714844 997.301452636719 988.417907714844 999.379760742188 995.143737792969 1007.61853027344 1010.36737060547 1001.5380859375 1011.14630126953 1010.48724365234 1014.63659667969 1004.56140136719 1000.91644287109 993.993957519531 992.598205566406 988.171936035156 999.477478027344 1004.60015869141 994.970458984375 998.828552246094 984.254516601562 982.841125488281 988.393493652344 991.628845214844 987.584655761719 990.661376953125 988.610656738281 994.971801757812 993.549194335938 1000.04693603516 997.317016601562 985.21240234375 986.769775390625 993.91552734375 1001.69659423828 999.808166503906 1010.84527587891 1008.54248046875 1010.19360351562 1000.89709472656 1016.71966552734 1008.90869140625 1008.93365478516 1021.65893554688 1017.40753173828 1016.95886230469 1009.37817382812 1005.71362304688 1000.12896728516 990.316955566406 998.380859375 1004.68450927734 998.356750488281 1002.52703857422 999.569274902344 1003.52227783203 997.3427734375 1005.39868164062 1012.85461425781 1013.67834472656 1010.60400390625 1015.9970703125 1015.05291748047 1023.28497314453 1022.49957275391 1023.53692626953 1028.00244140625 1020.66442871094 1019.2939453125 1020.29748535156 1014.30108642578 1016.16662597656 1000.08666992188 1007.47210693359 1008.33349609375 1011.65032958984 1006.76141357422 1004.56433105469 1006.06970214844 1008.81964111328 997.877319335938 998.475219726562 989.301696777344 979.00830078125 971.355712890625 950.16650390625 946.963745117188 948.603332519531 950.000671386719 953.770080566406 962.796447753906 978.055786132812 984.189392089844 987.343688964844 1009.93615722656 1012.37261962891 1021.94512939453 1030.12854003906 1038.27648925781 1044.62707519531 1044.34130859375 1044.93725585938 1043.01684570312 1049.82019042969 1048.81066894531 1053.88586425781 1047.99072265625 1045.24340820312 1050.19482421875 1049.70166015625 1054.04382324219 1061.17810058594 1063.17248535156 1075.14465332031 1076.00244140625 1081.67749023438 1093.70288085938 1093.09155273438 1107.14855957031 1103.19213867188 1105.65991210938 1100.87084960938 1102.07348632812
946.509216308594 956.203186035156 971.833129882812 963.4296875 962.622314453125 956.970397949219 957.814697265625 959.708557128906 963.627746582031 970.452087402344 969.930969238281 970.287902832031 973.200927734375 970.8603515625 976.303283691406 971.843627929688 972.194641113281 975.943298339844 970.145568847656 975.042724609375 972.167541503906 980.604675292969 987.23046875 987.781799316406 987.965637207031 989.203369140625 984.268005371094 985.969116210938 986.484497070312 987.257751464844 988.39404296875 997.210510253906 995.939453125 997.781677246094 989.932250976562 1002.36450195312 1003.94372558594 1000.95159912109 1008.80706787109 1003.56262207031 985.191040039062 989.072937011719 994.618103027344 992.450439453125 1001.23754882812 996.914916992188 996.509948730469 989.029602050781 986.786560058594 984.330200195312 984.763305664062 978.530578613281 976.2431640625 975.245056152344 979.690124511719 999.460266113281 996.152038574219 991.58349609375 984.487609863281 986.157836914062 991.268737792969 987.583374023438 996.816711425781 1005.24639892578 1004.82946777344 1007.14471435547 1010.32403564453 1016.12945556641 1015.17095947266 1015.06848144531 1020.55511474609 1014.86273193359 1007.12091064453 1002.03619384766 1003.26031494141 999.453125 997.122802734375 992.637329101562 1001.64172363281 987.4580078125 989.717834472656 1000.13989257812 1003.03576660156 999.997192382812 1006.77941894531 1004.55450439453 999.336364746094 1013.42926025391 1021.92047119141 1021.91455078125 1023.88958740234 1034.22033691406 1026.23742675781 1023.0263671875 1017.09320068359 1013.80731201172 1013.04016113281 1011.82397460938 1012.27099609375 1003.73358154297 1003.7236328125 1015.78643798828 1007.90313720703 1014.55645751953 1008.80444335938 1008.45758056641 1001.38269042969 996.524658203125 990.752502441406 984.776184082031 971.47900390625 961.313415527344 944.975341796875 946.36376953125 945.593872070312 950.710388183594 959.196716308594 965.084106445312 961.100708007812 974.407531738281 993.199768066406 993.665893554688 1008.49444580078 1017.97875976562 1023.92224121094 1027.47326660156 1024.72790527344 1041.63293457031 1042.94140625 1041.45349121094 1050.38073730469 1043.99719238281 1041.8564453125 1040.82006835938 1039.4658203125 1032.79125976562 1037.39440917969 1049.83227539062 1050.39624023438 1066.98413085938 1072.49987792969 1078.43017578125 1085.53930664062 1090.63647460938 1095.29467773438 1096.0771484375 1099.57006835938 1100.51318359375 1097.77465820312 1108.66174316406
957.463928222656 961.921936035156 966.666320800781 971.465454101562 970.609680175781 966.576293945312 961.22119140625 949.079406738281 970.779907226562 974.856201171875 976.327453613281 973.5341796875 977.947692871094 974.958862304688 973.51806640625 972.529602050781 974.728820800781 964.65869140625 969.413330078125 969.893188476562 982.186340332031 980.546569824219 983.137084960938 988.7978515625 989.067138671875 985.642395019531 988.664672851562 992.007080078125 987.221740722656 984.038452148438 988.011840820312 984.425903320312 997.135314941406 998.15673828125 995.751342773438 997.453125 995.096313476562 1003.05090332031 1000.15191650391 1002.55902099609 989.822814941406 992.121032714844 988.477905273438 985.700866699219 992.013977050781 994.803588867188 993.042785644531 987.566711425781 994.369384765625 982.990539550781 974.97509765625 970.380615234375 968.282348632812 975.753845214844 984.19384765625 997.669799804688 995.194152832031 993.737426757812 986.531005859375 992.350341796875 985.210266113281 981.847595214844 989.944763183594 989.667297363281 1002.91656494141 1007.98425292969 1007.18048095703 1021.03399658203 1019.55999755859 1012.50665283203 1010.90930175781 1008.68304443359 1007.31774902344 997.4521484375 996.109680175781 991.786254882812 991.449645996094 991.606140136719 996.673278808594 991.566162109375 985.279052734375 989.960693359375 998.539794921875 1008.09234619141 1007.82745361328 1004.52252197266 1008.17932128906 1023.23889160156 1023.07891845703 1014.28625488281 1019.35363769531 1025.58435058594 1026.63354492188 1019.54095458984 1009.33154296875 1005.73114013672 1014.45227050781 1007.01873779297 1001.36724853516 1004.87481689453 1001.36810302734 1004.35943603516 1009.49835205078 1008.98559570312 1009.07916259766 1006.21990966797 1006.89263916016 989.051208496094 983.822692871094 978.166809082031 965.458679199219 955.959716796875 942.160827636719 932.237365722656 938.006469726562 943.958312988281 953.063110351562 965.107055664062 963.332397460938 968.3818359375 984.738952636719 995.273315429688 994.924194335938 1013.14794921875 1019.63189697266 1018.70336914062 1024.45239257812 1031.96960449219 1046.84155273438 1047.88562011719 1037.21667480469 1038.29748535156 1031.923828125 1042.50903320312 1034.14453125 1028.9345703125 1033.6142578125 1041.03820800781 1055.34130859375 1059.00500488281 1065.60778808594 1068.20080566406 1081.24011230469 1085.33520507812 1086.48413085938 1093.818359375 1093.78881835938 1102.95324707031 1101.88195800781 1091.31787109375
962.222778320312 968.03076171875 967.028442382812 968.972534179688 972.615295410156 963.842224121094 950.98486328125 954.451843261719 966.248474121094 977.075073242188 985.557067871094 977.833374023438 982.246643066406 985.775756835938 974.328979492188 970.053100585938 973.517639160156 973.85107421875 979.561645507812 985.493530273438 985.707092285156 985.444946289062 986.236206054688 988.901062011719 985.141967773438 993.576538085938 991.863952636719 995.630065917969 989.375 980.740417480469 979.878112792969 985.900390625 990.970703125 995.165161132812 995.145568847656 1002.55456542969 995.875732421875 986.615295410156 990.928771972656 987.368774414062 980.304443359375 999.840087890625 995.380981445312 997.322814941406 997.732055664062 998.809265136719 991.358642578125 986.161560058594 982.107299804688 974.016845703125 966.810119628906 971.362854003906 978.965087890625 975.888671875 981.985778808594 991.80615234375 996.914855957031 991.714599609375 987.902526855469 979.09423828125 978.636596679688 982.47705078125 985.024230957031 988.994201660156 996.908264160156 1001.40594482422 1011.28363037109 1020.32153320312 1010.53143310547 1005.70721435547 1003.13781738281 1008.49005126953 998.740295410156 1003.34436035156 993.413269042969 986.701354980469 986.652648925781 979.122009277344 982.938598632812 977.792114257812 980.741760253906 985.298767089844 987.499938964844 1000.65802001953 1012.63885498047 1006.56811523438 1022.4658203125 1034.28698730469 1019.92742919922 1018.68182373047 1018.07769775391 1027.486328125 1024.404296875 1015.46911621094 1016.68438720703 1012.60656738281 998.3603515625 1004.978515625 994.422607421875 992.532470703125 994.397766113281 982.887939453125 1002.453125 1007.93414306641 1010.03802490234 1015.21313476562 1000.58801269531 990.856140136719 983.631652832031 970.867004394531 966.521484375 955.139221191406 943.229919433594 939.072204589844 935.252746582031 947.131530761719 948.485778808594 960.414916992188 967.755798339844 971.036193847656 977.90673828125 984.126525878906 996.586547851562 1010.65765380859 1021.15014648438 1018.26263427734 1023.75750732422 1030.78076171875 1031.72290039062 1032.22326660156 1031.76831054688 1023.52099609375 1027.96716308594 1024.35095214844 1028.57971191406 1026.90344238281 1032.68725585938 1036.88854980469 1044.88928222656 1060.05700683594 1056.86010742188 1063.08752441406 1078.271484375 1083.77868652344 1085.52001953125 1088.62048339844 1090.56359863281 1102.69567871094 1104.50537109375 1102.33654785156
951.491638183594 956.397644042969 962.396789550781 965.795532226562 962.719848632812 957.25537109375 965.716430664062 962.814880371094 965.958435058594 974.579223632812 976.485900878906 971.82568359375 981.010192871094 983.186401367188 975.783813476562 980.591491699219 977.860961914062 978.223388671875 980.630065917969 980.481323242188 982.868225097656 984.317016601562 984.244384765625 984.95849609375 991.689208984375 985.979431152344 996.473266601562 992.131713867188 984.267395019531 976.0029296875 984.065612792969 990.831359863281 988.787231445312 990.264404296875 997.132080078125 998.832763671875 991.249755859375 987.104553222656 981.798156738281 975.792419433594 988.0908203125 990.958984375 987.712646484375 988.652404785156 989.053894042969 994.045654296875 986.439819335938 989.776916503906 991.998168945312 985.190490722656 975.813720703125 971.437805175781 979.466125488281 984.467041015625 976.334411621094 986.820861816406 991.029296875 982.240417480469 984.443786621094 984.959411621094 981.0087890625 993.153564453125 990.939880371094 992.67041015625 998.722229003906 999.905334472656 1006.92907714844 1002.85504150391 998.454162597656 997.521667480469 995.707214355469 996.700256347656 990.507690429688 993.948791503906 992.558288574219 978.467163085938 982.345153808594 972.294372558594 976.717468261719 975.283325195312 983.728271484375 983.072631835938 988.744995117188 998.537902832031 1008.71551513672 1015.93670654297 1023.15777587891 1025.08654785156 1013.84844970703 1015.51092529297 1019.92425537109 1026.04553222656 1020.68719482422 1016.00689697266 1017.54095458984 1010.50335693359 1003.89672851562 996.583862304688 992.827880859375 987.461364746094 986.495056152344 988.867553710938 989.086669921875 1008.55694580078 1011.06768798828 1004.31469726562 1003.67474365234 986.611083984375 979.613708496094 979.064208984375 968.699584960938 955.517944335938 950.023986816406 943.267456054688 949.415710449219 954.71337890625 962.558959960938 966.957092285156 962.02587890625 972.919006347656 975.670104980469 982.65185546875 997.14208984375 1011.33502197266 1014.39404296875 1018.37847900391 1018.28308105469 1026.45703125 1037.84973144531 1038.65478515625 1029.4521484375 1018.04498291016 1023.51110839844 1016.31658935547 1020.97277832031 1026.53015136719 1038.10388183594 1044.01025390625 1045.28051757812 1050.77062988281 1048.8095703125 1068.54418945312 1083.20751953125 1086.01794433594 1087.25329589844 1083.47009277344 1094.158203125 1093.82531738281 1104.56665039062 1107.3095703125
957.519653320312 966.015441894531 967.344665527344 971.616394042969 970.87353515625 966.884216308594 961.330505371094 962.241455078125 971.306884765625 979.259582519531 978.482788085938 983.891540527344 985.484619140625 986.205871582031 974.195739746094 970.47705078125 976.545227050781 978.609985351562 984.234313964844 980.306457519531 985.479431152344 989.026672363281 982.658020019531 990.572387695312 994.691589355469 988.433532714844 989.131958007812 995.015197753906 988.419738769531 981.851379394531 987.706970214844 994.161315917969 989.397155761719 992.845458984375 990.249267578125 991.504516601562 991.030639648438 979.3212890625 972.596374511719 977.889038085938 980.849792480469 985.702514648438 991.436340332031 987.199584960938 981.585693359375 983.343078613281 988.867553710938 985.579772949219 991.043701171875 988.388122558594 983.964782714844 985.14453125 982.250610351562 976.262817382812 966.703125 978.412109375 984.274353027344 979.690551757812 978.7685546875 979.093139648438 984.533386230469 993.689147949219 988.470458984375 992.418212890625 998.658447265625 1003.50866699219 1001.50958251953 999.7822265625 995.53564453125 992.347534179688 990.520690917969 989.508544921875 1000.09533691406 993.458618164062 983.677307128906 969.5302734375 967.113830566406 968.309143066406 967.536804199219 973.168579101562 988.84033203125 977.78955078125 992.247314453125 999.255493164062 1001.10070800781 1014.68389892578 1015.95849609375 1023.16760253906 1020.42388916016 1013.09661865234 1013.33825683594 1015.22265625 1006.29681396484 1015.65063476562 1016.56591796875 1013.69061279297 1006.23388671875 999.844360351562 990.663024902344 984.453491210938 997.50146484375 1001.25048828125 1004.26940917969 1004.95782470703 1009.77264404297 1005.81359863281 1005.9736328125 996.511169433594 983.572875976562 984.474426269531 974.316162109375 973.163452148438 960.072082519531 946.943176269531 946.251892089844 964.8779296875 965.378662109375 958.708312988281 971.7861328125 977.24755859375 975.122314453125 986.939208984375 1004.42742919922 1014.64282226562 1010.74468994141 1014.32788085938 1022.42468261719 1028.90893554688 1033.03930664062 1034.12060546875 1027.0302734375 1024.0048828125 1022.27844238281 1015.59777832031 1016.37091064453 1025.74682617188 1032.92956542969 1039.79260253906 1041.89489746094 1048.14929199219 1057.44665527344 1075.29211425781 1085.59387207031 1088.96447753906 1090.30883789062 1088.53588867188 1092.55700683594 1091.798828125 1099.03881835938 1107.8330078125
960.874389648438 960.227966308594 963.20849609375 966.739074707031 982.14404296875 972.905822753906 966.338806152344 968.625793457031 975.435546875 985.1318359375 990.622253417969 987.622741699219 976.263916015625 976.322387695312 976.402465820312 970.620666503906 966.332214355469 978.662536621094 969.064514160156 977.524475097656 974.957824707031 987.3984375 980.3359375 990.782897949219 987.135986328125 985.207641601562 986.170654296875 1001.52508544922 988.015197753906 983.331909179688 978.7783203125 989.913330078125 997.88427734375 988.283935546875 987.448608398438 988.462097167969 987.997131347656 986.060546875 979.638122558594 983.725952148438 988.690856933594 997.364501953125 979.279602050781 983.864440917969 984.221862792969 982.431030273438 983.190185546875 986.94580078125 985.618347167969 983.374389648438 974.086791992188 978.188903808594 983.118835449219 978.206115722656 977.405212402344 980.605407714844 976.83447265625 974.428405761719 974.359375 977.414978027344 982.570739746094 982.174682617188 989.264709472656 996.079467773438 992.135009765625 998.006164550781 1000.13751220703 991.681640625 995.87646484375 990.087219238281 987.823669433594 992.661254882812 990.075805664062 982.140991210938 971.976684570312 962.204284667969 960.499694824219 956.516662597656 958.808898925781 966.1416015625 979.697021484375 987.984375 999.752502441406 1004.46118164062 1004.20068359375 1024.95581054688 1019.59820556641 1020.14807128906 1016.20111083984 1014.6728515625 1011.16387939453 1011.52972412109 1002.17517089844 1009.74749755859 1012.12103271484 998.627563476562 995.268981933594 997.422424316406 993.862121582031 995.001220703125 1004.38262939453 995.974853515625 998.73095703125 1006.91809082031 1013.80914306641 1004.97149658203 1003.81781005859 991.659545898438 984.89599609375 992.9619140625 984.222351074219 972.139709472656 960.38232421875 960.954772949219 954.888732910156 960.234558105469 961.789306640625 960.238342285156 969.536254882812 985.222595214844 982.681579589844 984.662963867188 995.301147460938 1007.16497802734 1015.6103515625 1011.58850097656 1013.61297607422 1025.76770019531 1025.86389160156 1017.99652099609 1017.9775390625 1016.99127197266 1018.20281982422 1018.75848388672 1018.63354492188 1031.51635742188 1027.52185058594 1036.09924316406 1039.01831054688 1053.78637695312 1071.42651367188 1091.66857910156 1094.21350097656 1098.25866699219 1093.26672363281 1093.78833007812 1090.92468261719 1091.52429199219 1097.09265136719 1104.59838867188
958.881408691406 965.308410644531 962.207580566406 965.277770996094 974.825317382812 976.041442871094 970.948425292969 969.56494140625 982.533569335938 981.848083496094 987.313171386719 990.916625976562 986.025451660156 974.973999023438 972.176635742188 974.589172363281 970.852294921875 975.59375 969.382019042969 968.164123535156 974.175537109375 979.833557128906 979.367736816406 984.291137695312 986.381469726562 986.969177246094 984.047058105469 992.162841796875 985.929809570312 980.2412109375 982.421142578125 993.721923828125 999.494750976562 986.356567382812 982.451599121094 990.892028808594 986.405090332031 971.220153808594 978.024780273438 982.272277832031 994.044372558594 996.82177734375 989.23974609375 987.540283203125 991.877685546875 981.518676757812 980.168029785156 982.224670410156 984.663879394531 984.273071289062 985.06298828125 979.418579101562 982.895141601562 985.375793457031 985.311340332031 986.30078125 976.223388671875 972.807312011719 976.972045898438 979.71044921875 984.317260742188 985.085876464844 984.224609375 991.341918945312 996.990600585938 997.072509765625 996.051513671875 995.0791015625 994.439819335938 995.28564453125 989.133972167969 980.218322753906 985.160827636719 979.598205566406 973.834899902344 961.90185546875 949.248046875 953.181030273438 951.144287109375 959.20361328125 974.749877929688 990.871826171875 999.617736816406 1005.57977294922 1010.27697753906 1016.39245605469 1023.53314208984 1021.63317871094 1020.22698974609 1010.615234375 1000.580078125 1009.48620605469 1006.97613525391 1002.28552246094 999.318237304688 1001.02307128906 1006.80444335938 990.355041503906 996.148742675781 1001.35052490234 1002.38122558594 999.563232421875 997.596496582031 1004.3310546875 999.864807128906 1004.74090576172 996.80126953125 997.119567871094 990.52978515625 993.809265136719 985.016723632812 971.990600585938 955.900634765625 963.104736328125 957.27587890625 968.91943359375 968.622863769531 977.196594238281 989.469665527344 988.10888671875 993.56494140625 988.094665527344 999.854431152344 1007.68817138672 1008.505859375 1015.97766113281 1019.19116210938 1017.09857177734 1025.11657714844 1013.21600341797 1013.46234130859 1012.64556884766 1016.87542724609 1019.955078125 1018.28930664062 1016.93041992188 1018.03167724609 1030.32263183594 1048.62512207031 1067.90600585938 1075.86071777344 1088.31176757812 1088.27026367188 1085.57043457031 1090.38684082031 1096.240234375 1094.34204101562 1095.99621582031 1096.34106445312 1102.4130859375
960.18408203125 963.408935546875 961.624877929688 963.320007324219 965.791748046875 971.115661621094 969.777465820312 966.255065917969 969.422058105469 976.074829101562 976.087341308594 986.322021484375 982.036010742188 983.120178222656 967.64453125 973.477416992188 975.510009765625 970.81640625 973.434387207031 975.027282714844 976.895629882812 983.612854003906 986.971984863281 999.05322265625 985.853942871094 984.468139648438 977.801208496094 982.448913574219 974.732666015625 977.272399902344 981.278747558594 987.308166503906 984.649108886719 982.601257324219 983.843627929688 986.059875488281 989.082824707031 970.350891113281 977.161315917969 978.876159667969 982.832092285156 988.637084960938 992.631042480469 991.756408691406 988.893188476562 975.885986328125 968.818969726562 967.088439941406 973.193603515625 981.167236328125 981.089782714844 976.669372558594 966.946716308594 975.845642089844 974.182678222656 974.026489257812 977.725708007812 969.793640136719 980.399780273438 982.656677246094 987.717590332031 986.0869140625 983.830810546875 989.706848144531 991.713928222656 992.027465820312 993.731079101562 986.771545410156 987.140808105469 996.016967773438 986.104553222656 977.509094238281 983.177307128906 982.117431640625 971.134704589844 961.461547851562 955.502075195312 956.287536621094 956.233825683594 966.528137207031 978.355285644531 993.368591308594 1004.33416748047 1003.69274902344 1004.5322265625 1006.89019775391 1007.33074951172 1015.86267089844 1015.95568847656 1018.62316894531 1004.87969970703 1020.66955566406 1013.50170898438 1008.38397216797 1000.84588623047 1004.94451904297 997.247985839844 988.516540527344 993.861938476562 997.634155273438 1000.71228027344 1000.41467285156 992.928039550781 993.922424316406 999.915283203125 991.179138183594 990.964660644531 994.945922851562 989.564819335938 992.13427734375 982.781494140625 972.978149414062 963.011291503906 960.223266601562 970.873229980469 967.39404296875 973.065307617188 985.756103515625 982.78173828125 991.86474609375 989.389587402344 981.16552734375 990.084777832031 1012.63006591797 1018.26251220703 1015.72485351562 1016.97491455078 1022.34118652344 1022.71130371094 1012.77410888672 1008.44232177734 1014.259765625 1013.57885742188 1023.05615234375 1016.00970458984 1024.46569824219 1037.21826171875 1037.41650390625 1057.87341308594 1068.53735351562 1077.9482421875 1083.89501953125 1075.27600097656 1080.59326171875 1082.71020507812 1099.51721191406 1100.43957519531 1093.93237304688 1106.00500488281 1113.94470214844
947.964782714844 960.28955078125 951.727600097656 958.453430175781 962.220703125 964.253295898438 962.559020996094 959.271301269531 966.867736816406 973.654357910156 972.413818359375 975.404479980469 977.677124023438 973.036071777344 966.94775390625 974.915832519531 974.986877441406 974.585876464844 978.553344726562 974.794494628906 976.665954589844 975.039306640625 977.457092285156 978.934936523438 984.372375488281 978.842590332031 972.460998535156 975.415954589844 972.842346191406 974.783752441406 977.844665527344 982.233581542969 976.299255371094 978.92333984375 974.372863769531 988.206115722656 983.776489257812 972.064514160156 978.754516601562 970.868408203125 983.589660644531 981.819396972656 985.980651855469 987.418640136719 987.76806640625 973.786376953125 963.218383789062 968.648376464844 972.071350097656 978.333312988281 984.582275390625 975.230773925781 973.696899414062 969.326110839844 971.77880859375 969.088928222656 969.483215332031 967.399658203125 966.903991699219 974.269958496094 981.660888671875 982.598510742188 988.344177246094 990.699890136719 986.519775390625 984.267883300781 982.656616210938 977.558959960938 972.533203125 981.761840820312 978.56787109375 982.099853515625 975.798828125 969.828674316406 970.943115234375 966.9951171875 961.651428222656 965.367431640625 965.813720703125 974.755920410156 971.934204101562 989.043395996094 995.612609863281 1002.91448974609 1003.80554199219 1003.36871337891 1008.68109130859 1012.98046875 1009.51544189453 1010.10992431641 1009.27941894531 1003.80053710938 1001.28192138672 1002.78198242188 1001.74822998047 995.593688964844 992.484985351562 992.727294921875 988.612426757812 989.771667480469 997.336242675781 994.102478027344 992.758605957031 986.998474121094 997.37109375 993.692260742188 992.298522949219 991.232482910156 991.657470703125 989.582153320312 988.580200195312 980.117736816406 982.423889160156 978.326049804688 968.796569824219 979.051818847656 980.083251953125 979.707214355469 985.5361328125 1002.14868164062 988.184204101562 990.564208984375 996.312805175781 1010.01702880859 1012.10229492188 1018.01727294922 1011.81298828125 1013.34936523438 1008.45751953125 1018.84716796875 1009.99298095703 1007.60076904297 1012.49871826172 1015.68536376953 1013.67272949219 1026.33898925781 1037.49072265625 1051.13745117188 1066.58972167969 1069.3818359375 1071.91723632812 1075.83544921875 1072.97863769531 1081.78881835938 1087.75817871094 1091.98156738281 1098.26257324219 1092.474609375 1107.68627929688 1114.77368164062
955.64697265625 954.640380859375 960.8564453125 966.05322265625 967.356811523438 970.356628417969 967.889953613281 969.027221679688 966.992370605469 969.025939941406 984.677368164062 976.743713378906 976.220581054688 970.926330566406 966.965148925781 965.27734375 977.560852050781 976.595581054688 974.545715332031 978.661804199219 984.787048339844 989.148010253906 989.515869140625 981.647155761719 977.455505371094 975.923889160156 984.381958007812 975.225158691406 965.990600585938 971.291870117188 971.684753417969 978.057067871094 976.087341308594 978.952453613281 975.969421386719 985.170166015625 979.614013671875 974.862731933594 980.051513671875 978.751098632812 974.809936523438 972.219543457031 969.6630859375 980.127990722656 985.365112304688 983.197570800781 972.913818359375 972.222900390625 977.678100585938 984.743957519531 989.000427246094 975.5478515625 980.284851074219 968.556091308594 972.212585449219 976.609130859375 966.018432617188 969.850708007812 968.816833496094 973.531005859375 981.458862304688 988.021728515625 991.92431640625 988.012390136719 990.523498535156 985.406005859375 976.267211914062 962.954895019531 962.889465332031 963.772216796875 977.190856933594 980.489440917969 972.623596191406 973.2705078125 975.467590332031 964.550048828125 958.447570800781 967.44384765625 964.176452636719 977.249694824219 988.801879882812 996.712585449219 1000.02142333984 1002.15277099609 999.827575683594 1000.87902832031 1009.21258544922 1013.02410888672 1010.34405517578 1011.91717529297 1010.68115234375 1008.96081542969 1004.30810546875 997.144958496094 999.680541992188 993.907409667969 979.939514160156 989.706176757812 988.401489257812 986.79931640625 986.099731445312 989.378601074219 989.715454101562 994.251586914062 992.116638183594 996.273864746094 994.341125488281 989.461547851562 988.036193847656 988.990173339844 987.939758300781 999.2919921875 990.893615722656 995.521667480469 992.374938964844 983.443054199219 983.012145996094 991.271850585938 994.497924804688 999.373840332031 993.5810546875 994.80615234375 996.402893066406 1007.73974609375 1005.64434814453 1014.80102539062 1016.12487792969 1015.76672363281 1004.35144042969 1007.42260742188 1002.7421875 1006.44561767578 1015.12512207031 1013.47692871094 1014.15289306641 1019.81579589844 1039.13024902344 1058.49987792969 1062.96728515625 1071.58984375 1075.58740234375 1076.2978515625 1080.29907226562 1085.88610839844 1092.69885253906 1102.75695800781 1102.5107421875 1101.14489746094 1112.29943847656 1117.69555664062
956.704162597656 954.308898925781 961.752807617188 967.158264160156 956.198181152344 963.314880371094 972.21875 979.732116699219 973.488098144531 976.867858886719 979.995971679688 979.80419921875 972.476379394531 967.374084472656 967.919921875 965.427673339844 978.113647460938 979.613525390625 974.262451171875 981.245910644531 992.672973632812 982.543334960938 982.370788574219 984.254089355469 973.575317382812 974.27587890625 978.052307128906 974.476928710938 976.987121582031 977.559814453125 974.147399902344 977.32080078125 979.662658691406 974.353515625 971.646057128906 973.828857421875 980.648803710938 981.027954101562 987.57470703125 979.330932617188 976.610656738281 967.8955078125 970.032287597656 975.798767089844 976.452697753906 985.569885253906 972.832397460938 970.914245605469 967.451904296875 976.550048828125 974.224365234375 976.706176757812 973.9111328125 977.044616699219 976.753051757812 978.809265136719 968.245849609375 973.902709960938 968.441345214844 968.11181640625 979.126770019531 988.23291015625 993.677612304688 986.155883789062 986.361022949219 978.721923828125 976.116577148438 961.711181640625 959.659423828125 964.851196289062 974.862243652344 971.617309570312 976.085693359375 968.863464355469 965.755615234375 964.249389648438 961.674438476562 967.076721191406 979.520446777344 989.969787597656 997.538269042969 991.30078125 996.783569335938 995.350769042969 996.792785644531 997.169555664062 1006.35491943359 1013.74725341797 1014.95147705078 1009.21398925781 1002.837890625 998.848266601562 995.885070800781 996.984252929688 996.758972167969 988.590270996094 984.669799804688 991.988220214844 993.359252929688 988.452697753906 990.92919921875 991.459350585938 992.167907714844 996.660278320312 988.417724609375 993.918029785156 997.257202148438 996.782165527344 997.178039550781 993.764282226562 993.596496582031 1003.14880371094 1001.84350585938 994.220581054688 995.145385742188 987.396301269531 989.416625976562 991.427429199219 1004.66595458984 998.185424804688 998.989440917969 993.301086425781 1001.55969238281 1011.39862060547 1012.09741210938 1017.04644775391 1010.74865722656 1006.33831787109 1001.99475097656 1009.68481445312 1014.19976806641 1011.34265136719 1022.34313964844 1020.45947265625 1020.13610839844 1028.14990234375 1049.44787597656 1062.46203613281 1065.19177246094 1068.04235839844 1073.59704589844 1076.25390625 1079.44287109375 1092.5087890625 1095.16223144531 1100.31860351562 1102.97338867188 1106.11926269531 1109.359375 1115.45129394531
950.779418945312 956.723693847656 964.735168457031 961.905883789062 959.083984375 969.1064453125 974.127990722656 969.076904296875 966.339233398438 975.431884765625 980.75732421875 971.609008789062 977.621887207031 975.136169433594 963.725524902344 968.604797363281 969.538635253906 978.408386230469 980.529174804688 981.230773925781 982.771789550781 981.495483398438 979.603942871094 978.644165039062 972.220397949219 964.996154785156 975.313415527344 978.085327148438 977.271240234375 982.986389160156 974.232360839844 979.589965820312 980.433410644531 995.119323730469 984.796020507812 975.735412597656 974.877258300781 983.497192382812 990.245666503906 971.424011230469 974.65283203125 975.91845703125 969.12744140625 970.861877441406 972.49169921875 981.654174804688 980.027893066406 971.71337890625 977.722290039062 974.800354003906 981.147033691406 972.880920410156 976.426025390625 979.326782226562 985.140075683594 979.030456542969 974.162841796875 971.686096191406 974.79150390625 974.668334960938 978.856628417969 987.020690917969 987.275756835938 986.767211914062 985.827514648438 982.1064453125 975.516296386719 959.271301269531 957.738647460938 962.623291015625 963.434204101562 973.652282714844 971.295837402344 976.028503417969 968.600769042969 962.728942871094 960.26318359375 966.040222167969 969.367492675781 980.895446777344 984.623657226562 998.369934082031 990.261108398438 993.092956542969 985.459594726562 989.308349609375 1004.83770751953 1010.89929199219 1003.23980712891 1001.09075927734 999.052734375 1000.47528076172 996.486450195312 993.856201171875 1002.42315673828 989.506225585938 992.738037109375 989.457092285156 984.552917480469 988.636535644531 984.198059082031 993.115661621094 989.492736816406 995.723022460938 988.679077148438 990.646057128906 984.599975585938 994.04248046875 981.307983398438 988.063598632812 996.213134765625 1003.35040283203 1002.68591308594 1001.18176269531 1000.11236572266 991.34619140625 999.537414550781 1001.23101806641 1003.07904052734 995.488037109375 1002.19519042969 999.917236328125 996.717224121094 1011.07159423828 1012.2119140625 1024.54797363281 1005.91766357422 1003.01678466797 1006.54028320312 1013.04016113281 1019.50207519531 1019.35260009766 1015.95220947266 1020.78875732422 1030.30004882812 1046.83996582031 1050.23913574219 1060.39233398438 1064.04907226562 1062.17895507812 1080.32568359375 1084.09228515625 1090.3642578125 1094.32580566406 1097.93322753906 1095.82214355469 1096.12463378906 1105.33728027344 1106.41101074219 1114.60388183594
946.556518554688 962.675659179688 957.366333007812 963.719055175781 960.999572753906 972.101440429688 972.654357910156 972.887573242188 962.3388671875 970.081176757812 976.289794921875 973.039001464844 971.856567382812 975.457336425781 966.382446289062 978.439575195312 977.966247558594 969.984130859375 977.385192871094 982.539978027344 983.209106445312 983.175842285156 979.419738769531 981.111999511719 968.848388671875 965.824462890625 974.177795410156 974.041198730469 973.589538574219 976.932006835938 970.618713378906 981.688232421875 986.081237792969 993.425903320312 988.530456542969 980.226135253906 983.495544433594 984.459289550781 992.427490234375 976.8779296875 970.021423339844 973.086608886719 971.583740234375 976.013122558594 977.489318847656 967.698547363281 971.499755859375 966.964660644531 972.288269042969 981.590515136719 977.5107421875 966.226684570312 969.563842773438 968.052551269531 979.1005859375 983.279357910156 978.299560546875 979.767517089844 978.170593261719 974.307067871094 976.313659667969 987.181274414062 979.967102050781 974.013977050781 981.330261230469 979.010375976562 974.39697265625 962.946716308594 958.838500976562 956.783752441406 956.1845703125 968.090698242188 964.321960449219 962.02978515625 959.910705566406 961.478454589844 960.281433105469 964.046325683594 969.081298828125 975.063415527344 991.639892578125 991.563232421875 994.547180175781 991.835754394531 982.452270507812 985.508605957031 992.372314453125 1002.18896484375 999.292602539062 999.581604003906 994.750610351562 994.334838867188 994.894470214844 998.798767089844 995.841247558594 990.461303710938 987.401611328125 978.1845703125 984.423583984375 981.133239746094 982.37890625 983.053405761719 983.7919921875 987.79150390625 984.767517089844 988.143005371094 986.12744140625 982.477478027344 982.921020507812 990.097961425781 995.190246582031 994.520263671875 1003.91906738281 1002.20428466797 1002.03271484375 994.345947265625 990.563110351562 989.082641601562 1002.18957519531 1001.02465820312 1003.35858154297 1004.91857910156 1007.41534423828 998.843444824219 1005.70770263672 1005.87591552734 1001.89575195312 1004.68872070312 1013.46600341797 1023.05023193359 1024.525390625 1020.43017578125 1015.37957763672 1026.74963378906 1035.26159667969 1044.28247070312 1046.56384277344 1062.12219238281 1066.13366699219 1069.52270507812 1079.26440429688 1084.82263183594 1100.56298828125 1103.23022460938 1103.53869628906 1096.66027832031 1091.51574707031 1096.37329101562 1106.45947265625 1107.22290039062
942.54638671875 948.452941894531 949.168090820312 953.526428222656 958.958374023438 972.36962890625 969.114135742188 970.441589355469 966.026062011719 960.410095214844 957.675354003906 969.990173339844 972.354370117188 977.343688964844 981.365600585938 980.81005859375 977.679626464844 976.162719726562 976.900268554688 973.058898925781 981.934875488281 982.419067382812 988.828369140625 985.481201171875 981.771789550781 976.010620117188 970.325744628906 969.268920898438 976.841796875 982.744201660156 976.667663574219 978.09765625 977.204956054688 984.723999023438 985.590454101562 971.310302734375 976.967346191406 973.641845703125 979.8720703125 975.497924804688 972.855224609375 972.261352539062 971.720031738281 981.172790527344 971.682739257812 965.208984375 969.601623535156 969.859558105469 975.544677734375 972.519775390625 978.41357421875 974.979614257812 966.295959472656 967.007080078125 971.613159179688 974.297180175781 974.695739746094 978.642028808594 975.736450195312 975.279907226562 986.734497070312 991.191040039062 983.549133300781 972.824951171875 968.519409179688 971.892272949219 970.730834960938 966.786499023438 962.99658203125 955.383056640625 955.126586914062 965.858581542969 964.732055664062 959.703063964844 956.764953613281 958.255615234375 968.849487304688 970.397521972656 980.170288085938 970.906311035156 985.862060546875 993.690734863281 990.221740722656 984.85302734375 979.292297363281 981.424377441406 992.453491210938 998.149536132812 995.472045898438 992.291381835938 992.743591308594 998.391174316406 995.90771484375 997.723449707031 998.861206054688 989.387634277344 981.0732421875 980.247924804688 985.26123046875 981.158630371094 975.540710449219 980.481262207031 975.187805175781 974.485290527344 981.804382324219 984.635070800781 987.798583984375 979.619323730469 988.112915039062 990.354064941406 995.3310546875 993.4609375 993.113952636719 1002.08203125 1001.41632080078 994.140686035156 995.531372070312 992.395874023438 993.422119140625 997.647155761719 998.490112304688 998.949096679688 1002.69219970703 1004.427734375 994.760375976562 995.586303710938 1002.82305908203 1005.21203613281 1022.28381347656 1019.90051269531 1023.50738525391 1025.96020507812 1027.00170898438 1027.07751464844 1029.953125 1039.5888671875 1052.11840820312 1055.77758789062 1074.24536132812 1073.07568359375 1089.27795410156 1097.83361816406 1114.19177246094 1110.8818359375 1105.31604003906 1103.9267578125 1108.32958984375 1102.6357421875 1108.37475585938 1108.93383789062
950.990234375 957.663452148438 949.287963867188 947.005065917969 957.65966796875 970.2685546875 963.7490234375 967.946716308594 964.611083984375 963.090881347656 960.210632324219 967.815246582031 970.958679199219 970.906372070312 980.664733886719 983.669067382812 976.93408203125 979.866149902344 976.630798339844 969.877197265625 980.200317382812 976.255065917969 974.158447265625 979.469787597656 968.333129882812 968.132385253906 961.513427734375 967.268493652344 972.674133300781 977.603271484375 978.970275878906 979.546997070312 974.51220703125 983.6884765625 976.583374023438 974.052917480469 969.628295898438 978.555541992188 977.871459960938 975.742065429688 972.177307128906 970.843505859375 973.357727050781 977.317016601562 976.912292480469 969.249450683594 974.046325683594 967.883056640625 977.154174804688 974.715698242188 974.657775878906 971.101379394531 968.221801757812 969.428344726562 967.18115234375 969.240234375 968.102233886719 971.659912109375 969.731384277344 976.038024902344 984.146484375 989.277221679688 978.544372558594 981.310119628906 969.918273925781 970.069152832031 965.832763671875 960.95263671875 968.092224121094 965.838500976562 965.327270507812 967.587341308594 973.780334472656 966.638427734375 962.575134277344 963.9033203125 965.117614746094 970.599975585938 972.912048339844 974.941772460938 984.488342285156 983.319580078125 980.7109375 977.989074707031 984.937683105469 989.585327148438 984.6279296875 998.805847167969 993.25439453125 991.472717285156 981.152770996094 991.978576660156 992.830139160156 985.18896484375 993.5634765625 992.759582519531 989.401123046875 983.855712890625 983.322814941406 984.66650390625 975.940856933594 978.163391113281 970.591430664062 984.711669921875 988.569091796875 991.182861328125 986.348205566406 989.426818847656 984.958984375 986.423034667969 995.333618164062 989.756164550781 985.420837402344 993.319641113281 995.020690917969 992.700500488281 997.875061035156 1004.6533203125 1003.34820556641 1001.67852783203 1001.27392578125 1004.82916259766 993.829467773438 1000.21350097656 998.380554199219 1001.15222167969 1010.53356933594 1021.33392333984 1027.54418945312 1024.08117675781 1026.57873535156 1023.60705566406 1029.75866699219 1026.81286621094 1034.35998535156 1046.18615722656 1051.49060058594 1060.86682128906 1074.60095214844 1086.15405273438 1100.81921386719 1111.65356445312 1117.39978027344 1121.724609375 1118.59899902344 1123.90673828125 1121.19006347656 1121.54931640625 1116.611328125 1105.75891113281
960.375732421875 961.22265625 954.233337402344 948.07275390625 953.237915039062 965.484619140625 967.7412109375 963.827941894531 961.0029296875 968.071350097656 966.180969238281 968.69482421875 972.839172363281 970.313842773438 970.241516113281 974.785949707031 981.065673828125 982.911804199219 976.209899902344 982.002197265625 974.786437988281 973.702453613281 973.787109375 980.030395507812 967.559997558594 961.094848632812 972.692016601562 976.073547363281 970.897888183594 978.516845703125 981.135009765625 973.573547363281 970.576354980469 972.640197753906 972.497192382812 977.468200683594 977.199096679688 970.581665039062 983.471252441406 982.162780761719 974.384826660156 971.069091796875 969.681518554688 968.173645019531 972.059448242188 967.727172851562 971.461791992188 974.008666992188 977.334228515625 979.655151367188 973.428894042969 971.079711914062 969.060241699219 962.008972167969 966.520080566406 968.83642578125 969.62060546875 966.508911132812 967.013549804688 967.651306152344 980.772277832031 981.545288085938 978.106079101562 979.931762695312 970.213134765625 967.110717773438 965.309692382812 959.42578125 964.426086425781 973.76025390625 962.636413574219 960.387939453125 968.002136230469 971.873657226562 963.388366699219 967.636657714844 970.613159179688 977.915893554688 972.121276855469 974.036743164062 975.571472167969 973.261596679688 979.217712402344 983.437072753906 990.729614257812 988.950500488281 983.883544921875 987.484375 988.046997070312 990.902648925781 987.924987792969 988.316284179688 985.76904296875 989.572814941406 993.487426757812 988.355224609375 987.790344238281 985.115478515625 991.512878417969 980.823852539062 983.068908691406 984.429016113281 980.326843261719 985.714904785156 993.136169433594 989.026123046875 994.785278320312 992.895751953125 983.7392578125 981.853881835938 993.612915039062 984.431762695312 984.720031738281 991.030151367188 1002.97619628906 1000.31982421875 996.549987792969 996.772583007812 996.367065429688 1003.25213623047 996.674377441406 996.730346679688 997.053283691406 998.298095703125 999.647705078125 1003.66998291016 1017.97381591797 1021.31854248047 1024.5439453125 1031.2841796875 1019.39984130859 1024.92846679688 1026.62866210938 1038.83862304688 1032.19323730469 1042.91638183594 1062.40173339844 1073.62866210938 1089.13330078125 1106.32214355469 1109.81237792969 1122.80493164062 1129.70275878906 1136.14953613281 1136.93920898438 1140.421875 1130.85168457031 1133.28820800781 1126.28637695312 1119.77697753906
943.512512207031 943.001831054688 951.753295898438 958.31689453125 953.868347167969 954.145812988281 956.798706054688 962.946960449219 959.238647460938 970.333740234375 970.802490234375 962.019775390625 963.490173339844 975.842102050781 979.318603515625 977.715148925781 978.1123046875 972.758605957031 976.568237304688 980.083923339844 978.099060058594 974.644958496094 976.366271972656 972.432434082031 969.988708496094 970.975830078125 971.034240722656 976.23046875 977.683837890625 974.026550292969 984.629455566406 973.143737792969 968.379333496094 977.280151367188 981.363647460938 980.704040527344 972.217834472656 970.315856933594 973.409912109375 983.335144042969 983.465209960938 980.978454589844 972.029235839844 971.972229003906 968.81494140625 967.069458007812 962.994995117188 974.973266601562 970.121398925781 979.134765625 971.609802246094 969.611694335938 973.027099609375 968.594116210938 973.549865722656 969.673706054688 967.222717285156 960.57470703125 959.626159667969 973.098999023438 976.239074707031 979.960205078125 980.364318847656 974.205261230469 970.511657714844 972.319763183594 973.075439453125 965.814331054688 969.400024414062 961.530151367188 955.601928710938 958.54931640625 962.748046875 966.475891113281 961.881713867188 962.490417480469 972.575622558594 977.810668945312 971.397155761719 973.073059082031 975.981079101562 978.870422363281 974.30224609375 985.123718261719 984.150512695312 996.882141113281 989.351013183594 978.525512695312 987.59716796875 989.672729492188 990.290161132812 983.159545898438 981.841186523438 982.711181640625 986.093933105469 982.306701660156 981.012084960938 978.592895507812 984.5498046875 981.35498046875 974.768737792969 979.498291015625 977.011840820312 983.671630859375 988.924682617188 988.018005371094 998.849182128906 989.045593261719 984.320068359375 985.062194824219 988.490478515625 987.470092773438 996.3447265625 998.593933105469 1008.13397216797 1005.34362792969 993.318603515625 995.516296386719 996.158386230469 992.228149414062 987.444396972656 982.711059570312 997.0078125 989.170593261719 1004.41235351562 1009.31970214844 1027.1796875 1021.63775634766 1029.20336914062 1025.40686035156 1025.71301269531 1037.59252929688 1034.38232421875 1032.59704589844 1038.00524902344 1055.43408203125 1067.01928710938 1078.7001953125 1094.91638183594 1112.18469238281 1118.27868652344 1131.07250976562 1133.47155761719 1145.65588378906 1142.40148925781 1148.14697265625 1145.93688964844 1144.36755371094 1146.18420410156 1128.55578613281
945.700561523438 953.369262695312 951.332702636719 948.647216796875 959.960083007812 962.336059570312 956.0947265625 966.413146972656 958.792907714844 969.742736816406 964.90576171875 968.138000488281 963.459777832031 975.380981445312 970.933959960938 978.275390625 980.166809082031 977.270751953125 976.370727539062 984.618591308594 982.626098632812 980.60693359375 980.053344726562 973.875122070312 970.298828125 974.940063476562 966.642517089844 973.020751953125 973.184265136719 981.327026367188 977.989929199219 969.361633300781 971.389526367188 980.875732421875 976.015197753906 969.807373046875 965.200805664062 963.362182617188 967.794311523438 969.17529296875 975.366516113281 978.4677734375 976.352416992188 966.681335449219 971.687194824219 967.945678710938 967.612426757812 967.818054199219 967.683837890625 970.479309082031 963.041198730469 966.537048339844 972.780395507812 970.678405761719 972.083251953125 965.151977539062 958.144226074219 964.083923339844 963.051208496094 974.808837890625 974.569458007812 969.80859375 982.736694335938 973.00146484375 969.200012207031 976.960083007812 979.437622070312 978.409362792969 977.829223632812 963.006225585938 953.039184570312 962.078552246094 964.862426757812 960.709228515625 959.573486328125 963.552307128906 974.072204589844 971.485473632812 971.223876953125 972.5458984375 974.546203613281 980.395629882812 973.185302734375 981.227111816406 988.363586425781 983.209899902344 982.423522949219 985.268005371094 977.118347167969 982.560791015625 974.858947753906 976.639709472656 979.595031738281 983.811767578125 986.796691894531 988.015991210938 977.052307128906 983.566528320312 983.618469238281 971.771240234375 967.997863769531 963.747680664062 968.097351074219 975.295227050781 983.371643066406 981.40625 993.482421875 983.677673339844 986.868225097656 981.972839355469 979.907958984375 994.786071777344 1001.05114746094 1009.62335205078 1016.595703125 1017.01330566406 1011.15570068359 1000.17565917969 993.276550292969 988.668151855469 978.151062011719 981.744384765625 995.179382324219 1000.79046630859 1004.04705810547 1009.32592773438 1017.00659179688 1029.47863769531 1024.28344726562 1021.26049804688 1028.55676269531 1033.49487304688 1042.42395019531 1041.08264160156 1047.61291503906 1053.59655761719 1069.8017578125 1083.06506347656 1104.18896484375 1103.96813964844 1117.62109375 1127.55773925781 1133.34997558594 1135.56884765625 1145.68896484375 1157.32849121094 1154.49523925781 1165.859375 1152.1396484375 1133.78588867188
957.893737792969 959.766235351562 961.518310546875 952.17626953125 962.880249023438 966.564086914062 960.661193847656 962.679016113281 969.5654296875 970.767639160156 964.656494140625 962.932678222656 965.101013183594 970.53515625 975.513244628906 983.560791015625 977.246765136719 981.072875976562 981.96875 984.372680664062 986.866821289062 976.028564453125 977.041259765625 973.346557617188 979.041625976562 965.626098632812 961.893920898438 973.059997558594 976.088562011719 979.050964355469 969.500793457031 971.934204101562 972.526794433594 978.758056640625 981.196472167969 973.64453125 967.368774414062 966.766418457031 961.972900390625 965.654174804688 973.253173828125 970.251586914062 971.692199707031 974.569458007812 977.658020019531 960.947082519531 968.205200195312 967.4423828125 969.143493652344 969.471557617188 964.05419921875 958.566345214844 965.846496582031 964.56494140625 968.666564941406 960.218566894531 966.935607910156 978.808959960938 968.74365234375 978.47705078125 980.367614746094 976.142395019531 977.983703613281 975.812561035156 969.940612792969 969.646728515625 983.600158691406 974.4638671875 967.732360839844 964.535705566406 966.906372070312 971.616394042969 960.551879882812 960.784606933594 962.182312011719 970.236145019531 974.679504394531 976.267883300781 968.180358886719 959.888732910156 966.509338378906 967.388732910156 974.427368164062 983.366333007812 989.415344238281 984.272827148438 982.817260742188 979.097229003906 978.464721679688 973.463073730469 968.530822753906 974.085388183594 974.057250976562 972.690368652344 971.275329589844 979.476013183594 979.197021484375 965.700134277344 979.196594238281 976.643859863281 970.364074707031 963.921020507812 970.244445800781 986.277587890625 986.310607910156 987.651977539062 994.195739746094 986.607604980469 988.489074707031 988.285522460938 986.67431640625 991.229736328125 995.589050292969 1000.44415283203 1019.50994873047 1023.30895996094 1015.48461914062 1003.61126708984 998.649108886719 992.435302734375 979.534790039062 995.445983886719 1002.46014404297 1011.58813476562 1025.48986816406 1021.25299072266 1024.2685546875 1029.43041992188 1028.26147460938 1020.07781982422 1025.3916015625 1040.97448730469 1047.42321777344 1048.87536621094 1057.90295410156 1053.46997070312 1073.85998535156 1087.50134277344 1100.56982421875 1103.81494140625 1108.88671875 1125.46350097656 1126.80529785156 1135.71203613281 1148.50756835938 1149.12414550781 1159.18359375 1170.71252441406 1158.05102539062 1141.07214355469
