NCOLS 150
NROWS 37
XLLCORNER 7394249
YLLCORNER 4843859
CELLSIZE 30
NODATA_VALUE -9999
1008.3134765625 1003.89141845703 993.317077636719 999.345520019531 1002.20562744141 1005.57177734375 997.221557617188 998.776733398438 1008.99493408203 1012.53021240234 1020.55627441406 1015.00909423828 1011.29602050781 1008.88165283203 1012.53167724609 1007.27886962891 1006.83489990234 1016.12915039062 1001.51037597656 1022.03845214844 1034.02954101562 1035.37133789062 1029.14465332031 1031.91906738281 1036.16540527344 1029.99523925781 1026.1591796875 1025.44873046875 1023.97625732422 1036.02746582031 1033.41345214844 1041.83630371094 1034.08630371094 1025.21081542969 1018.29547119141 1022.73352050781 1030.95031738281 1025.16540527344 1022.67401123047 1023.58435058594 1023.94964599609 1010.8564453125 1006.75524902344 999.788146972656 998.64892578125 989.983459472656 996.943908691406 998.910522460938 993.847534179688 995.023620605469 991.53759765625 999.17578125 997.246459960938 979.483520507812 970.040405273438 962.895324707031 964.483947753906 952.858825683594 951.302856445312 950.896301269531 950.41015625 949.8076171875 934.108703613281 922.171997070312 917.081909179688 900.619689941406 898.429748535156 910.641479492188 914.656799316406 919.988403320312 925.303283691406 922.636108398438 930.917663574219 927.925048828125 945.452209472656 943.941223144531 944.922058105469 963.09814453125 971.57080078125 969.924072265625 971.674865722656 970.147521972656 972.510986328125 970.770935058594 963.8857421875 966.913757324219 954.422302246094 960.803283691406 951.732238769531 946.84130859375 930.158264160156 928.09033203125 921.1455078125 919.608581542969 914.852478027344 911.816650390625 913.9990234375 918.251342773438 913.531494140625 901.226989746094 887.009216308594 872.764282226562 871.036804199219 866.828247070312 856.92724609375 855.180419921875 858.546997070312 860.247314453125 864.382019042969 884.045776367188 878.123291015625 894.565307617188 893.504516601562 898.84228515625 898.690002441406 900.305358886719 904.689025878906 904.386657714844 903.802062988281 911.41015625 919.740661621094 929.185729980469 936.4482421875 943.626159667969 950.052001953125 955.468017578125 975.0341796875 986.196166992188 990.841857910156 998.006774902344 1001.56945800781 1015.88836669922 1020.90258789062 1016.46246337891 1023.47485351562 1031.47033691406 1042.09558105469 1042.92150878906 1061.07836914062 1053.98510742188 1069.24340820312 1083.17980957031 1084.32604980469 1076.02526855469 1070.58361816406 1063.45495605469 1054.39855957031 1043.79931640625 1039.41137695312 1037.68627929688
1005.00036621094 997.817749023438 989.890625 991.405639648438 996.574035644531 1006.58819580078 997.426696777344 1007.94805908203 1014.70886230469 1015.23876953125 1011.63311767578 1009.62927246094 998.702880859375 1005.00384521484 1013.56463623047 1008.79577636719 1012.01678466797 1008.65093994141 1015.11932373047 1025.87329101562 1039.86450195312 1040.455078125 1036.13427734375 1031.35546875 1033.32543945312 1025.59057617188 1031.36120605469 1030.90893554688 1029.35180664062 1032.33776855469 1040.66149902344 1039.33374023438 1037.45104980469 1028.46862792969 1015.89703369141 1027.59533691406 1029.79626464844 1026.54870605469 1016.70886230469 1016.92944335938 1015.93804931641 1012.14178466797 1004.73651123047 1007.77648925781 1000.587890625 991.413818359375 981.9189453125 988.263671875 993.302185058594 998.354553222656 1000.84753417969 999.553833007812 995.303771972656 991.790283203125 976.421875 967.006958007812 959.823120117188 958.124755859375 955.307189941406 961.798461914062 954.554016113281 951.687072753906 940.82763671875 926.551696777344 918.373962402344 917.90625 912.819641113281 906.093933105469 913.913024902344 922.453857421875 926.096008300781 927.366943359375 942.912719726562 944.38623046875 953.937866210938 957.205749511719 958.516235351562 963.606811523438 974.84716796875 973.424133300781 974.109741210938 978.406799316406 979.759948730469 967.231201171875 971.808471679688 976.798767089844 966.527099609375 962.783630371094 945.348937988281 941.306213378906 933.987060546875 924.018249511719 929.365966796875 921.362121582031 915.485900878906 914.3525390625 916.826110839844 919.491760253906 917.581970214844 906.423461914062 893.47021484375 878.069763183594 864.147399902344 873.058044433594 867.292846679688 871.730041503906 871.484619140625 874.259155273438 886.692810058594 888.961120605469 892.899963378906 893.896423339844 891.320251464844 888.705810546875 897.495910644531 892.947265625 895.688720703125 900.850952148438 903.523620605469 915.935607910156 917.3701171875 925.046264648438 941.844421386719 943.348388671875 952.140991210938 949.667297363281 962.280883789062 974.517822265625 977.875244140625 985.246459960938 992.639770507812 1006.81420898438 1009.79779052734 1017.67553710938 1021.43414306641 1023.94000244141 1035.67834472656 1048.84899902344 1071.681640625 1072.49572753906 1081.591796875 1092.91479492188 1103.01416015625 1095.42419433594 1082.68005371094 1077.759765625 1058.61828613281 1046.32653808594 1043.15856933594 1032.87377929688
1000.34729003906 1002.83758544922 993.75 995.16796875 997.747131347656 1004.80975341797 999.853820800781 1005.61456298828 1019.24768066406 1013.94000244141 1011.80224609375 1012.01922607422 1001.95593261719 1002.49768066406 1006.69091796875 1008.17199707031 1011.77722167969 1012.07470703125 1021.92901611328 1017.42687988281 1020.09344482422 1030.00769042969 1028.50012207031 1021.17218017578 1026.07983398438 1032.04382324219 1024.37890625 1019.41986083984 1024.56677246094 1032.58703613281 1036.96716308594 1034.33862304688 1036.3466796875 1022.15124511719 1028.97631835938 1021.45184326172 1012.30554199219 1021.15893554688 1018.001953125 1017.708984375 1015.55084228516 1019.48913574219 1013.35992431641 1007.30377197266 1000.72717285156 989.022827148438 979.415161132812 984.740600585938 993.340087890625 996.797973632812 994.844055175781 996.441955566406 988.966735839844 985.860717773438 979.018859863281 968.435363769531 961.791442871094 956.205749511719 955.969177246094 954.361938476562 955.078552246094 939.927795410156 940.695739746094 935.907043457031 930.26904296875 926.66748046875 920.417419433594 917.683044433594 920.142150878906 928.124267578125 925.440246582031 935.735229492188 947.138671875 953.834838867188 961.205810546875 975.403442382812 973.285461425781 979.246459960938 988.255126953125 990.807312011719 995.078491210938 994.180480957031 986.739074707031 991.987060546875 991.061767578125 982.055969238281 971.220703125 965.368713378906 956.614135742188 951.539367675781 946.968200683594 935.323608398438 921.247741699219 915.586608886719 921.182006835938 919.763061523438 915.260864257812 912.685913085938 918.769409179688 901.823974609375 890.303466796875 888.580505371094 879.005981445312 880.277587890625 863.934631347656 870.262023925781 876.789184570312 875.371154785156 883.799438476562 886.942687988281 893.425170898438 889.571838378906 882.012023925781 885.338745117188 881.66796875 890.550720214844 895.163818359375 905.10400390625 908.271606445312 914.817443847656 922.465576171875 926.438110351562 941.349304199219 951.156372070312 950.983337402344 954.043090820312 960.888366699219 963.72509765625 971.40283203125 984.27734375 994.091491699219 1001.0068359375 1000.2021484375 1008.62878417969 1013.37078857422 1028.12561035156 1035.73559570312 1047.96276855469 1065.875 1070.08032226562 1089.24157714844 1101.98779296875 1112.89196777344 1114.04724121094 1098.89343261719 1087.75927734375 1078.07641601562 1056.29992675781 1047.09423828125 1043.34387207031
998.392333984375 995.914245605469 994.679321289062 996.678833007812 996.605041503906 1000.05444335938 999.260314941406 998.20947265625 998.637268066406 1010.03210449219 1006.72741699219 1005.70550537109 995.444030761719 1003.67205810547 1012.85845947266 1011.53814697266 1009.63427734375 1013.47723388672 1007.09100341797 1014.84240722656 1008.38372802734 1021.85455322266 1022.10961914062 1024.97741699219 1025.8330078125 1029.87976074219 1020.25512695312 1031.68176269531 1028.52270507812 1026.8662109375 1036.05700683594 1033.93115234375 1024.52600097656 1025.96252441406 1020.77954101562 1018.19177246094 1011.82501220703 1018.55859375 1016.19171142578 1016.91040039062 1013.83062744141 1013.65270996094 1009.26837158203 1006.69842529297 1004.31036376953 991.810119628906 975.126708984375 979.771301269531 982.788452148438 991.613403320312 996.719543457031 991.92138671875 988.575622558594 982.249145507812 981.544372558594 964.835815429688 965.143249511719 959.138793945312 961.6796875 965.121765136719 958.552001953125 949.586669921875 945.673156738281 943.905883789062 940.05615234375 936.2919921875 925.422058105469 921.156005859375 924.191040039062 921.708984375 939.868591308594 941.173522949219 946.778259277344 959.889221191406 968.079040527344 974.547058105469 988.053649902344 992.548706054688 998.850280761719 999.812194824219 1003.34307861328 1000.55633544922 1001.94805908203 999.628051757812 995.829895019531 978.23828125 972.050659179688 969.637817382812 956.9462890625 943.683288574219 948.12451171875 933.708557128906 923.142578125 916.447998046875 915.745727539062 916.931213378906 917.156677246094 916.259521484375 913.783203125 897.223815917969 889.371520996094 891.592651367188 890.960571289062 880.737243652344 876.40283203125 874.944702148438 878.7880859375 894.466003417969 892.772644042969 883.775634765625 886.667541503906 884.71044921875 882.971740722656 884.520751953125 890.02099609375 897.912902832031 901.982238769531 907.245666503906 909.867736816406 919.710205078125 933.379272460938 927.839111328125 939.936645507812 951.722900390625 948.529602050781 950.643493652344 963.32763671875 955.058471679688 969.881530761719 982.619750976562 997.445007324219 1005.01885986328 1001.34539794922 1003.0166015625 1016.66326904297 1035.45751953125 1048.14770507812 1056.59985351562 1065.30676269531 1073.041015625 1101.40063476562 1107.75646972656 1121.38110351562 1121.95849609375 1122.24304199219 1098.77685546875 1086.92822265625 1073.58386230469 1070.98486328125 1056.08630371094
998.493896484375 1003.65881347656 998.219177246094 997.267578125 1008.97027587891 1006.58331298828 1006.95935058594 1003.36169433594 1010.94671630859 1012.99975585938 1007.27044677734 1007.5048828125 1003.60583496094 1003.60089111328 1010.93804931641 1017.74291992188 1004.73107910156 1006.00439453125 1010.41784667969 1014.6416015625 1017.39892578125 1019.78125 1023.97009277344 1016.87353515625 1017.13000488281 1017.76086425781 1022.13391113281 1023.64007568359 1017.41558837891 1025.40270996094 1028.62585449219 1027.12573242188 1022.67224121094 1022.54260253906 1024.32556152344 1015.30712890625 1017.77264404297 1016.2119140625 1021.71301269531 1014.66912841797 1008.37579345703 1008.31970214844 1000.70959472656 1003.05389404297 998.625244140625 994.921325683594 990.58837890625 985.240356445312 977.7705078125 991.642761230469 995.320251464844 995.452697753906 990.979858398438 994.092712402344 989.556518554688 978.030517578125 966.77197265625 961.634582519531 969.126403808594 966.9208984375 974.8837890625 968.766296386719 947.922790527344 943.378723144531 949.427490234375 952.028503417969 932.692077636719 934.555053710938 926.9521484375 942.781188964844 948.360778808594 946.948181152344 958.672973632812 972.7294921875 983.756958007812 990.114624023438 1002.03216552734 1011.2021484375 1007.73040771484 1012.88238525391 1010.35125732422 1014.17852783203 1005.69439697266 999.02685546875 990.036560058594 981.163208007812 967.785827636719 967.252624511719 960.071166992188 939.942321777344 943.891479492188 926.94140625 920.570617675781 909.933898925781 910.542236328125 910.142395019531 912.263488769531 909.191711425781 902.214416503906 898.896667480469 886.911682128906 889.364562988281 892.1875 877.104309082031 878.366943359375 882.573425292969 883.30322265625 894.734985351562 897.807250976562 894.145202636719 890.45068359375 881.439086914062 881.4990234375 888.388488769531 892.347045898438 902.821533203125 908.395202636719 915.439331054688 922.171325683594 927.843627929688 937.666137695312 935.456176757812 940.705749511719 948.939025878906 949.219543457031 953.518127441406 955.770324707031 957.493408203125 969.465881347656 979.581115722656 1000.13946533203 999.943664550781 1005.302734375 998.607971191406 1023.50091552734 1037.95227050781 1044.271484375 1059.95458984375 1069.96008300781 1091.96606445312 1112.62976074219 1112.46337890625 1121.22766113281 1119.31811523438 1126.60961914062 1118.73962402344 1110.47192382812 1094.69750976562 1082.97180175781 1067.98474121094
1001.04425048828 1000.57293701172 1000.21618652344 996.488830566406 1001.61254882812 1001.40704345703 1006.33483886719 1010.33575439453 1012.04949951172 1012.33966064453 1016.21380615234 1001.70294189453 1008.70758056641 1005.00128173828 1008.74731445312 1014.15966796875 1013.18817138672 1008.08520507812 1010.50469970703 1011.15533447266 1020.79846191406 1026.55114746094 1029.58142089844 1016.81958007812 1012.97735595703 1013.38238525391 1019.27362060547 1018.64068603516 1016.50085449219 1021.06188964844 1029.29077148438 1024.77905273438 1026.82104492188 1025.91149902344 1022.9228515625 1017.13415527344 1009.01348876953 1012.29077148438 1014.94622802734 1013.42291259766 1005.0888671875 1000.19305419922 1013.90911865234 1010.55773925781 997.897399902344 996.486938476562 990.103454589844 985.4658203125 985.782348632812 987.7890625 998.0390625 999.490783691406 998.678344726562 996.869812011719 995.418334960938 990.877197265625 982.587219238281 974.672729492188 973.353210449219 982.725646972656 989.697204589844 985.957458496094 975.51220703125 962.422241210938 963.227172851562 951.632385253906 939.467651367188 932.837280273438 940.087768554688 949.43701171875 947.956970214844 953.415954589844 963.434509277344 972.914855957031 988.184387207031 1001.73413085938 1011.12341308594 1023.34368896484 1019.99267578125 1012.91528320312 1014.31964111328 1020.59948730469 1008.21868896484 1008.54656982422 995.602783203125 978.143493652344 966.57861328125 954.789794921875 950.619262695312 945.395446777344 931.349548339844 925.996032714844 920.914611816406 914.228698730469 907.492492675781 908.382507324219 905.325378417969 904.762084960938 902.729309082031 905.138977050781 903.923278808594 896.701171875 885.466552734375 880.862426757812 881.726135253906 883.152770996094 889.790588378906 889.688110351562 890.970092773438 894.6748046875 896.423217773438 899.536499023438 891.114990234375 889.032104492188 886.550537109375 897.359802246094 909.75830078125 918.924682617188 928.637023925781 932.165954589844 942.157653808594 937.527221679688 938.7666015625 940.821411132812 945.683959960938 946.103881835938 959.436645507812 960.285705566406 968.214782714844 979.579406738281 996.1318359375 1000.56372070312 1004.45159912109 1014.78521728516 1022.87701416016 1039.14562988281 1056.49365234375 1057.86340332031 1068.19909667969 1090.47497558594 1110.802734375 1126.92126464844 1132.82421875 1132.66796875 1133.06127929688 1132.82287597656 1119.14733886719 1113.38842773438 1098.49438476562 1081.02392578125
985.668029785156 991.409423828125 986.170654296875 989.115600585938 1006.216796875 1011.60760498047 1006.89208984375 1009.41650390625 1006.33984375 1008.66796875 999.914794921875 1000.96032714844 1003.21099853516 1003.50079345703 997.1884765625 1008.66845703125 1013.31420898438 1020.37127685547 1020.32330322266 1021.74029541016 1027.10717773438 1023.86138916016 1025.26062011719 1017.73541259766 1010.28564453125 1001.35864257812 1004.86871337891 1005.84545898438 1006.70617675781 1016.90191650391 1019.49304199219 1025.17126464844 1021.41680908203 1020.44122314453 1019.15588378906 1030.10827636719 1019.21807861328 1013.79272460938 1016.39971923828 1003.06457519531 1002.58294677734 1001.46557617188 1005.18878173828 1006.51965332031 999.139587402344 992.438415527344 996.638549804688 992.662841796875 991.661743164062 996.301391601562 995.82861328125 999.488830566406 1004.39245605469 1011.05310058594 1003.90472412109 998.555358886719 991.086059570312 987.745971679688 985.103149414062 998.446655273438 994.056091308594 986.060180664062 983.592102050781 971.970642089844 971.17822265625 956.828186035156 946.904602050781 939.221740722656 941.356689453125 953.879455566406 950.441589355469 956.853393554688 959.622985839844 964.136413574219 977.510437011719 994.3095703125 1011.26135253906 1018.21911621094 1018.88879394531 1020.71661376953 1025.76696777344 1025.06909179688 1009.70794677734 1003.94500732422 993.082458496094 976.784973144531 967.482727050781 958.678161621094 950.130798339844 944.500732421875 927.386291503906 916.042419433594 923.037475585938 917.828857421875 914.647033691406 914.948913574219 903.905578613281 909.859497070312 913.997436523438 912.829895019531 907.786437988281 894.080200195312 892.845153808594 889.968505859375 891.778137207031 890.314392089844 896.804443359375 898.0986328125 889.250427246094 898.72705078125 904.977294921875 911.871154785156 902.364624023438 899.462097167969 885.878356933594 894.889953613281 903.565246582031 915.5869140625 931.515502929688 931.652709960938 936.627624511719 940.305297851562 945.443664550781 948.907165527344 945.094970703125 948.796081542969 954.9443359375 958.224914550781 966.453979492188 971.803039550781 993.5458984375 1004.33117675781 1019.94073486328 1033.7724609375 1038.7216796875 1043.41052246094 1049.6943359375 1065.7890625 1076.91430664062 1091.69470214844 1105.521484375 1120.30334472656 1136.865234375 1143.79968261719 1140.10791015625 1135.39880371094 1119.70129394531 1112.91552734375 1107.21362304688 1104.66809082031
985.161865234375 984.375732421875 982.917358398438 996.70068359375 1004.37493896484 1007.00701904297 1011.69268798828 1010.50628662109 993.902038574219 998.554504394531 999.401123046875 998.642517089844 990.671020507812 999.149230957031 1002.75183105469 1005.60217285156 1008.08154296875 1015.99981689453 1015.96423339844 1019.82849121094 1024.08093261719 1010.77758789062 1011.50256347656 1016.33410644531 1002.04327392578 1000.62109375 994.267822265625 997.235595703125 1001.53887939453 1012.86627197266 1015.41522216797 1023.21527099609 1018.85510253906 1019.83508300781 1013.59497070312 1020.84454345703 1017.46667480469 1014.20452880859 1008.97766113281 1002.31793212891 1000.64953613281 1004.12719726562 1000.33569335938 1000.17700195312 995.355834960938 996.722839355469 998.260192871094 996.181518554688 999.698486328125 1003.94982910156 1001.19299316406 995.747680664062 1007.14215087891 1009.52984619141 1012.04406738281 1010.19268798828 1007.36248779297 1002.07989501953 1003.2138671875 1005.86743164062 1001.068359375 992.524841308594 983.706909179688 987.65380859375 978.095031738281 962.65576171875 956.830444335938 948.597595214844 954.156677246094 956.617126464844 955.200256347656 959.964538574219 955.65625 967.783142089844 974.40185546875 986.494384765625 1020.19946289062 1021.59924316406 1018.02740478516 1017.39422607422 1031.76501464844 1024.703125 1020.86791992188 1006.68127441406 989.239990234375 981.74853515625 966.89697265625 950.869384765625 938.322326660156 934.684631347656 931.4580078125 923.412231445312 922.41845703125 926.994995117188 919.626770019531 910.765014648438 908.882629394531 913.093444824219 911.263122558594 911.359741210938 912.08642578125 897.905212402344 891.182861328125 893.083923339844 897.601867675781 894.457275390625 894.53759765625 896.680541992188 896.303955078125 900.564086914062 907.518127441406 915.729919433594 909.809448242188 907.842468261719 908.947448730469 905.290771484375 910.329223632812 924.177429199219 934.477355957031 936.4404296875 941.469360351562 943.560119628906 945.146118164062 951.358947753906 950.647705078125 947.304443359375 964.404663085938 973.139099121094 974.341003417969 988.386047363281 995.776428222656 1005.79406738281 1021.82141113281 1029.31359863281 1045.24658203125 1054.63439941406 1054.12658691406 1063.45251464844 1082.98303222656 1098.16357421875 1111.27795410156 1121.89807128906 1131.01184082031 1139.81164550781 1136.87329101562 1136.20300292969 1134.00439453125 1125.50573730469 1121.80883789062 1113.58044433594
992.768859863281 986.415954589844 988.021911621094 999.742492675781 998.952331542969 1005.76672363281 1010.85229492188 1007.57006835938 1000.62023925781 994.166687011719 999.174377441406 1001.46899414062 995.679382324219 997.169799804688 997.904479980469 998.797302246094 1005.55877685547 1011.32965087891 1015.43536376953 1016.98779296875 1020.42565917969 1012.49066162109 1005.81066894531 1001.36657714844 995.497863769531 995.4443359375 1001.32916259766 1001.08264160156 1011.06396484375 1007.3486328125 1006.52716064453 1008.15423583984 1015.44689941406 1015.70837402344 1015.58764648438 1016.84515380859 1014.29412841797 1011.12634277344 1003.56762695312 1002.57275390625 1004.71789550781 997.975280761719 999.9873046875 998.676208496094 1003.96435546875 1001.17150878906 1008.87365722656 999.377807617188 1003.14978027344 1002.94793701172 997.5126953125 1007.16571044922 1008.35913085938 1020.08752441406 1021.99890136719 1012.17822265625 1013.72290039062 1007.52130126953 1009.80151367188 1013.21319580078 1011.61694335938 1005.96282958984 994.172546386719 980.957397460938 976.937683105469 965.545471191406 969.6494140625 962.322570800781 957.872741699219 961.901489257812 965.053771972656 966.706298828125 969.790710449219 983.360595703125 986.827941894531 991.86474609375 1011.96740722656 1025.548828125 1025.93505859375 1026.93420410156 1026.69970703125 1020.64367675781 1010.29211425781 1008.41998291016 988.579223632812 973.935974121094 956.573852539062 955.640075683594 942.392028808594 941.603088378906 936.604858398438 926.920166015625 936.842346191406 928.843139648438 926.049682617188 910.416564941406 914.864562988281 914.351623535156 912.079162597656 907.820495605469 916.040222167969 912.520874023438 911.031372070312 903.25634765625 912.359741210938 906.865295410156 904.38427734375 903.623779296875 904.170959472656 904.99072265625 911.266845703125 913.354187011719 916.181701660156 917.851745605469 923.126953125 922.508728027344 916.297912597656 926.679138183594 935.688842773438 939.237854003906 939.966186523438 952.604919433594 949.936645507812 950.682556152344 958.344970703125 964.019165039062 973.734069824219 974.655700683594 977.187744140625 994.515563964844 1003.62268066406 1018.80596923828 1030.95068359375 1034.90173339844 1044.17272949219 1050.31359863281 1056.81640625 1069.70739746094 1079.69250488281 1101.98986816406 1108.88244628906 1123.39086914062 1128.13159179688 1125.92443847656 1131.84191894531 1133.68237304688 1133.37951660156 1135.26892089844 1121.10485839844 1118.470703125
982.392639160156 990.991027832031 991.755737304688 995.827819824219 994.457092285156 1000.4716796875 1008.71441650391 1000.98284912109 1003.21533203125 998.234924316406 999.945495605469 995.769897460938 995.281188964844 996.599060058594 997.7666015625 997.106994628906 1008.90692138672 1008.15692138672 1009.28790283203 1015.61126708984 1008.62231445312 1006.28729248047 998.159606933594 990.270446777344 987.721984863281 985.668518066406 992.205749511719 998.480712890625 1006.09820556641 1003.76080322266 1006.15173339844 1009.52581787109 1018.681640625 1015.28790283203 1013.68273925781 1017.88000488281 1007.55456542969 1006.52685546875 1002.61920166016 1003.47082519531 1001.47692871094 1004.97900390625 1007.92114257812 1004.94995117188 1005.34790039062 1009.82293701172 1007.12487792969 1005.96380615234 1002.4951171875 1001.47296142578 1003.32733154297 1006.48089599609 1010.24438476562 1015.38269042969 1016.2353515625 1010.33892822266 1015.38494873047 1016.94543457031 1019.55017089844 1014.556640625 1013.14758300781 1009.45349121094 996.464416503906 992.352905273438 986.244506835938 982.114013671875 982.582885742188 977.083374023438 980.65380859375 971.130126953125 971.416137695312 975.378173828125 977.677612304688 977.665283203125 992.375610351562 1002.26147460938 1011.71557617188 1030.72033691406 1027.66076660156 1034.88830566406 1035.14392089844 1025.28137207031 1016.35467529297 996.570556640625 987.063720703125 974.261901855469 968.145629882812 962.32470703125 954.130065917969 948.196044921875 944.729309082031 946.820739746094 934.751770019531 934.9404296875 927.896362304688 929.631713867188 918.912536621094 919.612121582031 917.790283203125 914.223571777344 927.016967773438 927.491149902344 921.27783203125 919.609008789062 919.337707519531 912.581604003906 922.990905761719 917.392456054688 916.863159179688 911.055358886719 911.231262207031 909.56640625 919.916259765625 932.138122558594 927.749084472656 925.721740722656 922.62158203125 928.794738769531 935.793823242188 943.558288574219 946.854797363281 950.697448730469 947.219970703125 955.548278808594 962.685241699219 964.151611328125 981.764587402344 983.950073242188 990.710632324219 998.046997070312 1016.19573974609 1026.93676757812 1029.49084472656 1037.37451171875 1039.85876464844 1055.68212890625 1055.52209472656 1067.72607421875 1077.80139160156 1098.46118164062 1100.23217773438 1114.42126464844 1124.04638671875 1134.29553222656 1130.73828125 1131.14807128906 1127.958984375 1133.72729492188 1131.42126464844 1121.92590332031
984.157531738281 984.949401855469 983.841369628906 981.97998046875 987.643798828125 987.420837402344 991.858642578125 993.955688476562 997.174377441406 988.190063476562 989.608520507812 993.948974609375 989.630676269531 992.855346679688 997.243041992188 1004.93737792969 1000.53912353516 1011.20855712891 1010.75262451172 999.91064453125 994.844909667969 998.004211425781 995.055480957031 984.416442871094 976.658203125 983.561279296875 991.02734375 997.927734375 999.262756347656 1009.15002441406 1012.39721679688 1016.80242919922 1013.89624023438 1015.24157714844 1023.07751464844 1018.39154052734 1007.14605712891 1007.55554199219 1012.19384765625 1011.62451171875 1009.99658203125 1012.79425048828 1014.60174560547 1006.07690429688 1010.53118896484 1011.10656738281 1010.42163085938 1006.11566162109 1008.69006347656 1013.30993652344 998.909851074219 1000.92614746094 1011.38153076172 1010.45989990234 1012.29327392578 1011.68975830078 1020.96002197266 1005.91186523438 1004.35015869141 1016.05419921875 1020.05285644531 1014.63043212891 1010.68206787109 998.594360351562 995.108459472656 987.756225585938 982.029724121094 989.56591796875 988.771728515625 979.753479003906 974.470886230469 977.898803710938 989.116088867188 990.685546875 995.487426757812 1008.12689208984 1023.44342041016 1029.37768554688 1033.40246582031 1039.20104980469 1038.55126953125 1035.5517578125 1012.73919677734 1006.54815673828 984.137023925781 980.915161132812 974.392944335938 970.182678222656 958.837768554688 952.334533691406 954.027770996094 938.991271972656 940.990539550781 940.078491210938 937.850952148438 932.71240234375 933.088928222656 922.887390136719 924.299133300781 933.046508789062 935.368347167969 935.942749023438 941.296142578125 942.599670410156 934.2314453125 935.507629394531 935.172119140625 936.286682128906 933.095764160156 926.388610839844 913.567687988281 924.088317871094 931.706298828125 935.830078125 930.443481445312 919.244750976562 931.23583984375 928.846984863281 944.700439453125 942.624328613281 951.000854492188 952.809265136719 953.0009765625 957.718078613281 971.466491699219 970.383483886719 981.455627441406 990.086547851562 996.473510742188 1012.99389648438 1023.42266845703 1031.28039550781 1041.00366210938 1038.66149902344 1049.23889160156 1046.984375 1050.13854980469 1061.10473632812 1081.78930664062 1090.49194335938 1093.080078125 1105.83972167969 1115.40466308594 1132.80212402344 1126.3017578125 1129.72387695312 1120.51867675781 1122.3134765625 1120.5966796875 1116.77770996094
982.184814453125 983.360900878906 984.104064941406 983.029296875 981.904541015625 983.561340332031 983.436706542969 983.369445800781 976.688537597656 978.0908203125 989.531921386719 990.71435546875 988.717834472656 996.321655273438 1003.33215332031 1001.80700683594 996.137329101562 1000.25769042969 1000.43377685547 989.039489746094 992.558959960938 994.255310058594 990.48486328125 980.204711914062 984.060546875 992.255187988281 985.002807617188 991.645141601562 1003.10748291016 1001.87811279297 1003.84490966797 1007.68579101562 1015.61309814453 1015.92797851562 1017.46356201172 1014.96081542969 1012.76995849609 1016.53070068359 1024.99340820312 1026.72961425781 1012.38836669922 1014.12854003906 1017.38159179688 1011.96527099609 1015.14880371094 1010.69445800781 1013.44830322266 1007.71929931641 997.984313964844 1007.00372314453 1012.29357910156 1012.43701171875 1009.39270019531 1007.32629394531 1010.15588378906 1014.34283447266 1015.37200927734 1017.52478027344 1016.07800292969 1021.45812988281 1014.60968017578 1015.67767333984 1010.88354492188 1001.67034912109 1007.88275146484 996.741333007812 990.497131347656 984.658874511719 989.076904296875 992.65576171875 982.132995605469 981.4892578125 993.842224121094 996.188781738281 1002.73895263672 1014.57696533203 1015.30773925781 1037.07922363281 1028.69519042969 1036.529296875 1033.83471679688 1020.54943847656 1001.77319335938 994.955017089844 990.431579589844 985.372985839844 980.948120117188 977.944274902344 960.37646484375 960.91796875 957.090087890625 948.680541992188 949.842895507812 940.702270507812 945.656799316406 945.618408203125 944.016235351562 941.011047363281 948.046264648438 947.598693847656 937.941345214844 945.628601074219 947.269409179688 947.429382324219 949.94677734375 946.906677246094 950.422912597656 954.696960449219 943.824645996094 935.34912109375 929.787353515625 936.455444335938 931.526916503906 928.175109863281 925.414184570312 922.221618652344 925.197204589844 920.506225585938 935.553039550781 953.074462890625 944.336242675781 964.469482421875 956.168212890625 974.924682617188 977.170715332031 976.397216796875 986.943542480469 994.653015136719 1010.71643066406 1017.58068847656 1019.49609375 1031.67065429688 1036.609375 1042.00537109375 1046.70202636719 1054.90148925781 1063.91723632812 1079.22912597656 1082.58813476562 1091.26525878906 1092.38842773438 1097.57421875 1100.32238769531 1121.14453125 1131.30517578125 1131.10791015625 1125.5673828125 1120.64758300781 1118.24853515625 1116.05236816406
985.677062988281 989.48681640625 988.496826171875 986.223388671875 994.50244140625 986.939331054688 987.41845703125 984.054016113281 981.606201171875 983.394653320312 979.7236328125 979.3857421875 979.209045410156 990.330871582031 990.7470703125 998.570129394531 995.355895996094 992.052978515625 986.542053222656 985.9462890625 991.906188964844 994.497680664062 994.184631347656 981.600341796875 985.027648925781 986.45556640625 981.729736328125 999.096069335938 1001.46496582031 1010.35363769531 1009.77282714844 1002.06469726562 1012.03302001953 1014.96484375 1016.06451416016 1014.70751953125 1013.92944335938 1024.10229492188 1038.12097167969 1034.05993652344 1028.76770019531 1025.98815917969 1019.70703125 1021.6396484375 1023.43969726562 1009.69799804688 1011.93054199219 1017.95220947266 1021.08734130859 1024.2412109375 1016.96862792969 1012.37811279297 1012.73193359375 1003.79937744141 1012.93481445312 1022.81201171875 1019.33026123047 1019.84332275391 1016.01586914062 1015.98211669922 1018.91119384766 1017.8251953125 1010.86804199219 1006.44250488281 1005.70178222656 1001.60467529297 998.54931640625 992.352478027344 995.460876464844 982.807373046875 991.89306640625 980.532775878906 992.771606445312 1009.09710693359 1014.20324707031 1015.72564697266 1029.38671875 1030.89562988281 1032.83459472656 1030.85363769531 1030.13159179688 1019.81561279297 1011.82757568359 1010.42254638672 1001.66333007812 996.052734375 985.969360351562 974.996154785156 967.183349609375 960.753967285156 950.922729492188 955.078674316406 943.34375 950.593933105469 952.033203125 956.850463867188 952.197021484375 958.767822265625 964.50390625 968.129577636719 954.733032226562 956.992126464844 950.48291015625 958.059936523438 951.619018554688 948.514709472656 950.829833984375 948.092651367188 954.49462890625 949.087585449219 938.835266113281 929.583129882812 930.055114746094 928.485107421875 936.098449707031 924.031860351562 912.335327148438 919.425170898438 932.524841308594 939.074035644531 957.458984375 967.048217773438 966.025207519531 975.960876464844 979.466979980469 982.265808105469 988.429321289062 992.945983886719 1014.23956298828 1023.57476806641 1031.81982421875 1037.73583984375 1040.67541503906 1048.26293945312 1056.29357910156 1066.65563964844 1075.74987792969 1093.95288085938 1093.16577148438 1088.44494628906 1097.03552246094 1103.27038574219 1108.74011230469 1117.67553710938 1121.93823242188 1120.95190429688 1129.82678222656 1122.91076660156 1119.08764648438 1116.3046875
978.640686035156 991.008361816406 992.115356445312 989.420532226562 982.550231933594 978.8828125 979.213562011719 977.643615722656 979.272705078125 981.554382324219 986.781799316406 976.23388671875 978.884216308594 983.758178710938 984.339538574219 989.555419921875 997.957092285156 995.405883789062 996.169372558594 988.239624023438 983.863159179688 994.375244140625 993.809997558594 988.768737792969 991.144348144531 992.65576171875 986.294250488281 992.399597167969 998.048583984375 1018.66851806641 1016.82177734375 1007.65753173828 1021.40759277344 1009.74438476562 1020.65563964844 1016.39489746094 1018.18139648438 1030.67053222656 1033.11120605469 1037.27734375 1033.74548339844 1022.71063232422 1026.35021972656 1027.7509765625 1020.48803710938 1018.72900390625 1018.41979980469 1018.59020996094 1025.35546875 1016.59216308594 1014.75469970703 1015.12823486328 1021.70904541016 1006.44287109375 1016.615234375 1013.90399169922 1011.97344970703 1019.61956787109 1017.44720458984 1024.96948242188 1019.75128173828 1020.89581298828 1023.91149902344 1016.96868896484 1012.39569091797 1011.10369873047 1006.03820800781 1002.4677734375 1006.15313720703 989.8017578125 991.981201171875 996.57763671875 999.775024414062 1007.36419677734 1021.14947509766 1030.85693359375 1039.86877441406 1038.31079101562 1043.55029296875 1034.82458496094 1029.56591796875 1025.18676757812 1021.94287109375 1015.08831787109 1010.75164794922 1004.81750488281 997.933471679688 985.915893554688 972.213806152344 950.821716308594 946.967834472656 944.446350097656 948.195373535156 957.664733886719 958.982849121094 963.582214355469 965.4765625 956.379821777344 962.335021972656 969.819030761719 974.39404296875 975.835388183594 970.314575195312 963.616455078125 952.106323242188 955.421325683594 954.481628417969 961.144836425781 967.641967773438 960.019226074219 940.681945800781 944.202392578125 937.263549804688 928.385131835938 939.139038085938 925.824768066406 914.008911132812 913.086791992188 938.949768066406 949.861022949219 955.931823730469 961.568725585938 973.532409667969 983.950927734375 992.542602539062 993.282836914062 995.818298339844 1002.45855712891 1017.23181152344 1021.0302734375 1031.26098632812 1050.94482421875 1049.51098632812 1056.39709472656 1058.06176757812 1068.31103515625 1077.85424804688 1086.90612792969 1089.96179199219 1093.03564453125 1099.71997070312 1102.26000976562 1103.97607421875 1107.3330078125 1108.33142089844 1115.25024414062 1117.2509765625 1120.46850585938 1116.78735351562 1113.77551269531
990.150268554688 990.32470703125 988.007385253906 977.262451171875 981.678527832031 979.666931152344 980.066162109375 990.917358398438 988.0205078125 990.224670410156 986.592224121094 973.233520507812 973.569702148438 976.41748046875 982.53857421875 982.810913085938 992.011413574219 990.564636230469 988.21142578125 992.306091308594 986.360046386719 998.283935546875 996.83154296875 992.277954101562 998.838256835938 990.071594238281 997.060424804688 998.520202636719 999.482543945312 1015.16558837891 1018.25720214844 1021.63018798828 1020.26947021484 1021.06256103516 1017.79333496094 1014.37957763672 1029.4208984375 1035.7607421875 1041.24353027344 1035.06164550781 1040.38195800781 1031.21752929688 1029.97143554688 1024.97583007812 1029.53137207031 1025.03942871094 1027.54467773438 1019.97235107422 1028.28515625 1024.81469726562 1018.7373046875 1009.86486816406 1015.95867919922 1008.78021240234 1015.33331298828 1005.94622802734 1003.98571777344 1016.79040527344 1020.43109130859 1024.65954589844 1027.47875976562 1022.79132080078 1022.18096923828 1021.24395751953 1019.53588867188 1017.26727294922 1010.81567382812 1014.22473144531 997.163879394531 1004.05242919922 1008.03765869141 997.507934570312 1002.19427490234 1013.21948242188 1020.55834960938 1037.0849609375 1035.34338378906 1036.90466308594 1038.05041503906 1029.2431640625 1027.0615234375 1023.37927246094 1024.39892578125 1017.40795898438 1020.31597900391 1005.09429931641 997.959106445312 983.544067382812 974.407958984375 959.689636230469 946.324768066406 953.531677246094 954.264282226562 975.735107421875 971.984313964844 963.193969726562 969.029357910156 965.234741210938 965.048461914062 968.538391113281 981.622741699219 980.165283203125 985.956359863281 974.833435058594 966.088989257812 961.321166992188 962.9697265625 966.108093261719 975.002807617188 977.008544921875 953.288452148438 954.324951171875 938.987060546875 933.044738769531 934.651306152344 924.606750488281 921.327453613281 916.876281738281 933.873168945312 943.704650878906 956.937377929688 964.121337890625 980.861572265625 991.4267578125 998.2060546875 1006.74652099609 1009.20922851562 1010.21185302734 1020.47253417969 1022.57501220703 1033.55065917969 1045.09191894531 1057.00207519531 1066.95593261719 1060.44189453125 1062.85180664062 1071.24755859375 1079.01831054688 1084.85717773438 1090.37854003906 1099.16076660156 1102.54968261719 1098.79650878906 1097.01977539062 1108.21545410156 1119.46008300781 1116.71752929688 1113.98474121094 1110.69897460938 1101.50708007812
988.503967285156 983.648803710938 981.904724121094 972.720336914062 961.320129394531 980.23974609375 982.220581054688 989.27978515625 983.990539550781 993.638000488281 980.716430664062 972.737609863281 971.092102050781 962.42919921875 976.727844238281 978.476806640625 982.390441894531 980.830444335938 988.339416503906 992.348815917969 994.459289550781 992.116149902344 992.139770507812 990.552368164062 986.555236816406 994.436218261719 997.3203125 997.381591796875 1006.39520263672 1011.32312011719 1024.703125 1026.83093261719 1026.60302734375 1023.50964355469 1018.23223876953 1024.16271972656 1022.16033935547 1029.5224609375 1048.90551757812 1043.443359375 1041.96069335938 1039.60168457031 1027.83483886719 1029.20935058594 1036.22241210938 1035.96118164062 1033.69226074219 1033.11474609375 1033.64672851562 1017.59924316406 1013.28967285156 1009.65924072266 1005.59722900391 1004.98870849609 1000.55773925781 991.187805175781 992.49267578125 1011.95104980469 1015.45440673828 1018.57196044922 1023.05810546875 1019.79504394531 1026.12878417969 1033.55737304688 1028.36206054688 1025.09423828125 1022.50646972656 1021.07196044922 1013.65649414062 1012.53265380859 1005.16003417969 1008.99383544922 1007.98388671875 1018.32574462891 1018.4912109375 1028.56677246094 1035.80944824219 1039.00134277344 1033.83435058594 1025.94555664062 1035.96569824219 1031.20788574219 1024.22143554688 1027.32287597656 1018.46502685547 1004.14270019531 999.826416015625 989.116088867188 971.884460449219 960.052307128906 957.916259765625 964.507019042969 970.918334960938 977.589660644531 973.818176269531 977.303161621094 976.605651855469 961.450744628906 962.846923828125 977.891357421875 982.082580566406 986.973205566406 980.129028320312 975.623779296875 974.38818359375 970.010131835938 971.334167480469 970.239685058594 977.317687988281 981.979309082031 964.743591308594 955.365234375 942.894165039062 931.449279785156 933.822082519531 933.454223632812 917.724243164062 916.858215332031 927.48291015625 943.33935546875 952.25 963.369018554688 974.66552734375 992.9287109375 1003.41351318359 1004.92376708984 1013.37170410156 1008.63934326172 1019.61950683594 1027.23120117188 1035.57727050781 1038.39318847656 1049.63916015625 1054.54418945312 1060.98791503906 1056.56665039062 1064.4853515625 1074.88696289062 1079.27221679688 1079.93505859375 1096.06579589844 1094.63305664062 1098.06225585938 1105.0703125 1107.10961914062 1111.46533203125 1108.87683105469 1110.701171875 1100.70104980469 1091.5439453125
980.082092285156 977.587341308594 966.844970703125 966.932800292969 968.5009765625 973.971374511719 983.102600097656 983.316101074219 988.028259277344 984.19384765625 984.191467285156 978.588623046875 963.947204589844 957.226318359375 969.973510742188 970.77587890625 972.197082519531 984.717407226562 983.283752441406 979.863342285156 987.366638183594 990.428771972656 988.334289550781 984.4921875 993.572082519531 994.360900878906 995.871459960938 999.978820800781 1007.54382324219 1018.87933349609 1033.04382324219 1018.03210449219 1017.83959960938 1029.91918945312 1030.69104003906 1030.08288574219 1021.68701171875 1026.49694824219 1038.55334472656 1036.86608886719 1040.40234375 1038.607421875 1034.4541015625 1033.19152832031 1038.94641113281 1028.63061523438 1032.90466308594 1030.94860839844 1025.62060546875 1014.45184326172 1013.13610839844 1014.34606933594 1011.25109863281 1005.32342529297 995.681274414062 1000.95721435547 997.993591308594 1005.69494628906 1012.48052978516 1013.2548828125 1009.94860839844 1020.54040527344 1027.34924316406 1028.05651855469 1028.4345703125 1027.19213867188 1032.14465332031 1027.1240234375 1020.27197265625 1023.21911621094 1014.62396240234 1018.56652832031 1014.43194580078 1023.54968261719 1039.634765625 1035.6669921875 1032.63012695312 1033.07727050781 1033.96435546875 1030.68994140625 1040.21887207031 1032.16882324219 1024.85876464844 1019.46624755859 1020.71325683594 1012.25463867188 1006.65826416016 992.760986328125 974.010620117188 966.361877441406 962.51416015625 962.211303710938 975.644348144531 977.438171386719 975.238708496094 980.444580078125 976.449157714844 976.105285644531 978.753173828125 984.184509277344 984.732727050781 984.906311035156 989.156188964844 990.94970703125 987.999206542969 980.318664550781 968.935363769531 981.499145507812 987.082397460938 983.839416503906 969.466125488281 962.609558105469 954.08154296875 942.56005859375 945.784301757812 931.622497558594 920.112426757812 924.922119140625 944.186950683594 950.176391601562 958.608459472656 965.508972167969 985.721740722656 986.861145019531 999.735778808594 1015.25775146484 1012.15063476562 1020.35900878906 1026.73571777344 1037.17846679688 1037.1826171875 1052.23803710938 1056.98449707031 1053.64868164062 1059.68383789062 1056.12561035156 1064.06127929688 1069.19201660156 1083.47912597656 1081.5703125 1081.23474121094 1091.62353515625 1092.38232421875 1108.06140136719 1105.09704589844 1105.18469238281 1109.54248046875 1099.08056640625 1094.36389160156 1089.87219238281
970.473876953125 972.735412597656 964.320251464844 962.13623046875 965.656066894531 970.099365234375 978.358459472656 977.807556152344 984.331848144531 977.487976074219 978.39501953125 966.707153320312 960.479736328125 963.499694824219 965.547485351562 968.565063476562 977.817260742188 983.48291015625 977.699890136719 970.689331054688 984.370910644531 989.767761230469 989.3388671875 984.586853027344 995.088256835938 1004.53045654297 1003.76403808594 1006.15313720703 1006.71252441406 1009.83905029297 1019.51885986328 1018.82464599609 1016.78723144531 1022.06243896484 1022.91076660156 1027.24938964844 1020.86486816406 1026.04772949219 1035.68835449219 1040.4091796875 1037.92419433594 1036.04455566406 1036.46813964844 1039.93566894531 1043.62658691406 1037.81762695312 1034.60302734375 1029.16162109375 1020.59619140625 1008.35302734375 1009.80517578125 1007.01599121094 1002.34515380859 1000.67401123047 995.056213378906 992.605651855469 990.230407714844 1009.52508544922 1014.50122070312 1018.43627929688 1017.47772216797 1018.72302246094 1015.97430419922 1026.79028320312 1024.39270019531 1025.02014160156 1026.23608398438 1027.09680175781 1030.08264160156 1029.46240234375 1029.31530761719 1023.22186279297 1027.75512695312 1023.97552490234 1032.27758789062 1035.06774902344 1036.08276367188 1037.6474609375 1031.59887695312 1026.72338867188 1029.32287597656 1019.08319091797 1024.06335449219 1018.79180908203 1023.93823242188 1010.79260253906 1008.35729980469 1002.00793457031 982.656127929688 979.834594726562 982.198425292969 985.0712890625 984.92919921875 981.487976074219 980.167419433594 984.265441894531 981.9462890625 986.520751953125 995.131713867188 987.690307617188 993.19873046875 990.978515625 987.804992675781 984.088989257812 990.497436523438 990.673217773438 983.625366210938 989.414733886719 993.865661621094 984.37109375 975.055847167969 966.339660644531 956.926513671875 937.59375 939.529296875 931.126281738281 923.325866699219 926.753662109375 937.837890625 957.649108886719 966.645690917969 965.051818847656 980.547607421875 978.894409179688 1001.70098876953 1011.63391113281 1020.30804443359 1033.03674316406 1023.02380371094 1040.09619140625 1040.51354980469 1045.9677734375 1059.74890136719 1053.39208984375 1049.73742675781 1053.59912109375 1058.96911621094 1066.22131347656 1066.85119628906 1072.15905761719 1088.70959472656 1092.22131347656 1093.55114746094 1100.32836914062 1090.20080566406 1108.13671875 1105.90612792969 1100.04406738281 1084.99145507812 1088.49645996094
971.395690917969 976.070556640625 972.478393554688 969.471862792969 952.174621582031 952.099670410156 958.706726074219 978.477233886719 974.071228027344 969.610290527344 969.316284179688 960.477844238281 957.260192871094 959.03076171875 959.262756347656 960.274291992188 974.074035644531 974.70849609375 974.718994140625 977.301879882812 972.149230957031 983.851257324219 981.22119140625 984.952697753906 1000.16296386719 1000.41156005859 1005.84387207031 1005.59869384766 1001.77691650391 1004.84185791016 1019.59942626953 1016.33612060547 1014.51397705078 1020.76165771484 1024.77770996094 1027.11340332031 1028.95373535156 1018.24743652344 1034.01696777344 1032.888671875 1031.88879394531 1036.58996582031 1038.205078125 1035.16674804688 1030.24645996094 1029.65710449219 1031.88537597656 1028.08459472656 1020.05407714844 1001.05694580078 1007.25677490234 1000.26312255859 999.8232421875 993.58203125 992.197082519531 993.639404296875 1000.47674560547 1005.02502441406 1008.89520263672 1023.77001953125 1021.91229248047 1019.97082519531 1021.51995849609 1019.88439941406 1033.89624023438 1030.45251464844 1025.41931152344 1022.47711181641 1036.64111328125 1026.23828125 1027.52819824219 1027.65625 1035.25305175781 1032.71203613281 1040.28100585938 1030.70886230469 1029.982421875 1036.03979492188 1032.05822753906 1026.14343261719 1027.36059570312 1025.052734375 1017.326171875 1020.49932861328 1015.23944091797 1010.04571533203 1004.27124023438 999.765625 991.012512207031 998.588500976562 995.059204101562 994.687683105469 999.13525390625 991.857360839844 994.396606445312 997.321411132812 999.746032714844 1000.56384277344 1008.6533203125 1001.58074951172 998.490417480469 995.802978515625 996.057861328125 995.060607910156 997.770080566406 988.265625 984.338317871094 989.132019042969 997.76123046875 988.931640625 982.745666503906 963.471252441406 951.333251953125 940.153259277344 947.302490234375 942.035583496094 931.444641113281 926.217346191406 943.428283691406 954.491760253906 970.307922363281 968.543334960938 984.4814453125 989.781494140625 998.892639160156 1010.40075683594 1017.76348876953 1026.240234375 1029.98754882812 1030.09887695312 1036.5625 1042.857421875 1053.85510253906 1050.30383300781 1052.53332519531 1049.52319335938 1054.177734375 1069.25476074219 1071.83935546875 1082.43994140625 1078.75134277344 1086.13549804688 1082.63293457031 1088.73864746094 1090.15051269531 1099.41174316406 1098.08508300781 1097.16943359375 1091.7978515625 1086.07946777344
974.085693359375 972.922424316406 974.06396484375 962.654846191406 950.45166015625 948.913208007812 953.464721679688 960.023254394531 959.443908691406 958.596008300781 957.498718261719 960.080505371094 962.472900390625 959.667785644531 964.996643066406 961.267700195312 962.184020996094 967.882995605469 977.48486328125 969.227783203125 973.898254394531 982.072998046875 980.431518554688 993.513244628906 996.135559082031 1011.48651123047 1005.66735839844 1001.83038330078 1007.02362060547 1019.47540283203 1017.44311523438 1017.83251953125 1016.22387695312 1029.79943847656 1031.61791992188 1030.24877929688 1026.60620117188 1022.52697753906 1023.74157714844 1024.7314453125 1023.18072509766 1025.04504394531 1034.42077636719 1026.54907226562 1016.46722412109 1018.18286132812 1017.42510986328 1020.22406005859 1014.86462402344 1004.19812011719 1002.28991699219 1001.88946533203 1007.73608398438 997.872314453125 993.001770019531 997.246276855469 1004.49786376953 1009.52313232422 1007.75933837891 1018.86962890625 1016.09375 1017.61218261719 1023.15081787109 1019.31512451172 1027.48706054688 1020.26416015625 1019.96752929688 1018.25115966797 1026.23718261719 1026.2861328125 1021.50408935547 1025.96484375 1033.71569824219 1033.61108398438 1020.53582763672 1023.40631103516 1032.23425292969 1023.93988037109 1027.04870605469 1023.97937011719 1029.11071777344 1019.01593017578 1018.44097900391 1010.75793457031 1006.13928222656 1011.27203369141 997.977783203125 989.721130371094 1001.29052734375 1010.86279296875 1014.12591552734 1005.11999511719 1004.79461669922 1005.30822753906 1011.04473876953 1022.93438720703 1017.76306152344 1018.41888427734 1015.62670898438 1013.09936523438 1003.66790771484 1016.09771728516 1001.40173339844 1000.31036376953 997.402160644531 991.342956542969 991.116882324219 996.076538085938 996.526062011719 987.655334472656 973.615234375 957.999694824219 952.008666992188 945.663146972656 942.421081542969 945.327270507812 941.266967773438 930.549621582031 940.36669921875 947.937683105469 977.085266113281 982.129699707031 985.803588867188 998.436401367188 1006.42126464844 1003.33825683594 1018.46331787109 1031.33544921875 1031.47827148438 1029.05834960938 1040.03759765625 1040.46472167969 1042.29309082031 1047.50756835938 1051.76684570312 1059.18334960938 1063.06652832031 1065.17846679688 1070.96813964844 1072.54113769531 1069.76892089844 1080.64953613281 1085.19519042969 1083.30981445312 1083.58605957031 1092.57263183594 1088.98779296875 1090.49255371094 1089.93347167969 1088.04565429688
967.735534667969 962.57958984375 949.070495605469 948.308959960938 946.670471191406 946.307739257812 955.891723632812 957.560852050781 957.10498046875 958.936279296875 963.244018554688 957.023559570312 959.100280761719 956.311096191406 957.707641601562 962.876831054688 958.659606933594 956.805603027344 965.082458496094 972.402099609375 975.38818359375 992.707458496094 994.953186035156 988.800720214844 996.407775878906 1003.61108398438 1004.87493896484 1006.43048095703 1008.82647705078 1009.14630126953 1010.81475830078 1012.88293457031 1007.51892089844 1020.27026367188 1028.23315429688 1025.85363769531 1020.62579345703 1019.97576904297 1022.65478515625 1031.50708007812 1025.03552246094 1021.17254638672 1019.58209228516 1022.70074462891 1019.06439208984 1007.802734375 1012.78387451172 1009.88403320312 1005.53326416016 1007.13848876953 1002.13269042969 999.251037597656 998.129272460938 996.313659667969 996.500061035156 989.961486816406 1007.169921875 1004.1689453125 1014.01867675781 1015.47985839844 1016.55181884766 1023.42016601562 1020.53118896484 1022.65283203125 1018.79437255859 1020.34344482422 1024.88403320312 1024.07604980469 1023.39727783203 1028.36596679688 1032.61120605469 1030.6162109375 1021.11010742188 1028.380859375 1016.37493896484 1022.49755859375 1026.15197753906 1020.57446289062 1010.78643798828 1011.72802734375 1020.63336181641 1024.33569335938 1014.0419921875 1013.84393310547 1008.01672363281 1007.18444824219 999.144775390625 996.005737304688 996.671997070312 1004.99645996094 1013.93890380859 1014.16180419922 1010.92687988281 1015.70715332031 1020.73077392578 1024.69958496094 1023.07403564453 1027.20422363281 1022.45727539062 1024.91821289062 1011.46929931641 1009.36126708984 1006.64288330078 1006.81237792969 1012.16345214844 1002.31451416016 999.760620117188 991.168579101562 997.914978027344 983.359008789062 974.484924316406 964.721252441406 959.9931640625 947.136047363281 945.208190917969 938.294799804688 935.984069824219 938.788818359375 954.495544433594 966.443176269531 981.188842773438 991.175903320312 992.699768066406 994.257080078125 1000.34906005859 1015.45654296875 1025.58654785156 1034.79406738281 1036.13513183594 1035.34692382812 1042.02258300781 1039.21887207031 1044.048828125 1054.41931152344 1054.29992675781 1058.48400878906 1068.74401855469 1066.75842285156 1077.0712890625 1080.62524414062 1074.4189453125 1085.6982421875 1082.58972167969 1078.82287597656 1075.17907714844 1081.14208984375 1089.43920898438 1094.08557128906 1093.68676757812 1086.72680664062
958.1376953125 951.359924316406 948.435607910156 940.024658203125 942.993530273438 944.60986328125 949.250915527344 957.708068847656 955.665100097656 951.167724609375 954.490234375 960.395812988281 951.071716308594 962.981750488281 965.313293457031 959.943908691406 949.430358886719 955.205078125 957.376281738281 968.522705078125 974.648193359375 987.118713378906 996.359985351562 990.513610839844 990.397888183594 997.727172851562 1007.40075683594 996.404235839844 1004.29974365234 1006.24670410156 1005.95355224609 1001.74035644531 1000.2001953125 1012.40325927734 1027.2646484375 1023.16381835938 1014.70660400391 1015.25360107422 1020.35394287109 1030.56140136719 1027.77575683594 1014.24005126953 1007.93389892578 1018.76794433594 1009.09527587891 1008.25854492188 1002.76428222656 1004.52496337891 1011.93951416016 1002.94598388672 993.038513183594 993.73388671875 998.789428710938 999.314697265625 990.622009277344 991.463500976562 1010.47784423828 1012.21563720703 1016.04187011719 1020.21508789062 1019.92431640625 1015.66857910156 1010.57586669922 1020.57312011719 1014.23394775391 1017.6181640625 1026.68603515625 1030.36730957031 1022.57318115234 1021.7802734375 1020.33892822266 1023.79174804688 1015.43646240234 1018.82086181641 1014.14587402344 1014.57757568359 1016.05377197266 1008.16577148438 1006.97277832031 999.730224609375 1011.78460693359 1022.15777587891 1015.28735351562 1021.11798095703 1014.16986083984 1011.44165039062 1001.72717285156 996.008850097656 1000.37384033203 1010.94049072266 1019.61657714844 1023.08489990234 1011.38037109375 1017.91394042969 1027.92651367188 1022.56872558594 1029.21728515625 1024.39965820312 1027.39892578125 1021.70330810547 1015.45678710938 1013.427734375 1006.48120117188 1019.29663085938 1010.06671142578 999.354675292969 996.602783203125 981.156921386719 986.583740234375 974.870727539062 968.949523925781 963.463134765625 956.98681640625 949.38818359375 946.003112792969 943.277648925781 951.692626953125 959.996154785156 962.490539550781 979.535217285156 992.887817382812 994.547424316406 1000.51788330078 997.022338867188 1001.63616943359 1017.18707275391 1033.82873535156 1036.56860351562 1037.65393066406 1040.67846679688 1037.89758300781 1041.4140625 1048.87487792969 1055.16320800781 1052.43530273438 1049.6328125 1054.74279785156 1061.23193359375 1075.80297851562 1076.71362304688 1076.83752441406 1085.41735839844 1076.75659179688 1068.80419921875 1070.56994628906 1081.85229492188 1084.15893554688 1094.91638183594 1088.70532226562 1084.14416503906
951.072570800781 944.365905761719 952.539001464844 947.6103515625 945.113891601562 952.9677734375 953.254760742188 956.267028808594 948.51708984375 951.185363769531 958.611572265625 964.939147949219 953.965270996094 953.278564453125 960.989501953125 962.982055664062 961.3955078125 963.063903808594 965.146484375 974.559753417969 975.855651855469 976.173706054688 981.588439941406 990.22216796875 998.405395507812 1007.48571777344 1002.38830566406 1001.34552001953 1009.74676513672 1006.27972412109 1003.62524414062 1001.25909423828 1006.63238525391 1010.35272216797 1019.96990966797 1013.24438476562 1015.35815429688 1019.62030029297 1023.67730712891 1024.10144042969 1027.85827636719 1018.97143554688 1018.04016113281 1014.80035400391 1014.66290283203 1012.86334228516 1002.40399169922 1005.48773193359 1009.10955810547 999.546936035156 997.533569335938 988.940368652344 993.765014648438 993.742614746094 993.480163574219 989.212524414062 998.439208984375 1009.21313476562 1010.92779541016 1016.36151123047 1011.96997070312 1011.9853515625 1008.19470214844 1009.38153076172 1007.67663574219 1014.73114013672 1021.98895263672 1018.40936279297 1025.94030761719 1018.48553466797 1016.00842285156 1015.85406494141 1019.98504638672 1010.24798583984 1007.82354736328 1007.92315673828 1009.62030029297 1004.55615234375 998.333251953125 995.902648925781 999.436767578125 997.7763671875 1008.52648925781 1014.81683349609 1011.70971679688 1010.28717041016 1007.29553222656 1009.28961181641 1013.10974121094 1012.85632324219 1010.62707519531 1017.82397460938 1016.90405273438 1019.97271728516 1035.36206054688 1032.2177734375 1033.50109863281 1029.80444335938 1026.41003417969 1014.94854736328 1016.92248535156 1007.59405517578 1001.90484619141 1011.56915283203 1013.72613525391 1014.74993896484 1002.02624511719 996.48828125 992.322143554688 980.477172851562 967.9921875 959.539794921875 956.121765136719 950.519104003906 947.339782714844 945.840698242188 950.3583984375 964.937133789062 971.846496582031 982.91259765625 989.061401367188 993.956115722656 999.149780273438 1005.20849609375 1015.81011962891 1018.82348632812 1034.74682617188 1031.572265625 1041.24658203125 1043.91613769531 1036.39514160156 1043.66284179688 1047.09020996094 1054.29235839844 1046.67431640625 1043.82238769531 1053.76806640625 1056.857421875 1061.67724609375 1073.30969238281 1073.03723144531 1074.40222167969 1067.99084472656 1065.84326171875 1063.81616210938 1070.71594238281 1087.65344238281 1086.86608886719 1084.1025390625 1086.89050292969
954.683898925781 943.955810546875 943.945556640625 952.289794921875 951.745056152344 953.637390136719 954.923889160156 950.127990722656 946.818725585938 953.432922363281 961.940856933594 959.906188964844 962.060424804688 955.392333984375 963.564453125 958.530456542969 968.166015625 967.598815917969 969.2412109375 977.91259765625 977.562377929688 978.955993652344 979.752258300781 986.130981445312 987.462219238281 1004.78936767578 1004.10913085938 1006.93463134766 1002.74401855469 999.725830078125 1003.45654296875 1002.72448730469 1000.51214599609 1003.10919189453 1010.79724121094 1014.21075439453 1017.04675292969 1017.95489501953 1022.17303466797 1019.35302734375 1021.84301757812 1016.21252441406 1015.26409912109 1010.06433105469 1008.57159423828 1006.63305664062 1003.39599609375 1007.90209960938 1005.05249023438 991.271423339844 985.884948730469 990.34130859375 989.793762207031 983.126037597656 983.622375488281 982.843933105469 996.806396484375 1003.55029296875 1011.13836669922 1008.81121826172 1003.07446289062 1001.60589599609 999.286743164062 1001.66693115234 1009.08001708984 1012.42700195312 1025.44067382812 1017.46319580078 1018.16424560547 1011.69219970703 1013.78179931641 1018.25622558594 1012.16796875 1005.07934570312 1004.3564453125 1009.79449462891 1003.87176513672 997.705200195312 992.380249023438 997.491577148438 997.950500488281 990.251647949219 999.01708984375 1011.53228759766 1013.61419677734 1011.36639404297 1015.80529785156 1006.12268066406 1013.90960693359 1010.68109130859 1014.89947509766 1018.57043457031 1018.88726806641 1029.2177734375 1028.28186035156 1029.86743164062 1032.28039550781 1020.90234375 1011.583984375 1008.556640625 1008.96856689453 1010.47052001953 1003.49963378906 1013.1455078125 1020.01330566406 1015.77459716797 1009.91448974609 1007.22979736328 997.12646484375 978.682434082031 973.058959960938 962.386474609375 948.271850585938 949.074340820312 946.731262207031 937.942138671875 951.913024902344 974.445739746094 983.467041015625 988.600280761719 999.899963378906 1005.3798828125 1011.48217773438 1013.43908691406 1019.33264160156 1016.00463867188 1029.58447265625 1039.40942382812 1045.671875 1046.07934570312 1043.44763183594 1038.77917480469 1041.03967285156 1044.05578613281 1045.90466308594 1038.34155273438 1053.09411621094 1060.00402832031 1062.78515625 1071.92492675781 1074.62731933594 1083.8837890625 1066.27026367188 1066.28479003906 1063.71276855469 1070.64233398438 1079.81640625 1084.75817871094 1078.78283691406 1076.29772949219
945.776794433594 953.337219238281 942.243347167969 949.752502441406 950.548400878906 950.596923828125 959.579284667969 958.187805175781 949.730224609375 949.018005371094 958.597290039062 956.790832519531 959.014404296875 958.363952636719 955.623291015625 957.286254882812 966.466552734375 968.781372070312 973.251708984375 976.652404785156 972.752136230469 977.136840820312 982.3408203125 977.944702148438 985.188293457031 997.236877441406 997.917602539062 994.764099121094 1005.13262939453 1001.19818115234 996.531921386719 995.887817382812 996.309204101562 995.641723632812 1009.64617919922 1013.65881347656 1013.53240966797 1022.7587890625 1020.91870117188 1017.05853271484 1023.1630859375 1017.55828857422 1011.62603759766 1012.09771728516 1003.29180908203 999.118835449219 1005.54144287109 1002.28308105469 999.040100097656 994.768310546875 987.475952148438 986.603332519531 985.713806152344 986.057250976562 974.512939453125 988.581359863281 999.150390625 1004.58123779297 1011.30047607422 1006.68994140625 993.341003417969 998.608703613281 1000.34167480469 1002.30505371094 1008.12286376953 1014.75994873047 1010.29833984375 1011.81884765625 1015.42614746094 1008.92401123047 1010.78845214844 1009.75866699219 995.883666992188 995.996337890625 999.505126953125 1000.97180175781 992.388549804688 996.870666503906 986.833923339844 993.977600097656 992.4384765625 990.259460449219 998.279418945312 1003.51666259766 1007.7666015625 1004.53698730469 1019.64398193359 1010.49682617188 1021.15649414062 1013.23059082031 1010.41009521484 1013.09185791016 1015.44036865234 1020.27716064453 1021.83892822266 1037.05041503906 1022.43353271484 1023.02191162109 1011.783203125 1010.41082763672 1011.81616210938 1009.71209716797 1006.22570800781 1008.09368896484 1008.23901367188 1009.04907226562 1013.25085449219 1007.64715576172 1002.88519287109 977.7919921875 964.952270507812 953.026977539062 950.752319335938 943.075561523438 945.268676757812 944.5048828125 963.53955078125 980.899658203125 991.261657714844 992.782165527344 1005.74078369141 1007.19964599609 1017.63305664062 1017.90362548828 1020.69348144531 1024.98474121094 1024.72338867188 1040.73022460938 1043.65441894531 1043.26550292969 1046.14196777344 1047.23950195312 1046.2392578125 1036.31958007812 1046.81298828125 1042.15905761719 1045.60205078125 1056.95581054688 1065.06433105469 1071.73400878906 1073.04919433594 1070.02368164062 1074.48913574219 1067.3544921875 1065.18896484375 1062.802734375 1072.236328125 1073.43371582031 1077.92687988281 1079.51721191406
944.577758789062 949.975463867188 947.40087890625 957.296936035156 958.742736816406 966.719848632812 959.230651855469 957.820678710938 961.920837402344 957.805358886719 973.277648925781 958.276489257812 960.176818847656 962.591796875 956.541931152344 955.990844726562 964.755249023438 970.994567871094 968.215515136719 973.160400390625 985.471008300781 978.870422363281 972.471069335938 975.983764648438 974.162292480469 979.7841796875 992.222290039062 995.78955078125 1003.04473876953 990.778259277344 995.557006835938 995.834594726562 1000.90405273438 1010.26153564453 1009.69488525391 1013.23278808594 1014.36730957031 1016.98443603516 1011.35101318359 1010.73474121094 1010.99816894531 1005.24139404297 1009.94665527344 1000.54736328125 999.109130859375 1009.09271240234 1000.04852294922 997.451904296875 1003.11950683594 989.9072265625 986.926940917969 983.753967285156 979.087341308594 987.289367675781 976.613342285156 985.44091796875 992.078918457031 1000.86242675781 999.30322265625 1001.56774902344 999.057067871094 995.302429199219 999.67529296875 996.864929199219 1005.88970947266 1011.09924316406 1017.99798583984 1013.62121582031 1004.71820068359 1008.74163818359 1010.27313232422 1001.48364257812 996.427795410156 986.802978515625 990.795654296875 985.126525878906 983.685852050781 987.224609375 981.497924804688 984.777038574219 981.0009765625 980.574279785156 981.173583984375 1001.30230712891 1003.49731445312 1013.37622070312 1010.18530273438 1010.58062744141 1004.6669921875 1009.38079833984 997.395690917969 1006.76580810547 1008.86712646484 1018.14569091797 1023.76342773438 1023.34484863281 1032.71142578125 1029.51232910156 1019.84552001953 1017.68218994141 1006.21990966797 1004.37493896484 1008.79223632812 1003.23010253906 1002.56359863281 1008.97369384766 1010.53790283203 1009.18103027344 1001.91918945312 981.117797851562 969.235473632812 960.469543457031 949.756286621094 950.369445800781 947.611572265625 950.032348632812 963.390991210938 981.357055664062 988.094116210938 994.673400878906 1001.56420898438 996.751831054688 1021.15368652344 1025.40307617188 1026.24206542969 1024.87573242188 1033.78076171875 1043.76135253906 1042.6337890625 1036.33422851562 1028.39196777344 1039.26892089844 1031.90161132812 1044.25183105469 1040.70227050781 1037.56311035156 1035.69140625 1042.36303710938 1061.67578125 1061.52380371094 1066.30285644531 1073.76330566406 1076.25744628906 1067.4912109375 1063.76477050781 1077.22229003906 1066.74133300781 1077.28991699219 1080.08081054688 1073.15515136719
947.495300292969 944.32421875 945.505554199219 952.866149902344 962.536987304688 955.603332519531 956.554504394531 963.974182128906 965.934265136719 965.294616699219 966.933654785156 968.972900390625 967.902770996094 968.442260742188 963.697509765625 964.015014648438 963.258422851562 966.9033203125 974.723937988281 976.650207519531 977.0830078125 982.2548828125 971.130920410156 977.662963867188 974.937561035156 973.46826171875 992.797607421875 989.175415039062 990.893615722656 985.082336425781 987.080749511719 994.559631347656 997.978759765625 1003.45642089844 1003.3740234375 1009.25720214844 1018.33178710938 1009.8525390625 1009.77282714844 997.658630371094 994.294067382812 992.244384765625 989.055114746094 996.243347167969 994.819702148438 1000.89019775391 1005.03460693359 991.64453125 997.341552734375 993.350646972656 989.348388671875 986.904174804688 991.334350585938 984.438049316406 986.818664550781 986.742980957031 982.213195800781 997.3447265625 999.18994140625 999.788024902344 997.28076171875 993.43310546875 991.467102050781 1000.26391601562 1001.49969482422 1014.99566650391 1015.80102539062 1002.658203125 996.748474121094 999.013732910156 1008.08178710938 1010.22399902344 1005.15155029297 997.773864746094 998.588012695312 987.932495117188 983.231506347656 984.241088867188 991.058654785156 988.147705078125 980.697204589844 987.267272949219 993.758361816406 1006.07305908203 1002.88293457031 1010.63372802734 1001.14855957031 1014.18774414062 1002.87292480469 995.571655273438 996.820861816406 1008.55804443359 1015.92840576172 1025.01257324219 1023.60803222656 1023.47479248047 1030.13732910156 1021.11102294922 1018.13806152344 1021.18029785156 1025.93713378906 1003.900390625 1006.07373046875 1004.056640625 1003.81481933594 1009.16497802734 1004.740234375 1004.01550292969 993.705627441406 980.297546386719 972.2666015625 961.893310546875 954.061950683594 948.888488769531 946.782775878906 958.208251953125 970.710205078125 980.909545898438 985.619506835938 987.995788574219 995.744140625 1006.15185546875 1016.07598876953 1028.65307617188 1031.31921386719 1033.0634765625 1038.78698730469 1045.05944824219 1046.42993164062 1041.40734863281 1034.93310546875 1027.61865234375 1033.14379882812 1029.49108886719 1026.57629394531 1034.2763671875 1028.99633789062 1033.43249511719 1047.33947753906 1053.33422851562 1061.42700195312 1077.11669921875 1069.31298828125 1060.59265136719 1063.46057128906 1075.20947265625 1075.42749023438 1077.40783691406 1077.48559570312 1081.46459960938
957.302978515625 951.670654296875 953.657043457031 946.443176269531 955.744262695312 959.380798339844 951.165100097656 959.456176757812 966.668151855469 969.21484375 961.101379394531 962.875305175781 974.419311523438 978.238708496094 971.856262207031 972.099792480469 969.519226074219 969.04638671875 972.725036621094 988.257446289062 979.757690429688 976.063903808594 971.599304199219 970.972229003906 985.514465332031 984.935180664062 986.291687011719 989.263366699219 984.290344238281 980.974182128906 992.876647949219 989.680541992188 991.697448730469 993.320251464844 1001.98785400391 1009.91741943359 1010.12554931641 1006.95837402344 1006.03729248047 994.284606933594 990.091552734375 997.278991699219 1003.29992675781 990.453186035156 991.009765625 997.839599609375 993.970275878906 990.517517089844 991.890686035156 984.655151367188 977.71630859375 982.626220703125 987.072937011719 989.086669921875 995.223205566406 984.694519042969 981.611450195312 989.587890625 994.901611328125 1000.06188964844 1005.19085693359 999.702453613281 997.628540039062 994.598999023438 992.082641601562 1000.50616455078 1011.71325683594 991.516845703125 996.97802734375 995.91748046875 993.52490234375 995.197143554688 1001.74029541016 1006.11773681641 994.300476074219 992.536560058594 992.745483398438 982.47412109375 989.011901855469 992.486511230469 991.736572265625 1001.19537353516 1002.40081787109 1006.12463378906 1002.03082275391 1006.46466064453 1004.5517578125 1005.71868896484 996.941772460938 995.514526367188 996.326354980469 1005.31555175781 1025.41394042969 1029.83178710938 1028.01904296875 1024.48693847656 1012.30786132812 1011.65386962891 1017.05865478516 1012.79229736328 1013.95379638672 1002.79614257812 995.374755859375 997.3583984375 1004.47912597656 1006.58892822266 1004.23504638672 1000.63061523438 987.432495117188 969.931579589844 963.738891601562 960.444091796875 957.418395996094 954.076293945312 954.608581542969 964.891845703125 965.248229980469 968.451171875 984.460327148438 987.576049804688 997.584350585938 1016.85131835938 1026.12292480469 1023.87084960938 1028.31860351562 1038.90893554688 1031.61877441406 1037.95849609375 1047.75256347656 1039.96179199219 1032.72607421875 1025.92749023438 1033.52416992188 1024.05725097656 1031.55297851562 1027.14892578125 1031.2568359375 1038.41809082031 1044.93872070312 1050.50012207031 1048.58410644531 1072.0947265625 1065.11450195312 1060.724609375 1065.44592285156 1060.03979492188 1076.2001953125 1074.75256347656 1077.27551269531 1088.90661621094
951.096252441406 946.175964355469 954.984497070312 959.602722167969 960.935302734375 963.55517578125 955.874145507812 961.344299316406 960.643188476562 971.362731933594 969.284484863281 973.422729492188 976.267211914062 981.388916015625 964.990966796875 967.322082519531 967.374755859375 970.541442871094 977.060485839844 979.583557128906 984.1845703125 984.113891601562 975.645385742188 980.918395996094 985.903015136719 983.86767578125 985.741149902344 990.415649414062 984.144165039062 989.129699707031 983.445678710938 990.345153808594 993.068725585938 999.605834960938 993.167541503906 1002.14172363281 1005.88604736328 1001.93701171875 999.154907226562 991.873352050781 990.755493164062 990.875244140625 985.915832519531 988.976318359375 1000.20745849609 993.059509277344 990.6982421875 994.085815429688 984.020568847656 966.947631835938 971.492736816406 982.887390136719 987.829406738281 992.687866210938 992.591613769531 987.870422363281 983.577087402344 998.207458496094 1000.81646728516 997.071411132812 993.740173339844 997.285827636719 999.607482910156 986.73486328125 984.681640625 985.885986328125 1001.78332519531 1001.30737304688 1007.03076171875 997.215270996094 995.882995605469 1000.48059082031 997.951477050781 994.006591796875 993.015441894531 989.205322265625 984.393920898438 985.409606933594 984.03515625 993.355102539062 988.011596679688 989.442321777344 996.0625 1000.59466552734 1006.58532714844 1010.97552490234 995.042175292969 1003.09515380859 995.931457519531 1005.33154296875 994.288208007812 1008.27172851562 1020.42242431641 1027.68579101562 1015.84527587891 1011.95159912109 1001.22192382812 1014.12396240234 1009.44836425781 1009.15057373047 1006.50158691406 993.029968261719 1002.04083251953 1005.94250488281 1007.54608154297 1008.06658935547 1006.47119140625 1001.79937744141 981.965270996094 970.290954589844 968.536376953125 961.830078125 950.4736328125 949.767517089844 961.187744140625 962.520629882812 972.596130371094 969.997924804688 972.856994628906 987.984924316406 1003.73596191406 1007.78509521484 1016.18859863281 1018.49444580078 1024.1767578125 1036.19653320312 1032.63940429688 1039.90368652344 1043.66137695312 1038.66455078125 1033.95190429688 1023.89581298828 1023.15563964844 1024.63208007812 1030.51770019531 1033.58374023438 1033.59375 1044.32250976562 1045.03344726562 1049.63598632812 1044.61291503906 1054.77917480469 1062.70825195312 1065.85424804688 1067.26232910156 1066.14440917969 1067.02648925781 1071.29663085938 1087.46203613281 1092.44421386719
949.439331054688 954.495727539062 955.377014160156 965.445922851562 971.761352539062 970.755310058594 967.355834960938 957.100219726562 951.33935546875 959.214538574219 969.688842773438 971.989379882812 972.214782714844 986.331787109375 972.876525878906 973.188720703125 975.835327148438 977.294799804688 987.316284179688 986.7763671875 989.836730957031 991.681640625 988.03564453125 985.589599609375 992.036315917969 994.778564453125 993.651306152344 994.021118164062 997.278503417969 983.826416015625 988.55517578125 998.978454589844 988.389465332031 995.953796386719 992.825805664062 984.039611816406 990.107604980469 990.459228515625 983.950439453125 989.124755859375 995.135681152344 988.169311523438 987.528747558594 987.764587402344 985.648559570312 991.249816894531 983.893493652344 981.206909179688 980.361755371094 973.985778808594 980.611572265625 987.085205078125 979.239196777344 983.999145507812 990.156494140625 997.002746582031 988.60791015625 989.628479003906 996.496337890625 1002.2890625 1000.86236572266 995.260375976562 991.073608398438 990.7626953125 981.665771484375 993.179565429688 1005.125 1000.97222900391 1000.40374755859 990.239501953125 994.498291015625 990.230773925781 998.45166015625 994.150390625 992.359313964844 1002.27355957031 993.956970214844 996.212646484375 989.901123046875 990.464660644531 983.441772460938 992.829162597656 994.007568359375 1003.46875 1004.78796386719 1008.00524902344 1005.16217041016 1000.18218994141 1000.11114501953 1009.04473876953 1004.658203125 1004.40417480469 1014.72692871094 1018.123046875 1015.19891357422 1010.87719726562 1005.23162841797 1019.38439941406 1019.93463134766 1010.38018798828 1005.96783447266 1007.80798339844 997.442932128906 1009.57672119141 1010.19616699219 1006.09832763672 1005.6552734375 998.423889160156 992.503112792969 985.747436523438 980.4990234375 973.6083984375 955.033752441406 945.646301269531 963.860473632812 961.805236816406 975.009826660156 976.17822265625 987.881958007812 997.472778320312 1000.64459228516 1011.36279296875 1009.47845458984 1015.65905761719 1019.68988037109 1027.93408203125 1032.84826660156 1028.13842773438 1038.4853515625 1034.38806152344 1025.74499511719 1028.58935546875 1019.62994384766 1020.32080078125 1029.06359863281 1025.53356933594 1026.97570800781 1026.48828125 1047.45544433594 1050.42175292969 1052.78857421875 1059.71789550781 1069.29833984375 1071.24340820312 1081.38635253906 1071.55932617188 1069.44421386719 1080.888671875 1087.76818847656 1092.08435058594
948.8740234375 942.761901855469 959.189392089844 963.99365234375 970.940368652344 973.80859375 967.718994140625 967.590881347656 962.353393554688 963.946960449219 969.755310058594 968.940368652344 980.68359375 982.643676757812 983.298461914062 975.653076171875 978.987854003906 979.870178222656 981.234619140625 982.898071289062 987.138977050781 990.657287597656 985.999328613281 988.10791015625 988.716735839844 994.496948242188 995.498413085938 996.212951660156 991.146118164062 987.403564453125 983.2421875 988.977966308594 983.457641601562 984.056030273438 988.620178222656 997.138000488281 989.884643554688 986.595520019531 983.928649902344 988.728393554688 992.178161621094 980.295776367188 979.6201171875 987.087646484375 987.570068359375 989.10400390625 983.050048828125 980.310302734375 982.624450683594 981.098388671875 979.181518554688 982.989562988281 977.331970214844 980.782836914062 983.335876464844 993.263427734375 997.351989746094 990.950134277344 994.877807617188 994.959899902344 991.6796875 992.91162109375 995.224243164062 993.8837890625 985.524597167969 994.742370605469 1000.89782714844 1009.89794921875 999.153564453125 990.268737792969 994.954528808594 993.3642578125 988.619140625 995.013610839844 993.172180175781 992.433959960938 996.180969238281 994.335021972656 994.584411621094 989.403564453125 988.829711914062 988.877685546875 992.963256835938 997.128601074219 995.808349609375 1003.49548339844 1008.44195556641 1007.65478515625 1005.43939208984 1009.32318115234 999.229370117188 1007.84417724609 1007.71264648438 1008.55084228516 1007.408203125 1004.40887451172 1013.11291503906 1018.13958740234 1018.70489501953 1008.7119140625 1009.51544189453 1005.76379394531 1001.00500488281 1009.60235595703 1009.49475097656 1001.65844726562 1001.12420654297 1003.8623046875 993.517272949219 991.834716796875 989.97216796875 975.008117675781 963.989807128906 958.066040039062 965.509582519531 954.632873535156 967.443725585938 984.46875 996.70849609375 1002.25091552734 1000.92419433594 1005.57061767578 999.783813476562 1015.20220947266 1014.26080322266 1021.01373291016 1025.3994140625 1030.91430664062 1037.08068847656 1033.96130371094 1030.087890625 1029.32336425781 1025.59436035156 1025.34973144531 1026.111328125 1026.30944824219 1028.7890625 1026.47534179688 1044.73754882812 1057.32165527344 1065.47521972656 1066.951171875 1069.77941894531 1087.46813964844 1084.08959960938 1083.93676757812 1086.35437011719 1081.85485839844 1086.88452148438 1093.64965820312
947.256042480469 949.357177734375 954.459045410156 959.26611328125 971.254638671875 973.220520019531 965.896118164062 968.067321777344 968.879760742188 966.106872558594 965.159545898438 971.549194335938 976.335083007812 981.041625976562 987.363586425781 972.731628417969 986.510070800781 981.375793457031 978.621520996094 986.361877441406 986.510498046875 991.821411132812 989.188171386719 985.330139160156 975.084533691406 983.373840332031 995.956481933594 997.241455078125 983.620971679688 980.824035644531 982.88720703125 986.835083007812 986.861572265625 976.777404785156 988.921264648438 990.498352050781 995.766357421875 984.148376464844 979.093505859375 983.974914550781 980.918884277344 984.356994628906 982.54833984375 986.826049804688 990.391662597656 990.627624511719 984.932678222656 976.227233886719 981.116455078125 981.017211914062 974.053100585938 977.525268554688 974.584289550781 977.265747070312 983.009216308594 982.416320800781 990.409423828125 984.06982421875 987.583801269531 996.069580078125 986.375854492188 985.530029296875 989.137512207031 994.971923828125 988.596069335938 996.057922363281 994.982116699219 997.197265625 987.648132324219 994.781921386719 987.9638671875 991.930786132812 989.209716796875 988.743774414062 992.388977050781 998.441955566406 994.640625 995.823120117188 995.526428222656 996.723571777344 988.972778320312 989.392272949219 992.905151367188 994.427734375 1001.57824707031 1000.94799804688 1000.84393310547 1015.80737304688 1014.599609375 1015.39025878906 1010.85668945312 1007.14825439453 1003.68109130859 1003.06072998047 1005.265625 1009.08172607422 1002.31323242188 1013.86798095703 1013.53594970703 1011.79425048828 1013.5615234375 1004.384765625 1002.41461181641 1005.32806396484 1002.29663085938 999.726806640625 998.818542480469 1004.0322265625 999.337951660156 985.349670410156 986.926940917969 982 978.685302734375 966.934753417969 959.899169921875 957.15380859375 968.054260253906 979.398742675781 989.700500488281 999.086791992188 996.784790039062 991.930908203125 999.002685546875 1007.78692626953 1012.52600097656 1013.20251464844 1021.14868164062 1012.44366455078 1016.25036621094 1022.92047119141 1024.39111328125 1036.02392578125 1032.04833984375 1027.57177734375 1016.96850585938 1014.43927001953 1028.29833984375 1031.64233398438 1037.51477050781 1060.58532714844 1063.57202148438 1069.33520507812 1069.99792480469 1081.77551269531 1090.34533691406 1098.34033203125 1092.66528320312 1087.59704589844 1086.2353515625 1094.64453125
946.704528808594 945.684936523438 961.116455078125 962.392517089844 970.2578125 973.816711425781 968.8447265625 967.765319824219 963.562744140625 964.58642578125 965.295166015625 968.529296875 973.508056640625 975.331359863281 974.571960449219 977.971374511719 978.44287109375 983.131225585938 975.333801269531 984.916320800781 987.058776855469 987.320007324219 987.910583496094 990.36767578125 979.476928710938 987.212341308594 997.051330566406 990.527587890625 988.410827636719 983.064270019531 981.830444335938 988.513061523438 990.323303222656 995.984680175781 995.923034667969 996.850036621094 988.235900878906 983.686340332031 975.803100585938 977.228759765625 981.916748046875 991.744689941406 985.916748046875 986.73095703125 980.840637207031 982.99267578125 981.223205566406 978.685302734375 982.935791015625 979.093383789062 967.954284667969 971.877624511719 984.262878417969 984.025573730469 983.620788574219 981.985473632812 990.000427246094 986.079345703125 987.562805175781 992.415100097656 980.026672363281 987.045227050781 995.512573242188 989.443542480469 991.198547363281 994.064025878906 997.851318359375 988.167297363281 987.028625488281 985.754272460938 990.170104980469 983.984680175781 979.622924804688 986.659057617188 988.840515136719 992.557983398438 987.271118164062 988.83935546875 986.322570800781 989.243103027344 987.348876953125 995.61669921875 1002.6357421875 999.401184082031 1007.77270507812 1011.88690185547 1005.71527099609 1009.30767822266 1009.33551025391 1016.03332519531 1017.076171875 1016.15185546875 1003.79125976562 1008.12768554688 1012.42352294922 1010.16833496094 1014.22497558594 1016.33471679688 1014.91461181641 1012.27813720703 1007.75274658203 999.444519042969 1005.46026611328 1006.49743652344 1001.00811767578 1000.74206542969 993.767822265625 1000.58001708984 994.611633300781 990.498413085938 984.552978515625 983.33203125 981.085510253906 975.122192382812 962.742858886719 952.21826171875 962.203796386719 970.227661132812 980.379516601562 990.347106933594 992.247619628906 992.989440917969 1002.08221435547 1016.97222900391 1022.6376953125 1020.41619873047 1017.89636230469 1015.04931640625 1016.65521240234 1012.17297363281 1018.20648193359 1020.17211914062 1020.21887207031 1022.66052246094 1018.06109619141 1019.29272460938 1021.86737060547 1031.74243164062 1037.56164550781 1051.29931640625 1067.73266601562 1073.73229980469 1076.93774414062 1086.1484375 1098.66625976562 1094.21813964844 1091.962890625 1092.68811035156 1088.96899414062 1105.87341308594
952.971801757812 953.405944824219 952.639404296875 961.549865722656 958.316650390625 972.161560058594 975.55712890625 970.157836914062 969.2353515625 978.725036621094 972.689636230469 965.155517578125 972.08349609375 974.864135742188 976.337341308594 969.069091796875 969.758666992188 978.982238769531 980.641479492188 986.849731445312 986.333923339844 983.854187011719 979.870361328125 984.277465820312 980.121520996094 980.67333984375 990.444091796875 980.247436523438 977.552429199219 979.09619140625 982.166564941406 986.556579589844 992.109008789062 994.546447753906 997.430358886719 996.340759277344 985.960998535156 979.239501953125 972.281433105469 977.559204101562 983.69873046875 982.448852539062 980.6923828125 980.699462890625 983.691955566406 980.083801269531 973.877075195312 976.857971191406 976.50634765625 981.296508789062 981.817687988281 974.933532714844 977.87158203125 979.803649902344 984.083679199219 978.070861816406 982.874816894531 980.107238769531 980.448303222656 986.70361328125 988.788208007812 999.459899902344 993.995361328125 991.348510742188 993.22265625 998.704528808594 990.700866699219 986.921936035156 983.248474121094 983.708190917969 992.01025390625 985.532531738281 989.047607421875 981.655090332031 989.648620605469 987.888977050781 986.852172851562 981.340942382812 978.341857910156 984.93798828125 993.346984863281 1000.17816162109 999.34912109375 1013.61456298828 1007.88952636719 1008.83557128906 1008.39288330078 1022.28875732422 1007.55413818359 1013.82708740234 1019.39093017578 1008.89208984375 1007.95745849609 1003.20208740234 1003.38592529297 1011.9658203125 1004.58239746094 1003.49340820312 999.138549804688 998.060729980469 997.725952148438 988.848693847656 996.170043945312 1000.79077148438 1006.99609375 998.457092285156 996.631042480469 1000.04968261719 992.266357421875 994.117492675781 995.912170410156 991.317016601562 989.113830566406 975.157287597656 971.834228515625 966.633239746094 971.782958984375 978.111877441406 983.318908691406 990.203002929688 980.351501464844 992.612365722656 1006.11346435547 1008.65155029297 1019.45892333984 1020.21423339844 1016.40228271484 1019.86535644531 1020.5234375 1009.25762939453 1008.63586425781 1012.58666992188 1011.50463867188 1017.13848876953 1019.84881591797 1018.48291015625 1013.97644042969 1023.80487060547 1034.58972167969 1056.4052734375 1065.15856933594 1075.8583984375 1074.90161132812 1089.68688964844 1097.4951171875 1097.05151367188 1098.38757324219 1097.16735839844 1093.91748046875 1101.18310546875
957.481750488281 950.957214355469 954.510009765625 956.556945800781 956.379760742188 964.722900390625 973.872497558594 980.397338867188 976.032775878906 975.403442382812 978.775573730469 970.059020996094 974.62939453125 976.158081054688 971.911865234375 970.748657226562 974.323608398438 969.369567871094 974.4150390625 981.54345703125 981.941162109375 981.495910644531 976.657592773438 976.945739746094 977.275817871094 973.020141601562 984.88818359375 978.515563964844 982.528503417969 974.941284179688 972.122680664062 982.767028808594 995.201354980469 992.441345214844 990.45654296875 988.774475097656 984.846008300781 979.921447753906 976.960632324219 979.628173828125 980.963195800781 981.79150390625 984.587951660156 978.492309570312 972.275146484375 972.040710449219 968.169372558594 972.703430175781 976.348693847656 979.886413574219 980.098876953125 968.493957519531 966.849304199219 966.890380859375 971.731811523438 980.387573242188 979.002136230469 988.9755859375 978.797058105469 983.232604980469 992.662719726562 1000.73681640625 999.027770996094 994.148986816406 996.938049316406 991.041320800781 986.420837402344 990.010070800781 984.84033203125 983.921020507812 986.7666015625 986.502197265625 990.713562011719 996.405822753906 986.751770019531 993.021789550781 989.745849609375 985.0712890625 980.915649414062 995.1787109375 1007.51763916016 994.639709472656 1003.68981933594 1001.9892578125 1009.89025878906 1012.25885009766 1016.49462890625 1018.861328125 1019.36029052734 1014.27270507812 1020.34490966797 1015.66796875 1011.15002441406 1009.52435302734 996.918762207031 998.950378417969 1000.96295166016 1004.60290527344 1008.77026367188 999.766357421875 1000.78851318359 991.748168945312 999.011474609375 990.2705078125 994.0263671875 988.833557128906 985.52001953125 987.96533203125 985.946472167969 993.698913574219 1000.99755859375 993.265625 991.180358886719 985.343811035156 983.878234863281 982.629089355469 990.96240234375 990.205139160156 989.783813476562 992.806518554688 998.025634765625 989.670715332031 1001.27703857422 1003.92156982422 1003.27685546875 1005.79119873047 1008.97943115234 1014.54260253906 1007.51763916016 1004.77905273438 992.252258300781 1002.01788330078 1006.92828369141 1015.75567626953 1010.71435546875 1009.62615966797 1011.00964355469 1023.78295898438 1034.26501464844 1050.40051269531 1063.38134765625 1070.15270996094 1077.51220703125 1089.01428222656 1093.47888183594 1101.26586914062 1102.38000488281 1098.85314941406 1099.89672851562 1100.55554199219
951.18212890625 950.347229003906 960.426452636719 967.118957519531 973.503967285156 972.547912597656 976.541320800781 975.824584960938 976.134460449219 970.826171875 975.781005859375 977.541076660156 968.192993164062 971.087219238281 966.919189453125 967.777954101562 971.373291015625 973.215942382812 977.370788574219 978.589050292969 983.536071777344 973.903869628906 974.471435546875 987.072570800781 983.61669921875 978.844604492188 973.003051757812 973.558349609375 977.947204589844 976.743530273438 964.744995117188 980.605041503906 981.440490722656 985.511413574219 979.658569335938 986.710571289062 987.161071777344 977.134399414062 974.481994628906 977.823852539062 981.181213378906 987.239562988281 982.578002929688 977.89599609375 975.017150878906 980.392150878906 975.85205078125 975.644348144531 971.80908203125 968.187927246094 973.949523925781 968.160949707031 964.002502441406 963.22607421875 967.629821777344 975.410705566406 975.352172851562 977.384033203125 976.373291015625 974.096801757812 987.847534179688 991.572082519531 992.959167480469 998.078552246094 992.8515625 987.937072753906 975.913269042969 981.641906738281 984.078491210938 980.697448730469 978.186157226562 983.997253417969 987.541259765625 986.808471679688 996.51904296875 993.424438476562 995.942749023438 985.645629882812 988.817321777344 992.711364746094 1007.30224609375 993.558532714844 995.362976074219 996.246765136719 1002.66790771484 996.089660644531 1002.33911132812 1010.21960449219 1012.67004394531 1014.92443847656 1011.55572509766 1008.73333740234 1011.71563720703 1006.31982421875 998.002319335938 1006.75433349609 1001.353515625 1002.38830566406 1000.05847167969 991.92333984375 991.373046875 990.620788574219 989.738647460938 994.619750976562 993.989135742188 982.947692871094 989.033935546875 992.046020507812 997.175231933594 998.888854980469 993.539611816406 996.611328125 997.264709472656 992.813720703125 993.443481445312 1003.10040283203 1002.40863037109 1003.4521484375 996.795227050781 997.549682617188 993.279296875 996.520080566406 1003.06811523438 1001.30352783203 1004.27581787109 1004.39044189453 999.590148925781 1005.73059082031 1001.35894775391 1007.68054199219 1007.97790527344 1002.24871826172 1009.29266357422 1019.21459960938 1023.35034179688 1019.15246582031 1030.18371582031 1031.82250976562 1041.11340332031 1053.609375 1067.119140625 1076.27392578125 1078.1220703125 1089.57409667969 1107.30639648438 1110.83898925781 1107.40942382812 1106.27453613281 1110.21411132812 1108.82409667969
958.562622070312 953.811218261719 961.551147460938 973.00341796875 982.141418457031 976.447814941406 968.426818847656 972.922546386719 969.477478027344 968.118957519531 970.623840332031 975.857604980469 974.488464355469 976.115661621094 975.024780273438 976.655517578125 978.726318359375 969.767333984375 973.302001953125 976.621154785156 979.433532714844 978.485046386719 976.305419921875 967.294860839844 971.750854492188 980.336975097656 974.66064453125 970.435424804688 978.128112792969 978.691955566406 965.593688964844 974.825927734375 973.145935058594 979.07177734375 987.076904296875 993.571105957031 990.183349609375 978.016906738281 981.203308105469 973.852233886719 974.836181640625 982.809143066406 980.613525390625 981.437805175781 982.120727539062 981.787353515625 976.4560546875 974.871826171875 975.430480957031 968.997619628906 974.133422851562 972.756530761719 967.459655761719 964.732666015625 960.914978027344 970.284484863281 970.766235351562 977.919006347656 972.570922851562 975.115295410156 981.963195800781 983.778564453125 991.008544921875 994.274597167969 984.395141601562 979.19677734375 973.651733398438 980.881774902344 975.3095703125 973.114196777344 969.017395019531 976.629211425781 982.773071289062 986.039978027344 988.535888671875 994.105834960938 991.080871582031 993.396057128906 990.672302246094 1003.80456542969 1011.13537597656 1001.03979492188 1002.25152587891 1003.11932373047 1000.19085693359 1007.453125 1008.07586669922 1012.98364257812 1016.65734863281 1014.97473144531 1008.6376953125 1008.61236572266 1005.32885742188 1012.83825683594 1017.2587890625 1002.37255859375 1002.97717285156 1001.33856201172 995.503479003906 990.39404296875 984.666015625 988.612609863281 991.521789550781 987.092163085938 988.819885253906 978.57421875 982.247741699219 996.182373046875 992.748291015625 990.962646484375 993.39697265625 1002.17016601562 1006.19805908203 998.533874511719 1006.845703125 1005.5009765625 1003.78143310547 999.710144042969 996.375549316406 1000.79986572266 1001.98382568359 993.604675292969 996.532470703125 997.666870117188 1007.58679199219 1005.00982666016 1003.32385253906 995.43701171875 999.627258300781 1004.90252685547 1005.6513671875 1013.94586181641 1020.43145751953 1015.65417480469 1020.2958984375 1022.04486083984 1030.67138671875 1050.29052734375 1052.68212890625 1063.88818359375 1077.71691894531 1086.73779296875 1086.09655761719 1097.80737304688 1105.56701660156 1115.55456542969 1112.95349121094 1113.85363769531 1119.89831542969 1117.06433105469
