NCOLS 150
NROWS 37
XLLCORNER 7394249
YLLCORNER 4842179
CELLSIZE 30
NODATA_VALUE -9999
969.982421875 967.424133300781 965.84033203125 972.266540527344 970.616943359375 969.153625488281 974.623107910156 971.343444824219 967.353454589844 963.081604003906 959.481140136719 960.2021484375 958.363952636719 957.620849609375 965.638549804688 970.372192382812 971.961303710938 982.813049316406 965.698364257812 968.006103515625 968.601989746094 962.493591308594 957.115112304688 953.351806640625 953.315734863281 953.253295898438 956.295654296875 949.635864257812 951.547485351562 962.80615234375 963.796264648438 956.651489257812 956.672119140625 951.062377929688 954.085388183594 950.174133300781 950.898620605469 954.76416015625 950.0576171875 951.049194335938 951.829162597656 952.173828125 959.823547363281 950.879455566406 954.89501953125 954.37646484375 955.397399902344 954.014099121094 949.658264160156 957.613220214844 959.078857421875 967.197998046875 947.5751953125 955.913635253906 949.83984375 949.4951171875 953.211791992188 953.796020507812 949.475402832031 955.080993652344 944.938598632812 941.419250488281 945.724975585938 944.310363769531 950.217895507812 952.609375 951.5009765625 961.693420410156 965.003967285156 956.55859375 955.8486328125 957.575073242188 959.587951660156 959.965270996094 947.671081542969 957.393859863281 960.2763671875 969.426452636719 966.99169921875 963.514892578125 963.261291503906 964.786865234375 957.897644042969 969.237731933594 968.238708496094 968.242492675781 967.027465820312 969.263549804688 977.39306640625 970.460021972656 974.539428710938 972.275939941406 971.267028808594 980.877990722656 972.215637207031 974.296752929688 982.373352050781 977.88037109375 980.275573730469 980.283996582031 982.926025390625 986.423156738281 982.046508789062 979.24951171875 981.382934570312 982.048645019531 995.821472167969 984.504821777344 992.018188476562 994.548645019531 993.59130859375 995.576721191406 995.335266113281 987.350341796875 990.48876953125 983.341430664062 997.593139648438 1006.39013671875 1016.76226806641 1012.49194335938 1010.04223632812 1001.20080566406 996.659851074219 1005.68402099609 1008.17712402344 1020.12280273438 1022.92572021484 1031.40246582031 1037.36499023438 1047.62731933594 1055.34069824219 1059.59204101562 1063.20141601562 1057.54504394531 1068.04431152344 1084.1708984375 1083.78015136719 1081.31213378906 1072.11938476562 1058.89953613281 1062.228515625 1056.46118164062 1057.36853027344 1055.54760742188 1055.90783691406 1069.33239746094 1075.81091308594 1073.09387207031 1074.25 1065.42248535156
959.669799804688 966.059265136719 970.684143066406 965.57275390625 970.411987304688 969.057983398438 973.965759277344 966.067993164062 965.915893554688 964.190124511719 966.044860839844 960.754516601562 958.153381347656 957.333312988281 963.463439941406 962.994018554688 964.043029785156 970.317993164062 972.062377929688 968.377258300781 958.203979492188 960.534729003906 956.399169921875 943.9150390625 958.587707519531 953.282653808594 951.962829589844 951.349792480469 945.39501953125 954.908264160156 960.622619628906 958.449035644531 954.50634765625 955.200927734375 962.535400390625 952.496276855469 943.173522949219 947.620178222656 952.674377441406 954.148559570312 947.127563476562 956.142028808594 953.560424804688 950.695190429688 955.030578613281 953.437072753906 956.558776855469 960.361999511719 954.372924804688 958.780639648438 962.033142089844 966.937866210938 953.155395507812 947.892944335938 954.410217285156 951.426513671875 963.451721191406 962.890563964844 966.01904296875 952.412109375 951.444458007812 953.428894042969 954.489440917969 952.254150390625 960.633972167969 957.784301757812 951.244567871094 954.431640625 957.139892578125 958.935668945312 959.921569824219 956.434143066406 960.867248535156 956.281005859375 946.829162597656 955.08544921875 964.457336425781 967.47412109375 967.551330566406 964.1435546875 964.576416015625 973.761352539062 966.603881835938 972.200561523438 968.238952636719 966.85009765625 961.230102539062 963.612548828125 974.324829101562 971.890808105469 971.044128417969 968.740234375 970.098815917969 970.327209472656 969.241394042969 974.178344726562 982.598510742188 974.600280761719 967.587951660156 984.196105957031 985.468566894531 983.989990234375 978.915466308594 987.096740722656 991.177429199219 982.769775390625 980.884826660156 979.393432617188 984.341003417969 1000.388671875 989.6962890625 994.146545410156 992.306396484375 989.095153808594 995.901184082031 994.585388183594 994.544860839844 1002.60498046875 1014.52044677734 1011.314453125 1010.16888427734 1000.24652099609 994.677062988281 1000.3232421875 1007.54968261719 1012.94909667969 1025.07873535156 1031.51647949219 1030.28356933594 1039.63122558594 1056.66479492188 1054.62426757812 1058.71765136719 1063.9677734375 1069.54431152344 1071.68981933594 1075.64709472656 1078.67687988281 1071.05419921875 1055.07287597656 1060.33483886719 1048.1376953125 1047.9833984375 1047.82751464844 1045.75378417969 1069.04284667969 1062.462890625 1076.8369140625 1066.85620117188 1055.78918457031
967.336791992188 963.003845214844 964.972045898438 961.233459472656 966.771789550781 970.88623046875 970.470886230469 975.856567382812 970.044250488281 970.243957519531 963.812805175781 955.457153320312 949.0771484375 960.551574707031 957.539367675781 959.496337890625 964.869018554688 968.841735839844 970.449157714844 965.977233886719 958.802551269531 954.215026855469 950.718994140625 945.045349121094 945.437561035156 952.518676757812 949.791320800781 950.947998046875 956.882202148438 969.071716308594 965.521911621094 959.545654296875 958.705688476562 952.717956542969 953.640075683594 953.302917480469 944.758239746094 943.30712890625 951.793029785156 943.043212890625 956.048950195312 957.310241699219 955.397216796875 958.49169921875 959.9033203125 955.568969726562 961.60009765625 949.473449707031 949.746032714844 951.313415527344 958.092224121094 952.401000976562 946.797058105469 948.556335449219 943.717163085938 952.159484863281 964.0029296875 960.817260742188 959.046752929688 957.726135253906 962.444946289062 965.931274414062 968.357849121094 961.441955566406 959.827819824219 955.199096679688 960.978332519531 957.772033691406 947.9375 953.239562988281 967.351928710938 970.666442871094 967.57666015625 956.051940917969 954.392150878906 956.881591796875 964.849792480469 964.523315429688 969.301696777344 963.992492675781 963.229797363281 971.911254882812 969.807189941406 971.894470214844 970.807556152344 957.654541015625 955.548400878906 959.911926269531 969.878356933594 971.042236328125 966.495361328125 963.307861328125 968.913696289062 970.725830078125 967.328491210938 974.470031738281 974.487060546875 969.079467773438 967.583557128906 974.229125976562 972.428955078125 982.387145996094 991.289123535156 980.614074707031 989.847900390625 989.106140136719 983.028869628906 977 977.368774414062 985.886962890625 993.705993652344 999.125671386719 1001.52502441406 996.745361328125 997.760375976562 1002.95111083984 1004.28332519531 1000.50268554688 1006.00744628906 1009.05322265625 1001.03668212891 1008.05615234375 1006.04675292969 1011.93902587891 1002.93267822266 1016.88031005859 1017.19580078125 1023.45629882812 1030.10400390625 1047.34680175781 1059.36059570312 1062.69445800781 1059.32421875 1065.37292480469 1072.45776367188 1070.22668457031 1068.80285644531 1060.8837890625 1064.81958007812 1060.77099609375 1057.12866210938 1048.14196777344 1032.60205078125 1037.86584472656 1043.66687011719 1052.53662109375 1059.30847167969 1063.15734863281 1053.98071289062 1046.5009765625
959.923278808594 959.590881347656 971.052429199219 961.911499023438 967.565673828125 971.0048828125 976.472534179688 970.82373046875 978.362609863281 968.879760742188 962.209716796875 961.681335449219 954.573303222656 959.260620117188 951.821594238281 954.604064941406 959.651611328125 958.277709960938 962.3466796875 962.887390136719 947.679321289062 949.234008789062 946.41064453125 945.888061523438 955.930480957031 957.441162109375 953.104797363281 949.384704589844 960.114562988281 965.925964355469 960.661315917969 957.873474121094 949.756286621094 954.496704101562 946.165771484375 947.401733398438 945.929626464844 952.990173339844 949.31005859375 949.136291503906 955.095336914062 951.011291503906 948.429077148438 943.823486328125 958.825256347656 961.085083007812 959.887268066406 958.59912109375 952.636657714844 953.853637695312 954.594360351562 956.980834960938 959.860473632812 951.0166015625 951.354675292969 955.921569824219 958.372314453125 958.594970703125 962.102722167969 962.887573242188 969.387756347656 963.541076660156 963.679931640625 961.113403320312 964.642150878906 964.267395019531 962.187622070312 961.162048339844 956.227233886719 957.98779296875 960.838684082031 967.983459472656 970.375183105469 969.908935546875 966.292724609375 959.211791992188 967.04150390625 973.35302734375 976.069274902344 965.114013671875 970.413818359375 976.203125 978.407592773438 975.563293457031 972.857177734375 963.893981933594 968.723449707031 970.715148925781 961.505615234375 969.103515625 966.498107910156 963.12060546875 976.403137207031 972.382873535156 974.29443359375 973.108764648438 973.949768066406 978.667236328125 975.956298828125 978.46728515625 979.495666503906 990.663818359375 989.67724609375 992.711791992188 995.124328613281 995.117248535156 988.878784179688 984.215698242188 989.177917480469 990.776611328125 988.749145507812 999.555786132812 996.097778320312 990.520629882812 1001.73522949219 1006.93634033203 1000.94183349609 1000.04217529297 1002.96063232422 1006.98260498047 1001.73150634766 1008.05377197266 1004.81378173828 1006.72552490234 1007.10272216797 1019.45281982422 1026.15588378906 1029.61254882812 1034.10803222656 1038.06042480469 1053.66638183594 1052.30786132812 1060.35009765625 1065.65771484375 1063.42761230469 1057.7265625 1067.81921386719 1059.31555175781 1053.02783203125 1045.04321289062 1036.716796875 1038.67687988281 1029.21667480469 1036.07763671875 1045.205078125 1053.30212402344 1054.68774414062 1047.86804199219 1044.0791015625 1047.72375488281
957.558410644531 950.123291015625 959.287475585938 957.873168945312 969.610290527344 967.085144042969 974.8818359375 966.995178222656 969.273620605469 968.41259765625 956.347961425781 953.807861328125 948.731811523438 950.258056640625 951.755310058594 959.071044921875 960.131958007812 965.269592285156 961.932189941406 945.984802246094 951.522094726562 949.480529785156 939.308776855469 947.535034179688 950.844543457031 958.619689941406 956.215148925781 949.156494140625 958.248352050781 964.010070800781 962.58984375 958.504760742188 951.654846191406 951.549377441406 945.603698730469 942.082641601562 951.071044921875 949.074768066406 956.509948730469 953.4873046875 951.80322265625 947.568054199219 947.493225097656 955.108642578125 951.628967285156 952.006103515625 954.444885253906 954.487487792969 957.949096679688 958.695739746094 956.154235839844 959.280639648438 957.015319824219 957.815856933594 956.478271484375 963.992309570312 960.394348144531 971.46923828125 957.6279296875 966.499389648438 968.534484863281 950.413330078125 956.946716308594 964.111633300781 963.165161132812 966.66064453125 962.751281738281 966.322143554688 963.062316894531 960.032836914062 960.962768554688 965.809020996094 967.371276855469 969.489196777344 958.914916992188 959.364440917969 969.389709472656 972.189331054688 974.770812988281 962.634948730469 972.985778808594 975.794982910156 971.276733398438 980.517700195312 975.02978515625 968.830139160156 968.343200683594 978.1123046875 973.550476074219 977.891967773438 971.070861816406 970.239440917969 975.982604980469 975.909240722656 973.289367675781 977.518676757812 984.478881835938 981.336486816406 988.291259765625 987.096313476562 984.227844238281 985.945922851562 985.555053710938 990.831665039062 990.309265136719 991.925842285156 987.547912597656 987.356262207031 994.041748046875 990.861511230469 995.619445800781 1001.41448974609 998.965881347656 999.539306640625 1001.71527099609 998.912658691406 1017.67614746094 1009.67987060547 1004.13751220703 1012.75482177734 1000.21429443359 1001.36248779297 994.481750488281 1000.14190673828 1006.86657714844 1019.56219482422 1030.392578125 1031.40161132812 1034.81225585938 1034.43542480469 1038.60461425781 1044.37365722656 1049.44506835938 1051.91931152344 1055.43615722656 1051.12573242188 1062.58740234375 1046.46606445312 1048.18640136719 1031.6259765625 1030.65344238281 1029.56176757812 1032.34106445312 1036.38671875 1036.47509765625 1034.05981445312 1031.88439941406 1033.31799316406 1029.771484375 1037.26208496094
946.249572753906 956.55908203125 959.211975097656 964.395874023438 960.520690917969 962.937377929688 969.439086914062 973.081237792969 968.5810546875 963.985900878906 961.775695800781 956.420227050781 950.876708984375 960.492858886719 955.720275878906 951.907958984375 952.528625488281 957.198364257812 955.369995117188 948.32958984375 943.518676757812 942.257934570312 945.313293457031 946.750061035156 948.327453613281 949.309936523438 958.733642578125 953.255676269531 950.253784179688 959.405944824219 949.429504394531 962.477783203125 951.695495605469 957.784973144531 952.657409667969 942.382873535156 943.309387207031 943.093078613281 947.24609375 955.334228515625 951.872009277344 948.406982421875 950.677612304688 948.237060546875 952.336181640625 946.630493164062 954.289855957031 952.038452148438 953.802429199219 957.27880859375 956.199890136719 967.452392578125 971.952941894531 955.137817382812 961.275512695312 957.347534179688 967.695861816406 962.161193847656 957.194274902344 964.725280761719 968.847900390625 958.508483886719 958.677307128906 964.984130859375 967.701599121094 957.316467285156 960.109985351562 965.746215820312 969.734008789062 969.4482421875 967.128662109375 975.448425292969 977.911926269531 969.251892089844 962.56982421875 961.667541503906 966.950744628906 974.1591796875 970.047180175781 962.42138671875 966.674255371094 980.907409667969 981.262878417969 985.455078125 980.340270996094 974.977844238281 972.807373046875 970.093078613281 974.608825683594 976.58251953125 969.461791992188 960.917236328125 961.576721191406 969.77099609375 975.706176757812 986.334533691406 987.710021972656 985.927795410156 987.080383300781 989.08837890625 983.896118164062 978.810791015625 984.191833496094 984.918212890625 987.290649414062 982.425720214844 983.256164550781 987.674133300781 990.947814941406 991.205505371094 997.023681640625 1001.39508056641 999.071655273438 993.172424316406 1001.42858886719 1000.94555664062 1009.81048583984 1011.98931884766 1012.01098632812 1018.27941894531 1007.83874511719 1000.63171386719 994.86279296875 1006.08471679688 1020.43737792969 1025.50695800781 1022.96746826172 1033.32556152344 1031.44580078125 1030.3046875 1027.25329589844 1035.42016601562 1039.6337890625 1040.1611328125 1041.40563964844 1052.34265136719 1054.22253417969 1045.18017578125 1037.32873535156 1031.52282714844 1025.78588867188 1022.80480957031 1026.0361328125 1028.49816894531 1038.30249023438 1024.00341796875 1021.25653076172 1014.30749511719 1023.13818359375 1015.54040527344
953.492126464844 952.990295410156 965.112182617188 964.107666015625 965.848815917969 964.287414550781 966.010375976562 972.183776855469 971.955505371094 962.29345703125 963.447692871094 951.564819335938 953.568420410156 956.451843261719 955.949401855469 945.9365234375 954.683227539062 952.436584472656 957.23779296875 951.222106933594 948.352111816406 948.346374511719 947.367431640625 945.929626464844 948.387084960938 953.255554199219 955.051818847656 950.6328125 946.99755859375 951.114562988281 958.758728027344 957.483947753906 953.877624511719 956.33056640625 948.724243164062 946.71240234375 942.3095703125 941.959594726562 947.786926269531 949.846130371094 953.014526367188 959.238098144531 947.102661132812 949.740173339844 948.434753417969 946.453735351562 958.765441894531 958.671203613281 963.449829101562 963.768737792969 976.527038574219 969.462890625 972.335754394531 959.037780761719 973.580810546875 963.855712890625 970.886108398438 969.285705566406 964.223205566406 957.84521484375 961.86767578125 952.150939941406 958.18505859375 961.575744628906 971.128173828125 970.617248535156 978.112548828125 970.441711425781 972.419494628906 966.189331054688 970.526672363281 976.52685546875 973.888000488281 969.094360351562 967.543090820312 971.060913085938 970.361755371094 974.620483398438 967.565063476562 961.708679199219 965.434692382812 974.3505859375 979.322021484375 988.277404785156 986.622314453125 978.488525390625 983.67236328125 975.493530273438 976.448120117188 974.791564941406 969.679992675781 956.460693359375 969.3505859375 969.504272460938 975.567199707031 978.968811035156 986.092712402344 991.930114746094 987.023071289062 990.993530273438 985.026916503906 987.179321289062 993.671508789062 992.711486816406 989.045227050781 980.688232421875 990.335144042969 988.05859375 989.764709472656 988.345764160156 991.96337890625 1003.64715576172 999.941528320312 998.60693359375 998.334106445312 997.404174804688 1009.59112548828 1016.75305175781 1018.96478271484 1012.63458251953 1022.36224365234 1015.69287109375 1013.77197265625 1030.98962402344 1028.14208984375 1026.46374511719 1018.17834472656 1024.21875 1022.53137207031 1034.13452148438 1023.78961181641 1035.49938964844 1030.66857910156 1024.57421875 1033.1279296875 1049.69274902344 1046.34094238281 1047.94836425781 1033.37951660156 1028.81762695312 1021.41552734375 1026.43286132812 1027.39855957031 1026.99475097656 1026.09484863281 1020.2392578125 1019.27124023438 1018.75689697266 1021.11297607422 1015.19622802734
947.187744140625 955.276733398438 960.210693359375 949.785522460938 966.211975097656 967.785034179688 962.516174316406 970.821899414062 969.779602050781 962.635559082031 949.954772949219 951.808776855469 945.235168457031 948.325622558594 944.709838867188 948.20751953125 945.953430175781 949.839233398438 950.723327636719 943.330322265625 948.978698730469 941.010559082031 946.913940429688 943.037658691406 943.93310546875 950.407897949219 942.330871582031 945.989685058594 949.367309570312 955.13916015625 959.757751464844 961.617370605469 954.197570800781 952.526977539062 947.420959472656 946.854248046875 945.435913085938 950.76171875 956.659301757812 958.248046875 955.736572265625 957.499694824219 950.645446777344 947.875427246094 949.033447265625 949.448303222656 956.032409667969 965.649047851562 971.634460449219 969.442321777344 972.747314453125 981.05224609375 969.446166992188 961.640380859375 971.154907226562 968.795166015625 970.60693359375 973.495971679688 972.693115234375 970.767639160156 965.4248046875 959.686828613281 962.36376953125 962.440307617188 969.818481445312 968.324645996094 968.919189453125 977.203552246094 976.094909667969 977.450866699219 981.640686035156 985.707397460938 980.896240234375 982.17822265625 975.450256347656 969.133483886719 966.965393066406 966.915100097656 962.537536621094 965.262329101562 964.253234863281 970.054565429688 979.10888671875 987.632568359375 991.930786132812 989.540588378906 986.08056640625 992.723999023438 979.586303710938 976.303833007812 959.096801757812 965.723449707031 972.661499023438 972.151428222656 971.363647460938 971.608825683594 988.640808105469 997.613525390625 994.11865234375 989.754150390625 993.131774902344 998.673095703125 999.105773925781 991.921813964844 989.263732910156 985.964294433594 996.137084960938 993.028869628906 994.7265625 993.265869140625 995.650756835938 999.080871582031 1003.66571044922 996.354187011719 1001.25335693359 1004.85980224609 1016.68286132812 1022.92413330078 1033.29345703125 1021.39263916016 1021.39166259766 1021.35168457031 1010.71795654297 1017.07080078125 1029.53210449219 1021.83526611328 1023.73083496094 1022.62121582031 1027.08190917969 1025.32116699219 1021.20721435547 1022.16583251953 1022.62927246094 1034.08203125 1030.62927246094 1034.66125488281 1046.10681152344 1039.46936035156 1034.64624023438 1026.033203125 1028.75952148438 1025.21105957031 1019.57189941406 1018.29235839844 1017.52026367188 1014.92492675781 1018.39080810547 1014.04217529297 1021.77508544922 1019.53582763672
950.752624511719 956.690246582031 961.485534667969 953.817260742188 959.685913085938 963.252319335938 958.295593261719 959.68017578125 963.126708984375 957.045532226562 961.4853515625 952.056640625 937.563659667969 946.818603515625 941.797912597656 941.533874511719 940.057006835938 944.30078125 945.159545898438 936.8076171875 950.6015625 942.756958007812 944.989624023438 941.69189453125 943.016540527344 948.674194335938 957.390075683594 951.032592773438 947.168884277344 946.752807617188 958.38916015625 966.437438964844 956.888977050781 954.084228515625 937.093383789062 945.77197265625 944.565246582031 951.247863769531 962.416442871094 962.518432617188 954.858825683594 963.339233398438 963.499084472656 955.474853515625 951.244140625 956.885437011719 964.135498046875 971.534851074219 974.283935546875 974.30078125 980.056518554688 974.966003417969 972.290954589844 980.753112792969 969.086120605469 967.404602050781 976.872619628906 976.088012695312 977.064453125 972.248352050781 968.942077636719 967.311645507812 967.227478027344 962.274475097656 971.720458984375 969.767395019531 974.694030761719 980.000854492188 978.124206542969 979.479187011719 981.321838378906 988.988098144531 982.395202636719 979.102600097656 974.097595214844 977.219482421875 977.768798828125 975.964294433594 965.809387207031 966.917785644531 965.870849609375 963.102355957031 975.312866210938 981.774353027344 988.829956054688 996.10546875 979.521789550781 979.864440917969 973.410278320312 976.042297363281 972.534240722656 965.906311035156 977.413757324219 974.565795898438 980.11767578125 973.689331054688 997.675354003906 993.504516601562 994.786254882812 998.341552734375 992.027954101562 986.311645507812 994.884948730469 998.7294921875 984.571716308594 986.766784667969 991.567749023438 997.297424316406 999.708923339844 1003.77325439453 1000.83544921875 1002.09613037109 1006.93017578125 1011.26690673828 1012.29522705078 1012.06579589844 1016.66497802734 1032.36657714844 1032.08312988281 1019.07250976562 1021.33703613281 1021.13311767578 1015.3486328125 1015.99639892578 1017.40435791016 1018.80108642578 1022.13043212891 1020.52069091797 1012.56475830078 1019.70062255859 1023.48968505859 1012.76275634766 1026.32495117188 1031.41467285156 1025.99926757812 1022.04571533203 1034.78649902344 1037.91320800781 1034.61083984375 1027.0087890625 1023.16430664062 1022.48565673828 1014.42456054688 1015.19165039062 1015.08825683594 1013.2998046875 1022.02130126953 1015.39666748047 1026.02746582031 1031.69958496094
950.819946289062 949.917663574219 946.868957519531 948.927673339844 954.392395019531 955.845642089844 960.633056640625 960.982543945312 960.87451171875 957.391723632812 949.847351074219 943.586547851562 944.050842285156 944.7412109375 934.763977050781 940.846069335938 944.068786621094 945.666320800781 951.143859863281 941.924011230469 944.76708984375 944.20458984375 947.198974609375 954.186828613281 954.848388671875 950.255920410156 952.791381835938 956.625793457031 959.9453125 953.870483398438 955.761901855469 961.572570800781 955.186401367188 942.636169433594 946.5419921875 942.778076171875 953.773254394531 963.145385742188 969.578918457031 962.025146484375 962.576599121094 960.767517089844 961.873474121094 962.37353515625 966.232666015625 962.305603027344 968.717102050781 971.934143066406 976.742492675781 977.229553222656 982.080932617188 982.733947753906 979.508850097656 976.775573730469 968.542907714844 972.409851074219 973.990783691406 977.375 970.673583984375 968.057922363281 965.496765136719 963.920654296875 975.9951171875 957.660583496094 967.560485839844 976.714904785156 971.306518554688 974.972106933594 975.011962890625 969.147033691406 975.465515136719 980.522155761719 979.006958007812 974.145202636719 979.33642578125 982.133239746094 987.236572265625 983.391418457031 971.082824707031 972.887329101562 975.407653808594 967.422485351562 974.071350097656 979.347717285156 974.319763183594 986.472778320312 983.320983886719 984.175903320312 979.70849609375 973.201232910156 983.702392578125 983.168884277344 977.258911132812 974.711669921875 975.30517578125 982.262084960938 990.994079589844 988.96484375 995.951782226562 988.587097167969 982.777221679688 989.937927246094 1001.3603515625 999.751770019531 994.216491699219 996.473876953125 997.920349121094 994.452880859375 1002.05834960938 1008.81939697266 1000.63354492188 1003.7041015625 1009.04669189453 1009.74273681641 1008.68353271484 1021.55010986328 1025.9541015625 1025.97521972656 1037.35009765625 1031.92602539062 1035.36791992188 1029.287109375 1026.82312011719 1018.45690917969 1019.73870849609 1011.43481445312 1009.45416259766 1016.87725830078 1011.39440917969 1018.24737548828 1022.22186279297 1015.94342041016 1022.6162109375 1019.44573974609 1018.54089355469 1029.67858886719 1030.07470703125 1025.09228515625 1029.31408691406 1035.79711914062 1030.03930664062 1016.79241943359 1009.32574462891 1012.48565673828 1014.11407470703 1010.67175292969 1009.84063720703 1021.45275878906 1027.29528808594 1023.78997802734
959.8779296875 956.419067382812 952.211486816406 953.009521484375 948.216979980469 949.415893554688 950.669860839844 947.419311523438 946.584106445312 945.309753417969 945.806274414062 944.774658203125 941.714111328125 947.872619628906 941.814575195312 938.801879882812 952.442077636719 955.977600097656 959.736633300781 949.299926757812 946.814636230469 941.704040527344 942.614807128906 951.240661621094 953.58935546875 950.196044921875 954.304138183594 950.60986328125 958.232971191406 955.960266113281 966.079528808594 957.733032226562 949.327941894531 938.506713867188 944.407104492188 952.785949707031 972.911682128906 961.868896484375 975.120422363281 970.420654296875 964.409973144531 963.205078125 955.873596191406 971.449645996094 968.365112304688 967.979919433594 975.048828125 971.061828613281 977.0859375 980.68896484375 989.522766113281 982.972839355469 973.604187011719 976.696166992188 974.901672363281 979.088562011719 970.890258789062 978.551574707031 973.166381835938 971.4140625 973.373596191406 971.556518554688 973.558715820312 974.482788085938 973.861389160156 967.081420898438 965.267822265625 974.258422851562 974.562927246094 970.511657714844 973.699645996094 972.922241210938 973.740539550781 976.717590332031 976.259460449219 990.77197265625 989.900756835938 992.433227539062 993.245910644531 983.286865234375 974.97998046875 980.1220703125 984.268310546875 984.759033203125 981.673828125 978.165161132812 987.661499023438 995.73876953125 982.241088867188 980.379821777344 980.597961425781 977.807678222656 976.208190917969 981.42041015625 980.005920410156 986.048522949219 992.942016601562 989.979858398438 999.720886230469 992.147827148438 991.216735839844 999.998657226562 997.603149414062 997.291870117188 997.667053222656 1001.98681640625 1004.65289306641 1004.97216796875 999.861328125 1004.52740478516 1002.15179443359 1001.34649658203 1008.35162353516 1008.05230712891 1008.94000244141 1019.39324951172 1027.61682128906 1032.76843261719 1040.75952148438 1038.17211914062 1031.06213378906 1022.08538818359 1022.42132568359 1027.13244628906 1016.56652832031 1011.13635253906 1006.5078125 1011.11346435547 1011.15295410156 1010.81329345703 1014.08020019531 1019.61413574219 1020.73413085938 1018.30822753906 1019.70794677734 1029.04309082031 1035.43444824219 1026.33264160156 1016.55218505859 1016.35302734375 1015.88415527344 1018.00817871094 1010.70001220703 1013.49835205078 1009.29205322266 1009.11730957031 1011.38879394531 1007.19476318359 1021.74694824219 1027.43640136719
953.470764160156 945.578491210938 945.080749511719 945.275329589844 940.593627929688 950.872009277344 952.037780761719 949.396179199219 937.804992675781 938.706481933594 943.141418457031 949.305236816406 948.825988769531 946.102294921875 944.893920898438 946.771545410156 953.197570800781 949.980285644531 948.302368164062 958.679321289062 952.290710449219 952.749450683594 954.671630859375 960.277099609375 961.536010742188 956.790100097656 954.244445800781 958.304870605469 959.732116699219 956.153625488281 959.767761230469 961.50537109375 954.286071777344 944.221923828125 960.397277832031 951.95654296875 960.970520019531 961.857727050781 972.152709960938 964.028015136719 971.258361816406 968.571166992188 962.232666015625 967.181701660156 969.212524414062 971.317749023438 971.498352050781 974.949584960938 986.422912597656 987.787109375 978.876708984375 987.582641601562 990.874755859375 982.103454589844 976.274047851562 969.073059082031 975.066467285156 976.759216308594 980.29150390625 981.050598144531 975.287170410156 977.920593261719 975.039184570312 979.477600097656 975.878173828125 973.18017578125 965.634765625 970.212341308594 975.198364257812 960.777587890625 962.094604492188 964.375915527344 972.244873046875 975.620422363281 974.337341308594 981.210327148438 982.219543457031 984.23876953125 984.413146972656 978.187377929688 978.767700195312 988.745178222656 988.942199707031 993.707641601562 981.919677734375 987.556762695312 987.622802734375 983.876342773438 975.646911621094 973.861999511719 971.653686523438 973.958312988281 977.492736816406 986.795349121094 985.54638671875 978.410278320312 990.530639648438 995.365051269531 996.853942871094 993.023742675781 1000.8115234375 1012.18792724609 999.612426757812 999.967041015625 990.795104980469 1004.333984375 1010.814453125 1005.02331542969 1003.48315429688 1000.40295410156 1001.82543945312 1012.22662353516 1009.78509521484 1008.78955078125 1012.80688476562 1018.47143554688 1020.70971679688 1025.14404296875 1035.60949707031 1034.35009765625 1039.36413574219 1039.67785644531 1035.88745117188 1034.74768066406 1025.09692382812 1023.67852783203 1014.31335449219 1016.34655761719 1006.83880615234 1002.10186767578 1005.6064453125 1008.9443359375 1016.20642089844 1013.24780273438 1018.28845214844 1022.44647216797 1024.73779296875 1021.82391357422 1018.96673583984 1021.01837158203 1019.58319091797 1004.00933837891 1007.22515869141 1011.27099609375 1012.36810302734 1003.64093017578 1005.19293212891 1005.55029296875 1008.0185546875 1018.42468261719
958.3359375 942.649963378906 938.964538574219 949.048278808594 953.481140136719 959.3740234375 946.691833496094 947.351623535156 945.8154296875 935.739624023438 940.429931640625 954.531555175781 961.123229980469 956.879272460938 955.755065917969 952.751708984375 945.146179199219 948.759582519531 955.32861328125 960.542358398438 961.288879394531 954.826721191406 953.94287109375 963.309143066406 963.120300292969 964.195739746094 961.065979003906 958.112548828125 965.423828125 958.029602050781 964.048034667969 961.606689453125 959.144775390625 958.201843261719 959.417175292969 961.386657714844 969.007385253906 971.663696289062 964.106323242188 967.665954589844 971.078674316406 969.075622558594 970.406494140625 969.893859863281 969.205200195312 978.468933105469 983.090576171875 985.383483886719 995.712524414062 993.531372070312 989.790893554688 994.332702636719 989.588317871094 983.629821777344 990.319946289062 983.942016601562 980.478637695312 985.302551269531 979.299621582031 977.301574707031 974.905883789062 973.121337890625 972.395202636719 973.017822265625 972.805541992188 978.408264160156 967.511840820312 964.3193359375 964.053466796875 966.200134277344 963.851440429688 970.651916503906 983.152954101562 980.203735351562 978.037780761719 981.521423339844 985.041442871094 990.1787109375 979.903503417969 968.762573242188 979.475463867188 986.891540527344 998.931701660156 990.806823730469 980.296936035156 986.609130859375 983.018676757812 984.430297851562 968.688903808594 976.543029785156 973.619018554688 970.171691894531 977.883850097656 980.040893554688 994.365661621094 983.062744140625 990.73291015625 993.388793945312 986.962158203125 985.427917480469 991.861267089844 997.586730957031 990.08251953125 989.785949707031 988.468811035156 1003.53552246094 1011.4375 1010.84564208984 1002.8203125 1009.35705566406 1015.38684082031 1021.06921386719 1017.78460693359 1011.40814208984 1014.72009277344 1022.61029052734 1026.02941894531 1028.54760742188 1032.017578125 1040.17419433594 1040.9072265625 1044.99609375 1045.01782226562 1038.83532714844 1029.68823242188 1026.853515625 1028.92639160156 1012.87933349609 1005.58111572266 993.716491699219 997.885864257812 1011.37396240234 1020.83966064453 1021.59478759766 1023.26507568359 1024.46740722656 1016.30316162109 1008.78796386719 1015.4033203125 1023.65319824219 1016.220703125 1003.77777099609 991.704528808594 1002.66259765625 1007.01428222656 1005.76806640625 1000.95404052734 1006.79681396484 1005.97125244141 1003.06939697266
952.4755859375 946.320129394531 944.828674316406 945.013000488281 949.61181640625 952.27294921875 940.916259765625 933.987243652344 942.540344238281 941.913330078125 940.918640136719 953.329528808594 960.350524902344 953.710876464844 946.01220703125 949.590026855469 947.801696777344 958.3759765625 963.095947265625 967.323669433594 963.103271484375 960.569763183594 955.410766601562 967.578735351562 968.682067871094 975.679138183594 972.416076660156 965.392944335938 973.519226074219 969.361083984375 961.098693847656 960.724060058594 966.857666015625 965.22607421875 958.859252929688 970.73046875 967.26708984375 969.264221191406 977.963500976562 977.665893554688 969.370971679688 972.93505859375 980.827270507812 974.811462402344 973.796203613281 971.283264160156 984.330078125 989.089721679688 999.138977050781 996.824523925781 985.565246582031 989.886901855469 987.588134765625 989.796936035156 990.506225585938 992.985961914062 982.968688964844 984.902221679688 978.458312988281 971.276123046875 968.331176757812 972.959350585938 972.670471191406 975.647277832031 971.63525390625 965.13720703125 963.578552246094 973.211486816406 972.215270996094 972.395874023438 966.60302734375 974.692993164062 985.617309570312 989.834716796875 985.602905273438 992.569152832031 989.062561035156 990.588012695312 979.082397460938 976.971130371094 979.412658691406 993.178527832031 995.982299804688 983.698669433594 980.363586425781 982.763732910156 977.286682128906 977.612854003906 977.604797363281 980.730590820312 975.868957519531 981.184143066406 982.475769042969 991.977111816406 987.220825195312 989.19580078125 995.278198242188 988.664306640625 994.557434082031 993.796875 993.34619140625 997.181518554688 982.821960449219 987.431518554688 989.010803222656 1004.1005859375 1009.65063476562 1014.72125244141 1013.86785888672 1009.03283691406 1016.64819335938 1021.76971435547 1012.89465332031 1011.59826660156 1007.07275390625 1020.07281494141 1026.3173828125 1027.84826660156 1036.55102539062 1039.91027832031 1047.30432128906 1039.50720214844 1040.00158691406 1031.37731933594 1029.17944335938 1030.255859375 1026.6044921875 1020.58557128906 1012.41925048828 1008.779296875 994.680908203125 1004.85858154297 1015.38818359375 1020.23107910156 1018.203125 1022.68414306641 1021.99005126953 1012.64349365234 1021.50177001953 1021.67224121094 1016.24688720703 1002.07647705078 991.701599121094 1004.60455322266 1004.66357421875 1003.69445800781 995.372314453125 997.550048828125 1003.15093994141 995.819152832031
937.349914550781 946.594421386719 942.700805664062 945.972473144531 941.495971679688 950.619384765625 943.809387207031 943.210388183594 955.111755371094 952.419067382812 953.312072753906 948.626037597656 957.392517089844 952.439697265625 949.977478027344 950.620910644531 945.049133300781 965.781372070312 972.822265625 974.702453613281 975.46435546875 971.973083496094 965.337097167969 971.526306152344 972.099548339844 972.205810546875 964.290832519531 967.508972167969 969.483642578125 979.095825195312 972.382202148438 973.281677246094 965.611022949219 961.573486328125 970.557006835938 978.898803710938 969.776733398438 967.627136230469 974.919067382812 978.28466796875 982.475708007812 983.203735351562 981.64990234375 975.308532714844 972.253112792969 977.027160644531 982.984985351562 1001.50482177734 998.670715332031 995.165100097656 986.635437011719 992.315185546875 998.633178710938 997.498474121094 996.11376953125 1000.01940917969 984.928405761719 978.710632324219 982.121765136719 974.137329101562 972.910400390625 969.679748535156 965.391662597656 968.50732421875 970.519165039062 967.300720214844 970.494506835938 970.540649414062 970.923583984375 969.756286621094 980.405639648438 977.705871582031 988.997436523438 988.33984375 982.769592285156 988.136901855469 991.698364257812 993.328186035156 984.82470703125 978.742065429688 985.484008789062 986.386657714844 986.566650390625 989.712890625 988.736633300781 983.413757324219 983.231567382812 971.952941894531 971.930786132812 974.39599609375 963.199401855469 979.405456542969 985.186096191406 997.326232910156 996.969360351562 993.990966796875 999.848022460938 1000.40948486328 1003.69207763672 1007.55609130859 996.259033203125 983.410949707031 989.570617675781 992.987426757812 1000.19024658203 1010.81127929688 1014.43511962891 1007.49389648438 1007.71295166016 1010.76959228516 1009.31402587891 1021.20678710938 1022.21313476562 1018.76159667969 1020.19989013672 1028.43444824219 1030.1435546875 1030.63110351562 1042.78283691406 1050.30322265625 1051.77416992188 1045.90270996094 1049.12316894531 1035.52746582031 1026.21740722656 1026.47155761719 1020.97235107422 1019.93084716797 1025.96166992188 1009.49194335938 1003.23840332031 1001.82360839844 996.495910644531 1014.85314941406 1018.92901611328 1020.25238037109 1015.77008056641 1019.09167480469 1017.26586914062 1016.14025878906 1013.63482666016 1010.10729980469 1000.68914794922 1001.58428955078 1007.46789550781 1006.01507568359 998.081359863281 995.377624511719 990.988708496094 985.828979492188
930.85400390625 927.643798828125 940.392761230469 941.615966796875 939.099975585938 946.787475585938 947.772155761719 944.561096191406 954.781372070312 962.763671875 969.259155273438 955.287536621094 964.012756347656 960.228149414062 955.776489257812 959.558044433594 963.324768066406 971.506530761719 981.343017578125 980.375366210938 980.545471191406 967.082458496094 964.80126953125 970.360046386719 974.387756347656 965.445129394531 969.610412597656 972.4482421875 975.425964355469 974.760009765625 975.547912597656 974.5224609375 970.829345703125 974.193542480469 978.103515625 972.27880859375 976.494323730469 971.206237792969 982.291870117188 986.642517089844 989.486572265625 993.4130859375 985.036254882812 982.477722167969 986.313598632812 989.757019042969 998.050048828125 992.557861328125 989.766235351562 992.118408203125 997.305603027344 995.5107421875 1008.46685791016 1006.15966796875 997.432678222656 1008.41003417969 998.115783691406 984.63818359375 974.357421875 969.349670410156 964.070434570312 970.28955078125 966.233520507812 974.202026367188 971.868408203125 972.974731445312 970.039916992188 979.457275390625 971.327270507812 970.304809570312 977.303955078125 981.862915039062 979.519775390625 986.088500976562 983.045166015625 988.982788085938 992.923889160156 1001.31219482422 991.21142578125 985.017822265625 988.498779296875 987.327026367188 981.624206542969 988.547485351562 983.451293945312 987.678955078125 980.981811523438 966.147094726562 966.064758300781 965.053527832031 969.252807617188 974.10302734375 981.431945800781 995.289978027344 999.80615234375 1003.48736572266 1000.76843261719 999.389709472656 1007.21911621094 1009.74926757812 997.434020996094 994.797302246094 992.661376953125 1000.38970947266 1003.05395507812 1015.03393554688 1013.93884277344 1008.89855957031 1011.01599121094 1014.74261474609 1013.11315917969 1024.76647949219 1031.7509765625 1025.55712890625 1026.21435546875 1032.50390625 1023.95489501953 1030.86303710938 1035.92907714844 1044.34997558594 1042.50207519531 1049.87121582031 1042.07189941406 1029.25817871094 1032.73596191406 1030.84594726562 1025.75842285156 1026.75231933594 1021.34765625 1008.68096923828 1002.25915527344 997.116943359375 1005.37646484375 1012.36224365234 1014.57824707031 1023.37219238281 1022.75543212891 1017.07019042969 1018.48693847656 1016.44409179688 1017.92370605469 1009.00476074219 999.652526855469 992.633850097656 1003.69677734375 1007.30712890625 1004.98901367188 1005.89147949219 992.438781738281 988.503356933594
920.687438964844 919.273132324219 936.858581542969 931.920715332031 926.673767089844 935.683837890625 945.593688964844 941.472717285156 951.655212402344 957.203002929688 968.887939453125 966.770751953125 964.842590332031 969.989318847656 967.104431152344 961.171203613281 961.608215332031 971.907287597656 980.377075195312 989.230712890625 978.058776855469 978.381469726562 981.262634277344 973.326477050781 971.841796875 971.664794921875 980.256286621094 976.477233886719 976.971496582031 965.741027832031 972.119323730469 975.641906738281 974.833984375 977.378356933594 981.752136230469 977.257080078125 974.182067871094 981.358459472656 985.57568359375 988.331604003906 996.317260742188 1000.58233642578 989.482849121094 985.946838378906 991.656921386719 997.061462402344 1007.33142089844 991.860473632812 989.180297851562 991.2626953125 1010.10577392578 1014.06335449219 1007.09368896484 1004.65936279297 999.612915039062 1006.7041015625 1004.62701416016 987.55078125 979.404357910156 970.09130859375 972.875854492188 971.390808105469 979.005554199219 970.979309082031 966.254150390625 976.739990234375 984.718139648438 981.367858886719 985.783935546875 979.313720703125 974.080871582031 982.552917480469 991.588012695312 986.735229492188 987.7255859375 981.190734863281 988.909423828125 983.125122070312 989.402465820312 977.838195800781 980.778930664062 985.995788574219 989.396362304688 987.116027832031 993.71484375 983.597778320312 977.022338867188 972.145141601562 966.3037109375 973.390197753906 976.008117675781 988.155334472656 987.344177246094 989.90869140625 998.828186035156 993.769226074219 997.753051757812 1002.55725097656 1003.34619140625 1000.79968261719 998.454284667969 1000.56060791016 1005.21356201172 1006.52624511719 1006.29241943359 1011.95349121094 1009.56579589844 1019.04516601562 1014.13537597656 1016.70538330078 1023.2021484375 1030.68139648438 1030.61291503906 1033.09289550781 1019.62164306641 1026.19079589844 1028.361328125 1033.29614257812 1035.1943359375 1036.07604980469 1048.42443847656 1048.19970703125 1044.58728027344 1034.5517578125 1023.89337158203 1027.30603027344 1023.23712158203 1021.43713378906 1018.57586669922 1006.07055664062 1004.50354003906 995.704833984375 1001.86859130859 1010.24981689453 1011.53082275391 1028.67028808594 1024.24645996094 1022.07781982422 1015.77679443359 1015.30828857422 1010.67230224609 1002.54357910156 993.508239746094 991.153869628906 995.813842773438 1003.18597412109 998.879211425781 1000.17010498047 994.639465332031 991.843688964844
921.278503417969 926.818481445312 930.519226074219 931.535766601562 930.171264648438 937.118896484375 934.7353515625 945.590759277344 957.371032714844 962.150512695312 969.81005859375 967.109619140625 971.563415527344 973.883056640625 975.140686035156 963.690490722656 969.817810058594 976.985168457031 988.882263183594 998.316711425781 983.225341796875 987.69677734375 989.264953613281 981.336791992188 982.9853515625 981.161315917969 974.808898925781 976.832824707031 977.039855957031 971.825317382812 976.715698242188 975.596496582031 973.1650390625 971.612670898438 974.556518554688 976.733642578125 979.778747558594 991.249450683594 993.564819335938 1002.04943847656 997.514038085938 991.236999511719 996.342651367188 997.279174804688 1003.48565673828 997.009765625 1002.74822998047 997.768737792969 991.9736328125 1009.71734619141 1015.39263916016 1009.56353759766 1019.49133300781 1011.23870849609 1006.537109375 1010.03344726562 1006.73248291016 993.173522949219 981.507202148438 972.87109375 970.142517089844 974.920288085938 967.404541015625 966.306274414062 965.554382324219 966.865112304688 981.388916015625 974.516174316406 982.504699707031 989.349365234375 976.170532226562 987.740966796875 997.479675292969 997.912658691406 991.047424316406 991.242919921875 986.0546875 982.441833496094 984.220275878906 986.190612792969 987.909118652344 983.889465332031 992.871887207031 999.4296875 997.532287597656 994.106140136719 982.274475097656 975.900817871094 983.211547851562 984.156066894531 985.699645996094 979.707458496094 982.637145996094 981.691284179688 988.911865234375 998.3330078125 997.654174804688 995.586975097656 1008.65252685547 1005.47442626953 1001.80932617188 1005.20446777344 1010.62066650391 1018.27886962891 1013.99340820312 1011.95404052734 1012.69604492188 1009.89477539062 1017.71508789062 1016.51763916016 1024.00891113281 1027.23425292969 1027.88745117188 1021.11773681641 1027.12658691406 1022.92529296875 1019.63537597656 1025.42138671875 1019.26922607422 1028.59704589844 1042.60510253906 1036.8134765625 1036.60021972656 1039.04309082031 1026.62133789062 1024.49169921875 1014.86663818359 1022.26934814453 1009.50518798828 1010.72912597656 1000.50775146484 998.275024414062 1004.46783447266 1006.30627441406 1018.94207763672 1021.43957519531 1026.65734863281 1025.38146972656 1021.46166992188 1009.85003662109 995.932189941406 1002.25634765625 992.9365234375 993.190307617188 990.08544921875 993.851440429688 993.863952636719 991.820861816406 1002.12872314453 996.197204589844
928.671447753906 924.339782714844 931.509033203125 923.638366699219 921.678955078125 931.4677734375 937.446350097656 952.739501953125 964.0654296875 963.119323730469 966.116943359375 962.891662597656 963.547912597656 976.496032714844 987.826904296875 974.422302246094 978.897827148438 979.24951171875 984.766357421875 997.574279785156 988.078308105469 993.876892089844 989.808044433594 987.77001953125 992.80517578125 982.372619628906 978.336242675781 963.157287597656 972.068298339844 981.140686035156 975.303161621094 984.939331054688 978.942810058594 976.991027832031 980.238708496094 986.636413574219 988.120300292969 993.052612304688 1001.94696044922 1007.02331542969 1006.99346923828 994.502502441406 1004.97399902344 997.877563476562 1004.54650878906 1005.95941162109 1005.03973388672 1004.51678466797 1007.57678222656 1004.08660888672 1021.36083984375 1020.14117431641 1014.45104980469 1011.73504638672 1010.43609619141 1003.22955322266 1001.57489013672 997.109252929688 978.222473144531 975.111938476562 972.479797363281 976.2607421875 970.246398925781 966.080993652344 977.106506347656 974.15283203125 971.927795410156 973.362915039062 977.431335449219 984.66552734375 984.056945800781 996.812377929688 1002.72900390625 998.074401855469 1002.35223388672 995.406311035156 987.260131835938 984.68994140625 991.525756835938 994.847778320312 989.743469238281 986.885986328125 988.929992675781 996.821533203125 991.75732421875 981.622985839844 981.172973632812 986.692687988281 988.465454101562 988.780334472656 982.872009277344 979.52880859375 981.275451660156 978.554077148438 984.181518554688 999.863891601562 1005.02612304688 1000.94976806641 1007.47717285156 1004.82531738281 1004.18878173828 1001.73223876953 1006.11993408203 1003.49945068359 1019.11578369141 1020.33825683594 1017.11016845703 1010.21710205078 1024.36706542969 1027.43225097656 1032.30773925781 1035.84045410156 1029.98217773438 1023.66589355469 1021.99053955078 1022.32403564453 1014.76324462891 1012.06317138672 1021.33081054688 1023.11486816406 1024.8564453125 1026.25048828125 1021.65826416016 1019.88958740234 1022.03552246094 1016.35009765625 1019.53784179688 1016.36383056641 1001.05847167969 1005.53820800781 1004.01898193359 1009.62048339844 1015.79217529297 1019.82403564453 1016.52838134766 1019.33477783203 1012.1953125 1015.11120605469 1010.52160644531 1007.77960205078 999.252258300781 995.251708984375 990.087707519531 983.73193359375 984.631469726562 980.405151367188 989.737609863281 992.821716308594 999.921936035156 1006.59375
928.622924804688 930.524230957031 933.223327636719 926.278015136719 925.345947265625 927.639709472656 946.088806152344 955.868774414062 961.680725097656 962.288757324219 965.362976074219 968.663024902344 973.387939453125 974.479064941406 980.891052246094 987.548889160156 990.399230957031 985.494201660156 989.115661621094 992.149353027344 990.845092773438 995.4404296875 996.933471679688 995.531677246094 990.256286621094 988.236633300781 981.515075683594 979.66357421875 969.102478027344 975.376831054688 990.177001953125 985.193115234375 966.229736328125 971.239440917969 976.7626953125 984.746032714844 989.769775390625 994.895812988281 995.718811035156 1009.75524902344 1012.36212158203 1006.22338867188 1009.09692382812 1001.60772705078 999.577758789062 1012.78924560547 1011.68536376953 1018.84100341797 1022.61840820312 1016.61047363281 1015.69293212891 1017.431640625 1011.20599365234 1006.63214111328 1005.31164550781 991.132507324219 979.951049804688 990.053588867188 982.224304199219 973.214904785156 971.2841796875 979.917236328125 976.241149902344 979.444885253906 974.566589355469 966.305786132812 970.315795898438 973.644958496094 977.272277832031 990.049255371094 992.226318359375 999.467346191406 999.023376464844 994.189758300781 994.975952148438 1001.17919921875 992.024291992188 989.787536621094 996.603088378906 993.485229492188 978.833435058594 986.418823242188 983.042053222656 985.859558105469 984.346374511719 981.668090820312 981.048828125 982.709350585938 986.513671875 984.376892089844 987.522827148438 982.959350585938 985.357543945312 979.972778320312 987.541320800781 993.145080566406 997.885498046875 1000.15643310547 1005.07019042969 999.679504394531 1000.69403076172 998.705627441406 1005.35357666016 1010.50787353516 1019.37561035156 1023.89038085938 1012.47326660156 1015.51635742188 1029.24206542969 1031.93566894531 1030.13342285156 1029.44177246094 1035.66064453125 1024.39184570312 1020.72009277344 1022.95849609375 1014.25561523438 1019.75079345703 1017.79302978516 1019.54028320312 1011.97534179688 1013.61242675781 1007.4423828125 1008.03948974609 1013.55676269531 1019.13909912109 1015.84558105469 1018.72857666016 1000.62719726562 1005.16143798828 1007.18212890625 1009.69958496094 1015.72113037109 1015.34197998047 1007.67144775391 1011.05108642578 1017.47479248047 1013.82177734375 1016.21899414062 1007.89422607422 993.764526367188 987.138793945312 983.559509277344 984.9130859375 985.05908203125 975.733581542969 973.284057617188 993.326538085938 995.739379882812 1001.16058349609
933.302917480469 924.143005371094 931.547546386719 930.588195800781 928.3681640625 932.090393066406 938.826965332031 955.749267578125 955.870666503906 956.145568847656 967.52099609375 968.84716796875 981.311401367188 980.5947265625 981.918640136719 991.888122558594 989.3056640625 986.674987792969 988.481994628906 981.266296386719 992.963684082031 990.426635742188 999.0869140625 991.1962890625 988.356140136719 988.781860351562 979.79541015625 978.742248535156 976.614990234375 987.954711914062 990.379516601562 983.700439453125 975.475646972656 981.377807617188 984.3623046875 981.465026855469 992.852661132812 1006.05493164062 998.960510253906 1006.69384765625 1008.59765625 1015.89331054688 1020.11431884766 1008.66320800781 1017.14099121094 1019.69342041016 1013.79058837891 1013.22503662109 1029.95080566406 1023.97119140625 1009.46484375 1014.7236328125 1004.11285400391 997.314697265625 989.206359863281 987.960632324219 981.895141601562 988.853271484375 979.746215820312 980.39306640625 973.059692382812 974.390869140625 972.64013671875 967.39599609375 963.900512695312 972.655517578125 971.023376464844 970.962036132812 976.332153320312 987.720336914062 998.491577148438 998.643432617188 995.528137207031 995.004211425781 991.475402832031 994.325500488281 995.422668457031 992.746459960938 998.764709472656 995.923278808594 989.267639160156 986.585205078125 986.947570800781 991.755065917969 990.923095703125 990.963439941406 980.864501953125 992.741638183594 997.133666992188 991.046264648438 987.531188964844 987.282897949219 991.356506347656 986.877563476562 993.183288574219 987.984436035156 996.884704589844 997.687805175781 1000.29962158203 998.740295410156 998.182006835938 1003.26947021484 1007.173828125 1013.68670654297 1016.30932617188 1012.98901367188 1020.54675292969 1022.40423583984 1022.72406005859 1034.69763183594 1027.97424316406 1024.57543945312 1030.34143066406 1024.51538085938 1022.68579101562 1020.75396728516 1020.85296630859 1019.55200195312 1013.82012939453 1004.44140625 1001.56079101562 1001.09466552734 999.836181640625 1005.73858642578 1005.51300048828 1009.72406005859 1007.82678222656 1011.72711181641 1008.65521240234 1005.05511474609 1009.35137939453 999.952209472656 1003.73211669922 1007.84796142578 1004.95513916016 998.633728027344 1005.25592041016 1007.63677978516 1011.4296875 1004.80352783203 1002.37347412109 996.734313964844 987.6162109375 981.404174804688 982.555480957031 973.973205566406 961.438293457031 977.991577148438 987.26318359375 987.236633300781
936.189086914062 931.764282226562 936.749145507812 933.641174316406 937.281433105469 936.455078125 939.883422851562 940.790893554688 945.94482421875 955.817138671875 968.207946777344 965.473266601562 973.5556640625 974.492736816406 980.312377929688 972.475402832031 982.994323730469 986.355102539062 983.585083007812 989.883483886719 994.184509277344 989.504516601562 996.704467773438 995.14892578125 993.135070800781 987.551635742188 991.88525390625 988.914123535156 990.035217285156 989.577331542969 987.922729492188 985.465637207031 988.085510253906 985.151123046875 977.832946777344 985.090576171875 989.164001464844 1004.42517089844 998.8203125 1000.69348144531 1008.34576416016 1009.22772216797 1010.12780761719 1005.15161132812 1012.86828613281 1013.33251953125 1018.40417480469 1012.06359863281 1002.11938476562 1006.84979248047 1007.37396240234 1001.76727294922 998.4345703125 996.917602539062 984.253051757812 978.28466796875 982.669616699219 986.320190429688 984.949951171875 981.049438476562 975.613586425781 975.098876953125 968.334899902344 965.619812011719 967.243896484375 973.450439453125 972.973266601562 977.751892089844 989.657104492188 997.936950683594 996.084350585938 1000.10931396484 998.977111816406 992.917724609375 993.086120605469 990.643737792969 993.853088378906 1001.80218505859 1004.26208496094 1007.41033935547 1006.66479492188 993.750366210938 995.023559570312 996.914367675781 994.875549316406 1000.53161621094 993.862487792969 995.641418457031 1000.61480712891 990.902099609375 996.232238769531 995.896484375 990.763732910156 992.967407226562 994.141540527344 988.718627929688 989.888671875 1002.18713378906 997.190063476562 1002.19110107422 1005.38616943359 1012.36889648438 1014.27593994141 1022.31231689453 1025.15844726562 1023.62573242188 1020.31982421875 1032.57348632812 1037.22790527344 1031.49084472656 1034.34069824219 1029.45922851562 1033.0810546875 1029.18884277344 1027.26538085938 1024.26928710938 1015.18328857422 1014.35925292969 1011.35229492188 1005.84252929688 1000.79309082031 991.473205566406 996.615966796875 999.933532714844 997.23193359375 1010.05297851562 1021.42193603516 1015.07525634766 1007.31652832031 1002.14001464844 994.781799316406 995.518737792969 1004.56207275391 999.691223144531 1006.68438720703 1001.17102050781 1001.27947998047 1012.49359130859 1006.81140136719 1005.19744873047 1001.77081298828 990.970947265625 991.205139160156 985.288696289062 976.020385742188 963.295471191406 962.6171875 968.72314453125 965.929626464844 976.947509765625
934.787902832031 942.940307617188 935.156066894531 939.683288574219 942.088012695312 934.914855957031 943.33544921875 946.074523925781 938.18896484375 946.859741210938 959.821960449219 966.690368652344 967.625061035156 972.940490722656 973.46728515625 973.049682617188 980.609680175781 980.36181640625 983.413635253906 985.39111328125 989.887084960938 993.395568847656 985.345764160156 986.2294921875 985.4609375 978.726623535156 981.176391601562 983.836181640625 990.641723632812 980.094482421875 980.56005859375 985.073425292969 977.325073242188 981.745971679688 987.182373046875 979.0478515625 990.981689453125 988.995544433594 1001.37359619141 1001.54669189453 1006.96612548828 1005.00415039062 1005.66021728516 1003.73919677734 1003.41119384766 1004.04522705078 1014.37164306641 1007.90441894531 996.331787109375 1001.64996337891 999.681396484375 1004.21728515625 996.390625 992.924865722656 995.533203125 982.323852539062 979.016967773438 980.361572265625 987.133361816406 982.071044921875 981.982788085938 976.82421875 966.719665527344 970.024719238281 974.27880859375 978.427795410156 972.467346191406 973.395751953125 980.876953125 989.377380371094 996.756652832031 991.296447753906 989.566955566406 990.188598632812 989.444946289062 998.110412597656 995.437377929688 1006.49871826172 1003.77496337891 1010.56420898438 1008.50872802734 1007.27416992188 1011.76721191406 1006.67468261719 999.985290527344 997.798400878906 998.08154296875 1004.04339599609 1003.38464355469 996.841857910156 998.943237304688 997.070556640625 995.116271972656 990.654663085938 995.491821289062 994.802551269531 994.03515625 1003.12219238281 997.998840332031 996.067443847656 999.712280273438 1004.22601318359 1011.93267822266 1010.54925537109 1012.52783203125 1023.60150146484 1027.38110351562 1029.4541015625 1043.94982910156 1035.28063964844 1039.82141113281 1033.78894042969 1031.47326660156 1040.64184570312 1039.18103027344 1028.22973632812 1020.15765380859 1019.33001708984 1012.42254638672 1006.05712890625 1002.8115234375 1001.90893554688 997.367065429688 994.377258300781 998.937622070312 1002.43145751953 1011.10131835938 1007.9853515625 1006.31311035156 1000.87719726562 994.121826171875 994.005065917969 997.174743652344 995.479187011719 995.3740234375 1007.64788818359 1008.54620361328 1010.28717041016 1005.60711669922 997.755615234375 989.594482421875 988.518005371094 992.748718261719 988.116760253906 977.843811035156 970.348205566406 962.422058105469 959.155578613281 967.809875488281 977.788513183594
928.51806640625 940.881164550781 941.579528808594 940.753540039062 939.47900390625 938.649475097656 946.07861328125 943.560913085938 938.8154296875 948.209106445312 967.200012207031 967.20166015625 969.480712890625 971.477478027344 977.297180175781 979.872314453125 983.874938964844 979.58251953125 979.693481445312 977.908569335938 979.056579589844 985.545349121094 977.133850097656 981.105285644531 981.283081054688 986.496032714844 988.716369628906 982.823303222656 976.867919921875 978.348999023438 984.118591308594 972.250610351562 982.618347167969 985.015563964844 987.843078613281 984.058349609375 988.869384765625 982.946105957031 992.987426757812 996.83544921875 1010.27557373047 1009.96728515625 1010.57354736328 994.99267578125 1008.40295410156 1002.51068115234 1009.64776611328 1009.19384765625 1001.95379638672 1009.78741455078 995.134155273438 1001.07049560547 998.450256347656 993.339660644531 998.529663085938 994.253784179688 983.855346679688 984.347595214844 978.091186523438 972.952209472656 977.612915039062 981.478210449219 978.640808105469 976.530334472656 974.357177734375 982.854309082031 978.942199707031 977.656372070312 973.874389648438 985.672241210938 987.793701171875 992.879028320312 989.895202636719 988.789184570312 995.442138671875 995.71923828125 998.980407714844 1002.29058837891 1015.79974365234 1017.0166015625 1002.27728271484 1008.60906982422 1011.95123291016 1014.41693115234 1013.19647216797 1004.89093017578 1002.06494140625 999.444946289062 1002.15625 992.439758300781 1002.09582519531 1002.23889160156 994.625610351562 998.454040527344 1000.0693359375 1000.85791015625 996.662841796875 998.409912109375 993.068115234375 990.00830078125 998.90380859375 999.808837890625 1004.44110107422 1006.02484130859 1014.58020019531 1010.81011962891 1024.61926269531 1035.71850585938 1049.59118652344 1042.35559082031 1040.9873046875 1038.88598632812 1039.37756347656 1045.97277832031 1044.25170898438 1031.87866210938 1022.53955078125 1025.66564941406 1019.37463378906 1010.76531982422 1008.65423583984 1005.57971191406 997.823974609375 994.505187988281 1003.05407714844 1005.44226074219 1000.04772949219 1005.38922119141 1000.34246826172 1001.61145019531 993.657043457031 987.385620117188 992.935424804688 989.005065917969 992.805969238281 997.157165527344 994.114135742188 991.912414550781 991.974182128906 984.627258300781 990.47802734375 984.555969238281 986.668640136719 987.779907226562 975.195434570312 974.725708007812 966.396667480469 961.535827636719 964.848876953125 975.405090332031
929.518798828125 936.943481445312 943.237243652344 940.956787109375 941.979309082031 944.966918945312 938.8662109375 944.679321289062 939.090698242188 952.517150878906 956.170593261719 959.556884765625 964.368774414062 965.302429199219 975.218933105469 978.265014648438 984.080200195312 970.362548828125 978.069091796875 975.38818359375 976.807983398438 979.515625 967.830261230469 981.50048828125 990.014038085938 978.917602539062 973.099365234375 970.919677734375 975.365966796875 983.417053222656 985.551025390625 980.091735839844 983.074401855469 983.343627929688 989.875244140625 987.683715820312 989.011962890625 994.210998535156 1001.65795898438 1003.42132568359 1004.05163574219 1001.93426513672 999.943969726562 995.924133300781 999.051513671875 1007.27124023438 1014.70495605469 1002.30474853516 1003.27288818359 1008.54541015625 1007.44561767578 1010.00213623047 1002.18176269531 990.931884765625 1000.59454345703 995.086975097656 989.057373046875 985.071044921875 981.938659667969 972.362182617188 974.176574707031 974.366027832031 979.712463378906 975.65966796875 982.563842773438 978.40673828125 979.331970214844 981.700256347656 975.9033203125 979.72900390625 977.90283203125 983.641479492188 986.500122070312 989.077514648438 993.952758789062 997.013244628906 990.154907226562 1002.36047363281 1012.89276123047 1005.52514648438 1009.01599121094 1005.77593994141 1014.33630371094 1011.75958251953 1007.99340820312 1004.03491210938 1006.48376464844 997.169860839844 993.977294921875 996.428100585938 998.225219726562 998.560974121094 997.059875488281 1003.15045166016 1003.05242919922 1003.14263916016 992.234802246094 996.644897460938 1000.11346435547 998.635986328125 1005.86700439453 1006.10864257812 1007.85925292969 1011.21850585938 1013.32702636719 1007.43280029297 1020.60485839844 1041.70751953125 1050.21887207031 1049.40515136719 1047.640625 1052.26708984375 1052.23559570312 1051.94714355469 1046.90173339844 1035.34631347656 1032.30346679688 1032.09887695312 1029.65930175781 1016.97009277344 1024.24389648438 1005.6787109375 1004.28240966797 991.7724609375 999.568237304688 1002.64526367188 992.066650390625 992.457824707031 999.794555664062 998.127258300781 995.530456542969 985.124328613281 994.904174804688 996.41015625 1003.74346923828 1007.82263183594 1000.89068603516 993.039916992188 991.791564941406 986.292846679688 987.65478515625 979.692687988281 993.75927734375 993.054077148438 980.172485351562 980.951477050781 979.846862792969 971.464965820312 969.330383300781 975.726318359375
932.904235839844 936.077575683594 935.071533203125 949.740417480469 937.167846679688 946.797180175781 939.401672363281 947.669128417969 954.478942871094 964.775146484375 968.220825195312 953.222106933594 947.041442871094 959.41455078125 967.576965332031 968.676879882812 969.412780761719 969.844848632812 969.759033203125 973.39404296875 973.832885742188 966.103759765625 972.465881347656 986.895935058594 989.472045898438 991.627075195312 979.675476074219 983.638488769531 969.874877929688 972.263427734375 977.266235351562 980.371887207031 982.623291015625 980.628967285156 980.697326660156 980.430419921875 984.308288574219 992.008422851562 1000.96087646484 1001.47406005859 1000.82867431641 1003.01885986328 999.63720703125 998.158325195312 999.486694335938 1008.56304931641 1017.50067138672 1004.8515625 1001.25207519531 1006.29498291016 1000.92474365234 1005.83337402344 999.323669433594 999.846496582031 995.520690917969 1002.10955810547 993.296875 988.872192382812 992.801879882812 984.879638671875 974.906982421875 973.321411132812 972.739196777344 971.320190429688 984.849487304688 985.936218261719 985.829711914062 981.389587402344 973.970947265625 980.968566894531 979.014465332031 976.942504882812 990.079345703125 991.710998535156 989.952758789062 985.709228515625 992.024047851562 996.988159179688 1005.17279052734 998.326049804688 1000.89605712891 1003.48358154297 1015.0302734375 1006.53796386719 990.989562988281 1001.55401611328 994.631286621094 1001.48614501953 1003.62023925781 1001.66296386719 1002.26885986328 996.663696289062 992.832580566406 994.570922851562 995.09033203125 995.376831054688 998.9453125 994.002624511719 995.406066894531 1000.18737792969 999.957702636719 1006.38452148438 1005.24176025391 1003.09521484375 1009.37561035156 1010.04565429688 1027.49194335938 1052.576171875 1059.70739746094 1056.76770019531 1056.55993652344 1054.65795898438 1057.28356933594 1062.39575195312 1050.98364257812 1048.48645019531 1038.50207519531 1039.96411132812 1028.74145507812 1018.08264160156 1018.53503417969 1008.66784667969 1001.68896484375 993.639465332031 993.378540039062 987.054382324219 989.571044921875 993.370727539062 993.305725097656 1004.22131347656 993.3203125 983.806762695312 987.640441894531 992.004943847656 1000.75067138672 1004.82940673828 1004.78717041016 988.296142578125 987.60986328125 987.48876953125 983.428771972656 975.763244628906 985.8720703125 981.323608398438 972.653381347656 979.282592773438 990.133728027344 984.107360839844 976.273864746094 981.65478515625
929.321411132812 935.293518066406 935.063537597656 944.643310546875 936.952453613281 933.237548828125 933.918151855469 950.717346191406 953.522888183594 966.191833496094 964.881103515625 955.401000976562 957.529968261719 957.548278808594 954.867919921875 966.154968261719 968.032104492188 964.424926757812 961.617797851562 963.124633789062 961.937744140625 963.205322265625 966.142211914062 971.41845703125 982.059814453125 983.117309570312 983.186645507812 983.940246582031 972.172607421875 969.613830566406 969.631103515625 968.761047363281 981.200317382812 976.5185546875 971.2158203125 968.316101074219 975.108459472656 984.374389648438 1001.04333496094 997.1318359375 997.644836425781 999.80859375 988.834045410156 990.110168457031 1004.01525878906 1003.10034179688 1000.05084228516 1000.63189697266 999.820129394531 1005.81842041016 1005.80590820312 1003.50317382812 1003.83514404297 998.131225585938 991.228942871094 997.3515625 996.799743652344 991.88037109375 985.271179199219 987.07275390625 982.785278320312 981.404663085938 980.468139648438 983.329406738281 987.158325195312 983.441467285156 983.206665039062 985.642150878906 981.943664550781 982.420288085938 979.411743164062 976.072937011719 977.900451660156 984.936340332031 982.776794433594 976.735229492188 995.752502441406 997.639221191406 1003.12689208984 996.863708496094 990.9306640625 1001.12060546875 1010.28198242188 1005.80395507812 996.654663085938 1000.68249511719 995.679321289062 1001.92358398438 994.355773925781 998.379699707031 996.83154296875 1000.01898193359 990.092834472656 1004.25408935547 998.917602539062 995.22900390625 996.822265625 999.958251953125 1002.77105712891 999.659423828125 999.858215332031 1003.60455322266 1006.05065917969 1012.19342041016 1013.79010009766 1024.68310546875 1037.04711914062 1046.05969238281 1052.82104492188 1059.99267578125 1053.24572753906 1058.48461914062 1058.85754394531 1059.70166015625 1053.91735839844 1052.40686035156 1046.63977050781 1050.30725097656 1031.50390625 1023.34295654297 1017.94030761719 1017.48431396484 997.00537109375 994.549438476562 989.217041015625 984.990539550781 985.855041503906 987.443298339844 994.897827148438 998.299133300781 997.520935058594 987.184875488281 990.246032714844 992.049560546875 999.482788085938 1005.85388183594 1004.00012207031 990.1630859375 986.610778808594 983.520751953125 981.119262695312 974.448669433594 979.688598632812 972.805358886719 972.878112792969 981.929138183594 980.683471679688 983.17236328125 981.243774414062 989.192260742188
931.730224609375 929.561401367188 931.685729980469 938.902587890625 932.477905273438 926.361145019531 937.214965820312 951.9921875 954.076904296875 960.73291015625 964.112487792969 959.075805664062 951.664489746094 958.213562011719 954.005737304688 958.5888671875 967.389526367188 954.474975585938 961.203002929688 957.752868652344 959.280334472656 959.484375 965.277709960938 969.911437988281 979.283630371094 971.756286621094 972.273498535156 970.21044921875 963.810363769531 962.344848632812 963.031372070312 965.761840820312 982.927917480469 983.945739746094 978.898498535156 978.265258789062 970.939453125 980.503356933594 979.703552246094 985.625671386719 984.029052734375 994.630554199219 986.344055175781 992.797302246094 1003.92657470703 1002.41973876953 1004.78839111328 1005.3759765625 1000.00207519531 1003.7763671875 1014.20178222656 999.347045898438 998.107421875 998.354919433594 995.665832519531 998.529052734375 1008.07897949219 999.98583984375 983.90234375 983.568969726562 989.123046875 994.423156738281 985.672729492188 984.935546875 996.100280761719 989.51123046875 987.543762207031 981.404174804688 981.720825195312 985.119873046875 985.602111816406 982.309692382812 977.415588378906 967.3984375 978.590209960938 984.987670898438 987.798583984375 988.90087890625 995.029174804688 991.921020507812 993.870849609375 1001.46325683594 1003.81066894531 997.217468261719 1000.35070800781 1004.3994140625 1003.22259521484 1001.12133789062 991.38720703125 994.698852539062 996.461242675781 997.251647949219 992.686828613281 999.577758789062 999.528564453125 1001.24816894531 997.097351074219 999.458068847656 998.325439453125 999.277526855469 999.609375 1005.38134765625 1005.56579589844 1006.85223388672 1016.09442138672 1022.06915283203 1020.1826171875 1037.09350585938 1041.40881347656 1050.69299316406 1052.06127929688 1051.73864746094 1061.51086425781 1065.2392578125 1062.14575195312 1055.77502441406 1049.0244140625 1037.82019042969 1024.25061035156 1029.45910644531 1021.57427978516 1009.04431152344 997.029296875 988.067932128906 979.023132324219 984.840454101562 980.932373046875 985.105102539062 985.456481933594 981.536071777344 995.143249511719 995.317260742188 989.217163085938 993.011291503906 987.907592773438 996.656616210938 992.219299316406 987.453186035156 983.219787597656 980.675231933594 979.364013671875 980.238891601562 980.868530273438 981.624633789062 970.877868652344 976.192016601562 980.173278808594 985.200988769531 983.591186523438 981.641906738281
933.580078125 931.928100585938 935.469421386719 941.102600097656 941.098022460938 938.930419921875 941.614501953125 944.622680664062 947.9189453125 951.295104980469 957.109497070312 958.52880859375 951.976867675781 945.257629394531 960.979125976562 971.75732421875 957.025756835938 953.213134765625 954.243225097656 952.165466308594 951.010070800781 955.681457519531 955.853820800781 962.407287597656 956.116149902344 959.385925292969 963.425415039062 963.6513671875 961.219909667969 957.032897949219 958.576599121094 965.683654785156 977.495422363281 983.628967285156 975.673278808594 972.026184082031 980.543395996094 980.3447265625 974.726196289062 975.732055664062 986.251403808594 982.108154296875 988.014953613281 998.27099609375 1003.54553222656 1001.85552978516 1003.19848632812 1000.39923095703 998.548217773438 994.653137207031 1003.67999267578 999.986755371094 1003.00085449219 996.395141601562 994.910827636719 998.792785644531 1004.49475097656 1000.47113037109 984.961853027344 990.324890136719 992.817138671875 982.804382324219 994.414306640625 997.246154785156 999.542297363281 990.804931640625 981.395874023438 983.0693359375 988.426208496094 985.29736328125 987.681213378906 980.943969726562 973.731628417969 980.54638671875 988.097412109375 991.064819335938 990.267578125 984.805419921875 984.946350097656 992.942321777344 994.212707519531 995.357482910156 1005.92791748047 1007.34692382812 997.096496582031 1003.32830810547 1007.67535400391 1003.00946044922 1002.43035888672 1001.87274169922 997.236206054688 994.633117675781 996.264526367188 996.503723144531 1005.82232666016 1002.20758056641 999.581298828125 1008.22052001953 1009.57769775391 1011.34600830078 1001.38079833984 1003.68981933594 1003.47955322266 1012.32543945312 1016.06878662109 1018.01654052734 1024.87353515625 1030.76818847656 1039.54479980469 1055.67150878906 1050.43322753906 1055.80053710938 1049.49523925781 1055.19409179688 1062.41772460938 1052.68737792969 1044.87731933594 1036.97436523438 1032.98217773438 1029.142578125 1023.76837158203 1008.89282226562 996.310180664062 993.360595703125 988.550231933594 986.958374023438 994.190551757812 987.460144042969 983.147399902344 981.420471191406 985.214416503906 983.278930664062 984.025573730469 985.785583496094 985.368347167969 984.341979980469 988.42236328125 991.737609863281 988.888122558594 985.326965332031 975.687744140625 979.794189453125 982.855590820312 979.897094726562 974.998962402344 970.969848632812 977.463684082031 972.240600585938 985.644653320312 982.162170410156
929.162780761719 932.087646484375 931.579833984375 943.515319824219 940.799987792969 933.467895507812 940.79833984375 943.53662109375 942.685119628906 943.910339355469 951.1279296875 959.750366210938 952.350158691406 952.165832519531 958.033203125 961.4833984375 955.6572265625 953.597473144531 952.599609375 946.493408203125 949.6650390625 958.178771972656 956.020935058594 949.719299316406 952.033752441406 950.944458007812 956.123352050781 955.787719726562 955.793823242188 959.070007324219 962.539978027344 960.455749511719 973.757019042969 974.078308105469 967.657470703125 973.536071777344 970.469543457031 971.036804199219 967.899353027344 970.962585449219 984.894897460938 982.246948242188 979.619995117188 987.976989746094 994.634460449219 994.629577636719 1004.22326660156 999.226013183594 1003.03350830078 1004.80621337891 1003.4619140625 1008.45495605469 996.833801269531 1005.31768798828 1006.47039794922 992.531005859375 1000.45050048828 994.375244140625 995.553771972656 995.344787597656 994.779479980469 992.585815429688 1002.09356689453 1004.11743164062 1000.04345703125 987.505554199219 987.071228027344 986.067932128906 991.583801269531 988.794860839844 987.429138183594 990.471923828125 986.809387207031 980.807800292969 986.249145507812 984.306518554688 992.3505859375 998.377990722656 990.369201660156 992.792175292969 988.498291015625 999.395263671875 1000.16143798828 1003.09674072266 998.697082519531 1001.18322753906 1004.09527587891 1016.36474609375 1017.02026367188 1009.58435058594 1001.4052734375 998.286010742188 995.535034179688 1000.44635009766 1001.97479248047 1004.53881835938 1008.970703125 1013.64624023438 1015.46002197266 1017.40771484375 1004.76989746094 1001.70227050781 1013.48962402344 1019.08062744141 1016.39227294922 1020.1787109375 1028.54345703125 1029.70104980469 1040.11779785156 1052.84777832031 1050.15686035156 1055.35021972656 1066.09094238281 1061.51843261719 1066.44006347656 1062.1708984375 1046.7421875 1044.78186035156 1038.85815429688 1032.84643554688 1028.98022460938 1018.33172607422 1013.53723144531 1008.56384277344 991.038635253906 990.615783691406 986.785522460938 987.518981933594 987.178283691406 984.627868652344 979.685424804688 985.809997558594 983.154296875 979.71826171875 981.693969726562 990.09228515625 993.196044921875 990.267211914062 983.432678222656 978.1953125 979.013854980469 970.597473144531 982.355285644531 977.741577148438 973.72412109375 964.768798828125 974.849365234375 964.236206054688 975.955810546875 979.53515625
940.551696777344 944.557922363281 942.062316894531 942.723449707031 941.631408691406 932.008850097656 939.774536132812 938.018310546875 943.242431640625 942.817077636719 937.412170410156 949.142517089844 948.754821777344 952.499206542969 958.844055175781 953.035034179688 941.074951171875 953.580261230469 953.551391601562 959.64794921875 961.93212890625 962.64501953125 950.270690917969 955.710998535156 953.704162597656 953.258728027344 952.746704101562 960.426879882812 955.639709472656 953.016784667969 952.8125 964.789489746094 974.362548828125 972.720275878906 970.014404296875 970.382141113281 969.983764648438 962.422607421875 967.024047851562 972.856689453125 978.291625976562 980.949584960938 976.005798339844 992.098022460938 991.821899414062 987.824951171875 996.064208984375 1001.74652099609 1007.5908203125 1008.67456054688 1012.07244873047 1007.31512451172 1001.38946533203 999.087524414062 1007.42065429688 1007.03448486328 999.304138183594 992.385375976562 1001.96990966797 994.204650878906 993.255065917969 995.819580078125 999.762451171875 993.249877929688 995.509460449219 982.491333007812 982.897521972656 988.091796875 986.330139160156 988.781616210938 990.426025390625 993.794921875 993.202880859375 998.378723144531 1001.78332519531 994.125366210938 992.702514648438 993.097717285156 992.423950195312 993.3388671875 994.494750976562 996.725708007812 995.82080078125 997.996459960938 1000.94024658203 1002.10083007812 1013.34173583984 1019.08996582031 1021.11474609375 1006.8095703125 1004.35980224609 1001.73565673828 1003.33349609375 1008.56878662109 1009.19415283203 1014.05181884766 1011.19299316406 1013.70147705078 1018.77008056641 1020.22857666016 1013.41412353516 1010.34661865234 1029.50378417969 1030.9365234375 1027.38781738281 1020.97845458984 1026.61022949219 1035.29821777344 1048.25280761719 1051.55773925781 1056.17065429688 1061.3515625 1066.95397949219 1072.46032714844 1068.08288574219 1068.5986328125 1051.4951171875 1048.85717773438 1041.56115722656 1045.59765625 1044.31982421875 1030.45227050781 1020.5078125 1014.00408935547 998.736999511719 996.193359375 993.388000488281 989.750061035156 990.177551269531 984.676635742188 980.810791015625 984.509704589844 980.284729003906 979.478942871094 975.753845214844 982.665710449219 975.479187011719 979.422302246094 984.479919433594 976.887023925781 973.226623535156 964.252136230469 970.948669433594 970.109741210938 974.194580078125 973.240417480469 964.880920410156 969.277526855469 975.399047851562 971.98681640625
952.234924316406 955.971618652344 954.690856933594 951.695068359375 946.993408203125 942.72265625 935.622192382812 944.8798828125 941.763122558594 933.564025878906 935.924621582031 946.551818847656 957.281372070312 957.984008789062 952.803039550781 949.437561035156 937.130187988281 945.732482910156 955.422180175781 961.101745605469 965.088745117188 961.031677246094 961.684509277344 956.601318359375 959.04638671875 961.827209472656 959.978576660156 962.450012207031 953.665649414062 956.459289550781 959.960876464844 970.881896972656 966.392883300781 968.8759765625 972.10546875 964.914611816406 971.0634765625 969.955810546875 972.714721679688 969.928344726562 968.852355957031 975.132934570312 972.007629394531 978.152465820312 983.588684082031 987.803771972656 990.837341308594 1003.26409912109 1001.98461914062 1008.95135498047 1012.29467773438 1009.37957763672 1012.173828125 1006.58776855469 1010.17913818359 1010.14416503906 1004.70623779297 995.43603515625 1006.42004394531 994.978149414062 999.687805175781 998.819213867188 1000.50665283203 993.477905273438 989.97607421875 989.825500488281 987.025085449219 989.41796875 986.449401855469 983.835876464844 988.02880859375 990.093811035156 995.565612792969 992.971862792969 1005.23504638672 993.492553710938 998.547729492188 995.767578125 993.531188964844 993.393432617188 992.978454589844 1008.74975585938 1000.9326171875 996.997863769531 1002.90228271484 1001.76531982422 1009.54656982422 1014.39935302734 1017.52062988281 1011.01025390625 1011.18957519531 1011.05029296875 1010.24176025391 1014.46746826172 1007.10223388672 1008.73492431641 1012.99377441406 1015.89611816406 1020.80249023438 1022.37841796875 1002.17498779297 1004.10308837891 1024.31066894531 1028.33190917969 1022.59716796875 1017.34405517578 1022.19311523438 1039.94116210938 1051.12194824219 1046.57336425781 1054.76733398438 1059.84130859375 1063.56262207031 1072.92712402344 1051.0595703125 1062.0712890625 1058.64440917969 1053.28002929688 1058.94421386719 1052.78210449219 1039.48876953125 1027.71447753906 1023.13403320312 1012.54766845703 1012.88751220703 1004.97668457031 995.983703613281 987.388977050781 978.160461425781 984.397583007812 984.612548828125 979.233642578125 975.427673339844 970.57470703125 968.343139648438 977.547729492188 976.362060546875 971.398376464844 973.077819824219 974.741638183594 965.50732421875 969.161804199219 974.830932617188 974.8154296875 980.623840332031 978.764709472656 975.341247558594 977.912841796875 978.508056640625 967.442016601562
953.123657226562 958.905090332031 955.753662109375 958.625183105469 956.8037109375 957.273498535156 946.175048828125 945.095581054688 941.084167480469 946.083251953125 944.019409179688 953.160949707031 955.080017089844 955.531372070312 948.900329589844 947.346984863281 944.283142089844 957.738647460938 955.529846191406 951.942687988281 963.659118652344 955.251892089844 956.926635742188 966.378540039062 957.910522460938 965.367919921875 964.357421875 968.205932617188 955.577453613281 959.213745117188 968.186340332031 970.831115722656 966.472045898438 970.372009277344 969.650024414062 974.823913574219 973.671142578125 973.867492675781 967.394836425781 973.746459960938 975.545593261719 971.044860839844 960.102111816406 976.265197753906 981.438171386719 986.965698242188 988.642883300781 986.010131835938 990.068908691406 1000.37451171875 999.0419921875 1001.61584472656 1002.9462890625 1005.88342285156 1011.78540039062 1007.03997802734 1006.00677490234 1006.02984619141 998.174926757812 1002.95947265625 1001.07696533203 992.731018066406 992.322204589844 992.459838867188 990.081420898438 982.335021972656 987.510925292969 988.933166503906 988.128784179688 988.467651367188 981.072814941406 993.585083007812 998.537048339844 1003.54699707031 1005.13494873047 1001.91473388672 1000.47106933594 994.618347167969 995.121765136719 992.818420410156 994.269958496094 990.757568359375 999.846618652344 1002.99200439453 1012.78582763672 1013.63800048828 1010.02465820312 1010.13793945312 1018.14593505859 1009.32214355469 1008.41333007812 1018.89044189453 1022.60174560547 1013.01525878906 1015.36871337891 1011.66088867188 1014.40106201172 1017.66033935547 1019.83453369141 1021.28967285156 1001.33276367188 1010.75317382812 1014.67077636719 1031.93798828125 1022.46343994141 1013.66571044922 1024.81042480469 1039.75402832031 1046.48522949219 1049.27966308594 1052.02575683594 1051.77514648438 1061.11645507812 1069.95568847656 1061.35961914062 1063.42126464844 1065.39575195312 1057.90197753906 1044.35949707031 1048.21228027344 1041.32861328125 1035.71350097656 1024.07543945312 1020.25042724609 1007.56689453125 1011.20043945312 1009.20666503906 992.635131835938 993.504943847656 989.888732910156 991.639709472656 986.070861816406 981.604309082031 978.164794921875 986.422668457031 985.772338867188 981.440185546875 982.117370605469 976.792175292969 975.290222167969 960.124145507812 965.606628417969 978.029174804688 979.419921875 979.686218261719 982.721984863281 983.594299316406 974.871459960938 968.762145996094 963.595397949219
957.458618164062 964.447265625 969.841674804688 959.379272460938 967.1845703125 948.788696289062 944.488159179688 949.462768554688 946.982971191406 949.280639648438 950.192443847656 949.554748535156 965.241394042969 955.362487792969 949.533996582031 952.294006347656 948.302795410156 958.138122558594 956.909484863281 947.903869628906 943.638916015625 959.215881347656 961.006591796875 964.488525390625 968.016906738281 966.696533203125 964.003479003906 967.630065917969 965.105041503906 956.01220703125 960.444152832031 964.177001953125 960.498901367188 968.226928710938 974.010009765625 975.935180664062 976.89404296875 982.008422851562 981.955627441406 981.693237304688 972.020812988281 973.615905761719 969.527465820312 974.607055664062 974.542602539062 982.376892089844 978.950805664062 980.575744628906 984.179504394531 983.189208984375 991.601684570312 993.526428222656 1003.50244140625 1002.01641845703 1010.52990722656 1010.97583007812 1003.70147705078 1007.57391357422 1007.31109619141 1007.37237548828 1010.20776367188 1001.42712402344 991.062805175781 993.255310058594 982.747924804688 992.192260742188 993.78759765625 988.83837890625 981.381164550781 994.822570800781 980.373107910156 991.153686523438 999.378601074219 1004.91461181641 1009.07165527344 1000.12213134766 999.082641601562 998.467834472656 994.317077636719 993.213928222656 1002.01470947266 997.862182617188 993.803466796875 1004.43115234375 1007.56134033203 1005.91125488281 1018.07427978516 1007.83215332031 1008.90270996094 1008.52294921875 1011.63586425781 1015.16192626953 1019.05828857422 1021.52264404297 1017.51721191406 1014.54284667969 1014.49462890625 1019.14294433594 1020.40338134766 1013.62469482422 1017.00189208984 1012.20623779297 1014.40356445312 1024.21594238281 1018.24517822266 1023.40936279297 1029.43103027344 1041.67785644531 1040.74072265625 1050.68151855469 1056.60217285156 1054.626953125 1055.37084960938 1060.11755371094 1059.20922851562 1056.48913574219 1057.375 1053.23864746094 1049.70593261719 1039.32446289062 1029.34533691406 1036.6630859375 1031.71643066406 1026.91027832031 1015.33648681641 1014.685546875 1005.37847900391 997.205993652344 987.664367675781 983.090637207031 991.475646972656 986.884765625 982.867309570312 991.402648925781 989.384765625 987.520812988281 992.385864257812 983.987609863281 975.346862792969 971.513854980469 967.269409179688 962.174011230469 968.799072265625 973.454833984375 971.963012695312 980.282470703125 974.753295898438 971.87744140625 966.96630859375 965.485778808594
954.708984375 972.478881835938 975.452392578125 965.800903320312 963.437866210938 958.697448730469 946.811401367188 950.268676757812 953.969970703125 956.580444335938 956.167297363281 952.381896972656 963.421264648438 958.146789550781 957.704956054688 956.671508789062 954.8779296875 963.299743652344 961.633483886719 955.212646484375 952.458923339844 954.72705078125 961.445190429688 966.6201171875 958.108459472656 969.951721191406 961.631469726562 966.320251464844 975.292724609375 973.835998535156 971.218383789062 965.111511230469 957.35009765625 972.232543945312 977.188781738281 981.783264160156 976.018249511719 982.915954589844 985.155578613281 985.996704101562 972.985229492188 974.436584472656 977.712280273438 978.226379394531 977.075317382812 975.57177734375 971.843566894531 977.837280273438 982.010314941406 991.118591308594 992.365600585938 984.562072753906 996.570190429688 996.340393066406 1001.02465820312 1006.21502685547 1010.49078369141 1005.89953613281 1009.97515869141 1009.22967529297 1010.27471923828 1002.94250488281 994.684875488281 991.760986328125 998.144409179688 1000.18695068359 1001.9208984375 987.138671875 994.577697753906 992.447998046875 987.330627441406 995.831176757812 1005.08477783203 1013.55621337891 997.013488769531 986.813232421875 995.365356445312 992.52587890625 990.158874511719 993.692749023438 1002.56109619141 998.178527832031 999.767211914062 1000.36486816406 1008.11694335938 1002.81079101562 1011.44818115234 1002.20434570312 1004.95416259766 1009.96356201172 1014.48016357422 1016.24945068359 1021.22875976562 1017.27001953125 1014.75958251953 1013.82867431641 1009.05798339844 1015.30572509766 1014.1728515625 1021.55999755859 1017.68035888672 1013.51245117188 1023.29681396484 1020.70037841797 1020.21929931641 1028.85083007812 1026.88671875 1042.87316894531 1049.11206054688 1044.22009277344 1047.9228515625 1055.59204101562 1057.27893066406 1059.36254882812 1054.30004882812 1055.39624023438 1045.78601074219 1039.04321289062 1043.26452636719 1038.328125 1031.76098632812 1035.85546875 1037.6806640625 1032.39672851562 1018.87261962891 1015.08551025391 1015.54937744141 1011.43865966797 993.619873046875 986.893676757812 987.0029296875 991.06494140625 990.226623535156 997.451538085938 999.273681640625 993.918701171875 977.209533691406 980.34228515625 975.9912109375 964.936584472656 960.015686035156 962.451843261719 958.7568359375 962.914489746094 967.618835449219 972.085083007812 973.285827636719 965.15185546875 972.79052734375 961.451049804688
962.340576171875 969.806030273438 970.663330078125 963.688842773438 966.694458007812 962.688598632812 956.433410644531 954.047485351562 960.565368652344 964.120910644531 969.679138183594 962.561218261719 964.425598144531 967.625305175781 968.404418945312 957.685668945312 956.880676269531 963.42919921875 967.012634277344 970.064392089844 957.310974121094 965.797485351562 955.937194824219 950.617492675781 953.637939453125 957.203430175781 962.665405273438 966.235778808594 976.478576660156 971.244384765625 971.486022949219 964.62158203125 963.658508300781 966.132507324219 977.9609375 985.127990722656 979.587097167969 980.4248046875 986.1103515625 977.075012207031 987.741638183594 987.2470703125 975.638427734375 966.216125488281 974.100219726562 978.295166015625 971.37353515625 975.434265136719 973.587829589844 978.926635742188 985.69921875 994.543762207031 998.99169921875 995.677795410156 998.948364257812 1004.48370361328 1003.55310058594 1000.55517578125 1008.81707763672 1009.28479003906 1010.1416015625 1004.58764648438 997.989685058594 1003.16003417969 1006.59808349609 1000.28076171875 1002.40155029297 994.698547363281 996.398315429688 990.445190429688 992.008544921875 1003.65240478516 1003.15795898438 997.135925292969 1000.57171630859 998.64990234375 1000.88616943359 993.6279296875 991.859741210938 988.624816894531 995.727844238281 993.343994140625 995.357177734375 982.102783203125 1000.98504638672 1006.810546875 1001.46624755859 1006.51995849609 1009.81500244141 1013.12451171875 1010.37530517578 1013.00988769531 1017.59777832031 1016.93365478516 1018.96276855469 1028.294921875 1013.689453125 1021.30889892578 1019.548828125 1024.10913085938 1023.17047119141 1015.78118896484 1024.07250976562 1018.58776855469 1015.01647949219 1028.68627929688 1032.80383300781 1042.16052246094 1041.23547363281 1045.38525390625 1047.64599609375 1039.98889160156 1050.53210449219 1057.55285644531 1046.92810058594 1047.87109375 1040.40209960938 1032.00109863281 1033.87927246094 1019.02221679688 1026.54638671875 1036.84985351562 1039.67150878906 1023.96832275391 1021.67437744141 1020.43304443359 1017.36279296875 1014.22863769531 1001.40313720703 991.121154785156 987.813354492188 993.072998046875 992.583557128906 990.77001953125 994.653930664062 989.029846191406 974.246704101562 978.360290527344 967.327270507812 967.056030273438 960.598693847656 961.052978515625 961.934265136719 955.68603515625 955.164306640625 958.49658203125 963.849548339844 970.477294921875 958.176025390625 953.673278808594
960.601013183594 973.006469726562 974.267761230469 972.929382324219 964.31640625 974.633117675781 962.43994140625 954.821166992188 957.828796386719 958.624389648438 958.315246582031 959.979309082031 970.38916015625 968.744384765625 973.398254394531 964.756286621094 966.84423828125 969.308410644531 972.07666015625 968.71044921875 979.500732421875 968.233337402344 962.456970214844 959.276306152344 963.679443359375 970.440490722656 975.809204101562 970.709167480469 975.295654296875 973.112548828125 977.338928222656 978.481018066406 962.258911132812 971.28662109375 972.757080078125 977.31396484375 982.805786132812 979.378845214844 986.398803710938 983.558654785156 979.712219238281 988.723999023438 979.214904785156 975.135437011719 973.281860351562 971.124877929688 977.838012695312 982.485290527344 979.911071777344 984.002136230469 986.32177734375 993.402526855469 995.684204101562 994.462951660156 996.926696777344 996.629211425781 1000.91107177734 1011.77288818359 1010.93975830078 1004.67852783203 1014.60296630859 1006.35552978516 1000.49871826172 1009.58618164062 1004.94439697266 1003.80352783203 1013.41040039062 1005.54180908203 1002.12115478516 993.635070800781 1003.60626220703 999.554809570312 998.738220214844 1000.08721923828 1006.6875 1000.64935302734 1003.28881835938 997.08642578125 998.282775878906 1001.90557861328 997.346008300781 991.341369628906 988.460388183594 987.931579589844 995.087524414062 999.799011230469 1003.77081298828 1005.04803466797 1001.10388183594 1011.60748291016 1011.46783447266 1010.56323242188 1014.80523681641 1014.45080566406 1017.39440917969 1021.21356201172 1022.21673583984 1023.3544921875 1026.79431152344 1017.65454101562 1023.48913574219 1022.40423583984 1020.56768798828 1019.87030029297 1022.50311279297 1027.83935546875 1041.49670410156 1046.18347167969 1038.13879394531 1045.41564941406 1042.97705078125 1047.82690429688 1051.93994140625 1051.25024414062 1044.6708984375 1042.03332519531 1031.00671386719 1032.033203125 1028.88366699219 1026.04418945312 1029.94274902344 1032.271484375 1026.22180175781 1022.97161865234 1023.41925048828 1014.41796875 1013.95178222656 1007.74102783203 1002.73510742188 990.414184570312 990.541015625 987.771850585938 979.454345703125 981.527770996094 980.58544921875 980.752197265625 971.991455078125 962.870239257812 968.730224609375 966.157836914062 962.106323242188 956.563354492188 959.200012207031 951.908630371094 959.905334472656 963.764099121094 954.241577148438 966.106140136719 957.542663574219 943.009887695312
