NCOLS 150
NROWS 37
XLLCORNER 7394249
YLLCORNER 4842659
CELLSIZE 30
NODATA_VALUE -9999
949.232482910156 940.651245117188 946.452209472656 943.966857910156 956.301330566406 957.377380371094 965.023132324219 975.594177246094 976.391052246094 975.426391601562 974.190368652344 968.328735351562 964.920593261719 961.502075195312 974.7431640625 983.050354003906 978.516662597656 976.373596191406 980.116394042969 982.876647949219 981.381469726562 980.314392089844 970.147888183594 967.834350585938 970.110107421875 971.631591796875 970.355346679688 985.425476074219 995.529113769531 982.0283203125 987.304016113281 976.710327148438 982.641174316406 983.8173828125 988.748352050781 982.715942382812 975.720520019531 975.844970703125 976.133544921875 968.541442871094 968.879150390625 969.610900878906 967.750244140625 971.49267578125 972.873107910156 978.68017578125 968.24560546875 970.085083007812 967.5615234375 974.292846679688 969.447509765625 976.472351074219 978.147644042969 973.3447265625 977.2783203125 976.377319335938 974.81201171875 976.897094726562 987.608764648438 984.22802734375 990.251708984375 983.90234375 992.463684082031 997.283874511719 992.172790527344 986.315795898438 986.068969726562 985.238891601562 987.122009277344 977.269470214844 981.059692382812 977.608459472656 972.972900390625 963.479797363281 970.12109375 983.392944335938 978.486755371094 979.398132324219 980.49951171875 977.303344726562 987.296142578125 991.229797363281 979.5888671875 979.152648925781 989.855834960938 990.595397949219 991.495727539062 990.781799316406 992.750671386719 989.205383300781 992.021606445312 992.557861328125 991.5263671875 983.81396484375 983.519104003906 991.668273925781 988.063781738281 992.813049316406 987.453918457031 994.940979003906 987.769287109375 982.17138671875 989.361999511719 999.498352050781 988.212829589844 988.662719726562 994.149108886719 989.856567382812 980.195434570312 985.15380859375 981.676452636719 980.348876953125 990.630187988281 992.053955078125 1001.22991943359 992.267761230469 992.974609375 998.439331054688 999.11083984375 1001.31427001953 993.057983398438 999.020935058594 998.961608886719 1002.11041259766 1012.51690673828 1019.51336669922 1022.70727539062 1015.50085449219 1025.47998046875 1033.51245117188 1028.11645507812 1028.87182617188 1035.50854492188 1038.76330566406 1051.9560546875 1059.109375 1056.24108886719 1063.19299316406 1076.34741210938 1080.31164550781 1092.21142578125 1099.52258300781 1113.26599121094 1128.853515625 1147.15808105469 1144.28527832031 1145.2294921875 1148.3203125 1152.654296875 1157.86987304688
943.893005371094 941.561279296875 934.984741210938 943.257934570312 952.743408203125 960.2216796875 966.3876953125 972.52392578125 969.773620605469 970.270141601562 975.862243652344 969.162292480469 967.134460449219 964.881225585938 978.907287597656 983.481262207031 978.407287597656 978.883850097656 979.961120605469 983.475708007812 988.129028320312 992.174621582031 980.623107910156 964.525939941406 964.237182617188 963.066101074219 974.515441894531 983.340942382812 986.411560058594 986.913146972656 981.1953125 981.619750976562 990.123107910156 996.582214355469 986.839965820312 982.54736328125 985.090026855469 981.598205566406 977.233459472656 975.931640625 972.440673828125 962.680786132812 962.861267089844 967.530029296875 980.288024902344 973.072570800781 973.523071289062 959.929626464844 972.356018066406 974.904968261719 971.179504394531 975.321533203125 973.348388671875 969.507080078125 970.893188476562 966.850952148438 970.1845703125 967.25390625 989.802185058594 991.955200195312 982.447021484375 979.871154785156 977.268371582031 973.109985351562 982.279907226562 982.649047851562 979.053894042969 980.960998535156 978.337463378906 973.893798828125 978.461669921875 962.641662597656 971.963623046875 961.098327636719 965.939514160156 979.009216308594 979.956604003906 978.614440917969 975.615783691406 977.246704101562 987.587707519531 981.132385253906 979.9521484375 969.719055175781 972.48681640625 980.1708984375 984.797058105469 993.324035644531 983.266296386719 985.475646972656 986.92822265625 989.642333984375 980.894165039062 978.519958496094 993.907409667969 995.130554199219 992.067810058594 1000.49743652344 987.731140136719 987.856018066406 993.078063964844 983.595397949219 982.950256347656 983.225524902344 983.077758789062 989.38818359375 986.512512207031 996.096618652344 991.422302246094 992.140258789062 985.40966796875 985.33740234375 982.814453125 988.573120117188 996.644348144531 998.198425292969 995.05908203125 995.416809082031 997.616882324219 999.072937011719 995.036865234375 996.562744140625 995.261535644531 1007.62554931641 1021.02288818359 1027.15795898438 1037.6279296875 1036.16345214844 1029.53430175781 1034.50500488281 1037.22277832031 1042.56652832031 1053.64880371094 1056.25402832031 1060.82092285156 1058.56335449219 1065.92041015625 1069.52819824219 1075.98254394531 1083.39526367188 1098.39135742188 1105.43127441406 1115.23681640625 1126.25927734375 1142.1875 1137.82836914062 1150.5234375 1151.9365234375 1167.68347167969 1164.77026367188
939.370910644531 935.208740234375 944.905212402344 944.970275878906 958.300048828125 953.672607421875 959.118408203125 967.411865234375 972.379699707031 969.551025390625 971.083984375 968.727294921875 973.148742675781 967.841735839844 983.414916992188 990.409240722656 978.038024902344 976.022277832031 980.998229980469 987.601379394531 996.915710449219 987.153076171875 982.036682128906 975.365783691406 967.18994140625 965.226806640625 970.576416015625 974.492126464844 978.335754394531 979.850524902344 984.939453125 986.884643554688 987.994018554688 987.129150390625 985.35595703125 986.758666992188 981.420227050781 979.479797363281 977.402648925781 974.546630859375 969.620849609375 970.501403808594 965.331909179688 963.1982421875 962.165771484375 975.523681640625 975.667114257812 970.930603027344 975.555114746094 970.561767578125 967.657958984375 970.363586425781 967.677978515625 968.361328125 968.898864746094 964.805786132812 967.112243652344 967.662475585938 977.872436523438 979.775634765625 977.956726074219 974.193786621094 965.921630859375 976.03759765625 976.368774414062 967.689208984375 974.846374511719 972.789428710938 976.274353027344 971.067016601562 962.945129394531 963.150024414062 955.732360839844 952.278747558594 968.421020507812 970.641662597656 971.720031738281 969.692626953125 981.956909179688 973.784729003906 978.186950683594 975.321044921875 971.504150390625 975.580322265625 968.896362304688 982.645629882812 977.549072265625 978.744812011719 977.410705566406 984.639282226562 982.312194824219 973.747253417969 979.229431152344 983.160766601562 988.356140136719 985.501953125 980.564819335938 980.324829101562 980.626220703125 982.729919433594 985.593505859375 983.72119140625 985.528503417969 986.690185546875 986.265686035156 982.341247558594 982.449829101562 994.465881347656 986.467346191406 994.085510253906 986.888854980469 987.202514648438 985.942077636719 989.115661621094 981.993103027344 992.686889648438 999.265319824219 994.343322753906 994.98388671875 995.028930664062 988.948120117188 994.567993164062 995.598937988281 1000.97344970703 1016.56860351562 1034.64709472656 1045.09216308594 1035.62805175781 1031.48095703125 1036.84350585938 1052.56311035156 1052.44934082031 1054.97314453125 1060.08508300781 1065.818359375 1067.76574707031 1072.17272949219 1076.77673339844 1083.59436035156 1091.94763183594 1099.36608886719 1115.65808105469 1122.97436523438 1121.64428710938 1143.09484863281 1135.87390136719 1151.91479492188 1161.13793945312 1164.17028808594 1167.11791992188
947.376281738281 948.310241699219 946.50732421875 949.363037109375 953.515563964844 953.166809082031 967.57958984375 968.669067382812 963.410095214844 959.509887695312 963.496459960938 971.164611816406 979.711486816406 971.0234375 981.121704101562 980.982666015625 981.928344726562 976.234375 978.893188476562 979.467163085938 990.612243652344 980.185119628906 979.176086425781 978.27685546875 977.222839355469 975.971984863281 972.780151367188 968.818481445312 975.588928222656 978.961364746094 979.473205566406 977.765258789062 986.008911132812 976.215515136719 979.791137695312 982.951416015625 975.293762207031 967.817749023438 972.324890136719 978.75341796875 966.942321777344 963.1533203125 973.100830078125 968.208923339844 961.563354492188 963.548828125 971.272644042969 973.677490234375 977.238891601562 972.423522949219 968.425842285156 968.369262695312 976.156921386719 968.917297363281 968.383666992188 966.070251464844 970.020446777344 970.34619140625 968.411315917969 976.080749511719 981.168640136719 976.96630859375 972.280334472656 976.9208984375 974.951416015625 978.650085449219 971.43701171875 968.327331542969 971.97998046875 966.794494628906 968.4091796875 961.877990722656 961.881408691406 962.576782226562 977.102722167969 969.791625976562 969.16015625 977.295776367188 976.142700195312 966.380126953125 972.172607421875 971.941772460938 968.243835449219 966.746826171875 972.02880859375 973.051025390625 977.194152832031 981.040710449219 981.061950683594 982.368591308594 984.569946289062 980.539794921875 976.095764160156 981.394775390625 979.970458984375 983.599304199219 982.994689941406 976.712463378906 973.035400390625 975.516662597656 981.8271484375 979.382995605469 985.358337402344 976.374450683594 982.181457519531 981.522644042969 985.8681640625 991.860473632812 991.109802246094 993.626403808594 999.340576171875 989.703796386719 985.313720703125 998.345947265625 993.435668945312 1002.85180664062 1002.33721923828 992.946166992188 995.404846191406 994.813598632812 989.508361816406 991.94384765625 991.646850585938 1001.00036621094 1017.49700927734 1030.03857421875 1035.25146484375 1040.74523925781 1041.72888183594 1044.09387207031 1041.64868164062 1051.42211914062 1060.13708496094 1074.09606933594 1075.41235351562 1077.70422363281 1080.06372070312 1083.0107421875 1088.93762207031 1088.70568847656 1105.6962890625 1116.50964355469 1119.68395996094 1126.43627929688 1137.95788574219 1144.61669921875 1153.38293457031 1169.06530761719 1177.15234375 1170.64440917969
951.286193847656 949.963195800781 942.360229492188 949.677185058594 958.6708984375 961.905090332031 960.809265136719 963.181823730469 963.1123046875 963.001770019531 967.708435058594 975.018310546875 965.911071777344 968.648681640625 972.376525878906 973.756652832031 975.192443847656 975.908447265625 975.25439453125 968.180847167969 973.551818847656 966.861389160156 966.51611328125 966.189880371094 969.737670898438 965.472595214844 970.541381835938 973.422912597656 972.333923339844 973.175537109375 979.226623535156 968.486328125 976.406677246094 977.306640625 972.655517578125 979.213317871094 975.099914550781 954.03076171875 970.083374023438 970.080810546875 970.801940917969 965.176635742188 967.080078125 963.748962402344 959.605163574219 957.396423339844 964.104919433594 965.896545410156 967.482482910156 970.557434082031 967.084899902344 967.087463378906 971.47509765625 981.216613769531 971.947814941406 968.102233886719 971.680236816406 974.406372070312 967.307800292969 972.374267578125 977.144958496094 979.965637207031 976.052734375 969.951965332031 972.207946777344 967.148315429688 973.891662597656 969.442077636719 976.222778320312 967.347045898438 957.1845703125 962.785339355469 972.896545410156 966.250061035156 972.500732421875 972.862182617188 971.948486328125 975.371215820312 971.075256347656 971.454467773438 968.28759765625 969.573974609375 970.094909667969 972.323791503906 968.371948242188 970.422973632812 982.534240722656 973.761962890625 976.051574707031 969.552612304688 984.498718261719 976.992736816406 975.757385253906 978.20166015625 980.76904296875 980.834045410156 977.073303222656 971.066528320312 967.899108886719 970.598937988281 972.900329589844 975.773681640625 977.054077148438 980.197937011719 980.574096679688 987.046508789062 993.161254882812 994.027160644531 1000.76373291016 995.399353027344 998.274597167969 998.839599609375 1010.70385742188 1001.34613037109 999.303405761719 1003.44976806641 1000.21716308594 1006.20678710938 1006.43115234375 1003.10125732422 1003.96502685547 1005.02392578125 998.725708007812 1005.72528076172 1026.11157226562 1037.54943847656 1041.85681152344 1046.81079101562 1043.79260253906 1044.46264648438 1046.02905273438 1047.97924804688 1064.77880859375 1078.22229003906 1085.63549804688 1084.37109375 1084.49523925781 1089.84240722656 1094.20690917969 1100.90209960938 1109.77758789062 1113.69274902344 1123.52209472656 1132.46374511719 1144.1005859375 1146.57287597656 1158.02209472656 1169.88195800781 1179.27429199219 1178.51354980469
955.921691894531 960.143188476562 959.054809570312 959.935729980469 961.544860839844 961.393798828125 959.582885742188 956.083312988281 968.738708496094 973.300964355469 964.386596679688 963.354858398438 968.920043945312 967.334594726562 975.717407226562 970.289123535156 964.409790039062 965.948791503906 971.506958007812 969.754943847656 965.836364746094 966.320251464844 959.510437011719 965.306213378906 968.695983886719 973.951599121094 971.574951171875 976.15478515625 975.921813964844 972.833740234375 968.411254882812 967.309204101562 969.799621582031 973.072692871094 970.851135253906 967.067749023438 967.564453125 965.512573242188 967.322509765625 972.5810546875 964.399353027344 967.912414550781 965.640258789062 962.020812988281 958.108764648438 962.609497070312 966.26025390625 962.190673828125 961.476135253906 965.399719238281 977.153442382812 979.710266113281 974.648559570312 976.129089355469 978.213806152344 969.199890136719 979.524536132812 979.740539550781 971.23876953125 974.765563964844 972.060119628906 974.921752929688 973.564086914062 973.295166015625 970.266174316406 968.663879394531 964.815124511719 965.316040039062 971.380859375 976.539245605469 962.622924804688 956.752136230469 963.078063964844 966.168029785156 975.853515625 972.940795898438 974.008605957031 972.307434082031 959.01513671875 969.177734375 971.649719238281 973.672302246094 970.767272949219 972.444274902344 972.095947265625 964.305969238281 969.832580566406 967.375793457031 970.60546875 969.424682617188 980.749450683594 979.15576171875 980.556274414062 980.810546875 983.129150390625 972.216430664062 969.462707519531 969.266540527344 973.944519042969 968.508911132812 966.899597167969 970.599426269531 970.592529296875 974.495727539062 972.705993652344 981.427612304688 994.438354492188 994.450073242188 996.513732910156 1000.11773681641 993.110900878906 1001.88305664062 1016.80780029297 1004.89105224609 1003.47625732422 1004.87036132812 1007.19189453125 1004.71295166016 1000.41259765625 1009.31182861328 1008.7333984375 1002.65765380859 998.376892089844 1008.38983154297 1025.84973144531 1030.70666503906 1042.31555175781 1045.76000976562 1047.83825683594 1050.74572753906 1047.08251953125 1049.95690917969 1069.41967773438 1077.67565917969 1090.06701660156 1092.53466796875 1095.22497558594 1100.39819335938 1098.95617675781 1113.34338378906 1106.18530273438 1119.41833496094 1124.49035644531 1139.02209472656 1143.59289550781 1147.84411621094 1156.4384765625 1165.80310058594 1171.30639648438 1171.41235351562
968.491333007812 971.673156738281 957.391235351562 952.557861328125 957.7607421875 959.908752441406 959.669799804688 964.523559570312 965.277526855469 967.631408691406 965.392211914062 965.050109863281 965.50732421875 972.715148925781 967.792297363281 975.942260742188 970.368530273438 965.231384277344 963.544006347656 972.10888671875 972.710998535156 963.736022949219 958.445129394531 959.323913574219 963.923522949219 972.458068847656 965.34765625 971.212707519531 973.024963378906 973.828857421875 970.0927734375 965.937805175781 968.389038085938 975.40673828125 974.231140136719 967.968017578125 969.773681640625 973.995483398438 968.15478515625 967.994018554688 971.448791503906 965.9189453125 959.784973144531 960.969116210938 964.579162597656 963.650024414062 969.892150878906 960.727416992188 980.705627441406 976.433044433594 979.138549804688 984.927612304688 969.044799804688 970.482666015625 972.699401855469 975.660461425781 977.166687011719 976.081604003906 963.89306640625 959.559509277344 963.835083007812 970.884155273438 971.28271484375 973.830261230469 973.609436035156 965.825073242188 962.390991210938 959.315185546875 965.121765136719 970.046264648438 964.462524414062 961.833374023438 967.852294921875 967.213989257812 965.196960449219 971.806213378906 970.323974609375 973.753784179688 970.664306640625 961.125915527344 964.705139160156 969.745849609375 968.150512695312 962.792053222656 971.789978027344 964.387939453125 967.297729492188 969.742553710938 965.195373535156 962.916015625 963.67333984375 974.641662597656 971.6962890625 975.761901855469 982.157653808594 976.296447753906 969.362487792969 973.982971191406 974.128173828125 966.177001953125 978.67431640625 972.5166015625 973.440795898438 981.264892578125 983.740661621094 987.005859375 998.455444335938 991.595031738281 999.867919921875 1005.19287109375 1017.45611572266 1013.74114990234 1020.28863525391 1013.57373046875 1007.61553955078 1000.17596435547 1005.64251708984 1003.60028076172 1002.03509521484 1007.42395019531 1004.15460205078 996.873840332031 996.7080078125 1012.39733886719 1035.64025878906 1028.59912109375 1039.36950683594 1048.89831542969 1047.24499511719 1050.708984375 1060.05151367188 1064.263671875 1074.51330566406 1091.2841796875 1093.28771972656 1099.30700683594 1102.36279296875 1107.38391113281 1109.21130371094 1110.71813964844 1113.95922851562 1118.33203125 1128.83044433594 1134.37902832031 1140.91333007812 1151.61865234375 1166.63952636719 1165.5078125 1166.51391601562 1158.6865234375
962.044616699219 957.171691894531 953.589111328125 964.777893066406 967.391662597656 957.1396484375 962.830749511719 970.053100585938 973.018371582031 972.151062011719 966.220947265625 965.687377929688 968.139831542969 972.716735839844 974.3642578125 978.075073242188 968.674499511719 968.052734375 974.96142578125 977.862365722656 972.562255859375 965.864135742188 961.2841796875 961.769104003906 959.031799316406 969.2294921875 968.840209960938 966.973815917969 969.21923828125 967.972229003906 964.675354003906 970.609619140625 971.833251953125 978.706848144531 978.789978027344 964.293640136719 969.525268554688 968.270568847656 966.291870117188 958.339965820312 965.039794921875 970.781066894531 969.029541015625 961.659851074219 955.040405273438 967.091491699219 963.498168945312 967.091430664062 969.755920410156 967.592224121094 966.924255371094 972.087280273438 977.85693359375 972.129150390625 969.669311523438 973.692565917969 965.553527832031 966.932434082031 973.332946777344 958.977294921875 961.624389648438 962.736267089844 975.001098632812 984.973999023438 970.027160644531 968.433776855469 963.523071289062 961.625061035156 964.487731933594 971.970092773438 972.390563964844 964.919982910156 962.02294921875 961.643981933594 970.576049804688 978.0595703125 970.374389648438 965.948852539062 968.339721679688 959.127502441406 971.325378417969 971.940612792969 967.914672851562 971.921997070312 966.97998046875 964.058837890625 961.21630859375 966.352478027344 969.054077148438 959.557434082031 961.643188476562 960.918579101562 965.271301269531 970.811096191406 980.844360351562 990.414611816406 984.146118164062 979.137084960938 968.925048828125 966.89111328125 976.017944335938 979.762512207031 982.842834472656 984.868286132812 980.861450195312 985.041870117188 996.900024414062 1001.22930908203 1001.70709228516 1002.48046875 1013.68328857422 1015.67749023438 1015.16888427734 1009.33819580078 1006.02886962891 1000.51080322266 1006.20007324219 1005.53692626953 1003.73767089844 1007.80877685547 1012.85388183594 1008.26312255859 1012.29064941406 1024.12902832031 1024.44006347656 1033.3857421875 1045.52087402344 1046.30908203125 1046.08654785156 1049.20959472656 1066.56506347656 1063.81604003906 1077.37414550781 1084.31591796875 1098.40661621094 1086.73352050781 1098.27819824219 1103.92517089844 1105.09924316406 1105.96740722656 1110.35192871094 1120.45617675781 1128.9248046875 1132.44079589844 1138.13232421875 1154.91967773438 1155.85314941406 1163.60729980469 1160.09606933594 1158.24755859375
962.651000976562 948.423156738281 948.586120605469 957.973449707031 959.561584472656 965.063903808594 966.569213867188 975.793640136719 969.640075683594 970.892883300781 968.698669433594 966.329162597656 972.858520507812 976.770202636719 970.241149902344 969.259582519531 973.939819335938 977.346923828125 978.607849121094 980.19580078125 974.454467773438 973.963195800781 967.115051269531 964.096313476562 972.073364257812 969.4453125 965.770629882812 961.529663085938 957.897766113281 962.466918945312 972.907348632812 966.828125 971.216613769531 969.046569824219 974.408508300781 974.3466796875 971.476867675781 963.27783203125 968.514892578125 963.964233398438 961.690673828125 965.65234375 964.393737792969 963.028869628906 958.271240234375 965.568054199219 967.757873535156 967.386291503906 967.019592285156 964.507873535156 961.692260742188 973.653625488281 974.113708496094 973.813110351562 959.401672363281 966.53125 961.643798828125 960.078735351562 959.99267578125 965.125793457031 964.432006835938 958.820068359375 962.731018066406 966.154235839844 968.137939453125 966.811157226562 967.774291992188 967.695922851562 964.172790527344 967.121704101562 962.302795410156 970.879516601562 965.835327148438 965.527648925781 974.901428222656 973.162658691406 968.607543945312 969.85595703125 960.732116699219 964.58544921875 965.378234863281 969.313842773438 966.140502929688 970.058532714844 974.13818359375 964.184936523438 964.314392089844 964.749145507812 964.062194824219 959.244934082031 959.274963378906 963.689270019531 963.803405761719 972.701416015625 975.160888671875 984.491149902344 983.317932128906 975.672302246094 965.523193359375 970.195556640625 974.54736328125 981.346130371094 979.387451171875 977.50390625 984.252319335938 990.292358398438 994.226928710938 995.501708984375 1003.17370605469 999.572814941406 1002.09930419922 1012.04071044922 1005.45874023438 1001.25738525391 995.754577636719 999.772827148438 1005.38201904297 1000.66766357422 1000.09906005859 1008.59265136719 1010.93975830078 1022.03649902344 1023.76770019531 1026.94384765625 1023.38433837891 1034.87109375 1039.35437011719 1047.48645019531 1053.07861328125 1056.33581542969 1062.48596191406 1063.91564941406 1072.72436523438 1082.00793457031 1088.24291992188 1096.37084960938 1095.6796875 1100.08093261719 1102.62658691406 1107.77844238281 1105.3427734375 1111.6455078125 1124.25317382812 1128.60876464844 1130.42041015625 1141.50268554688 1147.17028808594 1146.81567382812 1156.46325683594 1159.93920898438
966.234008789062 954.418334960938 955.32373046875 956.09326171875 951.035766601562 969.983337402344 968.982421875 967.145812988281 967.872009277344 973.797119140625 968.458801269531 957.095520019531 967.33056640625 965.666564941406 969.355224609375 969.573364257812 972.057800292969 977.003356933594 983.851257324219 982.212585449219 979.64208984375 975.243835449219 973.774230957031 961.552734375 965.578369140625 960.25537109375 958.808532714844 957.479736328125 963.419067382812 966.381591796875 972.112426757812 983.494384765625 978.573425292969 977.127258300781 984.964477539062 975.62548828125 966.054504394531 972.068542480469 963.931518554688 956.7421875 952.362548828125 969.459533691406 962.484985351562 957.745788574219 956.692321777344 968.115173339844 974.943054199219 961.792114257812 962.63818359375 965.244079589844 964.383911132812 973.170654296875 971.907470703125 970.700866699219 962.8125 950.739379882812 955.9326171875 959.754028320312 959.817504882812 961.507507324219 958.819885253906 966.141540527344 961.254760742188 973.363037109375 977.577209472656 969.640502929688 973.059997558594 968.981506347656 961.998901367188 955.987060546875 956.779663085938 957.889465332031 967.530944824219 968.618469238281 963.269775390625 973.879821777344 972.295104980469 959.791748046875 967.746643066406 964.611450195312 967.678283691406 965.162475585938 968.501403808594 963.215454101562 973.763977050781 980.132934570312 974.752685546875 968.761474609375 968.612243652344 967.128723144531 969.877380371094 968.648742675781 971.188354492188 970.188781738281 972.946960449219 975.467529296875 980.439758300781 982.189636230469 974.517333984375 970.760803222656 969.171264648438 978.774536132812 978.456359863281 971.4482421875 981.741821289062 988.03662109375 990.544494628906 992.121887207031 996.623718261719 987.447937011719 991.255676269531 995.386596679688 995.757385253906 988.772399902344 988.911010742188 989.611511230469 999.897583007812 1014.79724121094 1005.33245849609 1001.35876464844 1020.10064697266 1023.29205322266 1025.07556152344 1021.56640625 1022.66070556641 1032.0400390625 1040.74914550781 1048.88439941406 1049.29516601562 1059.91809082031 1066.76818847656 1066.990234375 1073.08703613281 1080.87280273438 1086.37524414062 1081.59204101562 1083.37719726562 1089.65856933594 1095.03527832031 1093.18664550781 1089.34619140625 1109.60424804688 1114.638671875 1119.20520019531 1121.37622070312 1137.14050292969 1139.26525878906 1140.91955566406 1149.00512695312 1150.78918457031
959.940856933594 965.236206054688 960.991333007812 964.66748046875 961.975402832031 975.729370117188 971.74365234375 974.425476074219 975.210083007812 980.971740722656 971.524108886719 969.738342285156 970.64501953125 970.586364746094 972.2021484375 965.415771484375 971.441162109375 984.578857421875 977.622863769531 977.803833007812 966.034851074219 972.426879882812 977.550476074219 963.057006835938 964.45947265625 965.225891113281 961.728088378906 959.02197265625 958.158386230469 965.715881347656 978.818054199219 988.382507324219 979.37841796875 980.741760253906 978.266357421875 971.171936035156 968.681762695312 961.526672363281 962.709289550781 962.098266601562 957.494995117188 956.097290039062 959.476440429688 954.40234375 961.841003417969 965.34033203125 968.658020019531 964.939147949219 954.890991210938 963.314331054688 956.432373046875 972.308898925781 974.104675292969 968.080688476562 957.353332519531 956.08740234375 954.400939941406 958.505249023438 959.314025878906 958.170043945312 962.69775390625 969.975524902344 964.901611328125 970.984252929688 973.155639648438 973.635864257812 977.030395507812 970.363891601562 958.691284179688 949.10986328125 954.405700683594 959.024047851562 968.580078125 966.654724121094 971.553955078125 970.515991210938 966.538940429688 975.598693847656 964.943420410156 969.024841308594 975.57861328125 969.596618652344 971.465270996094 971.131408691406 967.220336914062 975.780334472656 972.427490234375 969.411315917969 973.347717285156 971.208190917969 960.412719726562 964.3095703125 972.468933105469 976.729370117188 980.239868164062 974.191040039062 973.935302734375 974.712707519531 979.942138671875 973.049011230469 974.448791503906 967.430053710938 966.78759765625 966.287658691406 975.183349609375 987.052612304688 995.118225097656 997.975341796875 990.875122070312 988.158569335938 986.268371582031 982.737121582031 983.363037109375 985.861267089844 984.247863769531 994.0615234375 998.369079589844 1010.00701904297 1009.38958740234 1012.59545898438 1016.41888427734 1021.03778076172 1025.88391113281 1017.46795654297 1026.53369140625 1028.98986816406 1039.66674804688 1048.91528320312 1052.80944824219 1054.24938964844 1063.599609375 1080.5009765625 1081.35339355469 1085.01708984375 1087.38220214844 1085.19995117188 1081.42919921875 1084.08740234375 1096.33666992188 1097.4580078125 1100.72290039062 1099.43969726562 1107.72631835938 1108.9921875 1107.15014648438 1115.57971191406 1125.01525878906 1130.30346679688 1135.43493652344 1139.52355957031
966.074829101562 964.8017578125 957.765869140625 955.6943359375 973.70751953125 976.533386230469 977.717590332031 969.3125 965.768310546875 978.007995605469 978.298217773438 974.532897949219 974.525451660156 964.890625 965.953979492188 967.113647460938 975.986145019531 974.345092773438 967.193908691406 968.748229980469 968.686645507812 964.413940429688 979.869079589844 966.235534667969 958.116516113281 963.819763183594 963.053283691406 955.935791015625 964.066162109375 959.22900390625 969.883239746094 972.353759765625 974.349426269531 974.157958984375 970.148559570312 961.610229492188 962.192077636719 957.62890625 958.958068847656 966.054504394531 963.669616699219 959.372192382812 952.421813964844 954.757446289062 949.887573242188 947.250244140625 958.941162109375 964.155029296875 966.04736328125 957.442810058594 962.073913574219 963.967102050781 965.130737304688 951.960388183594 955.745239257812 955.138549804688 960.815979003906 960.871887207031 959.887329101562 960.653747558594 964.81640625 964.962463378906 961.463806152344 969.797424316406 974.900207519531 970.159606933594 969.760009765625 957.582092285156 957.162231445312 959.074829101562 954.06591796875 968.554748535156 971.051147460938 965.044555664062 968.69482421875 963.1123046875 963.9501953125 963.259094238281 963.129089355469 960.119445800781 967.835632324219 972.33203125 972.828735351562 975.139404296875 972.138122558594 975.428649902344 970.596435546875 967.753051757812 971.092041015625 967.99560546875 961.894409179688 964.84375 970.329345703125 973.63427734375 975.897827148438 974.019165039062 977.472900390625 972.333679199219 974.385498046875 975.11181640625 965.127136230469 968.343322753906 968.289123535156 967.443786621094 972.223754882812 978.488342285156 986.274169921875 985.929138183594 990.19482421875 985.38623046875 984.804931640625 984.05908203125 982.528442382812 982.766906738281 992.48486328125 1003.90637207031 1003.27465820312 1010.78747558594 1005.81707763672 1017.05444335938 1017.55712890625 1028.19323730469 1024.52416992188 1015.99572753906 1030.06103515625 1032.287109375 1039.15209960938 1042.98962402344 1047.70068359375 1054.35778808594 1068.80163574219 1076.67370605469 1083.185546875 1083.15344238281 1085.34606933594 1081.77258300781 1089.03259277344 1085.83837890625 1090.79089355469 1093.01513671875 1080.33056640625 1081.68273925781 1094.048828125 1093.62548828125 1106.93884277344 1105.26000976562 1113.80383300781 1124.669921875 1120.28466796875 1120.36083984375
961.358276367188 964.908447265625 958.009643554688 962.51123046875 975.889892578125 974.108215332031 975.172973632812 974.9189453125 971.390930175781 977.3251953125 975.82177734375 968.34228515625 974.995727539062 967.56396484375 967.170104980469 973.223083496094 968.113952636719 975.735290527344 973.43994140625 968.758666992188 972.795288085938 968.462097167969 968.019104003906 961.379028320312 963.680541992188 967.092468261719 967.470642089844 973.348999023438 963.302062988281 951.369201660156 959.152770996094 966.080993652344 976.41357421875 969.944763183594 970.74609375 960.17333984375 962.585876464844 955.690673828125 953.595825195312 963.879699707031 964.465698242188 952.363098144531 959.606750488281 955.361694335938 941.869018554688 951.848876953125 959.726745605469 963.012451171875 960.66552734375 966.815490722656 960.643615722656 970.343872070312 954.360229492188 953.614562988281 955.162841796875 962.303833007812 964.097045898438 975.139465332031 971.739990234375 962.033813476562 972.029479980469 964.306701660156 960.096618652344 969.359985351562 967.534912109375 962.916809082031 964.89599609375 959.333740234375 950.742309570312 951.1171875 953.173217773438 965.610961914062 963.364562988281 971.456176757812 975.034912109375 969.866333007812 966.333984375 966.414611816406 962.119384765625 964.445861816406 966.331665039062 965.843566894531 967.834655761719 967.871398925781 956.809326171875 958.367980957031 961.169494628906 970.753662109375 972.677185058594 964.169921875 974.319091796875 971.723693847656 960.421997070312 968.757141113281 970.41162109375 975.434265136719 973.050903320312 967.424499511719 969.469970703125 967.247497558594 969.474792480469 970.746459960938 962.921691894531 956.440307617188 972.306945800781 974.236206054688 985.460388183594 986.03369140625 988.249450683594 988.275329589844 980.531066894531 977.54833984375 982.401000976562 974.614318847656 989.643432617188 1003.54040527344 1008.02398681641 1012.07293701172 1012.19769287109 1021.93499755859 1025.75341796875 1023.85137939453 1023.62188720703 1016.07153320312 1017.68597412109 1023.92840576172 1025.98486328125 1028.72045898438 1042.60144042969 1043.4736328125 1058.79809570312 1077.06860351562 1087.77270507812 1086.67077636719 1073.57373046875 1077.46984863281 1095.89880371094 1087.14221191406 1088.68872070312 1083.18127441406 1073.81860351562 1083.06848144531 1088.181640625 1091.72180175781 1101.14318847656 1108.71691894531 1113.94580078125 1121.10974121094 1113.59411621094 1115.24194335938
966.665893554688 962.1015625 959.8642578125 967.01904296875 970.0224609375 974.014404296875 969.517211914062 974.919494628906 974.080139160156 974.44482421875 976.196166992188 967.734191894531 970.16162109375 972.083862304688 968.176391601562 971.775451660156 969.956604003906 969.847717285156 973.093444824219 972.173522949219 976.344909667969 968.646362304688 964.952453613281 961.629577636719 966.353576660156 967.409118652344 972.123474121094 974.569274902344 970.227905273438 964.075012207031 961.496459960938 959.381530761719 964.348571777344 966.840759277344 971.928771972656 968.806823730469 966.334594726562 966.569946289062 955.496337890625 959.111938476562 953.486083984375 957.148376464844 964.911499023438 964.861328125 953.510498046875 948.187927246094 953.367614746094 958.349487304688 962.746704101562 966.269958496094 965.366455078125 953.82861328125 962.06201171875 948.870788574219 954.250427246094 958.943298339844 975.466857910156 972.512329101562 973.592834472656 963.772277832031 961.16357421875 966.375122070312 957.246337890625 958.088989257812 958.904357910156 964.563354492188 959.113037109375 956.103515625 954.923461914062 948.953247070312 955.447937011719 961.900329589844 962.736511230469 970.593872070312 970.001403808594 964.312438964844 975.859436035156 970.207214355469 961.955810546875 959.771240234375 964.35107421875 965.141479492188 959.546691894531 966.080383300781 964.622314453125 959.019348144531 958.813232421875 965.003540039062 976.784545898438 972.229187011719 970.051391601562 966.664184570312 957.773254394531 966.4404296875 963.221984863281 970.839538574219 964.61865234375 966.928527832031 963.89794921875 965.144653320312 973.628845214844 974.839294433594 975.001647949219 965.732849121094 970.631408691406 978.784362792969 976.598571777344 984.69677734375 982.146728515625 976.879089355469 975.041931152344 973.642883300781 982.903747558594 989.334411621094 990.751342773438 1006.53436279297 1005.38244628906 1021.60144042969 1018.80712890625 1019.20422363281 1015.14025878906 1018.96282958984 1017.73883056641 1015.19665527344 1019.87042236328 1022.27972412109 1024.48010253906 1032.20483398438 1033.51489257812 1042.96044921875 1052.77673339844 1069.53015136719 1087.29211425781 1081.64147949219 1076.20385742188 1081.61730957031 1092.75866699219 1095.86901855469 1083.53491210938 1083.75695800781 1080.826171875 1081.892578125 1085.171875 1092.1015625 1093.27197265625 1098.91918945312 1105.40563964844 1100.92724609375 1099.53747558594 1103.66845703125
970.251342773438 969.091369628906 968.088745117188 960.837280273438 963.915161132812 971.502624511719 966.156982421875 974.074279785156 977.349365234375 967.317749023438 961.48095703125 968.712890625 959.626342773438 974.242431640625 977.048461914062 975.16943359375 969.424255371094 968.668090820312 973.201416015625 967.895751953125 965.620239257812 963.702941894531 961.13671875 959.789978027344 968.23193359375 972.233154296875 962.579895019531 965.265930175781 964.870544433594 963.968505859375 971.888793945312 962.29150390625 956.714904785156 956.662109375 969.082336425781 964.631164550781 961.498474121094 959.577758789062 957.606201171875 952.202575683594 952.882934570312 957.651245117188 963.372741699219 962.170654296875 956.09912109375 959.376098632812 960.915466308594 959.392333984375 959.822326660156 961.863403320312 947.075866699219 956.761047363281 952.9912109375 942.222778320312 959.327880859375 955.132141113281 967.146667480469 971.984436035156 965.885314941406 970.358825683594 961.157531738281 958.049377441406 959.426452636719 961.493286132812 960.359619140625 960.539123535156 950.913146972656 962.894104003906 957.635192871094 958.330688476562 963.1728515625 959.843811035156 961.867309570312 957.117736816406 960.238525390625 962.402648925781 968.822326660156 962.805358886719 962.820556640625 964.867370605469 959.779357910156 959.84326171875 959.820007324219 962.423645019531 964.505187988281 965.677978515625 957.31103515625 967.56787109375 969.101684570312 962.830139160156 963.668151855469 962.271118164062 965.902648925781 959.934692382812 968.295104980469 970.340942382812 967.130249023438 969.401794433594 969.305053710938 976.055236816406 973.818542480469 973.397216796875 968.043212890625 971.626647949219 975.139526367188 976.520141601562 982.416748046875 985.059692382812 987.478454589844 982.967529296875 983.58154296875 981.206970214844 982.82861328125 986.079772949219 999.587341308594 1005.53393554688 998.906433105469 1015.81072998047 1011.12390136719 1014.02758789062 1019.87322998047 1018.765625 1017.89086914062 1009.52404785156 1021.31774902344 1022.87341308594 1025.65490722656 1029.61560058594 1036.83618164062 1039.04174804688 1050.38525390625 1061.81750488281 1077.08264160156 1085.98461914062 1082.4716796875 1083.84167480469 1090.14172363281 1090.45788574219 1085.40124511719 1078.97863769531 1071.29516601562 1076.24719238281 1079.69287109375 1078.32775878906 1079.95544433594 1081.75244140625 1092.9541015625 1091.21643066406 1089.17443847656 1097.56298828125
975.892333984375 962.569030761719 974.27880859375 969.9140625 966.783081054688 968.345703125 969.26708984375 975.825561523438 974.358703613281 966.27783203125 956.05908203125 964.831726074219 962.071411132812 965.831176757812 969.167541503906 974.210632324219 972.431518554688 976.559020996094 966.277648925781 961.66162109375 962.806640625 955.892822265625 951.559509277344 957.089965820312 965.828674316406 965.997131347656 947.716796875 956.607971191406 962.503173828125 976.041137695312 971.498046875 957.400817871094 959.658325195312 961.330383300781 962.636291503906 970.748352050781 963.362548828125 950.872314453125 945.053405761719 949.153198242188 951.877868652344 951.421203613281 950.397399902344 956.393737792969 963.189270019531 955.618286132812 955.255187988281 955.473937988281 961.367797851562 949.473937988281 940.484680175781 954.226013183594 949.114501953125 949.177856445312 950.138122558594 956.053405761719 961.727722167969 965.414123535156 950.839904785156 960.833618164062 957.640930175781 960.745178222656 958.219177246094 966.322265625 964.561401367188 955.931823730469 951.183715820312 958.686889648438 965.173889160156 960.857727050781 954.647399902344 949.438171386719 956.486022949219 956.540466308594 964.046936035156 963.331237792969 957.815612792969 968.944091796875 967.766479492188 961.717956542969 959.811401367188 963.830383300781 971.809387207031 969.828063964844 972.242797851562 969.33154296875 967.324523925781 968.180114746094 969.409545898438 963.608947753906 966.396484375 961.9658203125 962.380859375 965.038635253906 971.356567382812 975.452758789062 976.658508300781 973.099731445312 977.223999023438 979.591186523438 979.150695800781 982.092346191406 982.509765625 975.971252441406 979.353088378906 989.791259765625 986.927307128906 979.671142578125 984.769470214844 989.553588867188 991.289978027344 990.186279296875 986.576538085938 988.104736328125 991.288391113281 995.860534667969 998.53515625 1004.54919433594 1014.85784912109 1015.66973876953 1011.81170654297 1011.23095703125 1008.51239013672 1012.37921142578 1012.23883056641 1023.50732421875 1022.33056640625 1026.04565429688 1029.2490234375 1041.96887207031 1043.37292480469 1057.14953613281 1068.08483886719 1076.60998535156 1087.00183105469 1096.97253417969 1092.85815429688 1086.41455078125 1074.58557128906 1076.576171875 1066.57556152344 1063.63952636719 1063.27624511719 1075.73498535156 1070.35925292969 1074.49133300781 1086.32678222656 1089.47924804688 1085.09594726562 1096.05163574219
978.695190429688 968.263793945312 977.36376953125 978.393005371094 976.30517578125 973.047180175781 973.207885742188 962.748596191406 967.796020507812 964.007019042969 957.632934570312 959.910888671875 960.016845703125 960.659240722656 974.547790527344 970.505676269531 971.884643554688 975.635620117188 967.740295410156 956.570068359375 949.471252441406 945.594299316406 954.541625976562 953.998718261719 956.693481445312 955.950317382812 948.786437988281 952.146240234375 951.840270996094 958.3818359375 953.231689453125 949.62255859375 946.745178222656 953.666320800781 963.540771484375 967.590026855469 965.159423828125 954.777770996094 954.749084472656 949.05517578125 954.822631835938 951.309387207031 954.632690429688 958.681884765625 957.117797851562 952.66015625 958.164001464844 953.878601074219 949.213439941406 955.885925292969 951.733459472656 952.950805664062 947.203430175781 950.292663574219 950.190185546875 953.367431640625 952.65576171875 960.426818847656 955.087036132812 957.346496582031 958.318115234375 965.912841796875 959.923522949219 961.293334960938 967.780029296875 962.830261230469 960.204284667969 962.860107421875 968.598937988281 961.744873046875 945.309204101562 950.362243652344 963.327209472656 957.177062988281 963.961730957031 960.641906738281 963.759765625 962.934448242188 970.724609375 966.327941894531 970.611328125 975.313171386719 979.9990234375 968.550720214844 956.552062988281 965.056945800781 964.177673339844 962.243469238281 968.304504394531 968.454223632812 976.583984375 972.307983398438 970.016967773438 972.095275878906 978.121398925781 982.702819824219 973.886169433594 977.699951171875 984.801025390625 973.691589355469 980.098388671875 983.011901855469 985.664306640625 985.224243164062 990.29541015625 986.29052734375 982.897277832031 975.183715820312 987.755554199219 994.867248535156 991.593322753906 1000.87060546875 988.112609863281 994.720336914062 993.787109375 991.664489746094 991.074951171875 1001.51159667969 1001.18103027344 1005.53063964844 1010.33032226562 998.098571777344 1006.11029052734 1008.91516113281 1010.60504150391 1013.0751953125 1013.49908447266 1020.96905517578 1034.77258300781 1039.14147949219 1052.65734863281 1056.36206054688 1066.21228027344 1069.72729492188 1079.56579589844 1077.50061035156 1071.62622070312 1074.4326171875 1074.08483886719 1065.93908691406 1061.59802246094 1047.162109375 1056.63830566406 1066.18432617188 1074.93884277344 1076.27880859375 1069.29577636719 1077.02185058594 1089.20642089844 1091.40051269531
980.241760253906 977.374267578125 987.574401855469 975.190490722656 976.448913574219 978.65283203125 968.944885253906 967.6953125 964.064697265625 965.337219238281 952.842102050781 951.779541015625 954.192504882812 962.17041015625 966.769653320312 971.994812011719 967.015869140625 964.2021484375 957.082275390625 953.122375488281 945.589477539062 942.015075683594 945.681579589844 951.329895019531 948.7001953125 940.58447265625 945.937194824219 954.500610351562 953.129211425781 957.343627929688 951.214538574219 953.774353027344 950.176452636719 957.677185058594 959.264282226562 955.4091796875 957.665466308594 956.995300292969 958.425170898438 954.042114257812 953.694641113281 955.519714355469 952.474243164062 952.399597167969 952.588500976562 945.498718261719 943.441223144531 941.508544921875 948.5859375 952.426696777344 951.577514648438 952.231506347656 944.501098632812 944.290588378906 948.114807128906 946.410278320312 957.291198730469 956.675415039062 954.352233886719 950.154418945312 957.572692871094 966.65087890625 959.412658691406 959.190612792969 973.722717285156 967.263000488281 965.773010253906 967.556274414062 963.580993652344 952.067993164062 960.816284179688 952.685791015625 958.248779296875 950.685974121094 956.027954101562 959.876831054688 964.114440917969 966.244018554688 962.129455566406 968.456481933594 961.452758789062 954.605590820312 962.526733398438 960.596313476562 964.814392089844 969.930053710938 969.506774902344 966.135314941406 963.160095214844 976.610168457031 975.560607910156 978.249938964844 978.303405761719 979.054321289062 970.256591796875 976.67333984375 968.748840332031 968.191711425781 970.920593261719 974.568481445312 980.207824707031 981.333374023438 980.480041503906 981.190490722656 984.676635742188 979.873901367188 978.335388183594 982.339050292969 986.5087890625 994.326232910156 998.708740234375 996.848999023438 1001.57385253906 1000.70947265625 1004.96771240234 1002.03399658203 996.596252441406 1003.45233154297 1001.99749755859 1001.48840332031 1000.50268554688 1004.02581787109 1004.35467529297 1005.04754638672 1008.55554199219 1003.38256835938 1007.76721191406 1020.95239257812 1026.7646484375 1043.13439941406 1044.876953125 1051.544921875 1058.02502441406 1051.55017089844 1067.35913085938 1063.54125976562 1063.59240722656 1067.56628417969 1064.18920898438 1052.04272460938 1046.26721191406 1053.34106445312 1050.32788085938 1051.07995605469 1068.56286621094 1071.90515136719 1070.88879394531 1077.80920410156 1078.65612792969 1081.96765136719
973.427185058594 975.399108886719 974.0703125 974.770874023438 981.411010742188 977.76708984375 972.530822753906 964.638305664062 965.022766113281 952.722106933594 953.3564453125 956.0234375 946.961242675781 950.504577636719 957.115661621094 962.295288085938 954.466857910156 960.356750488281 953.506469726562 950.983459472656 942.493530273438 934.137756347656 939.253540039062 943.447631835938 943.919372558594 945.915649414062 940.507446289062 940.075378417969 944.597534179688 952.992614746094 950.120056152344 955.151245117188 949.795166015625 951.402404785156 949.859436035156 955.074340820312 955.173095703125 957.349304199219 954.98388671875 947.299987792969 950.222045898438 953.35400390625 959.994445800781 950.202819824219 951.720642089844 954.574462890625 947.611938476562 943.812683105469 948.847839355469 950.707336425781 946.2265625 949.843994140625 946.750366210938 948.15625 943.859130859375 947.487060546875 954.291748046875 956.906311035156 963.429443359375 960.746520996094 967.228332519531 966.698120117188 958.954345703125 953.371276855469 959.707336425781 970.2177734375 968.257629394531 964.497924804688 967.888793945312 959.425231933594 954.425231933594 948.7529296875 963.314697265625 957.529235839844 958.821716308594 960.987426757812 962.459716796875 961.351623535156 959.959350585938 966.800476074219 975.763366699219 966.93701171875 963.004638671875 961.350830078125 964.779541015625 965.457214355469 968.120178222656 971.520324707031 966.687316894531 966.67578125 971.886535644531 967.952087402344 978.671325683594 981.873901367188 976.229309082031 975.984985351562 970.651916503906 974.18017578125 982.0927734375 980.520385742188 984.525634765625 983.100830078125 988.018310546875 978.523315429688 985.451721191406 985.680114746094 982.757995605469 983.859802246094 989.123168945312 995.533569335938 1002.54266357422 1006.20483398438 1008.92181396484 1011.81335449219 1015.89996337891 1005.36743164062 1008.57208251953 1011.86279296875 1000.1220703125 995.667663574219 1001.78350830078 1002.0517578125 1007.79754638672 1005.54040527344 1013.77026367188 1017.53247070312 1016.67816162109 1020.48590087891 1036.54919433594 1036.71411132812 1043.72009277344 1042.09020996094 1049.03454589844 1051.53356933594 1049.38745117188 1049.19702148438 1053.13159179688 1053.45336914062 1051.36169433594 1053.37365722656 1041.71862792969 1038.92077636719 1039.81359863281 1047.72985839844 1061.9912109375 1061.58740234375 1065.04089355469 1066.30932617188 1067.66979980469 1073.32043457031
969.557983398438 974.774230957031 973.664306640625 976.029968261719 983.696960449219 978.003051757812 968.088012695312 961.361022949219 960.295837402344 953.449890136719 958.061828613281 951.075317382812 950.097290039062 947.311950683594 945.212097167969 941.470642089844 953.078186035156 953.108703613281 948.324401855469 948.376159667969 943.071411132812 937.44970703125 936.613647460938 947.278442382812 950.021728515625 950.335327148438 942.689636230469 942.732116699219 945.644348144531 949.572387695312 945.237243652344 944.923889160156 948.332763671875 953.613952636719 945.532836914062 951.459838867188 957.216430664062 949.632141113281 964.128295898438 958.941955566406 945.376342773438 946.989074707031 957.570678710938 957.861267089844 951.561096191406 951.3359375 945.181762695312 950.585571289062 949.052429199219 949.668334960938 955.007751464844 953.847412109375 954.2783203125 950.181701660156 950.482299804688 957.877075195312 953.808776855469 960.600219726562 960.417602539062 967.741577148438 964.092712402344 977.452392578125 970.147888183594 965.203735351562 961.04345703125 967.345764160156 967.530517578125 959.588134765625 967.417236328125 963.28662109375 956.782592773438 957.258056640625 965.092590332031 967.150573730469 963.686157226562 956.622619628906 964.961364746094 963.004516601562 959.608825683594 964.004638671875 966.814514160156 966.041076660156 976.272094726562 969.3134765625 970.505981445312 972.578369140625 961.923645019531 963.044921875 969.869201660156 965.029907226562 965.158569335938 970.459533691406 982.21337890625 971.262268066406 968.460021972656 975.9306640625 979.833312988281 981.1162109375 981.222473144531 985.910766601562 988.750244140625 982.213500976562 979.290771484375 991.748168945312 990.843872070312 983.435607910156 982.401916503906 979.418395996094 989.137390136719 999.183288574219 998.038818359375 999.861206054688 1010.5341796875 1005.44097900391 1018.13006591797 1012.39190673828 1011.27239990234 1004.83990478516 997.856628417969 995.087280273438 1000.58215332031 1003.30798339844 1009.40338134766 1020.92919921875 1022.58294677734 1012.62554931641 1019.67932128906 1026.1015625 1030.63952636719 1036.83557128906 1036.39978027344 1037.8623046875 1041.96813964844 1038.408203125 1047.96008300781 1037.45068359375 1046.18029785156 1044.58264160156 1044.58435058594 1049.51318359375 1043.21655273438 1029.61877441406 1030.44128417969 1048.27905273438 1055.09692382812 1059.43798828125 1056.17919921875 1052.82678222656 1055.732421875 1055.099609375
968.330322265625 963.512512207031 967.608459472656 981.353210449219 976.140380859375 975.339416503906 969.192199707031 967.865539550781 966.666259765625 960.717041015625 961.409484863281 951.608337402344 948.032897949219 951.579040527344 950.418823242188 950.06787109375 949.865356445312 943.466491699219 952.486389160156 955.172790527344 944.665100097656 935.684387207031 937.630859375 937.698791503906 943.203308105469 946.610656738281 945.975891113281 942.433410644531 949.272277832031 946.695129394531 947.613647460938 948.236877441406 949.79248046875 954.215759277344 942.546936035156 949.823486328125 957.647033691406 952.380920410156 949.782409667969 954.806030273438 947.330688476562 952.149780273438 954.162658691406 963.045959472656 955.697448730469 948.002624511719 945.439514160156 951.493347167969 951.778381347656 950.556823730469 952.281494140625 962.678405761719 960.701965332031 955.077880859375 954.968566894531 958.056457519531 962.452697753906 959.019775390625 956.492065429688 957.589538574219 969.81689453125 975.287963867188 967.99951171875 968.6328125 966.746520996094 959.066345214844 961.670837402344 961.657836914062 965.406066894531 964.772033691406 961.736511230469 968.081726074219 965.298522949219 964.550048828125 970.52978515625 963.124084472656 963.68603515625 963.290222167969 959.0029296875 965.96533203125 975.156433105469 976.747741699219 975.34326171875 970.122192382812 972.006713867188 969.979675292969 968.348327636719 960.182556152344 963.399108886719 968.215393066406 964.090698242188 956.999206542969 968.891540527344 969.610290527344 971.053527832031 964.196899414062 981.279663085938 985.640991210938 989.285705566406 984.630310058594 983.16357421875 986.791748046875 988.641784667969 986.494689941406 986.965637207031 985.2392578125 988.662048339844 986.469848632812 992.401062011719 997.118957519531 998.501403808594 1004.89282226562 1010.568359375 1012.88446044922 1012.35443115234 1023.80413818359 1015.23901367188 1015.38079833984 1017.08306884766 1023.44354248047 1021.12353515625 1011.7744140625 1020.66119384766 1024.49877929688 1023.07537841797 1019.92486572266 1020.47564697266 1020.27728271484 1020.26965332031 1031.32727050781 1037.35107421875 1034.158203125 1042.69311523438 1030.57458496094 1034.6142578125 1041.33679199219 1043.88195800781 1045.19860839844 1051.66491699219 1047.31640625 1038.82507324219 1035.97448730469 1034.29406738281 1032.37634277344 1044.62768554688 1043.02453613281 1048.09191894531 1051.32702636719 1051.91821289062 1047.84802246094
966.104675292969 956.30859375 966.258850097656 974.97607421875 972.048095703125 970.734680175781 969.110595703125 960.998718261719 961.223876953125 959.971130371094 963.59375 956.549743652344 948.062561035156 950.135986328125 945.295043945312 948.903625488281 944.488342285156 941.938720703125 947.694091796875 950.428405761719 948.1259765625 939.533142089844 942.319396972656 940.947509765625 940.91015625 949.2763671875 951.882934570312 934.247314453125 944.718139648438 952.539611816406 948.1767578125 944.381958007812 950.115417480469 949.938659667969 944.014831542969 952.078796386719 944.578674316406 960.148803710938 961.616760253906 958.616943359375 956.872497558594 957.345642089844 951.98583984375 954.870544433594 956.359130859375 958.656494140625 957.387878417969 948.454040527344 956.859985351562 957.988037109375 959.884094238281 962.341674804688 956.320007324219 964.413635253906 957.628173828125 960.691223144531 965.710632324219 961.668334960938 961.843994140625 966.999816894531 975.926879882812 963.882751464844 957.624755859375 961.108825683594 965.7451171875 958.635314941406 961.161499023438 961.559387207031 964.554992675781 961.789916992188 958.223876953125 965.820739746094 963.187438964844 962.32763671875 963.099304199219 960.515014648438 963.23291015625 964.906311035156 960.630249023438 974.112731933594 979.054321289062 979.118408203125 971.425231933594 966.168029785156 970.883728027344 978.091796875 975.949157714844 974.466674804688 970.062377929688 975.563049316406 970.718017578125 963.484375 965.78564453125 970.980834960938 963.843444824219 964.86669921875 978.867065429688 981.458312988281 977.976684570312 977.712829589844 987.163818359375 985.784973144531 983.296020507812 991.470336914062 994.712829589844 993.078491210938 989.947448730469 991.040832519531 1000.56072998047 997.491882324219 998.729064941406 1006.11163330078 1017.16217041016 1016.79241943359 1018.34191894531 1024.408203125 1024.30236816406 1021.97784423828 1031.02795410156 1029.37170410156 1030.27062988281 1023.07751464844 1027.41845703125 1033.87536621094 1032.01123046875 1021.47418212891 1024.40454101562 1016.0087890625 1018.431640625 1022.36688232422 1030.71105957031 1037.44555664062 1040.65686035156 1033.50744628906 1035.92724609375 1051.93017578125 1051.8955078125 1050.50244140625 1048.23352050781 1042.60522460938 1038.24182128906 1029.12451171875 1032.23583984375 1022.59991455078 1032.05969238281 1032.79821777344 1029.20251464844 1040.61938476562 1034.49938964844 1043.56420898438
960.449645996094 958.307067871094 961.416137695312 965.632934570312 971.4267578125 964.689514160156 962.281005859375 952.237365722656 962.117797851562 963.376220703125 959.077392578125 953.871337890625 953.118591308594 948.038391113281 950.569946289062 947.798583984375 943.0107421875 945.776672363281 959.442810058594 954.51171875 954.560180664062 946.536010742188 941.237609863281 946.297790527344 943.879760742188 943.285827636719 946.260192871094 932.702819824219 939.972351074219 941.415344238281 938.593383789062 937.94775390625 934.859985351562 943.343566894531 943.622985839844 950.734130859375 946.732360839844 950.664978027344 958.487854003906 947.972900390625 956.096740722656 958.386047363281 947.241027832031 958.651062011719 954.930908203125 956.576477050781 958.139526367188 950.786926269531 946.083129882812 960.105834960938 963.034790039062 965.223022460938 961.39990234375 971.327453613281 963.430297851562 968.275390625 963.417236328125 966.345092773438 966.65869140625 967.898254394531 969.462890625 962.211120605469 964.134765625 955.375305175781 956.460998535156 967.801940917969 974.187561035156 967.365539550781 965.330688476562 965.758117675781 963.361938476562 976.948486328125 963.554870605469 969.41162109375 967.046020507812 966.778137207031 966.809020996094 955.555053710938 970.017822265625 976.041809082031 983.422119140625 983.083251953125 973.295227050781 970.847412109375 969.9365234375 981.598449707031 978.610656738281 983.293029785156 974.350036621094 972.035400390625 976.500732421875 976.299865722656 970.443725585938 968.560241699219 967.565795898438 968.453552246094 969.702880859375 982.600219726562 973.1533203125 977.165588378906 980.193908691406 989.179260253906 992.07080078125 994.797241210938 1000.05010986328 995.033142089844 1007.96740722656 1000.91333007812 991.079711914062 991.8447265625 1008.01416015625 1016.06414794922 1017.84057617188 1027.35021972656 1016.80841064453 1023.73071289062 1028.265625 1027.53552246094 1027.8935546875 1033.55859375 1033.6103515625 1026.92163085938 1025.94909667969 1028.40405273438 1032.53796386719 1018.67822265625 1014.31518554688 1013.16033935547 1022.197265625 1022.16851806641 1025.41711425781 1037.01184082031 1044.49499511719 1041.65087890625 1043.50500488281 1041.80993652344 1050.88293457031 1050.84143066406 1038.97473144531 1033.56799316406 1028.23022460938 1021.24627685547 1019.57482910156 1014.03912353516 1019.15777587891 1026.83532714844 1030.06652832031 1022.86791992188 1025.69958496094 1037.21423339844
958.182067871094 956.563537597656 963.211547851562 965.366516113281 967.531005859375 962.272094726562 958.02197265625 955.92041015625 958.516967773438 966.487487792969 958.447082519531 950.180053710938 949.904663085938 948.134704589844 951.657043457031 943.324829101562 938.568603515625 946.703552246094 957.18701171875 961.145751953125 951.089172363281 945.703979492188 944.554443359375 948.602355957031 940.838745117188 952.594909667969 941.235473632812 937.8173828125 939.300354003906 941.338989257812 943.013610839844 941.183715820312 935.453002929688 942.033508300781 939.536315917969 942.332153320312 949.895141601562 951.954895019531 952.631530761719 951.203979492188 950.200378417969 949.175048828125 958.283081054688 961.491149902344 960.981994628906 954.414733886719 959.607727050781 949.784851074219 951.5185546875 960.408935546875 965.515686035156 968.307800292969 965.415649414062 963.335083007812 963.196105957031 972.039306640625 974.496826171875 973.039001464844 971.773315429688 970.416381835938 972.169067382812 960.978942871094 966.789978027344 962.409423828125 971.156799316406 970.378356933594 968.903869628906 965.181091308594 964.58984375 963.389526367188 982.249938964844 980.593078613281 984.663879394531 978.756408691406 966.932250976562 961.731750488281 964.096313476562 963.839721679688 975.149536132812 969.614501953125 981.309143066406 984.047973632812 976.306762695312 979.627380371094 981.984130859375 984.817199707031 982.529235839844 982.680480957031 979.071655273438 976.673522949219 975.040710449219 977.787414550781 976.363342285156 979.509033203125 973.398559570312 972.09375 978.526794433594 981.858703613281 980.268005371094 983.484497070312 982.709594726562 979.913635253906 981.703369140625 991.3330078125 991.805725097656 1003.29644775391 1003.47198486328 1004.66668701172 995.526794433594 998.914245605469 1004.23883056641 1012.04809570312 1021.57653808594 1026.01391601562 1024.87646484375 1024.970703125 1029.56274414062 1033.08972167969 1033.43908691406 1027.53967285156 1025.72802734375 1028.576171875 1025.82897949219 1026.47924804688 1025.62268066406 1021.6982421875 1022.40612792969 1027.50427246094 1027.21228027344 1020.10247802734 1024.34936523438 1034.3369140625 1037.25024414062 1039.88671875 1047.06188964844 1047.67602539062 1046.45397949219 1049.25280761719 1047.75122070312 1037.96630859375 1031.59484863281 1018.33160400391 1014.1943359375 1009.3828125 1007.60974121094 1015.53112792969 1020.49011230469 1013.84124755859 1016.02380371094 1030.33862304688
952.175903320312 954.851867675781 958.239929199219 956.823303222656 956.495788574219 948.297668457031 952.836242675781 947.60791015625 959.862670898438 959.093383789062 955.794921875 958.073608398438 942.713989257812 948.388061523438 950.348815917969 942.513488769531 941.068298339844 946.559387207031 958.001281738281 957.309814453125 943.308471679688 945.328125 943.361022949219 940.76318359375 941.76806640625 949.821655273438 946.59423828125 950.823608398438 945.430114746094 936.765869140625 944.082275390625 947.681213378906 948.434448242188 944.688903808594 947.054992675781 946.889099121094 944.335998535156 946.222045898438 956.75439453125 957.596496582031 956.824340820312 950.122009277344 953.330322265625 968.753845214844 969.520080566406 976.6181640625 977.152587890625 967.509643554688 968.02294921875 969.607788085938 974.611877441406 975.349792480469 963.996520996094 959.658813476562 966.3740234375 973.059387207031 971.641540527344 971.8134765625 966.135131835938 964.265625 960.836059570312 960.578369140625 948.957885742188 958.867919921875 969.093872070312 970.447631835938 971.581237792969 967.705932617188 960.706237792969 971.93310546875 972.310791015625 976.070922851562 980.2685546875 981.969909667969 974.846557617188 967.892944335938 971.341064453125 974.449523925781 969.151000976562 971.493591308594 976.519958496094 985.281188964844 987.18310546875 993.11181640625 980.818298339844 978.0966796875 985.359924316406 981.720397949219 977.818542480469 969.135681152344 971.034301757812 977.14453125 981.254211425781 978.922668457031 973.427673339844 983.982604980469 979.746704101562 981.254699707031 983.37060546875 984.292907714844 982.133422851562 987.431640625 984.706176757812 982.899230957031 996.558166503906 1006.17547607422 1003.68463134766 998.37255859375 995.289367675781 1000.45617675781 1002.9462890625 1012.21923828125 1021.41387939453 1025.23022460938 1021.98449707031 1029.28637695312 1027.29968261719 1031.55798339844 1042.13110351562 1032.83386230469 1029.41882324219 1029.56176757812 1025.13208007812 1026.65161132812 1021.84820556641 1026.61547851562 1019.57562255859 1022.34509277344 1026.48474121094 1019.96624755859 1020.04241943359 1026.52709960938 1038.90795898438 1039.94458007812 1042.69641113281 1054.71630859375 1055.08679199219 1052.12927246094 1043.22839355469 1042.5361328125 1033.84741210938 1026.69934082031 1016.72552490234 1017.94146728516 1011.42474365234 1017.61737060547 1017.35217285156 1013.92547607422 1006.02923583984 1012.09484863281
949.746643066406 961.847778320312 965.115966796875 958.506408691406 953.804931640625 954.154907226562 956.701049804688 950.060852050781 951.151123046875 958.561767578125 957.491088867188 956.644409179688 949.5244140625 942.565063476562 945.419128417969 947.32470703125 942.084289550781 949.749206542969 946.341491699219 950.748779296875 948.582275390625 950.424377441406 943.543151855469 941.838500976562 932.604736328125 934.840881347656 951.3349609375 951.610290527344 949.325500488281 939.605163574219 948.507629394531 954.005737304688 949.658081054688 951.199584960938 953.053161621094 946.463500976562 953.87841796875 952.419799804688 959.197326660156 957.161315917969 958.222229003906 955.525939941406 954.588806152344 963.425109863281 971.028747558594 983.568298339844 982.134094238281 974.247253417969 975.835144042969 976.148376464844 983.781127929688 981.374389648438 976.635375976562 968.631713867188 971.474548339844 978.074890136719 970.466186523438 972.018432617188 971.432006835938 965.68212890625 959.208740234375 966.677368164062 949.1455078125 960.836669921875 970.071838378906 974.320556640625 966.214904785156 970.869506835938 965.146301269531 973.364807128906 979.609741210938 974.778442382812 977.809692382812 978.378601074219 967.592041015625 972.462463378906 974.147094726562 969.549133300781 976.795532226562 979.688171386719 977.403503417969 983.918823242188 989.058654785156 990.099487304688 988.667114257812 981.290710449219 977.950378417969 979.191650390625 976.044921875 977.565368652344 973.075012207031 973.851318359375 971.867614746094 967.217834472656 980.817504882812 981.596008300781 989.813903808594 987.502563476562 991.369323730469 984.806701660156 981.028198242188 991.14013671875 985.669555664062 987.335388183594 996.308837890625 995.22314453125 994.894165039062 996.249145507812 998.167419433594 997.744018554688 1002.86779785156 1017.68823242188 1028.20727539062 1029.70776367188 1028.95373535156 1020.65716552734 1034.95971679688 1035.6728515625 1042.69921875 1040.26391601562 1031.80773925781 1031.26708984375 1033.84509277344 1032.71081542969 1031.36499023438 1020.62664794922 1023.79797363281 1033.68420410156 1024.79748535156 1020.39105224609 1023.07666015625 1029.58422851562 1040.10815429688 1036.2109375 1041.23303222656 1047.21166992188 1053.73388671875 1050.51037597656 1040.80126953125 1034.3115234375 1021.85278320312 1026.18664550781 1027.89501953125 1018.91510009766 1010.85437011719 1021.57427978516 1022.02435302734 1018.86553955078 1005.32836914062 1011.07330322266
951.401184082031 958.154968261719 954.408752441406 950.403198242188 949.010986328125 932.555847167969 945.834167480469 950.326049804688 951.510925292969 946.235107421875 949.960144042969 943.483703613281 943.902099609375 951.792053222656 947.938537597656 954.331481933594 942.796264648438 955.42919921875 944.732788085938 946.22802734375 947.334228515625 949.866455078125 947.359741210938 948.26171875 942.002746582031 943.049560546875 951.202819824219 951.506530761719 956.415344238281 941.864807128906 953.801940917969 953.906616210938 950.502868652344 948.217895507812 957.723266601562 949.3232421875 954.651489257812 958.482482910156 970.254150390625 970.127868652344 966.628601074219 957.48876953125 956.225646972656 967.890747070312 970.691162109375 981.918762207031 980.293334960938 989.920654296875 983.634826660156 973.534606933594 975.152038574219 981.748901367188 987.628112792969 984.139526367188 973.588684082031 969.132141113281 976.672973632812 979.880737304688 977.174011230469 972.382507324219 955.293090820312 958.848510742188 956.41796875 953.038940429688 962.770446777344 966.587890625 968.258117675781 965.480285644531 965.02099609375 968.903259277344 968.977416992188 967.804748535156 978.398559570312 977.297119140625 975.473449707031 972.891906738281 975.805603027344 976.246520996094 976.611450195312 979.426391601562 990.394165039062 990.823852539062 1000.09899902344 994.335083007812 984.594604492188 979.69189453125 985.532104492188 975.76171875 979.954284667969 972.744079589844 976.255432128906 977.081359863281 974.860107421875 974.755493164062 990.302734375 990.016235351562 990.448791503906 990.645141601562 991.557922363281 985.665161132812 979.272705078125 979.188354492188 982.835083007812 987.501647949219 989.444396972656 999.542602539062 994.244018554688 992.990783691406 1005.89215087891 1002.17395019531 1008.08483886719 1019.67932128906 1032.95153808594 1035.03308105469 1028.08959960938 1030.4814453125 1033.80834960938 1039.50158691406 1044.00354003906 1039.68786621094 1034.8115234375 1034.27746582031 1039.22802734375 1032.84436035156 1036.65087890625 1025.56408691406 1024.09558105469 1023.60284423828 1025.14184570312 1021.88952636719 1026.96069335938 1027.94873046875 1028.13366699219 1039.78466796875 1042.20629882812 1040.7724609375 1046.92126464844 1044.19677734375 1040.1552734375 1030.55041503906 1024.73583984375 1020.41217041016 1027.22595214844 1020.79809570312 1009.44201660156 1005.77520751953 1006.67041015625 1009.36791992188 1007.35955810547 1009.47344970703
952.168395996094 957.657897949219 946.228942871094 949.714965820312 949.385070800781 950.809448242188 942.043395996094 943.4560546875 949.915222167969 943.877685546875 949.342163085938 949.448974609375 943.75244140625 955.996032714844 959.654479980469 955.375732421875 948.583190917969 945.580261230469 948.96142578125 957.993774414062 959.821105957031 956.997436523438 954.645080566406 950.661071777344 945.846496582031 948.382751464844 962.693420410156 955.061462402344 945.222473144531 949.362182617188 952.3203125 949.677673339844 957.319213867188 959.045043945312 961.825622558594 959.294677734375 960.051818847656 959.023620605469 959.437744140625 969.993041992188 970.755554199219 970.186889648438 971.368835449219 969.401489257812 970.147644042969 978.124450683594 992.011962890625 986.383361816406 987.123779296875 982.444030761719 979.784912109375 986.096069335938 986.077209472656 987.729675292969 983.296875 976.199523925781 986.20703125 985.422790527344 974.5107421875 966.947937011719 966.142517089844 965.802978515625 963.592224121094 962.344482421875 959.002380371094 961.120239257812 964.8544921875 971.567749023438 963.5771484375 964.560607910156 971.9921875 972.520568847656 984.441711425781 982.802917480469 973.845642089844 975.106628417969 975.624572753906 984.555786132812 977.375366210938 980.547668457031 989.587646484375 990.8125 994.799987792969 990.3388671875 990.924499511719 985.124206542969 981.13134765625 980.613525390625 983.348022460938 982.316162109375 978.847534179688 975.780944824219 974.379211425781 970.40380859375 983.823913574219 996.666564941406 987.866027832031 984.123718261719 980.932312011719 981.278442382812 980.203918457031 974.222045898438 978.549682617188 987.495849609375 989.715637207031 996.43115234375 995.204956054688 1001.890625 999.067626953125 1003.89831542969 1012.93139648438 1024.24560546875 1023.41278076172 1029.51403808594 1027.60327148438 1025.24389648438 1037.18969726562 1043.28625488281 1042.91821289062 1036.99133300781 1044.53039550781 1042.08508300781 1043.46728515625 1045.251953125 1036.55297851562 1024.94641113281 1031.70166015625 1018.73791503906 1027.47375488281 1030.60595703125 1018.68231201172 1023.16424560547 1032.01171875 1044.77294921875 1056.59777832031 1053.98400878906 1048.58044433594 1033.88366699219 1030.23205566406 1028.47314453125 1026.76904296875 1028.88500976562 1015.38189697266 1020.38360595703 1014.15411376953 997.770141601562 996.085205078125 1005.37188720703 998.080932617188 1005.13732910156
951.791564941406 952.400085449219 959.500427246094 947.321533203125 944.723876953125 943.715759277344 934.845947265625 941.012634277344 941.229797363281 947.063659667969 953.889099121094 945.629333496094 954.427001953125 965.568176269531 969.009521484375 961.102722167969 956.154663085938 947.749450683594 945.191589355469 963.96484375 961.375366210938 958.196716308594 955.406677246094 956.749267578125 955.731567382812 956.307922363281 962.748291015625 958.141540527344 947.452453613281 948.439514160156 952.101806640625 954.150207519531 956.439331054688 955.46435546875 958.871032714844 968.537536621094 961.028930664062 961.130615234375 963.779479980469 960.563232421875 968.103088378906 975.656799316406 965.557678222656 978.624938964844 978.224365234375 980.781860351562 990.865051269531 983.754760742188 977.723937988281 978.668151855469 981.271484375 984.539855957031 981.807922363281 991.383422851562 982.990783691406 977.268493652344 981.667541503906 980.450805664062 976.256408691406 964.326416015625 972.089172363281 973.054443359375 966.443237304688 973.597412109375 968.510986328125 965.816772460938 973.211059570312 965.7666015625 969.346130371094 960.045532226562 971.138977050781 969.943176269531 982.723937988281 978.629455566406 975.607482910156 984.085205078125 982.744995117188 980.913513183594 985.74560546875 979.61181640625 984.338623046875 982.95703125 996.353759765625 990.874389648438 982.651000976562 986.692993164062 984.199035644531 979.55224609375 980.409118652344 979.254821777344 975.493103027344 982.248596191406 972.408142089844 979.911560058594 987.306701660156 987.9951171875 987.442016601562 988.647155761719 985.017700195312 983.822326660156 983.443725585938 976.599548339844 979.100280761719 981.080383300781 991.1552734375 993.63232421875 994.018005371094 997.813415527344 1003.86547851562 1012.40454101562 1012.79895019531 1023.73376464844 1023.62860107422 1026.78845214844 1027.22399902344 1029.38610839844 1048.81433105469 1052.876953125 1048.31713867188 1041.16491699219 1042.06140136719 1044.83203125 1050.55114746094 1047.76013183594 1040.67932128906 1037.98046875 1029.72570800781 1021.46575927734 1023.76824951172 1015.20959472656 1024.96142578125 1026.70495605469 1025.97973632812 1039.27294921875 1045.64770507812 1047.21789550781 1051.60375976562 1033.65881347656 1029.18640136719 1021.43884277344 1019.81353759766 1021.53948974609 1011.70538330078 1005.0361328125 1000.58099365234 995.846130371094 998.946533203125 999.228454589844 1003.88433837891 1009.18316650391
952.008728027344 949.796203613281 948.666870117188 945.651611328125 944.584411621094 942.996520996094 937.232482910156 937.892272949219 936.964904785156 943.591674804688 951.212219238281 961.911560058594 964.131164550781 963.4560546875 977.92041015625 970.092712402344 960.431701660156 961.30517578125 967.030700683594 970.2490234375 970.509338378906 969.348266601562 961.848937988281 965.846862792969 970.615417480469 971.457702636719 956.058227539062 955.037536621094 954.396423339844 948.577941894531 955.647399902344 956.087707519531 953.265808105469 963.980590820312 962.009643554688 960.514404296875 962.873840332031 961.599426269531 968.605895996094 967.437744140625 970.335083007812 973.216125488281 968.929382324219 979.337463378906 987.436462402344 975.319580078125 987.723022460938 989.193542480469 985.019409179688 990.527038574219 982.30078125 993.230163574219 984.829467773438 989.962463378906 986.467590332031 977.294372558594 975.403869628906 974.911376953125 975.124206542969 972.062194824219 970.848083496094 969.464782714844 975.1220703125 979.270324707031 971.927673339844 972.091186523438 970.525634765625 972.639892578125 982.54052734375 981.775634765625 977.417358398438 975.140441894531 981.950256347656 977.875122070312 981.475769042969 984.043212890625 987.016052246094 983.347229003906 983.578491210938 982.680358886719 990.562622070312 985.81640625 983.140930175781 988.420043945312 983.580993652344 986.661804199219 979.007507324219 981.231872558594 983.325927734375 977.373229980469 973.18505859375 977.186889648438 977.3349609375 984.311889648438 987.603698730469 988.064880371094 988.596313476562 985.898315429688 979.938110351562 981.072509765625 984.242553710938 988.526123046875 976.993041992188 990.27197265625 988.625549316406 988.4052734375 989.567321777344 999.576904296875 1013.21429443359 1013.44091796875 1013.14233398438 1022.14996337891 1024.64807128906 1019.58013916016 1025.59423828125 1033.87561035156 1044.34155273438 1040.89086914062 1049.85290527344 1047.11584472656 1048.89050292969 1047.37121582031 1047.90100097656 1038.92395019531 1040.30834960938 1034.99536132812 1021.85540771484 1024.2734375 1022.08343505859 1012.26098632812 1012.83764648438 1024.82775878906 1036.80981445312 1038.154296875 1035.35375976562 1038.77392578125 1041.41845703125 1040.20849609375 1029.427734375 1021.41510009766 1018.26409912109 1017.00848388672 1010.86376953125 1003.10467529297 1010.82928466797 1005.02545166016 1001.86358642578 994.746154785156 997.796020507812 994.6806640625
952.406372070312 947.60986328125 946.224853515625 932.602661132812 940.471069335938 940.201965332031 941.618041992188 937.296813964844 939.066284179688 944.455444335938 961.095642089844 959.064880371094 959.775512695312 973.822692871094 974.849487304688 975.577087402344 974.996398925781 968.640563964844 981.756530761719 974.473815917969 967.872985839844 966.215087890625 964.155395507812 968.957397460938 978.315246582031 971.815063476562 962.325256347656 948.175598144531 946.324829101562 951.597778320312 945.217895507812 954.683959960938 959.467895507812 962.182006835938 956.042053222656 959.280395507812 964.582946777344 967.191711425781 973.895324707031 974.874877929688 982.025329589844 973.942749023438 974.823913574219 977.435974121094 985.351196289062 987.905517578125 991.986755371094 1000.15277099609 1002.90673828125 991.526184082031 989.966735839844 990.952270507812 984.517578125 988.373596191406 981.348266601562 977.082275390625 970.380126953125 972.9287109375 972.024230957031 975.322204589844 971.248657226562 975.604919433594 975.510375976562 975.298400878906 972.732788085938 971.446838378906 978.378662109375 978.667175292969 985.149108886719 978.952514648438 979.858154296875 979.610717773438 984.640441894531 984.283447265625 991.465881347656 984.564697265625 994.453918457031 991.351745605469 987.746887207031 991.873046875 985.966247558594 983.924926757812 984.778259277344 988.176330566406 982.112060546875 988.1806640625 982.634338378906 981.31103515625 984.628540039062 985.518737792969 979.7421875 983.710693359375 985.669921875 976.930419921875 975.178649902344 980.540466308594 987.662719726562 984.229370117188 982.671142578125 975.533325195312 986.075012207031 988.206665039062 991.796081542969 992.8037109375 1001.34680175781 998.930419921875 993.072326660156 997.298217773438 1012.32537841797 1018.24877929688 1017.89099121094 1024.65649414062 1023.97222900391 1024.49865722656 1020.75543212891 1031.48327636719 1040.13745117188 1038.65002441406 1044.82299804688 1048.61083984375 1047.27209472656 1043.83850097656 1040.86804199219 1033.72973632812 1036.43151855469 1031.30859375 1022.55804443359 1019.78253173828 1020.44866943359 1017.21630859375 1025.44677734375 1026.84533691406 1030.47290039062 1031.90600585938 1034.98547363281 1034.375 1031.67053222656 1033.31945800781 1031.80749511719 1035.15588378906 1023.59686279297 1021.78070068359 1008.10900878906 997.015869140625 1001.89752197266 999.047058105469 1002.90222167969 997.410400390625 999.287780761719 1002.03668212891
962.223571777344 946.706726074219 951.567016601562 939.301452636719 931.838989257812 934.6513671875 943.357604980469 942.525024414062 940.861877441406 940.6865234375 956.113647460938 964.450988769531 967.4892578125 971.879028320312 973.139526367188 980.825988769531 981.265075683594 980.706481933594 977.254577636719 972.068359375 957.182373046875 972.298522949219 976.451965332031 981.359558105469 973.327758789062 968.925476074219 962.445861816406 958.466735839844 947.857116699219 945.8896484375 948.500061035156 959.589660644531 961.144348144531 959.429870605469 959.156433105469 966.006408691406 964.031921386719 971.777648925781 976.160400390625 978.374694824219 984.157348632812 983.256469726562 977.507080078125 983.134216308594 984.456909179688 991.328979492188 1005.24371337891 1000.35992431641 1001.28686523438 1004.07543945312 995.394104003906 991.275024414062 981.291381835938 979.789794921875 975.931640625 982.2802734375 977.44140625 980.758178710938 977.777099609375 976.371948242188 970.80419921875 970.986328125 975.205688476562 982.643920898438 980.638000488281 978.526916503906 978.574584960938 980.271362304688 985.241577148438 976.912902832031 977.386291503906 985.076171875 985.072937011719 980.645263671875 991.815551757812 990.598327636719 985.259765625 996.79736328125 987.358520507812 987.928161621094 991.807006835938 990.0009765625 988.423889160156 983.985595703125 976.556701660156 978.130432128906 982.721008300781 982.420837402344 986.104431152344 987.837036132812 989.904418945312 986.204345703125 985.628295898438 980.261840820312 979.386169433594 987.526977539062 982.961242675781 988.835205078125 981.509399414062 988.976379394531 986.306518554688 994.662780761719 1007.89422607422 1005.06243896484 1004.09436035156 1005.37261962891 1002.41827392578 1008.48486328125 1013.70904541016 1019.93194580078 1018.80346679688 1023.51043701172 1029.51525878906 1038.47399902344 1037.09252929688 1030.71276855469 1030.53393554688 1034.32702636719 1041.97863769531 1034.45751953125 1037.55993652344 1044.06762695312 1039.91625976562 1039.203125 1032.24340820312 1025.77368164062 1028.45471191406 1026.5029296875 1023.73358154297 1013.83032226562 1025.14428710938 1031.15539550781 1033.58142089844 1032.28491210938 1032.03247070312 1021.70031738281 1022.59851074219 1025.17456054688 1022.39117431641 1026.38354492188 1016.52728271484 1010.20263671875 1011.48712158203 999.633178710938 998.006774902344 997.025939941406 995.398498535156 994.434875488281 989.203979492188 999.572265625
955.526123046875 945.1416015625 941.094360351562 936.081787109375 941.460754394531 938.548950195312 932.542358398438 937.577941894531 938.522338867188 942.134155273438 954.301391601562 960.64697265625 976.428161621094 969.699401855469 974.793762207031 976.800354003906 982.103698730469 988.301818847656 975.752258300781 978.503723144531 971.943054199219 967.635131835938 979.497985839844 980.584350585938 974.855529785156 968.234924316406 967.159851074219 960.375732421875 955.870544433594 953.667541503906 951.888732910156 959.364990234375 969.659851074219 967.207214355469 971.982543945312 970.186645507812 967.901550292969 964.205993652344 982.8916015625 979.324645996094 983.689697265625 984.309387207031 982.612487792969 987.984680175781 988.552490234375 997.709533691406 1005.17901611328 1005.77001953125 999.536437988281 1004.57647705078 1003.43389892578 996.495239257812 987.454040527344 979.352966308594 972.0634765625 974.852600097656 982.745544433594 982.137939453125 975.940063476562 968.2060546875 971.292358398438 974.180725097656 985.606689453125 975.924682617188 978.237670898438 980.399841308594 984.441467285156 981.727111816406 977.984680175781 977.700317382812 980.884399414062 987.707763671875 981.718933105469 985.8662109375 980.961303710938 986.465698242188 981.770446777344 985.917724609375 990.427673339844 984.1748046875 980.711730957031 990.604675292969 982.686218261719 968.0166015625 970.407470703125 972.103454589844 983.911682128906 979.628662109375 978.100891113281 984.01953125 987.318054199219 988.52392578125 982.826782226562 978.959045410156 987.401000976562 991.314392089844 997.742431640625 992.70703125 993.68798828125 988.494812011719 979.598449707031 995.715576171875 1008.62805175781 1009.04693603516 1006.17211914062 1006.64532470703 1002.78833007812 1014.48718261719 1015.79852294922 1023.32037353516 1021.15893554688 1030.74633789062 1034.16088867188 1035.40942382812 1029.29992675781 1029.66540527344 1028.67883300781 1034.05090332031 1024.48889160156 1031.12451171875 1032.35607910156 1032.01672363281 1028.57690429688 1031.32165527344 1030.51403808594 1022.28790283203 1025.84704589844 1019.18103027344 1018.48504638672 1020.33129882812 1021.63873291016 1018.26763916016 1018.27844238281 1017.77294921875 1015.3046875 1020.51098632812 1020.71002197266 1019.63568115234 1015.21032714844 1011.37158203125 1011.5263671875 1000.34399414062 1007.28118896484 1007.63366699219 1001.92822265625 992.227355957031 990.965576171875 988.233703613281 988.967590332031 998.993957519531
950.6083984375 949.7763671875 943.516296386719 935.533569335938 937.768920898438 933.119323730469 926.218444824219 936.920227050781 945.79833984375 951.489624023438 960.433959960938 963.531433105469 973.304077148438 978.900634765625 976.381042480469 977.264343261719 974.114440917969 983.656555175781 982.36669921875 977.533142089844 973.089111328125 977.1513671875 980.109375 981.331420898438 981.925964355469 975.778503417969 978.687622070312 977.08203125 966.107666015625 962.008056640625 961.419738769531 964.053649902344 967.666625976562 976.565612792969 972.13818359375 967.394775390625 973.499328613281 972.7880859375 980.476501464844 984.750244140625 981.840576171875 980.974182128906 987.565185546875 990.279052734375 995.788330078125 999.713256835938 999.24560546875 1004.41412353516 997.314025878906 1002.87658691406 1001.58581542969 986.983642578125 987.66552734375 982.832885742188 973.593322753906 968.001831054688 976.79296875 981.68994140625 981.088562011719 973.3798828125 979.256408691406 970.144958496094 982.588623046875 988.714294433594 983.215637207031 981.765258789062 975.981994628906 981.674011230469 980.403381347656 977.133911132812 984.928344726562 985.622619628906 976.828186035156 975.748291015625 980.039733886719 978.93212890625 978.318603515625 988.335876464844 995.12646484375 988.123901367188 983.222839355469 984.799560546875 978.399536132812 978.107543945312 981.410217285156 982.723022460938 981.658020019531 979.166015625 979.60009765625 982.84521484375 986.574829101562 981.682800292969 984.415466308594 985.058959960938 992.237182617188 989.993041992188 1002.99407958984 1001.74395751953 995.021179199219 986.476501464844 990.161010742188 1004.47326660156 1010.32489013672 1011.16076660156 1004.84149169922 1009.80883789062 1010.38598632812 1008.71569824219 1011.40887451172 1020.77783203125 1020.583984375 1034.47814941406 1037.55224609375 1037.7939453125 1023.73767089844 1024.4638671875 1033.95593261719 1030.31359863281 1027.23010253906 1025.42370605469 1020.45581054688 1015.36700439453 1021.62261962891 1022.95892333984 1024.26647949219 1010.09857177734 1019.42681884766 1009.83197021484 1016.41259765625 1010.48828125 1009.03570556641 1008.57135009766 1011.76037597656 1006.77984619141 1010.27081298828 1015.43664550781 1019.41040039062 1017.55725097656 1010.66577148438 1007.1044921875 995.830749511719 995.939025878906 1002.97204589844 1011.21618652344 1005.36676025391 993.69189453125 988.90673828125 986.007507324219 992.446228027344 998.103942871094
951.098693847656 945.795043945312 939.577087402344 933.6650390625 935.555480957031 939.503356933594 930.412536621094 938.533813476562 949.731506347656 956.934631347656 957.389282226562 960.455017089844 970.673095703125 973.294860839844 971.1787109375 973.8447265625 971.774658203125 984.447509765625 982.250610351562 978.331848144531 975.738586425781 980.233764648438 982.112915039062 980.870483398438 983.161437988281 984.715637207031 989.066223144531 982.169982910156 971.582092285156 970.311157226562 969.039611816406 972.051025390625 976.600402832031 970.598449707031 959.821960449219 972.481140136719 978.803100585938 984.341979980469 982.934753417969 984.097839355469 984.321228027344 987.593505859375 995.343688964844 995.025146484375 994.869384765625 1007.81579589844 1013.54125976562 1012.83471679688 1004.90521240234 998.3662109375 991.122741699219 985.55517578125 986.101257324219 984.103149414062 980.485412597656 985.339172363281 979.3876953125 984.155395507812 986.455383300781 983.221313476562 976.903442382812 971.326782226562 978.009521484375 973.664184570312 985.937805175781 977.942749023438 982.47265625 979.163208007812 982.91943359375 979.163879394531 989.7294921875 987.054077148438 995.042175292969 987.810852050781 989.876708984375 981.659545898438 977.937377929688 987.830688476562 989.469482421875 985.271179199219 992.056579589844 986.611633300781 985.244445800781 988.400268554688 998.839965820312 990.361938476562 988.686828613281 975.790954589844 977.6669921875 987.394775390625 986.594055175781 988.448425292969 982.011352539062 992.785766601562 999.905578613281 1000.98321533203 997.870971679688 998.14892578125 997.817626953125 998.61474609375 1005.10632324219 1006.8583984375 1011.99578857422 1015.88580322266 1001.86773681641 1005.09747314453 1002.8125 1006.50250244141 1014.38446044922 1019.60278320312 1025.748046875 1029.49230957031 1033.478515625 1027.8408203125 1020.47253417969 1028.123046875 1033.17248535156 1028.98754882812 1025.44494628906 1017.17364501953 1009.74578857422 1011.80511474609 1006.25518798828 1012.50952148438 1018.15704345703 1021.63513183594 1009.56518554688 1009.59387207031 1007.13195800781 1003.47607421875 1003.15045166016 1003.90789794922 1012.80395507812 1018.12188720703 1013.32238769531 1015.61071777344 1017.54254150391 1010.43792724609 1009.69946289062 997.280395507812 988.551574707031 992.022033691406 997.151489257812 1001.90240478516 993.73291015625 991.298034667969 986.759765625 980.142822265625 999.682189941406 999.278381347656
952.534301757812 940.319946289062 929.796630859375 932.087219238281 927.690063476562 927.9287109375 933.807800292969 931.767517089844 944.8046875 955.719055175781 964.255615234375 959.590637207031 973.315551757812 971.297912597656 971.029541015625 971.58447265625 980.462707519531 978.858337402344 982.53857421875 978.669494628906 981.007995605469 984.393737792969 986.195983886719 985.149658203125 988.493957519531 990.885864257812 997.421630859375 981.115783691406 972.855712890625 970.542846679688 974.198364257812 974.592163085938 978.237731933594 982.736999511719 974.600341796875 981.46240234375 984.214050292969 986.02685546875 989.301452636719 994.240417480469 985.745727539062 994.326843261719 993.585510253906 994.496520996094 1007.87823486328 1015.13500976562 1021.62225341797 1014.4140625 1008.56335449219 1006.26770019531 993.104064941406 988.264404296875 989.316467285156 987.974182128906 987.53857421875 981.182861328125 987.269409179688 982.149353027344 978.487121582031 977.358703613281 975.645080566406 972.640808105469 965.401733398438 970.171081542969 980.994995117188 984.078857421875 982.341552734375 980.471740722656 986.772155761719 986.71337890625 986.978698730469 986.671447753906 985.179260253906 993.561096191406 986.851623535156 983.027893066406 986.863098144531 997.048706054688 995.627136230469 997.206237792969 998.155639648438 1005.95977783203 997.2138671875 998.843566894531 997.848388671875 992.937683105469 992.466125488281 975.706298828125 976.716857910156 983.443298339844 992.942932128906 984.495727539062 988.901916503906 993.803771972656 995.755187988281 1002.07293701172 997.454345703125 997.895446777344 1006.91125488281 1012.80395507812 1012.90502929688 1011.97607421875 1006.54022216797 1012.24645996094 997.008850097656 996.429809570312 996.81005859375 1011.89294433594 1005.83917236328 1015.59161376953 1026.30834960938 1035.16418457031 1032.05102539062 1023.66564941406 1035.27868652344 1021.23321533203 1028.46618652344 1019.47430419922 1012.53778076172 1014.84857177734 1014.87872314453 1004.67626953125 1006.8115234375 1014.38555908203 1021.15692138672 1024.81311035156 1017.72875976562 1005.22717285156 1003.33819580078 1002.57360839844 1010.28302001953 1015.10052490234 1020.90277099609 1026.14929199219 1017.87628173828 1012.84735107422 1008.92712402344 1007.51983642578 1002.70526123047 986.729858398438 985.794677734375 990.767028808594 986.121704101562 997.399353027344 991.823547363281 990.140563964844 985.871032714844 986.283752441406 985.930541992188 998.189575195312
948.289733886719 946.463928222656 936.092529296875 931.158325195312 928.087890625 938.4677734375 932.913696289062 931.983032226562 950.070861816406 954.807800292969 957.175048828125 963.682983398438 967.297912597656 971.290222167969 973.396728515625 980.58154296875 977.4111328125 984.622802734375 984.436889648438 985.30322265625 988.725830078125 979.956909179688 989.656066894531 991.447570800781 990.169738769531 989.629760742188 986.469055175781 980.892639160156 978.834533691406 975.966979980469 983.621337890625 982.838500976562 979.801147460938 976.760070800781 976.56884765625 973.991333007812 985.6005859375 994.229858398438 991.889709472656 989.54736328125 992.62353515625 993.264282226562 999.46728515625 1000.71697998047 999.180603027344 1005.404296875 1012.82000732422 1018.73284912109 1018.8857421875 1019.55218505859 997.359130859375 994.251708984375 987.362548828125 991.239440917969 988.572631835938 990.765197753906 986.602722167969 981.990539550781 986.318481445312 981.095947265625 983.04296875 975.307495117188 974.138854980469 962.078552246094 980.119934082031 976.086730957031 974.255798339844 978.537841796875 979.675231933594 988.012268066406 991.556884765625 994.946105957031 993.534973144531 989.171325683594 982.086791992188 986.671997070312 990.290222167969 999.747680664062 999.447814941406 999.657104492188 1004.98687744141 1003.67926025391 1006.43756103516 1002.70806884766 1000.18756103516 1002.3779296875 992.782592773438 990.523376464844 987.654968261719 991.300842285156 998.6982421875 990.095642089844 988.206481933594 999.101501464844 991.78466796875 993.068603515625 999.294189453125 1003.03051757812 1001.05676269531 1008.21893310547 1011.02642822266 1017.78570556641 1015.54211425781 1002.14056396484 997.356872558594 993.891235351562 1000.38006591797 1010.41564941406 1013.4794921875 1022.32006835938 1022.23834228516 1030.65930175781 1028.23828125 1028.64428710938 1026.29626464844 1025.60571289062 1023.03839111328 1020.06524658203 1015.07769775391 1018.21179199219 1021.14685058594 1015.07141113281 1013.65155029297 1011.04833984375 1012.97937011719 1015.81811523438 1010.39685058594 1008.87872314453 1000.71087646484 1006.40002441406 1009.79547119141 1012.64111328125 1019.65655517578 1013.84844970703 1020.37738037109 1015.14575195312 1010.37567138672 1003.26049804688 999.635070800781 985.038635253906 980.758666992188 981.111083984375 982.21630859375 987.167419433594 984.487854003906 986.793518066406 981.345520019531 986.751770019531 987.857849121094 1006.65472412109
