NCOLS 150
NROWS 37
XLLCORNER 7394249
YLLCORNER 4842929
CELLSIZE 30
NODATA_VALUE -9999
942.807922363281 949.126892089844 949.314025878906 959.969360351562 961.855651855469 970.582946777344 971.666137695312 965.043579101562 969.685791015625 976.968505859375 976.875305175781 983.134582519531 975.822021484375 978.857421875 980.464599609375 977.314086914062 977.715637207031 981.941162109375 979.925109863281 997.878051757812 992.376831054688 985.927062988281 983.839172363281 986.024719238281 983.146484375 983.569702148438 989.65185546875 988.445556640625 991.734741210938 979.525634765625 982.981811523438 997.130554199219 1004.35339355469 998.528381347656 987.734802246094 987.815307617188 989.628356933594 983.961059570312 989.080322265625 982.602844238281 988.392150878906 992.7021484375 991.968627929688 990.525390625 982.890502929688 985.939819335938 983.080261230469 981.788208007812 980.639343261719 981.381896972656 981.030090332031 977.15869140625 968.3203125 976.095092773438 984.91796875 985.156005859375 978.986938476562 983.967224121094 981.05810546875 981.978942871094 985.11669921875 995.793640136719 994.336120605469 1000.55822753906 1003.84228515625 1003.31732177734 993.047729492188 986.692565917969 990.46142578125 1002.41314697266 992.207824707031 989.887451171875 977.867858886719 979.80908203125 987.472717285156 1001.06317138672 1000.10021972656 1004.52856445312 996.228820800781 994.908935546875 1005.61810302734 991.985473632812 996.164794921875 995.010375976562 1003.66076660156 1004.16058349609 1000.73822021484 1001.826171875 1008.38067626953 1010.25561523438 1010.39178466797 1012.23193359375 1006.55560302734 1019.18011474609 1006.75769042969 1019.10516357422 1013.94897460938 1008.06188964844 1002.95617675781 996.688537597656 995.661865234375 1011.09918212891 1000.91040039062 1002.00494384766 1000.07781982422 991.251831054688 994.995239257812 992.577514648438 986.385009765625 974.760131835938 977.037170410156 978.527648925781 961.274780273438 953.036804199219 956.869873046875 954.68701171875 957.532775878906 956.902404785156 963.616638183594 983.702331542969 992.10888671875 998.628234863281 1002.66461181641 1008.03845214844 1023.55438232422 1021.32061767578 1023.83813476562 1023.24633789062 1020.18524169922 1022.05700683594 1019.45208740234 1013.68560791016 1015.73809814453 1021.23663330078 1026.45104980469 1023.13824462891 1019.03253173828 1027.60461425781 1029.13134765625 1029.29284667969 1036.09692382812 1051.25061035156 1072.61743164062 1080.47497558594 1096.33740234375 1105.80187988281 1117.50476074219 1123.60791015625 1130.21643066406 1133.9990234375
942.150939941406 947.032592773438 955.849670410156 965.093078613281 963.322265625 963.941772460938 971.934326171875 969.736694335938 970.1083984375 970.754577636719 974.333618164062 973.905395507812 968.56494140625 969.686462402344 978.893310546875 979.403625488281 976.691772460938 980.477600097656 978.842102050781 984.338684082031 989.068908691406 987.64794921875 995.045288085938 988.902221679688 989.295043945312 986.853820800781 986.433227539062 989.744750976562 987.838928222656 984.647094726562 982.398620605469 993.548828125 989.417602539062 995.714599609375 995.493774414062 990.581787109375 989.2060546875 982.385131835938 980.8798828125 977.546997070312 986.248779296875 988.524291992188 995.889099121094 984.61181640625 991.97119140625 987.472961425781 977.16943359375 985.710388183594 985.629455566406 978.794067382812 978.437377929688 974.042175292969 971.871398925781 972.275146484375 978.675964355469 984.934448242188 980.551208496094 976.367553710938 981.122192382812 984.803771972656 985.033569335938 983.663757324219 984.987670898438 995.459594726562 999.752563476562 997.753479003906 990.96044921875 994.215515136719 990.29150390625 983.909729003906 978.453674316406 982.976440429688 972.305725097656 980.913940429688 989.834777832031 998.21875 1002.67004394531 1001.45544433594 997.081787109375 997.913391113281 992.622436523438 990.9150390625 987.991027832031 996.912475585938 1001.99572753906 1001.69586181641 1004.67297363281 1006.36181640625 1003.650390625 997.476196289062 1000.42736816406 1008.76208496094 1014.43786621094 1016.20770263672 1022.64831542969 1015.29956054688 1011.84411621094 1002.10668945312 998.617309570312 990.768981933594 993.978332519531 1009.38165283203 1008.07116699219 1005.41021728516 995.063720703125 992.223693847656 992.782897949219 998.741943359375 985.434387207031 985.291381835938 988.420593261719 981.997375488281 970.443786621094 954.451538085938 950.821411132812 954.332153320312 959.133666992188 971.141174316406 966.412658691406 972.864196777344 981.492614746094 991.750610351562 998.444580078125 1004.2802734375 1012.142578125 1020.99291992188 1015.75671386719 1012.26135253906 1010.22241210938 1018.00323486328 1025.57434082031 1017.30010986328 1017.86364746094 1007.58282470703 1017.61322021484 1017.99938964844 1017.79516601562 1029.29333496094 1031.95275878906 1032.51818847656 1041.49670410156 1057.85864257812 1064.98571777344 1079.50610351562 1090.02478027344 1112.62951660156 1118.93237304688 1131.34777832031 1134.025390625 1132.83190917969
943.92041015625 944.302062988281 945.739685058594 951.705810546875 960.523132324219 968.886779785156 977.747009277344 965.94775390625 964.933349609375 976.943481445312 961.661071777344 961.32275390625 965.618286132812 965.539123535156 975.65771484375 975.754089355469 973.176391601562 976.461853027344 976.666137695312 980.950500488281 981.242065429688 983.821838378906 992.091674804688 989.308044433594 989.707092285156 982.174865722656 987.004211425781 979.692626953125 978.642578125 981.447265625 981.425170898438 985.179931640625 989.53759765625 988.401672363281 988.44140625 989.079345703125 988.520263671875 988.040893554688 983.285095214844 978.445434570312 977.091064453125 987.999389648438 992.9580078125 988.583435058594 993.168212890625 982.390869140625 979.164123535156 976.12841796875 978.341491699219 982.057800292969 982.963928222656 973.455017089844 973.856384277344 972.994689941406 979.342956542969 983.237487792969 985.804321289062 981.4716796875 971.735656738281 983.783264160156 982.9716796875 975.446655273438 980.132263183594 992.714538574219 991.945678710938 990.970092773438 979.944702148438 988.385070800781 992.374816894531 982.994384765625 972.011108398438 966.721130371094 973.644226074219 983.528015136719 983.963317871094 989.93994140625 989.578430175781 995.372375488281 995.488342285156 988.849182128906 985.076049804688 989.87255859375 993.377868652344 1000.70129394531 1003.75006103516 1000.65173339844 1003.54107666016 1004.92565917969 1002.17553710938 998.159729003906 994.426086425781 1009.07952880859 1009.7822265625 1010.095703125 1017.52349853516 1024.98937988281 1010.79791259766 1007.95581054688 994.440979003906 990.180236816406 1003.34191894531 1008.93359375 1003.54974365234 1002.08239746094 998.287475585938 996.255187988281 995.882934570312 1000.58184814453 995.67578125 988.06298828125 984.114440917969 989.091247558594 980.605041503906 977.06787109375 969.700378417969 968.466613769531 977.830383300781 975.429077148438 967.679321289062 974.100036621094 980.688354492188 980.088684082031 987.510803222656 995.211303710938 1003.09185791016 1009.23040771484 1015.81109619141 1020.37243652344 1010.23382568359 1015.62091064453 1008.28100585938 1018.07769775391 1008.84259033203 1006.90533447266 1013.55682373047 1019.0771484375 1027.40356445312 1043.35803222656 1034.78454589844 1038.0439453125 1048.46459960938 1053.68615722656 1070.17810058594 1080.17065429688 1096.98059082031 1099.04235839844 1121.76501464844 1130.73828125 1120.8681640625 1133.7353515625
945.940979003906 952.576599121094 952.916259765625 956.700866699219 958.163696289062 964.0224609375 967.383544921875 966.745544433594 964.2734375 973.723327636719 964.100708007812 969.0634765625 970.068115234375 964.812927246094 962.73388671875 965.354919433594 965.962646484375 967.003234863281 980.213500976562 982.213989257812 975.26513671875 980.882873535156 984.274780273438 975.46533203125 979.117004394531 984.896667480469 980.046447753906 981.002624511719 974.925964355469 984.427307128906 983.9658203125 980.777099609375 983.676086425781 989.484680175781 993.021911621094 988.919677734375 984.85546875 983.911926269531 979.530029296875 970.536499023438 973.640747070312 990.431030273438 984.613098144531 983.828247070312 982.74658203125 978.83837890625 978.165222167969 982.475646972656 982.65283203125 979.57080078125 981.422546386719 976.142395019531 983.570861816406 981.173278808594 977.208740234375 971.766052246094 977.073913574219 973.462585449219 975.307067871094 973.04443359375 975.766723632812 973.267761230469 978.123596191406 982.443359375 982.377380371094 981.124572753906 976.001281738281 986.773986816406 987.764465332031 980.059753417969 971.534240722656 966.51025390625 975.705505371094 975.546203613281 980.368896484375 985.58935546875 993.955078125 997.238342285156 992.58837890625 987.364074707031 984.305114746094 990.890930175781 999.336853027344 999.612854003906 993.902160644531 1003.95941162109 993.880554199219 997.100463867188 993.009216308594 995.897766113281 1006.11059570312 1007.45007324219 1012.64617919922 1009.82336425781 1009.98986816406 1015.79223632812 1017.29449462891 1000.14813232422 998.029174804688 992.023071289062 989.669250488281 996.145874023438 995.509399414062 998.362548828125 991.566162109375 992.285888671875 1000.21716308594 991.903137207031 994.449340820312 983.253967285156 986.170654296875 988.417175292969 982.920288085938 988.223449707031 987.243041992188 982.78759765625 981.626525878906 979.01123046875 976.609375 978.582641601562 989.819396972656 983.3603515625 988.601013183594 990.855346679688 1002.70306396484 1001.58056640625 999.244567871094 1000.91137695312 993.642028808594 1009.16223144531 1017.56805419922 1009.78381347656 1010.71197509766 1006.90930175781 1016.4384765625 1017.07580566406 1029.08630371094 1040.65661621094 1051.22204589844 1051.99182128906 1057.32873535156 1054.98046875 1081.41589355469 1101.01440429688 1105.1796875 1107.91674804688 1119.95141601562 1124.96398925781 1128.17077636719 1138.52233886719
950.536682128906 955.314575195312 960.633056640625 962.140930175781 971.233337402344 979.918273925781 973.705688476562 968.979797363281 966.697692871094 969.992309570312 958.365844726562 964.654357910156 964.17529296875 962.908447265625 955.371032714844 960.608703613281 963.418151855469 959.608764648438 976.300537109375 975.426574707031 979.442321777344 977.510009765625 982.375183105469 975.421569824219 978.632934570312 974.362182617188 975.792358398438 982.042053222656 977.520874023438 976.698547363281 983.522399902344 984.556762695312 986.762451171875 981.686645507812 980.425231933594 984.481384277344 975.879821777344 974.265869140625 973.592956542969 969.862487792969 974.794189453125 979.568481445312 987.756652832031 984.892761230469 979.402465820312 977.259521484375 973.135070800781 982.062561035156 976.661071777344 973.116027832031 969.606018066406 976.456726074219 981.044372558594 975.588745117188 972.248474121094 970.582946777344 972.262573242188 974.738342285156 969.058166503906 980.051147460938 982.424621582031 983.662780761719 986.592956542969 983.150390625 982.647033691406 986.539306640625 990.230773925781 984.631530761719 986.990051269531 985.476257324219 974.092651367188 960.704284667969 968.209106445312 987.577697753906 978.494262695312 982.9814453125 992.731323242188 992.16015625 986.812194824219 981.931701660156 984.187927246094 994.252563476562 999.01953125 985.645812988281 991.110778808594 999.753173828125 1002.19311523438 1004.27435302734 992.429138183594 1001.13879394531 1004.65655517578 1003.07672119141 1013.57153320312 1007.69134521484 1007.82531738281 1010.92791748047 1012.61187744141 999.609252929688 991.415466308594 989.036987304688 984.035461425781 984.963317871094 985.811950683594 999.149780273438 989.459777832031 987.510864257812 993.592346191406 995.486755371094 984.384033203125 988.535461425781 983.491577148438 987.255554199219 992.28564453125 999.814147949219 997.646118164062 992.870239257812 984.439086914062 985.052307128906 981.8037109375 982.896545410156 989.725769042969 982.113220214844 992.7978515625 999.791076660156 1001.21655273438 1008.05694580078 1006.15411376953 997.000183105469 995.031433105469 998.316345214844 1005.67047119141 1007.00305175781 1006.12066650391 1015.98992919922 1023.90734863281 1024.19812011719 1037.39501953125 1042.82348632812 1055.58728027344 1061.97546386719 1069.7001953125 1077.751953125 1098.005859375 1107.548828125 1119.078125 1122.05590820312 1130.06359863281 1130.21801757812 1143.22680664062 1151.23132324219
951.769714355469 956.429260253906 966.892883300781 971.314758300781 971.06689453125 975.289123535156 972.216552734375 975.137634277344 973.440612792969 966.892028808594 969.160400390625 969.5859375 962.330322265625 967.743957519531 964.466064453125 961.783325195312 962.459594726562 960.578063964844 971.185974121094 973.744750976562 982.994567871094 985.481506347656 976.713256835938 977.226745605469 976.725463867188 967.137634277344 966.693603515625 964.023498535156 975.993408203125 974.892883300781 984.029968261719 976.253845214844 976.237182617188 978.816589355469 981.036926269531 971.041625976562 972.3330078125 978.106628417969 982.490539550781 974.839111328125 976.836242675781 983.892517089844 977.039794921875 981.63671875 980.898620605469 987.161071777344 985.44482421875 975.83544921875 974.976623535156 967.127746582031 963.861450195312 973.672973632812 975.784973144531 965.076293945312 978.939697265625 975.176330566406 970.974792480469 969.318786621094 971.236511230469 973.723266601562 982.49560546875 981.221557617188 986.006225585938 985.844360351562 982.284851074219 979.630065917969 980.724304199219 982.231201171875 982.740478515625 983.1337890625 967.655151367188 960.732727050781 967.58740234375 972.628601074219 974.926940917969 974.799255371094 981.580627441406 984.883422851562 991.360168457031 988.848876953125 992.716064453125 993.304138183594 1001.466796875 999.219787597656 998.801086425781 993.33251953125 1004.7705078125 1010.75775146484 1002.27001953125 1010.92309570312 1012.05572509766 1003.72155761719 1003.95349121094 1005.70037841797 999.9990234375 1005.32653808594 1004.55865478516 997.131286621094 992.778076171875 989.728637695312 985.45751953125 983.00927734375 987.4833984375 995.42333984375 988.860656738281 988.939697265625 993.97265625 1001.70819091797 993.619750976562 992.385375976562 989.723693847656 993.314453125 993.84521484375 1001.78967285156 998.919189453125 990.883850097656 997.8828125 990.163024902344 989.634094238281 991.197082519531 987.16748046875 992.284851074219 999.510070800781 1002.86047363281 1004.62060546875 1000.26770019531 1003.78051757812 996.228271484375 998.329772949219 1003.80267333984 1008.40155029297 1013.57025146484 1020.46276855469 1021.19482421875 1024.22998046875 1028.77526855469 1032.45629882812 1052.56652832031 1065.41760253906 1072.25427246094 1082.31799316406 1088.07690429688 1098.18395996094 1116.32019042969 1121.587890625 1140.8515625 1145.42126464844 1146.22631835938 1156.64111328125 1169.95703125
947.916931152344 956.750366210938 965.932983398438 972.226928710938 969.589294433594 974.549682617188 962.582702636719 970.944580078125 963.323303222656 966.058166503906 974.46875 974.352661132812 962.699035644531 965.630310058594 965.05322265625 969.088745117188 975.233459472656 961.696533203125 978.709655761719 974.212951660156 973.007019042969 978.684143066406 975.558837890625 978.056823730469 975.479125976562 972.851379394531 973.400268554688 971.861694335938 971.017333984375 977.592529296875 984.707153320312 982.984069824219 973.81591796875 982.56103515625 983.31494140625 972.686767578125 975.131652832031 981.11328125 969.365295410156 975.998657226562 973.980651855469 971.858703613281 969.3125 969.534729003906 977.19970703125 984.08837890625 982.094482421875 972.762817382812 970.303283691406 967.17724609375 968.581359863281 974.59130859375 965.873474121094 964.913513183594 974.670227050781 968.203552246094 965.114501953125 971.893493652344 969.913146972656 978.068115234375 971.536071777344 979.741088867188 986.631896972656 989.12109375 985.609008789062 976.240417480469 982.320373535156 980.758239746094 982.42919921875 979.775512695312 976.739440917969 973.7822265625 973.020935058594 968.106262207031 966.256591796875 968.388366699219 979.579223632812 990.588195800781 990.655090332031 993.194091796875 1004.67346191406 992.109558105469 999.165954589844 1002.78375244141 1003.89044189453 1000.76812744141 1004.12475585938 1009.90667724609 1007.36151123047 1008.46447753906 1016.26403808594 1004.51477050781 1007.30883789062 1006.73425292969 998.6376953125 991.655395507812 995.916748046875 1002.47149658203 985.532043457031 978.038757324219 985.2724609375 984.994567871094 990.657653808594 979.928894042969 977.737548828125 980.977722167969 990.472351074219 989.295227050781 995.039001464844 997.681274414062 988.803405761719 991.240112304688 994.921569824219 997.017822265625 1000.85827636719 1001.64392089844 998.658935546875 997.59716796875 1003.51068115234 998.643981933594 1000.83172607422 1002.86370849609 1011.26116943359 1010.15393066406 1001.29553222656 1004.59460449219 1000.85241699219 1004.22229003906 1010.87158203125 1009.7841796875 1006.14898681641 1007.71643066406 1020.29327392578 1026.716796875 1026.85388183594 1027.78918457031 1040.10095214844 1053.40625 1078.103515625 1081.98876953125 1086.24230957031 1097.67517089844 1109.09716796875 1117.39965820312 1128.31311035156 1142.73388671875 1147.27624511719 1154.36560058594 1164.88171386719 1171.22741699219
953.850158691406 951.784484863281 956.95849609375 967.303771972656 971.948120117188 971.684875488281 963.235229492188 973.422729492188 961.671813964844 971.205261230469 969.494750976562 970.92626953125 973.541809082031 971.501586914062 970.128112792969 973.221984863281 970.050048828125 981.910766601562 985.785278320312 986.783935546875 981.617797851562 972.811889648438 975.175537109375 972.908264160156 980.084594726562 973.372802734375 974.683166503906 967.341979980469 975.733032226562 975.546508789062 979.053894042969 975.988098144531 980.938110351562 980.925170898438 982.528747558594 971.236206054688 979.469970703125 979.201782226562 976.288269042969 979.482421875 977.621032714844 971.317443847656 980.088012695312 973.1396484375 973.503967285156 977.955688476562 974.353637695312 967.963562011719 971.264526367188 972.174865722656 975.854797363281 970.045715332031 961.811889648438 967.295227050781 967.165283203125 976.530700683594 968.325988769531 971.531494140625 972.736511230469 979.473022460938 969.330810546875 969.154113769531 978.586975097656 988.35205078125 987.6494140625 982.957153320312 982.915771484375 984.155517578125 978.671630859375 974.286010742188 974.205139160156 974.844421386719 966.3271484375 970.643432617188 973.210693359375 976.06201171875 978.003051757812 990.954467773438 992.084533691406 990.849609375 995.201477050781 991.19677734375 986.035400390625 993.06103515625 993.343566894531 998.290771484375 998.255493164062 996.306762695312 997.994323730469 1001.82373046875 1005.22235107422 1007.72045898438 1000.11907958984 998.442199707031 1007.02764892578 1005.49658203125 996.381896972656 995.756164550781 986.7568359375 972.533874511719 969.242980957031 969.866027832031 979.70361328125 972.7626953125 978.017395019531 981.713745117188 985.526123046875 991.047424316406 994.779846191406 998.037353515625 995.647399902344 990.41943359375 997.095458984375 997.771057128906 1006.90954589844 1008.19757080078 995.999877929688 1000.43432617188 1001.85229492188 1008.97662353516 1006.13848876953 1005.48748779297 992.60791015625 1000.54162597656 996.384155273438 1003.45031738281 1004.18981933594 1017.74694824219 1015.92584228516 1013.17694091797 1010.60931396484 1019.40942382812 1029.06701660156 1033.99401855469 1039.0126953125 1039.20812988281 1047.43017578125 1063.20788574219 1081.33703613281 1087.30041503906 1094.62658691406 1108.71374511719 1109.26379394531 1118.47302246094 1134.32763671875 1136.79626464844 1153.21215820312 1150.44775390625 1160.63269042969 1167.13330078125
954.182434082031 946.150207519531 948.582275390625 953.8203125 957.559020996094 957.236083984375 955.259094238281 959.599548339844 950.259033203125 965.811340332031 973.742004394531 966.953674316406 970.389404296875 967.691162109375 969.686584472656 968.564697265625 976.175537109375 978.347717285156 987.123596191406 979.662475585938 975.648376464844 971.146606445312 966.129821777344 970.140258789062 973.421752929688 979.249328613281 975.015991210938 968.303833007812 962.627868652344 970.143920898438 969.453979492188 972.373779296875 983.974304199219 984.749694824219 974.631713867188 967.138366699219 967.656860351562 984.12158203125 980.092529296875 975.623229980469 970.549133300781 972.304443359375 976.943420410156 969.621887207031 977.175476074219 968.740844726562 974.792419433594 972.421325683594 972.560241699219 974.620483398438 977.938781738281 977.066955566406 977.304504394531 974.847961425781 974.991333007812 969.167724609375 970.708374023438 974.117980957031 981.453369140625 984.119750976562 975.515563964844 966.291320800781 979.211669921875 981.702087402344 984.62451171875 986.806335449219 991.087524414062 987.36279296875 972.536254882812 965.920593261719 968.577392578125 971.734802246094 966.297668457031 966.343872070312 960.579284667969 970.990600585938 971.871032714844 971.649475097656 980.986999511719 980.646484375 982.035339355469 979.641235351562 985.596496582031 981.382873535156 987.674194335938 988.991638183594 989.613952636719 989.446044921875 994.9482421875 991.158813476562 982.579711914062 991.972351074219 997.11767578125 999.365356445312 998.996765136719 998.644714355469 990.575744628906 992.164672851562 982.426147460938 966.164306640625 968.580261230469 960.019653320312 981.541259765625 978.767700195312 980.094543457031 987.120056152344 986.83837890625 989.15185546875 993.008483886719 998.425598144531 997.052978515625 995.75537109375 1003.43243408203 1003.77966308594 1005.67834472656 1005.63415527344 995.960632324219 992.327514648438 1003.65197753906 1001.70227050781 1006.67437744141 1006.43414306641 1000.939453125 989.918823242188 991.918579101562 1004.59149169922 1012.34436035156 1017.48449707031 1014.705078125 1016.83898925781 1018.19403076172 1028.95080566406 1041.07080078125 1038.681640625 1041.81701660156 1048.41381835938 1059.78833007812 1072.64440917969 1080.94396972656 1097.00842285156 1104.94274902344 1103.70935058594 1110.69177246094 1114.40991210938 1124.31616210938 1129.11608886719 1135.41882324219 1150.21740722656 1157.47729492188 1169.17492675781
944.758728027344 944.988586425781 945.530517578125 952.963684082031 956.169616699219 955.249877929688 949.491333007812 950.892028808594 952.419982910156 965.956909179688 962.387756347656 966.590148925781 977.044738769531 965.766296386719 965.881774902344 969.031188964844 976.921264648438 982.456481933594 985.580749511719 985.131408691406 971.202026367188 973.861206054688 968.797607421875 966.355224609375 966.78466796875 981.58251953125 970.461853027344 959.91064453125 958.662231445312 963.274963378906 970.224487304688 977.889221191406 981.974365234375 975.967590332031 975.11767578125 972.418823242188 975.726318359375 977.302795410156 977.580688476562 968.994873046875 973.543518066406 968.836547851562 972.558349609375 966.039489746094 969.892700195312 966.625915527344 971.675964355469 979.632202148438 973.570861816406 972.675231933594 976.437622070312 976.73876953125 972.442993164062 977.609313964844 968.089965820312 972.780700683594 978.657470703125 976.261352539062 975.025085449219 975.149719238281 973.331176757812 982.434020996094 978.275512695312 980.5556640625 988.819274902344 981.187927246094 984.854125976562 978.611389160156 971.977966308594 957.930236816406 966.268615722656 964.176330566406 963.915161132812 967.621032714844 960.569274902344 962.210815429688 973.496154785156 980.044006347656 975.89111328125 982.264709472656 988.9013671875 978.1123046875 980.660400390625 969.7490234375 976.926391601562 971.935485839844 985.406555175781 984.299133300781 984.873291015625 987.266235351562 981.509155273438 989.990539550781 989.423217773438 995.131896972656 992.153869628906 993.259887695312 981.760314941406 985.461547851562 980.784118652344 974.263305664062 969.370483398438 970.915283203125 973.794799804688 976.599609375 982.8447265625 992.028381347656 983.893676757812 988.842956542969 985.383666992188 993.761169433594 988.192687988281 988.762329101562 998.553405761719 999.499816894531 999.239929199219 1002.88000488281 1002.80889892578 999.623718261719 998.252990722656 1006.09143066406 1006.51556396484 1002.58770751953 1000.1083984375 1002.56451416016 995.468872070312 1002.47918701172 1006.20971679688 1016.38317871094 1020.54370117188 1025.00427246094 1024.33312988281 1032.37890625 1037.89294433594 1042.29748535156 1043.17016601562 1049.83117675781 1054.75830078125 1067.42333984375 1088.75048828125 1106.99682617188 1101.47595214844 1103.7255859375 1113.34777832031 1123.46789550781 1124.57250976562 1134.4462890625 1130.37670898438 1147.181640625 1157.32666015625 1161.27770996094
946.799621582031 939.19482421875 938.981567382812 943.878295898438 951.484985351562 955.021301269531 952.619201660156 953.579040527344 953.05078125 962.346069335938 968.034790039062 964.517822265625 964.650390625 964.280517578125 965.443176269531 975.30029296875 971.352600097656 980.926208496094 980.8330078125 983.87744140625 978.501037597656 969.82177734375 968.278076171875 965.629699707031 961.021606445312 977.667907714844 968.0029296875 961.956237792969 965.080871582031 965.606384277344 972.814880371094 975.411071777344 973.4541015625 978.510314941406 976.7890625 975.498962402344 977.685302734375 978.661010742188 975.800415039062 974.134521484375 967.075073242188 970.912841796875 969.63037109375 972.878601074219 972.066467285156 969.620727539062 975.748107910156 967.362609863281 969.617248535156 975.136352539062 971.199768066406 982.801574707031 971.647521972656 971.816345214844 976.118041992188 974.052307128906 969.108520507812 978.491271972656 971.855651855469 976.758117675781 969.634460449219 972.468078613281 975.483703613281 972.11083984375 972.7373046875 980.044494628906 977.052917480469 977.690124511719 965.544006347656 969.345458984375 962.843566894531 959.885498046875 968.148376464844 966.11083984375 969.102416992188 969.686889648438 971.532165527344 976.832763671875 982.722900390625 979.124938964844 982.200622558594 970.763122558594 973.409362792969 970.328796386719 969.928527832031 974.50439453125 989.62890625 984.576110839844 985.111145019531 982.856567382812 981.1953125 987.8037109375 983.737182617188 995.975463867188 989.368774414062 991.509094238281 977.588806152344 982.757446289062 981.364074707031 971.372802734375 971.963745117188 976.869812011719 985.895324707031 985.123474121094 979.209533691406 983.848388671875 977.687438964844 971.828857421875 982.944885253906 981.715759277344 988.400634765625 987.492614746094 993.304321289062 987.953674316406 993.435119628906 997.5615234375 994.083801269531 983.273681640625 990.52294921875 1003.24084472656 994.38330078125 996.813720703125 988.779663085938 992.951293945312 995.480285644531 1001.85137939453 1007.80285644531 1009.78948974609 1019.11242675781 1031.626953125 1030.50085449219 1029.85046386719 1039.31811523438 1040.369140625 1048.47314453125 1053.12341308594 1058.96179199219 1064.54553222656 1086.09008789062 1099.22058105469 1108.14477539062 1109.47473144531 1125.69445800781 1133.04895019531 1125.98425292969 1136.59045410156 1152.30859375 1149.47985839844 1155.17834472656 1162.24426269531
940.540100097656 943.069763183594 942.489685058594 953.964904785156 950.346130371094 952.040466308594 955.295043945312 964.2529296875 954.424499511719 960.119323730469 968.03125 964.35009765625 964.57470703125 958.61181640625 964.059692382812 973.77001953125 973.373107910156 974.681518554688 972.835083007812 984.377319335938 982.299011230469 969.952453613281 974.10009765625 968.010620117188 968.512878417969 969.210388183594 965.075317382812 966.6123046875 963.633666992188 965.233276367188 972.029907226562 973.519958496094 971.07861328125 977.493286132812 972.167846679688 979.993469238281 977.73681640625 972.996948242188 973.131713867188 970.524169921875 974.459350585938 974.547729492188 961.605285644531 970.277282714844 973.070861816406 970.284851074219 966.912353515625 975.961608886719 969.081237792969 976.177734375 974.637756347656 975.143310546875 966.407592773438 972.006225585938 969.365539550781 967.363220214844 975.523620605469 966.175170898438 974.393737792969 969.803833007812 974.258850097656 972.772521972656 976.104858398438 969.269775390625 971.0908203125 966.493591308594 973.672302246094 977.127197265625 972.689453125 962.91552734375 961.329467773438 963.43994140625 974.719116210938 962.224670410156 968.764892578125 965.782165527344 971.680786132812 976.355346679688 975.680541992188 973.918762207031 977.475769042969 963.889465332031 969.063781738281 959.734008789062 966.53466796875 970.214599609375 979.837890625 985.754028320312 977.954528808594 977.808410644531 973.211364746094 988.715759277344 981.449645996094 982.79150390625 981.45849609375 983.74462890625 981.134643554688 979.979614257812 985.586181640625 980.088195800781 976.801391601562 974.782531738281 975.861511230469 983.086791992188 979.415222167969 981.751220703125 984.61669921875 975.297546386719 985.398010253906 982.577758789062 988.468200683594 984.20068359375 984.148315429688 988.262084960938 992.141906738281 989.592163085938 988.684875488281 989.526916503906 988.774353027344 993.502258300781 990.568969726562 988.769287109375 997.080383300781 1002.25408935547 1003.69769287109 1006.49859619141 1019.16052246094 1024.01098632812 1021.74298095703 1026.87158203125 1033.8984375 1040.91748046875 1052.84020996094 1050.97814941406 1049.65051269531 1052.02355957031 1062.26794433594 1066.68798828125 1081.25207519531 1085.33374023438 1109.17309570312 1117.62719726562 1125.73547363281 1128.15747070312 1134.21423339844 1138.66442871094 1148.43359375 1155.29040527344 1166.17944335938 1174.34973144531
945.928771972656 946.551330566406 940.868408203125 949.612060546875 949.024841308594 956.951721191406 963.433898925781 966.926147460938 963.279174804688 966.450134277344 968.122009277344 970.497680664062 965.10595703125 968.896545410156 969.057373046875 977.970153808594 977.6171875 970.962219238281 972.033325195312 985.729858398438 987.642700195312 982.240600585938 969.633239746094 964.80712890625 963.180419921875 962.111877441406 963.220520019531 971.129577636719 968.839721679688 975.978637695312 977.749206542969 974.351684570312 976.526123046875 971.555786132812 974.616882324219 973.989929199219 976.035949707031 979.223083496094 979.826782226562 972.386108398438 979.30517578125 971.962951660156 967.797241210938 966.946472167969 974.014038085938 961.641784667969 972.098815917969 965.803527832031 971.224304199219 971.430603027344 977.400573730469 967.137512207031 956.637512207031 972.815246582031 973.931945800781 969.139892578125 972.078491210938 974.208740234375 973.265380859375 982.209777832031 980.223876953125 979.713439941406 982.790405273438 970.785522460938 977.568359375 975.107177734375 975.996337890625 970.17919921875 956.317687988281 952.153564453125 958.314270019531 967.433837890625 972.801330566406 964.656982421875 970.426391601562 969.040100097656 968.51220703125 973.837829589844 968.036743164062 970.884460449219 974.037109375 972.16259765625 975.305541992188 969.719970703125 966.211791992188 976.120788574219 977.470703125 982.070861816406 978.603332519531 970.414367675781 965.367309570312 981.187194824219 984.857421875 980.117065429688 972.174133300781 982.45556640625 976.671813964844 979.574768066406 973.424255371094 976.702819824219 972.491149902344 978.261047363281 975.973022460938 984.438415527344 981.772888183594 979.338012695312 971.944213867188 978.851379394531 982.305236816406 985.235107421875 990.903442382812 996.220153808594 992.942932128906 999.196533203125 997.086181640625 994.548950195312 988.324035644531 985.105529785156 987.234008789062 997.065673828125 991.1533203125 985.004455566406 1002.05242919922 1013.61218261719 1008.21405029297 1012.57006835938 1023.3623046875 1028.22351074219 1030.02587890625 1037.17919921875 1045.31689453125 1051.35803222656 1057.55261230469 1049.81408691406 1057.71484375 1054.1103515625 1059.92297363281 1065.35131835938 1074.12170410156 1086.93823242188 1110.60131835938 1117.39733886719 1124.48132324219 1125.93981933594 1122.94982910156 1140.49951171875 1152.60119628906 1162.32458496094 1170.81567382812 1175.29016113281
944.358215332031 946.171752929688 949.102844238281 950.736938476562 964.429992675781 966.733215332031 967.129760742188 963.949401855469 965.138671875 971.679138183594 968.973876953125 968.344116210938 964.703918457031 962.836975097656 962.6982421875 974.168151855469 976.790344238281 975.518737792969 982.01806640625 974.238098144531 983.681579589844 980.370971679688 969.446899414062 955.703674316406 961.872009277344 964.305541992188 970.822937011719 970.629699707031 967.284362792969 973.164672851562 983.358032226562 978.696105957031 977.677429199219 977.698303222656 967.838195800781 958.215637207031 971.543884277344 978.053283691406 976.533020019531 976.980834960938 976.484191894531 970.364196777344 963.014465332031 966.651916503906 966.241821289062 968.030517578125 965.657653808594 975.024841308594 978.517517089844 973.491149902344 968.256164550781 961.421936035156 959.183166503906 970.809631347656 970.400329589844 970.634948730469 978.062927246094 981.882507324219 975.023620605469 978.863525390625 980.260620117188 989.643798828125 981.6455078125 980.984985351562 976.294738769531 979.823486328125 978.276733398438 967.477600097656 960.775451660156 964.212158203125 959.260131835938 955.319458007812 964.68359375 965.247497558594 971.4921875 969.629638671875 971.008361816406 974.531127929688 975.181213378906 974.487915039062 981.895935058594 981.323059082031 974.798645019531 975.864074707031 973.78173828125 975.713806152344 973.534973144531 976.121032714844 979.863037109375 968.786499023438 963.130737304688 972.258361816406 980.872192382812 974.41552734375 970.482543945312 981.29443359375 980.265197753906 976.978820800781 966.721984863281 965.307495117188 967.801940917969 975.810363769531 982.456237792969 991.384948730469 991.690246582031 988.264709472656 976.968933105469 980.661560058594 984.390930175781 992.865234375 994.096374511719 988.224914550781 996.405578613281 1000.63226318359 998.96533203125 996.740234375 1000.60040283203 1000.6396484375 999.25048828125 1000.37066650391 1001.48724365234 1003.40295410156 995.557495117188 1010.10180664062 1013.30108642578 1019.13061523438 1023.14141845703 1026.64440917969 1034.86413574219 1034.79797363281 1045.9462890625 1043.9892578125 1054.36535644531 1054.17443847656 1063.21533203125 1068.92602539062 1065.06628417969 1073.31872558594 1080.37658691406 1087.396484375 1100.94921875 1112.01086425781 1119.5224609375 1125.94189453125 1125.51977539062 1148.87426757812 1156.55822753906 1172.71215820312 1166.48449707031 1162.88842773438
944.834411621094 942.312072753906 948.831359863281 958.603820800781 966.067626953125 975.496215820312 976.932922363281 972.807434082031 970.05517578125 968.962158203125 960.625915527344 951.279907226562 950.399719238281 951.684631347656 956.828979492188 973.883972167969 985.710266113281 978.554016113281 972.982727050781 969.733825683594 964.728149414062 974.668151855469 971.950317382812 966.242309570312 965.342041015625 965.519348144531 974.036499023438 971.799011230469 974.335815429688 977.274719238281 978.909362792969 973.529724121094 972.252380371094 971.094848632812 977.097473144531 964.639709472656 963.327209472656 965.723571777344 969.196899414062 972.754333496094 976.439147949219 967.973937988281 962.75634765625 970.331665039062 963.683532714844 962.6474609375 960.374877929688 974.852844238281 970.546752929688 969.014831542969 971.432312011719 970.545532226562 969.84814453125 976.244750976562 970.261474609375 968.292663574219 970.3642578125 971.964477539062 974.029968261719 979.665649414062 976.427368164062 978.097106933594 973.016906738281 975.183288574219 971.812377929688 976.415222167969 975.471130371094 972.4736328125 976.252807617188 968.684692382812 961.392150878906 965.794128417969 971.072021484375 971.474365234375 979.330017089844 969.9755859375 978.401794433594 982.923950195312 978.689086914062 972.560791015625 968.535095214844 976.985778808594 978.7548828125 972.153747558594 977.78759765625 968.060180664062 968.007751464844 971.463928222656 974.527404785156 971.212463378906 971.644958496094 970.644653320312 972.610229492188 971.170227050781 975.1142578125 981.357666015625 969.238891601562 981.717041015625 977.858764648438 971.163146972656 976.341430664062 987.392150878906 984.535705566406 994.565856933594 990.294189453125 993.8837890625 983.093872070312 982.431091308594 991.086608886719 995.689575195312 998.910888671875 1001.22497558594 1007.83038330078 1007.49005126953 1003.09497070312 998.520385742188 1006.87658691406 1008.24560546875 1015.18865966797 1008.13305664062 1004.61169433594 1003.63159179688 1007.12689208984 1022.86022949219 1021.32470703125 1026.37939453125 1021.43212890625 1025.73303222656 1035.328125 1041.43359375 1046.82116699219 1048.46850585938 1058.27722167969 1062.46130371094 1067.07397460938 1071.00866699219 1067.95690917969 1081.19653320312 1083.41687011719 1089.29406738281 1101.27966308594 1112.82824707031 1123.14172363281 1128.61511230469 1131.24475097656 1142.83264160156 1147.7978515625 1151.71496582031 1157.92846679688 1155.68957519531
937.307739257812 944.138427734375 956.969482421875 968.028930664062 965.646362304688 962.492370605469 970.479797363281 967.806030273438 969.36279296875 967.137084960938 962.396606445312 956.632019042969 944.120910644531 953.677734375 964.204895019531 972.78173828125 976.380310058594 967.945678710938 971.320129394531 965.395202636719 966.440124511719 972.466491699219 971.064086914062 971.124633789062 968.418334960938 962.897094726562 969.525512695312 970.557800292969 966.674499511719 974.911499023438 979.19775390625 979.713684082031 980.3251953125 973.206481933594 972.326538085938 968.736267089844 961.71533203125 961.373291015625 967.387451171875 979.348510742188 977.335327148438 965.158996582031 965.248962402344 962.060546875 967.142211914062 966.161804199219 966.332336425781 970.59716796875 973.568115234375 971.952758789062 975.495178222656 971.656372070312 972.942138671875 973.480651855469 969.002624511719 970.648315429688 965.670959472656 961.413452148438 969.933471679688 966.004272460938 960.83447265625 967.040710449219 970.969421386719 975.101379394531 974.963806152344 964.467956542969 978.211120605469 971.083740234375 971.528686523438 969.157287597656 961.36376953125 963.789184570312 972.732788085938 976.644470214844 985.438781738281 967.611267089844 973.932250976562 977.1875 983.287536621094 969.789794921875 974.737060546875 976.744995117188 960.063659667969 970.984313964844 976.032409667969 969.921752929688 973.326110839844 972.314208984375 969.174194335938 978.650024414062 978.301696777344 978.459594726562 978.237670898438 966.536499023438 971.209716796875 974.601867675781 972.985717773438 981.719299316406 983.22998046875 981.499206542969 976.242858886719 978.053833007812 985.274658203125 991.354797363281 995.543823242188 990.6943359375 983.441467285156 994.408203125 997.12548828125 991.70458984375 1006.40399169922 1004.92077636719 995.873901367188 1001.70233154297 998.63525390625 999.587646484375 1007.52325439453 1009.21667480469 1011.98187255859 1019.31707763672 1017.87121582031 1015.86981201172 1023.35406494141 1026.07238769531 1029.22546386719 1019.48480224609 1028.25048828125 1030.76232910156 1031.81591796875 1033.19079589844 1047.72399902344 1056.74890136719 1056.92358398438 1061.21899414062 1059.11267089844 1071.36450195312 1071.93957519531 1083.41650390625 1086.08337402344 1099.22644042969 1109.98474121094 1115.89855957031 1124.82397460938 1126.40576171875 1132.93786621094 1130.75463867188 1127.75024414062 1144.65991210938 1141.96801757812 1144.91528320312
941.625061035156 949.564331054688 947.716674804688 951.748596191406 956.588989257812 962.577758789062 968.46923828125 964.929443359375 966.221435546875 973.342651367188 963.857543945312 961.612243652344 952.859558105469 959.426574707031 970.143798828125 976.621032714844 974.221435546875 975.952575683594 968.85400390625 965.290893554688 968.211059570312 960.664428710938 963.644592285156 964.634521484375 961.124633789062 964.913269042969 958.13134765625 967.657897949219 964.331176757812 973.030517578125 988.260009765625 986.192077636719 993.155700683594 981.65673828125 980.096130371094 976.0458984375 977.421813964844 965.798767089844 962.921142578125 972.911987304688 968.307373046875 961.307067871094 953.173095703125 957.941772460938 962.753723144531 970.9765625 970.929260253906 966.795288085938 965.755065917969 968.306823730469 975.13623046875 961.938110351562 970.9833984375 972.901550292969 957.507873535156 971.42578125 966.683349609375 963.576965332031 957.403442382812 962.458374023438 955.33447265625 961.653076171875 963.606994628906 976.240844726562 972.32568359375 968.944519042969 979.798217773438 971.183288574219 970.13818359375 968.760864257812 969.678283691406 972.969299316406 969.414306640625 970.764587402344 970.902282714844 960.268981933594 967.445495605469 962.825256347656 963.775939941406 972.880065917969 976.657958984375 975.89697265625 969.329162597656 970.333374023438 969.107299804688 965.069091796875 970.376892089844 970.793701171875 970.916015625 983.042846679688 990.386291503906 989.246948242188 981.292114257812 974.846313476562 970.049255371094 975.431518554688 972.499694824219 981.816711425781 981.202209472656 973.419250488281 977.300537109375 976.190185546875 985.203186035156 988.128601074219 991.565368652344 992.931823730469 984.116638183594 987.55615234375 991.832824707031 993.494750976562 1002.34747314453 993.196105957031 995.823608398438 988.274841308594 991.73779296875 1002.21722412109 1003.6025390625 1014.29833984375 1013.81964111328 1013.41986083984 1020.98388671875 1019.82580566406 1029.72155761719 1034.81140136719 1029.16577148438 1038.73303222656 1029.2900390625 1027.88439941406 1029.68017578125 1036.11108398438 1051.15673828125 1052.36303710938 1069.66174316406 1065.56567382812 1062.85583496094 1066.05480957031 1072.33166503906 1083.7646484375 1095.68359375 1097.56970214844 1116.86950683594 1115.01000976562 1121.21154785156 1123.36206054688 1128.35522460938 1127.88500976562 1127.06384277344 1132.77575683594 1128.53063964844 1121.78979492188
956.913818359375 949.132019042969 942.710571289062 949.745727539062 954.495666503906 958.401062011719 959.660888671875 973.866394042969 968.711364746094 976.519104003906 967.16162109375 954.836547851562 956.82275390625 961.949462890625 972.926086425781 971.399475097656 978.994567871094 977.38916015625 966.478759765625 964.910400390625 958.775329589844 964.309997558594 968.943786621094 970.376220703125 960.088134765625 961.217834472656 962.272399902344 970.6181640625 966.522399902344 975.322814941406 979.688354492188 992.394409179688 986.104553222656 979.211730957031 977.319396972656 973.104248046875 973.579711914062 969.791931152344 967.585510253906 964.243469238281 959.216552734375 952.758117675781 953.869506835938 956.669311523438 961.181579589844 972.959533691406 966.847290039062 957.696899414062 959.521179199219 966.078247070312 970.6865234375 975.175476074219 972.191223144531 966.370727539062 965.165588378906 962.182006835938 968.723205566406 970.380737304688 966.371215820312 964.759643554688 963.085815429688 954.830810546875 958.307067871094 961.744140625 962.980224609375 968.148681640625 975.337829589844 970.5625 967.743774414062 967.527648925781 971.624755859375 963.967834472656 967.766723632812 960.220703125 962.619323730469 963.247253417969 965.566284179688 968.039611816406 959.284912109375 967.20361328125 963.330078125 970.382995605469 961.342651367188 963.446166992188 973.116760253906 975.665832519531 971.246032714844 962.758666992188 968.601745605469 971.395568847656 981.804138183594 988.126403808594 975.610961914062 974.48681640625 971.577087402344 971.715576171875 972.33544921875 982.982055664062 978.986938476562 968.765563964844 971.356262207031 971.180603027344 980.700439453125 988.734008789062 989.85888671875 985.601196289062 982.407775878906 984.669616699219 981.469970703125 991.972778320312 992.23095703125 990.255981445312 992.095275878906 988.84765625 986.661926269531 996.838806152344 1004.26336669922 1010.86273193359 1021.57043457031 1017.81018066406 1020.76928710938 1025.89807128906 1033.94104003906 1037.32141113281 1030.08679199219 1038.0107421875 1032.3720703125 1036.60595703125 1038.7802734375 1040.41943359375 1049.04711914062 1057.90063476562 1069.81774902344 1070.951171875 1078.90173339844 1080.92504882812 1074.50903320312 1089.19921875 1095.04418945312 1106.82409667969 1106.73779296875 1113.23962402344 1111.09912109375 1112.9609375 1116.51672363281 1118.24938964844 1122.50366210938 1119.65563964844 1117.19201660156 1117.86535644531
952.690795898438 948.822143554688 944.55712890625 947.509582519531 958.46728515625 957.484924316406 970.489868164062 967.617980957031 975.227966308594 972.317199707031 966.870361328125 957.194213867188 964.199523925781 966.523071289062 976.602416992188 970.199645996094 973.431335449219 973.508056640625 965.823181152344 956.827026367188 958.455810546875 961.845031738281 962.393615722656 959.942993164062 969.716857910156 961.258850097656 957.324462890625 965.346313476562 959.847778320312 965.946899414062 973.742126464844 977.137023925781 979.17138671875 975.557373046875 974.077880859375 972.121826171875 971.983215332031 970.0908203125 969.599975585938 957.392272949219 957.872985839844 951.259155273438 948.89453125 953.320007324219 955.883422851562 966.643127441406 961.205444335938 961.714233398438 954.646728515625 958.448913574219 964.609802246094 965.316284179688 967.711975097656 959.344055175781 959.216064453125 958.558532714844 964.522888183594 960.357727050781 962.083618164062 962.027099609375 962.5830078125 954.954650878906 957.820129394531 955.638854980469 966.30419921875 962.029968261719 974.760375976562 968.721618652344 974.338439941406 968.2314453125 968.078002929688 954.697814941406 962.229858398438 964.888671875 970.121643066406 969.066589355469 961.484008789062 969.751220703125 963.160827636719 961.292175292969 958.237854003906 962.664978027344 960.356018066406 967.826904296875 974.50146484375 972.076965332031 977.09228515625 964.919555664062 971.887939453125 970.11669921875 968.986572265625 962.931457519531 970.137634277344 975.410522460938 971.043395996094 971.54541015625 977.813781738281 966.784790039062 968.953369140625 968.892517089844 966.364990234375 978.101013183594 981.395446777344 989.554077148438 980.400329589844 978.902893066406 976.948303222656 987.081481933594 988.920776367188 994.852355957031 991.372375488281 995.155578613281 994.423217773438 1000.76873779297 996.137573242188 1000.45556640625 999.759155273438 1009.08581542969 1010.34020996094 1014.77264404297 1026.064453125 1033.22094726562 1038.20703125 1030.90905761719 1037.64880371094 1037.37463378906 1030.8271484375 1045.06286621094 1037.55834960938 1043.96142578125 1050.51574707031 1058.10571289062 1065.66711425781 1071.64953613281 1078.05310058594 1086.47241210938 1092.9072265625 1087.87414550781 1097.10278320312 1098.94104003906 1104.38952636719 1098.74145507812 1098.13012695312 1101.25708007812 1101.48999023438 1106.7607421875 1112.20471191406 1109.55932617188 1109.13134765625 1119.65100097656
953.044067382812 954.582885742188 944.175231933594 951.927124023438 959.359802246094 961.769836425781 974.384826660156 973.686401367188 967.795654296875 968.065979003906 963.436706542969 963.21923828125 968.313659667969 969.703491210938 977.659606933594 982.236511230469 971.926147460938 969.176086425781 968.036743164062 959.166259765625 956.214599609375 957.091430664062 957.904418945312 954.818603515625 959.459777832031 956.589050292969 965.332153320312 973.99560546875 971.258483886719 969.466796875 966.149658203125 967.64208984375 969.849792480469 967.883728027344 962.486083984375 962.89013671875 966.296264648438 971.4990234375 969.310546875 965.265991210938 957.015869140625 956.468322753906 957.882629394531 961.228820800781 963.547119140625 958.330932617188 968.645202636719 966.887573242188 963.213073730469 959.389526367188 961.510498046875 957.712951660156 965.687072753906 958.367004394531 960.777404785156 963.740783691406 966.147338867188 963.5927734375 960.905334472656 957.807983398438 961.540222167969 953.048950195312 943.159362792969 957.787414550781 961.275817871094 960.1513671875 969.412780761719 976.022827148438 977.629028320312 980.490234375 966.034057617188 956.914611816406 960.156066894531 969.51318359375 962.922668457031 958.930236816406 961.773681640625 966.407897949219 963.029174804688 953.87744140625 958.810424804688 960.771179199219 961.812866210938 973.553039550781 977.45556640625 977.212768554688 973.74755859375 967.511901855469 970.568115234375 967.743103027344 977.201171875 972.372436523438 970.128112792969 973.414672851562 975.677917480469 981.396728515625 978.07421875 973.701782226562 964.101196289062 967.727783203125 972.129150390625 977.465270996094 989.036499023438 988.499572753906 981.320373535156 975.8740234375 975.211120605469 986.372436523438 988.910461425781 986.588928222656 984.06591796875 987.308227539062 1006.31793212891 1003.17004394531 996.829467773438 1000.13269042969 1001.6806640625 1005.65588378906 1010.62188720703 1015.03155517578 1026.76623535156 1029.818359375 1030.31188964844 1038.79125976562 1034.6748046875 1031.56530761719 1036.28662109375 1038.6533203125 1040.96240234375 1042.03662109375 1050.24353027344 1057.79577636719 1063.70886230469 1073.15466308594 1074.10314941406 1085.89782714844 1086.2119140625 1085.27258300781 1096.72680664062 1095.76599121094 1093.43957519531 1091.37292480469 1084.32373046875 1083.984375 1105.73937988281 1103.40771484375 1103.1728515625 1107.54296875 1110.99194335938 1112.96472167969
950.98876953125 951.682983398438 952.430114746094 950.5048828125 963.235534667969 972.64453125 969.600219726562 971.580444335938 966.557006835938 963.951965332031 966.870910644531 971.590515136719 971.508911132812 977.697021484375 984.977783203125 988.058837890625 969.95263671875 970.979797363281 961.752563476562 949.55126953125 954.597839355469 954.575439453125 961.679748535156 961.2890625 951.782165527344 948.561706542969 961.543640136719 965.190979003906 961.544738769531 965.6435546875 969.883911132812 965.188293457031 968.410095214844 967.263305664062 968.735717773438 976.221496582031 976.254516601562 970.660278320312 960.966857910156 963.954040527344 955.492492675781 958.232238769531 961.316528320312 965.008178710938 968.767822265625 964.507568359375 966.822082519531 962.42333984375 964.259948730469 960.277221679688 951.595397949219 949.120483398438 959.320495605469 960.512145996094 961.571472167969 964.623474121094 964.404479980469 958.66064453125 956.1611328125 962.75 962.12548828125 955.033874511719 948.857727050781 959.810485839844 961.788024902344 966.628540039062 976.485168457031 966.841796875 964.78369140625 965.050964355469 957.870239257812 964.034362792969 970.209533691406 965.346435546875 961.262268066406 966.666137695312 964.724548339844 960.01025390625 962.759460449219 958.711547851562 969.861145019531 962.097900390625 967.305786132812 969.113037109375 969.643371582031 977.394165039062 977.181823730469 960.677001953125 970.100952148438 975.131042480469 971.824401855469 982.572631835938 975.211608886719 963.612121582031 965.767700195312 968.940307617188 967.922973632812 971.177490234375 970.973266601562 967.401733398438 968.741943359375 976.155517578125 982.468933105469 983.738647460938 980.610473632812 971.086059570312 971.468627929688 982.326232910156 984.792541503906 978.367553710938 985.494750976562 994.976806640625 999.682189941406 1002.56903076172 994.180480957031 997.209899902344 1002.54852294922 1002.86187744141 1007.23968505859 1014.81488037109 1027.04309082031 1039.63171386719 1030.2734375 1027.10583496094 1032.84802246094 1030.81384277344 1037.18371582031 1036.62768554688 1034.59973144531 1040.40112304688 1050.68542480469 1054.21228027344 1068.47045898438 1072.49279785156 1077.71447753906 1088.7216796875 1087.90417480469 1083.91760253906 1087.78051757812 1084.88293457031 1081.501953125 1077.21264648438 1078.32153320312 1081.17443847656 1099.90283203125 1101.67590332031 1095.12060546875 1099.93786621094 1096.06860351562 1093.96325683594
954.377197265625 963.026184082031 961.791931152344 958.448974609375 963.743835449219 970.377746582031 975.474182128906 973.24609375 974.588806152344 953.481506347656 968.512756347656 971.527282714844 967.634338378906 972.782958984375 979.92041015625 980.718383789062 977.974548339844 968.509094238281 958.36376953125 959.581604003906 960.591064453125 962.910949707031 966.1064453125 962.546264648438 964.102722167969 957.533630371094 959.17333984375 967.562072753906 962.344482421875 971.994934082031 964.532165527344 968.215515136719 967.240783691406 976.447998046875 971.157287597656 973.691284179688 970.000671386719 973.518981933594 967.435668945312 960.857543945312 960.105834960938 952.685546875 955.010925292969 965.465698242188 970.61279296875 962.80322265625 959.452392578125 966.435974121094 948.964660644531 949.928833007812 941.745666503906 942.670349121094 960.815856933594 956.174194335938 956.107666015625 958.130859375 954.407653808594 959.916259765625 949.011291503906 955.731628417969 957.64794921875 962.466613769531 958.8701171875 952.719116210938 955.065063476562 967.442810058594 966.905090332031 959.297973632812 953.63037109375 958.158935546875 963.690734863281 954.502258300781 959.400451660156 950.381469726562 964.908142089844 957.088012695312 961.094421386719 965.800170898438 959.7177734375 964.274658203125 966.048583984375 968.504272460938 969.477294921875 963.767456054688 973.018676757812 976.247924804688 972.959411621094 966.985900878906 970.94970703125 973.088073730469 977.759948730469 984.69287109375 973.570922851562 964.378601074219 966.694274902344 971.639831542969 968.271362304688 964.0830078125 973.557189941406 975.124450683594 976.399658203125 977.312133789062 974.657531738281 975.782531738281 977.501281738281 979.705200195312 972.212890625 976.988647460938 982.335266113281 985.457397460938 988.644104003906 988.682861328125 998.962707519531 1003.7861328125 987.671447753906 990.292602539062 995.065185546875 1003.71661376953 1007.87890625 1012.92651367188 1024.94934082031 1024.14880371094 1021.56970214844 1031.43664550781 1031.849609375 1033.30688476562 1035.2060546875 1034.51818847656 1037.46325683594 1038.88842773438 1048.23913574219 1056.01306152344 1073.33837890625 1083.76318359375 1084.3955078125 1085.94580078125 1094.05578613281 1086.53869628906 1084.97338867188 1082.64636230469 1075.16979980469 1077.72399902344 1074.29833984375 1072.93334960938 1089.55004882812 1095.37487792969 1096.82592773438 1089.77563476562 1087.07421875 1086.82763671875
956.556396484375 964.893188476562 962.046875 962.850463867188 968.116394042969 972.488037109375 977.233276367188 973.269409179688 970.031616210938 957.364074707031 960.824279785156 967.975830078125 968.212707519531 973.458435058594 974.332702636719 974.848205566406 971.035339355469 965.649108886719 958.388488769531 958.801452636719 962.227478027344 954.232299804688 964.449401855469 966.8740234375 963.543579101562 961.17626953125 960.91357421875 954.548217773438 957.709533691406 964.446838378906 962.454040527344 965.460266113281 960.158325195312 967.664123535156 970.681030273438 973.863464355469 966.513488769531 967.588928222656 960.280212402344 955.178527832031 951.97705078125 950.181945800781 956.687805175781 956.17431640625 962.607788085938 963.739501953125 969.028686523438 960.700866699219 955.943664550781 946.349060058594 939.108947753906 942.328674316406 954.578186035156 953.635070800781 957.709716796875 956.222412109375 958.480285644531 950.245910644531 944.308044433594 953.260375976562 955.954528808594 952.296081542969 967.731201171875 966.735717773438 957.426025390625 948.232421875 961.111145019531 952.348693847656 953.525451660156 956.211120605469 960.242492675781 951.248962402344 950.837036132812 952.710021972656 953.233520507812 959.199584960938 972.046936035156 967.243835449219 959.557678222656 962.62109375 968.653015136719 969.161560058594 967.604919433594 970.137817382812 979.18994140625 979.782104492188 978.678833007812 976.035095214844 973.382446289062 969.920471191406 971.773803710938 976.076843261719 969.779724121094 971.356079101562 962.705017089844 974.292053222656 967.845153808594 960.203002929688 965.321044921875 974.980712890625 976.467712402344 974.187133789062 968.495178222656 973.158386230469 972.453735351562 977.394775390625 977.652404785156 973.6640625 981.363525390625 984.439636230469 992.280822753906 987.389831542969 998.218139648438 994.907897949219 989.142150878906 987.16259765625 997.271728515625 1003.45526123047 1009.17681884766 1010.14916992188 1013.12518310547 1011.92071533203 1020.62969970703 1029.01867675781 1027.013671875 1020.77325439453 1028.267578125 1020.67907714844 1033.17724609375 1036.39233398438 1042.35888671875 1062.5546875 1076.10974121094 1086.99645996094 1084.36767578125 1084.41125488281 1082.84875488281 1086.37121582031 1081.14575195312 1079.37377929688 1072.96069335938 1077.89611816406 1080.12536621094 1076.72180175781 1086.00061035156 1087.44226074219 1093.53491210938 1086.11840820312 1087.12341308594 1082.28137207031
972.40185546875 967.83740234375 970.090637207031 972.731384277344 968.603881835938 980.131286621094 975.310180664062 972.728637695312 965.37353515625 964.650024414062 970.523376464844 976.732299804688 970.01611328125 967.473510742188 966.73486328125 965.838745117188 976.68115234375 967.914794921875 972.863342285156 955.847106933594 957.614562988281 948.979248046875 957.914184570312 965.387512207031 957.421264648438 965.349731445312 959.892761230469 971.898742675781 960.445556640625 966.796203613281 965.037109375 963.727905273438 965.720581054688 960.991271972656 964.975341796875 967.366271972656 970.08984375 966.994750976562 965.867614746094 955.743713378906 953.073608398438 962.70068359375 963.433227539062 961.289978027344 966.093383789062 965.552490234375 959.767761230469 960.198608398438 952.335083007812 944.559936523438 941.052124023438 952.974548339844 956.170715332031 960.703735351562 956.363586425781 956.827575683594 951.753234863281 952.088073730469 950.372436523438 953.218933105469 945.244140625 955.266662597656 959.833984375 967.320678710938 958.194702148438 961.704772949219 946.702575683594 946.473388671875 954.944152832031 967.680541992188 959.443359375 957.917602539062 956.330932617188 948.574279785156 957.454772949219 955.263854980469 966.368713378906 970.460144042969 959.026794433594 961.322021484375 964.320007324219 967.43994140625 970.144104003906 975.2109375 985.399597167969 981.470336914062 980.5322265625 972.179138183594 971.909973144531 967.633605957031 962.993225097656 964.4189453125 964.233032226562 972.301513671875 969.540588378906 975.652465820312 977.544738769531 965.425537109375 970.516845703125 976.720642089844 971.525634765625 961.750305175781 965.245910644531 972.439819335938 972.365539550781 972.838684082031 977.15771484375 976.644653320312 984.115600585938 990.622131347656 987.837158203125 988.5078125 987.132873535156 994.833435058594 994.740417480469 992.973449707031 995.96533203125 992.089660644531 999.266357421875 1001.59002685547 1013.49688720703 1018.12646484375 1014.04968261719 1020.78692626953 1029.41662597656 1028.86560058594 1037.07678222656 1034.56237792969 1039.77673339844 1040.02795410156 1049.10693359375 1061.70776367188 1070.37646484375 1078.32434082031 1080.99658203125 1080.66967773438 1083.38293457031 1081.38586425781 1075.57580566406 1072.55651855469 1064.09899902344 1072.46215820312 1071.9072265625 1071.36083984375 1079.73266601562 1085.88818359375 1089.42126464844 1088.91564941406 1087.05615234375 1084.0517578125
972.033264160156 974.609313964844 971.394348144531 967.5751953125 969.408508300781 973.108154296875 975.797546386719 970.810363769531 977.670288085938 971.238586425781 969.08984375 974.031372070312 971.090209960938 968.830871582031 970.421508789062 968.639465332031 971.671691894531 973.579284667969 975.309509277344 962.129028320312 951.288696289062 946.611999511719 951.653991699219 959.894348144531 960.179443359375 959.457153320312 961.92529296875 963.66845703125 964.798217773438 955.765869140625 957.844848632812 958.958679199219 966.942016601562 970.158203125 966.803100585938 967.423461914062 961.936218261719 960.375122070312 958.479248046875 955.338256835938 961.129333496094 958.71728515625 950.38232421875 958.296142578125 963.640686035156 962.227966308594 953.911376953125 948.809936523438 949.775634765625 948.265930175781 936.981140136719 954.345703125 955.183044433594 955.482421875 954.089599609375 946.541564941406 954.759216308594 957.424255371094 949.262145996094 951.319580078125 952.105224609375 959.3662109375 962.844909667969 961.888244628906 959.386779785156 958.832946777344 949.69970703125 956.852600097656 959.953125 965.593017578125 968.076477050781 959.459289550781 957.900268554688 954.303527832031 953.637512207031 955.961181640625 959.700012207031 967.716979980469 965.976379394531 969.953735351562 958.767761230469 959.996643066406 967.968811035156 979.587463378906 991.149536132812 981.666870117188 976.186645507812 971.226379394531 972.389404296875 972.593200683594 967.796875 970.822021484375 975.816650390625 971.021057128906 973.794494628906 975.876586914062 978.14208984375 972.818237304688 969.196716308594 980.205139160156 974.15966796875 969.766784667969 971.219299316406 966.419738769531 967.871765136719 971.467163085938 973.631713867188 979.155700683594 986.280334472656 992.9521484375 989.571105957031 987.203002929688 990.596557617188 991.563049316406 996.209045410156 999.578369140625 1001.02935791016 989.642639160156 989.694641113281 994.06640625 1007.02069091797 1018.38464355469 1016.81665039062 1018.81433105469 1027.93530273438 1029.91564941406 1037.52966308594 1044.67980957031 1036.41198730469 1036.19409179688 1035.75024414062 1059.46118164062 1066.07067871094 1069.66772460938 1082.13537597656 1079.58227539062 1084.85803222656 1074.85290527344 1072.55920410156 1071.16577148438 1064.31018066406 1065.8046875 1074.55883789062 1074.36657714844 1062.49401855469 1073.37036132812 1083.38989257812 1082.03576660156 1079.50671386719 1080.6328125
974.903991699219 977.13916015625 970.170532226562 975.104431152344 975.994079589844 976.560119628906 966.845886230469 970.009643554688 967.029113769531 962.215759277344 966.040161132812 974.0791015625 972.174438476562 971.5771484375 978.462951660156 972.8984375 972.84765625 967.166076660156 968.888244628906 958.700927734375 956.608459472656 949.893981933594 959.54150390625 962.071716308594 961.194458007812 960.250366210938 955.268676757812 957.888000488281 953.001892089844 960.375427246094 961.65087890625 957.3583984375 961.83203125 964.4912109375 962.745361328125 960.957092285156 960.545104980469 953.796691894531 954.090393066406 958.218383789062 956.721740722656 954.01025390625 953.330139160156 951.29150390625 954.58837890625 954.241943359375 954.612426757812 943.453796386719 953.300231933594 957.542785644531 949.287841796875 947.698547363281 954.654602050781 952.542663574219 952.442626953125 954.578369140625 952.822204589844 959.351196289062 958.491088867188 955.153625488281 951.877868652344 956.581787109375 964.576782226562 955.787475585938 958.182556152344 965.098266601562 962.258056640625 967.528686523438 958.918823242188 969.379699707031 961.152709960938 957.884094238281 957.030944824219 960.115356445312 958.981567382812 957.335205078125 959.337951660156 955.896728515625 956.528503417969 959.591125488281 967.11865234375 964.412902832031 973.233825683594 977.665222167969 978.724853515625 980.100463867188 967.451782226562 970.083435058594 969.294372558594 966.785339355469 969.197021484375 969.811462402344 969.397583007812 963.233764648438 978.246704101562 979.266845703125 983.812255859375 975.480834960938 977.450439453125 979.113159179688 985.837280273438 983.814697265625 972.062255859375 966.607788085938 976.313049316406 980.578063964844 976.331359863281 978.417419433594 982.148315429688 989.658508300781 992.603576660156 994.733764648438 997.907348632812 991.82080078125 994.398071289062 992.657287597656 990.678283691406 992.412231445312 991.436096191406 997.914794921875 1010.43701171875 1007.43432617188 1014.64416503906 1017.86639404297 1029.47192382812 1036.24951171875 1044.09484863281 1050.17004394531 1040.03991699219 1031.48840332031 1032.98754882812 1045.1708984375 1054.27600097656 1064.84094238281 1069.84729003906 1085.39685058594 1076.58642578125 1064.13745117188 1051.38562011719 1052.01892089844 1048.99328613281 1060.95959472656 1066.98205566406 1066.08813476562 1059.80310058594 1067.66467285156 1070.50952148438 1071.34643554688 1072.99780273438 1073.54345703125
969.546508789062 972.922119140625 973.746887207031 969.652160644531 971.832885742188 980.499450683594 965.913269042969 966.665100097656 961.751708984375 954.572937011719 954.749450683594 970.878540039062 968.515258789062 969.943786621094 973.901977539062 966.157958984375 960.525573730469 962.960021972656 967.641662597656 961.259216308594 951.798583984375 943.990966796875 954.892333984375 955.980346679688 959.466430664062 954.07421875 950.370056152344 952.9111328125 953.527465820312 955.871520996094 961.533996582031 960.883117675781 961.269836425781 958.996215820312 962.579650878906 957.583435058594 964.949096679688 955.375671386719 952.301025390625 955.498352050781 958.768432617188 955.616943359375 944.8525390625 944.501281738281 947.751159667969 955.505676269531 951.879150390625 949.763305664062 952.466491699219 959.387512207031 954.7255859375 952.497802734375 944.80224609375 954.882629394531 957.124633789062 953.297668457031 959.466735839844 955.658020019531 967.463928222656 960.719543457031 955.272094726562 964.470275878906 956.563171386719 957.779602050781 958.00927734375 966.490844726562 967.665283203125 967.69384765625 975.339660644531 971.146057128906 967.464416503906 957.261657714844 960.433837890625 964.107849121094 964.21923828125 968.073120117188 959.304382324219 951.780578613281 956.215454101562 959.31884765625 965.932983398438 972.208679199219 978.29638671875 962.202392578125 968.869079589844 964.947082519531 966.850646972656 966.528259277344 966.330627441406 973.431945800781 968.074157714844 969.025695800781 970.408447265625 971.408081054688 975.912536621094 984.724426269531 987.255615234375 984.464050292969 986.302429199219 983.736938476562 983.710144042969 989.499877929688 988.911926269531 985.399108886719 977.156372070312 983.395202636719 981.183715820312 972.506530761719 984.821716308594 988.920776367188 998.92626953125 998.9072265625 991.237182617188 988.541687011719 993.072937011719 993.68115234375 1004.64617919922 999.5751953125 997.39697265625 995.687438964844 1006.20532226562 1007.5478515625 1006.45782470703 1017.91973876953 1031.54028320312 1035.662109375 1042.68615722656 1041.37939453125 1037.78833007812 1039.0478515625 1039.02478027344 1040.939453125 1044.30700683594 1056.68762207031 1057.77136230469 1067.59521484375 1062.52624511719 1058.56005859375 1040.53088378906 1036.36975097656 1034.5654296875 1046.22265625 1047.65698242188 1046.40600585938 1045.67736816406 1049.974609375 1057.85888671875 1059.68237304688 1055.88037109375 1065.64331054688
970.141845703125 975.864990234375 975.380065917969 965.802612304688 974.433349609375 973.895141601562 972.883483886719 973.072814941406 969.329162597656 961.443542480469 957.131225585938 964.010070800781 974.977172851562 971.852111816406 968.310302734375 971.854675292969 973.45947265625 971.758178710938 979.562866210938 969.898498535156 964.792114257812 948.690979003906 947.436279296875 951.78662109375 948.027954101562 952.4853515625 948.872680664062 941.798278808594 946.905212402344 953.795471191406 963.84521484375 954.720581054688 960.540954589844 954.512878417969 956.434509277344 945.412841796875 955.617370605469 954.0380859375 949.382629394531 945.726684570312 948.864013671875 942.214050292969 944.193237304688 946.651428222656 954.895446777344 951.450988769531 950.407897949219 947.683044433594 954.357360839844 946.949401855469 960.158630371094 942.115112304688 950.1533203125 952.648681640625 950.425842285156 957.052001953125 954.199645996094 958.529846191406 962.130432128906 957.218627929688 961.136291503906 965.925903320312 966.093688964844 957.069030761719 971.954467773438 968.929077148438 962.143798828125 964.423461914062 964.395751953125 958.378540039062 961.567016601562 954.962585449219 959.636169433594 955.759948730469 960.017456054688 969.4208984375 968.898376464844 958.946594238281 951.120910644531 953.883483886719 971.711120605469 983.505859375 973.97021484375 964.119262695312 964.303405761719 962.628112792969 966.96337890625 961.956115722656 966.286804199219 976.215637207031 979.605346679688 971.271179199219 973.345581054688 968.62939453125 976.991088867188 991.102294921875 980.212768554688 981.931457519531 989.684204101562 990.492065429688 988.92333984375 986.664184570312 991.434692382812 992.909973144531 994.291625976562 974.453369140625 985.933837890625 982.730834960938 983.719299316406 993.950500488281 1003.43127441406 996.875244140625 999.65234375 1000.72418212891 997.135375976562 1013.4521484375 999.584045410156 1005.12481689453 997.611145019531 998.881286621094 997.738647460938 1002.40466308594 1006.17926025391 1022.99444580078 1027.69543457031 1030.10571289062 1036.84387207031 1041.88293457031 1044.03552246094 1043.52575683594 1040.4560546875 1038.90246582031 1047.48742675781 1043.10681152344 1051.75036621094 1062.12182617188 1055.46984863281 1049.63940429688 1046.294921875 1030.638671875 1029.61401367188 1025.21105957031 1028.57470703125 1044.5361328125 1053.17578125 1050.46362304688 1048.18774414062 1048.37316894531 1052.22705078125 1059.32055664062
979.403564453125 976.091796875 972.114562988281 974.268920898438 976.731140136719 971.954650878906 977.58447265625 975.848388671875 969.166442871094 965.502014160156 949.555053710938 954.636474609375 966.801452636719 966.690612792969 969.820251464844 972.335754394531 966.112121582031 970.605102539062 968.717224121094 964.258483886719 954.96630859375 950.255126953125 958.188354492188 938.744995117188 942.854614257812 942.945068359375 944.280700683594 946.139770507812 944.630798339844 949.861206054688 946.401977539062 952.212158203125 950.698852539062 947.087097167969 944.362426757812 946.142211914062 953.492248535156 952.430358886719 952.193420410156 949.698364257812 939.246520996094 939.570617675781 948.001342773438 962.859680175781 963.427551269531 957.733825683594 950.705810546875 945.105407714844 956.715759277344 959.185546875 944.465698242188 943.970458984375 951.388977050781 962.6748046875 956.478393554688 959.322998046875 963.051452636719 961.291442871094 963.267211914062 965.973205566406 962.145935058594 963.815063476562 964.551574707031 963.670043945312 972.980102539062 973.667846679688 960.957458496094 963.918640136719 965.697509765625 961.918212890625 969.919921875 964.465759277344 964.140747070312 963.322143554688 964.148803710938 958.607788085938 959.386657714844 961.658630371094 950.624633789062 959.011108398438 972.206298828125 982.025573730469 977.315673828125 974.907775878906 965.126037597656 963.469299316406 969.5751953125 972.241760253906 974.342224121094 978.031372070312 970.932434082031 964.361511230469 977.113586425781 975.717224121094 985.021911621094 981.857849121094 977.207580566406 982.630554199219 998.756530761719 997.646606445312 999.005737304688 987.995239257812 986.639526367188 987.64111328125 988.428771972656 993.62939453125 982.20166015625 983.661499023438 992.755798339844 999.268005371094 1011.68005371094 1007.84771728516 1008.00671386719 1009.43640136719 1009.37152099609 1010.634765625 1012.13739013672 1013.20269775391 1004.84393310547 998.874145507812 1000.35906982422 1008.88543701172 1002.79840087891 1020.66656494141 1018.39007568359 1018.65307617188 1030.19396972656 1042.26098632812 1051.71569824219 1045.73425292969 1042.26342773438 1042.25830078125 1044.26110839844 1046.93664550781 1044.623046875 1048.96643066406 1051.91162109375 1047.025390625 1038.93432617188 1025.35546875 1021.87823486328 1028.65270996094 1027.63781738281 1044.4453125 1057.60119628906 1051.9345703125 1053.55969238281 1051.41735839844 1055.33459472656 1048.73571777344
973.515197753906 971.124450683594 971.75634765625 974.79541015625 975.447692871094 975.95068359375 971.561279296875 971.957397460938 960.735290527344 956.193725585938 966.851745605469 960.672729492188 961.354309082031 969.963562011719 977.250854492188 969.273681640625 962.828186035156 964.892944335938 961.049011230469 953.873596191406 949.951171875 948.646728515625 952.929748535156 952.900939941406 941.8349609375 945.400024414062 942.143432617188 940.285583496094 946.954833984375 945.976684570312 942.068115234375 948.509216308594 949.379760742188 948.499450683594 950.245178222656 957.251647949219 944.978515625 944.312255859375 945.487976074219 945.156188964844 943.422668457031 937.690063476562 944.795227050781 954.354614257812 963.757995605469 954.1708984375 953.105712890625 960.262390136719 961.926208496094 956.939208984375 954.240905761719 942.713928222656 956.516357421875 960.144165039062 957.042236328125 962.918029785156 958.947570800781 962.190124511719 961.245178222656 965.814270019531 965.771240234375 971.432434082031 970.743591308594 968.73095703125 963.056213378906 966.690124511719 977.952087402344 964.72607421875 964.115783691406 970.033813476562 969.203308105469 960.826354980469 965.499816894531 961.292602539062 950.739990234375 947.248657226562 946.700744628906 957.139953613281 957.739196777344 966.4296875 971.310791015625 981.749206542969 977.680908203125 980.457580566406 974.0283203125 970.681457519531 966.48974609375 976.456970214844 976.486450195312 974.474487304688 969.568908691406 973.387939453125 963.330078125 975.42724609375 975.278137207031 984.71923828125 979.958435058594 980.0712890625 1004.08880615234 1005.48468017578 987.80908203125 981.824157714844 981.012451171875 984.823852539062 982.60009765625 994.494567871094 992.757873535156 994.845825195312 1001.19018554688 1010.87365722656 1010.59497070312 1012.34631347656 1006.73199462891 1005.99389648438 1012.37561035156 1013.94476318359 1021.83258056641 1013.69165039062 1002.26507568359 1009.61138916016 1003.71228027344 1007.49822998047 1010.39379882812 1014.43145751953 1017.16186523438 1019.45135498047 1028.4462890625 1030.82824707031 1038.68725585938 1040.68627929688 1034.37377929688 1040.40270996094 1031.77392578125 1036.65954589844 1042.98315429688 1039.99719238281 1041.97082519531 1040.88220214844 1042.18176269531 1036.02526855469 1026.00183105469 1031.70263671875 1024.47119140625 1035.92553710938 1049.263671875 1050.26525878906 1057.55017089844 1047.29772949219 1051.61840820312 1046.59155273438
953.309265136719 964.244750976562 968.0986328125 976.177917480469 975.921630859375 974.382080078125 967.929748535156 964.758911132812 955.228210449219 961.449462890625 957.248474121094 956.583312988281 957.550476074219 960.299499511719 963.731384277344 962.776611328125 964.208923339844 964.045776367188 950.61328125 946.313598632812 948.420227050781 944.413146972656 949.785461425781 950.095520019531 950.883422851562 948.149230957031 946.163208007812 952.761962890625 950.347473144531 946.171508789062 937.96923828125 944.783447265625 945.977294921875 948.821350097656 957.874389648438 956.034973144531 948.511962890625 946.29052734375 945.541931152344 947.586730957031 935.327697753906 947.395874023438 945.681213378906 963.099182128906 961.714538574219 955.62109375 958.829833984375 957.160766601562 957.301635742188 954.335571289062 956.215759277344 961.2158203125 953.208801269531 957.963623046875 964.587524414062 967.872802734375 969.338500976562 966.10205078125 968.399963378906 963.778137207031 967.168640136719 972.106750488281 969.819458007812 973.302062988281 970.080749511719 974.356201171875 967.722229003906 966.755859375 966.287658691406 959.405578613281 960.878234863281 968.5634765625 972.131164550781 962.840209960938 950.418151855469 955.832214355469 952.190612792969 964.409545898438 959.873229980469 960.650451660156 969.95703125 972.877563476562 979.146728515625 971.751892089844 971.72412109375 975.994750976562 971.838928222656 973.248901367188 978.521850585938 977.136474609375 968.856323242188 972.296264648438 975.443054199219 975.804748535156 971.306579589844 966.960144042969 981.384521484375 979.351989746094 997.757385253906 996.969360351562 984.281066894531 979.012084960938 972.697631835938 982.564636230469 988.007507324219 996.893859863281 1005.84881591797 1004.08190917969 1001.2138671875 1015.80084228516 1011.94470214844 1009.44525146484 1010.98071289062 1017.28820800781 1018.73699951172 1029.84716796875 1023.54620361328 1023.39245605469 1013.50701904297 1008.51007080078 1004.66174316406 1005.64361572266 1014.48559570312 1025.05334472656 1024.16162109375 1027.7529296875 1027.86108398438 1029.44177246094 1030.45788574219 1030.12158203125 1022.84924316406 1031.19409179688 1025.69079589844 1035.4521484375 1037.595703125 1045.11499023438 1047.13256835938 1048.59387207031 1039.53601074219 1031.875 1037.11511230469 1041.43859863281 1030.10571289062 1034.07934570312 1039.96740722656 1049.44128417969 1048.74938964844 1038.18395996094 1037.51489257812 1040.84167480469
947.581176757812 950.253173828125 954.9482421875 958.457641601562 976.171752929688 972.668212890625 960.61572265625 963.591430664062 963.234375 951.698425292969 945.745727539062 951.546325683594 958.413452148438 955.207458496094 954.868225097656 956.734619140625 954.316467285156 952.397277832031 949.045471191406 943.442199707031 930.38525390625 945.172729492188 946.156860351562 946.528015136719 947.029602050781 946.615295410156 947.279235839844 952.3203125 942.579162597656 947.999389648438 943.433471679688 947.291381835938 947.770263671875 942.149719238281 947.647155761719 957.023681640625 946.416442871094 949.032104492188 949.510681152344 951.33349609375 945.688293457031 952.767700195312 952.156677246094 951.913818359375 963.523376464844 965.805480957031 968.071350097656 961.5478515625 950.638732910156 954.223266601562 963.658569335938 965.972229003906 956.968444824219 955.112426757812 952.963439941406 963.25390625 964.824035644531 966.9541015625 965.841003417969 965.549926757812 970.331909179688 976.422973632812 969.543212890625 974.5361328125 967.372314453125 976.231811523438 970.271667480469 969.083740234375 969.755493164062 964.735046386719 968.766540527344 968.27783203125 969.175415039062 969.441711425781 966.120788574219 970.773376464844 956.216430664062 972.365234375 959.5751953125 972.165832519531 980.544982910156 985.086669921875 978.134765625 976.271850585938 975.761657714844 979.250549316406 973.208923339844 980.490417480469 976.053100585938 975.698852539062 978.430297851562 969.359008789062 970.195068359375 977.821166992188 977.37646484375 973.04638671875 976.938293457031 987.032165527344 991.921142578125 996.826049804688 990.157470703125 982.262817382812 985.360412597656 995.136352539062 1001.79113769531 1006.90344238281 1010.87396240234 1007.87817382812 1012.48016357422 1015.79473876953 1011.01110839844 1017.14575195312 1012.96295166016 1016.90496826172 1019.72015380859 1021.47003173828 1019.7900390625 1021.32556152344 1014.86029052734 1021.52716064453 1017.10577392578 1016.03753662109 1017.19921875 1019.79943847656 1024.59204101562 1024.23559570312 1025.86999511719 1022.96685791016 1025.59387207031 1028.59631347656 1021.11340332031 1016.54730224609 1022.09289550781 1025.79760742188 1030.4794921875 1038.34033203125 1043.74450683594 1040.13757324219 1037.27612304688 1031.8828125 1035.96618652344 1039.02893066406 1038.76818847656 1032.14904785156 1036.4150390625 1032.88977050781 1028.91430664062 1030.8134765625 1028.68212890625 1028.28857421875
959.382446289062 954.023193359375 955.552917480469 957.983154296875 964.463439941406 966.859619140625 956.595092773438 955.042236328125 950.248229980469 945.063842773438 946.749267578125 947.196044921875 955.307373046875 945.99365234375 949.70556640625 942.785888671875 939.824951171875 938.612609863281 942.235168457031 945.827819824219 947.706481933594 947.767761230469 946.761535644531 946.150024414062 943.432983398438 942.697021484375 943.3056640625 945.5029296875 945.527160644531 948.8466796875 954.095825195312 953.088745117188 949.830505371094 944.706726074219 949.07763671875 949.508117675781 946.488403320312 950.181457519531 949.643920898438 956.130798339844 952.436584472656 952.615783691406 945.106323242188 951.351379394531 963.167114257812 966.089904785156 966.863403320312 964.716735839844 959.416870117188 959.86865234375 963.574951171875 967.55615234375 968.057556152344 963.351867675781 951.673461914062 959.167358398438 964.933715820312 965.137573242188 964.155395507812 966.937744140625 962.507019042969 967.767639160156 971.134094238281 966.179870605469 972.418701171875 973.910461425781 972.111145019531 969.072509765625 969.687438964844 968.596069335938 976.177551269531 975.427368164062 961.526245117188 960.847900390625 967.657775878906 972.083068847656 965.742431640625 969.06689453125 978.935607910156 981.071105957031 982.518310546875 983.218627929688 978.218322753906 976.775146484375 979.25390625 982.984802246094 977.614501953125 976.032287597656 971.798706054688 975.304748535156 978.091003417969 975.580139160156 978.3720703125 974.736755371094 979.930114746094 973.699768066406 979.130798339844 990.422729492188 987.166381835938 994.774780273438 991.195983886719 982.5908203125 992.421936035156 999.288513183594 1003.8896484375 1006.62548828125 1010.91876220703 1014.13043212891 1018.11700439453 1020.11407470703 1019.53454589844 1019.81555175781 1021.71990966797 1021.15386962891 1014.53240966797 1026.55334472656 1033.54052734375 1032.45092773438 1024.59582519531 1019.52069091797 1019.61499023438 1024.60180664062 1022.57989501953 1021.63873291016 1011.94464111328 1022.21783447266 1027.11303710938 1024.61267089844 1020.58728027344 1021.70703125 1013.51678466797 1015.34796142578 1017.95587158203 1021.37316894531 1027.99291992188 1028.69104003906 1036.49011230469 1036.95227050781 1038.22644042969 1036.57385253906 1038.4990234375 1031.4013671875 1033.58251953125 1032.60766601562 1029.90710449219 1026.765625 1026.22802734375 1018.73266601562 1019.23809814453 1023.6953125
953.828857421875 956.560668945312 960.974548339844 960.404846191406 961.350341796875 961.971069335938 960.054809570312 951.384094238281 939.069641113281 942.739807128906 945.806396484375 949.947875976562 950.195251464844 944.189636230469 940.529113769531 939.059997558594 940.173889160156 941.118347167969 938.64697265625 947.203063964844 944.794616699219 950.534362792969 956.442504882812 953.482849121094 947.132080078125 936.351928710938 935.270690917969 932.11376953125 950.474365234375 948.765075683594 953.809387207031 947.014770507812 947.761962890625 949.511657714844 949.996276855469 943.935852050781 941.003784179688 949.943115234375 957.628112792969 962.389038085938 961.813720703125 956.438598632812 952.200012207031 961.243713378906 968.703918457031 964.702819824219 960.808227539062 970.348693847656 976.084899902344 969.812805175781 971.151000976562 972.032470703125 970.84423828125 977.340270996094 970.565673828125 955.215515136719 966.962219238281 968.906860351562 976.780334472656 971.595886230469 962.470886230469 968.365112304688 958.185729980469 956.031860351562 973.642883300781 972.4462890625 969.725036621094 962.657958984375 969.626831054688 975.655395507812 974.256164550781 975.970825195312 978.313842773438 970.925659179688 967.272888183594 973.129516601562 967.741333007812 977.421020507812 979.107421875 973.75927734375 972.686279296875 980.516418457031 974.116149902344 986.472534179688 977.464050292969 981.294799804688 979.584777832031 978.782592773438 987.038513183594 988.371948242188 983.242553710938 977.540954589844 982.393493652344 981.806091308594 989.521667480469 983.644226074219 988.395935058594 987.506530761719 985.328674316406 985.266479492188 990.003173828125 991.727783203125 994.217529296875 1005.18206787109 1005.64361572266 1008.15972900391 1004.70220947266 1011.79583740234 1014.41455078125 1010.65979003906 1010.45245361328 1017.52001953125 1025.87536621094 1020.6845703125 1018.20599365234 1025.99035644531 1038.15283203125 1036.27062988281 1030.13684082031 1026.89880371094 1020.47161865234 1017.68914794922 1024.154296875 1021.12908935547 1020.46765136719 1019.84051513672 1021.87115478516 1017.86206054688 1014.15533447266 1012.37341308594 1023.52191162109 1020.18975830078 1016.90283203125 1017.123046875 1028.50463867188 1026.02685546875 1027.80834960938 1032.87377929688 1033.51623535156 1034.841796875 1045.78894042969 1031.72094726562 1029.10522460938 1019.86773681641 1024.16809082031 1030.86181640625 1021.20141601562 1015.43780517578 1011.64123535156 1011.02355957031
948.410034179688 953.980773925781 957.446899414062 961.454406738281 959.567016601562 958.84228515625 953.946960449219 951.097900390625 939.741943359375 941.622924804688 951.463684082031 950.845275878906 954.954650878906 941.235778808594 935.902160644531 937.42138671875 947.852661132812 940.509155273438 946.205810546875 954.51708984375 952.939758300781 953.011352539062 953.550720214844 952.4140625 946.845092773438 951.699035644531 942.229675292969 941.206115722656 945.951232910156 952.209106445312 942.738220214844 943.642944335938 944.601745605469 953.945922851562 950.763000488281 942.475891113281 939.932922363281 938.609436035156 950.866088867188 958.661437988281 961.754272460938 964.354797363281 965.496337890625 966.931213378906 965.918151855469 957.450561523438 957.405395507812 961.648071289062 969.627014160156 972.087829589844 978.600646972656 979.216369628906 975.802551269531 975.290222167969 974.530334472656 965.562744140625 969.3115234375 973.328796386719 975.604797363281 969.732177734375 965.685729980469 956.820922851562 961.5224609375 962.178771972656 975.358154296875 969.163330078125 968.741088867188 961.527282714844 970.891052246094 972.599975585938 979.546875 977.861328125 975.307800292969 971.603698730469 971.311767578125 978.460144042969 981.670043945312 981.607543945312 978.683349609375 977.01416015625 972.710693359375 976.376892089844 982.776733398438 984.270446777344 976.991027832031 984.181762695312 982.263427734375 983.482238769531 979.525695800781 978.483093261719 978.886596679688 980.108093261719 980.850341796875 981.326843261719 991.006469726562 988.542724609375 985.946838378906 987.751708984375 985.158203125 983.777099609375 993.561584472656 1000.56274414062 1001.08538818359 1000.18420410156 999.190795898438 995.867797851562 1001.70751953125 1013.19250488281 1015.66070556641 1015.29632568359 1023.45281982422 1019.87890625 1020.57574462891 1015.67297363281 1017.45971679688 1024.82275390625 1026.59606933594 1035.06884765625 1037.26525878906 1031.52746582031 1032.75952148438 1030.21313476562 1027.05529785156 1028.64587402344 1028.22009277344 1021.97106933594 1023.59832763672 1022.8203125 1020.08331298828 1021.01318359375 1019.73773193359 1017.7998046875 1007.44000244141 1014.3564453125 1019.13629150391 1021.70031738281 1033.59191894531 1027.72741699219 1034.70202636719 1030.34265136719 1040.32507324219 1029.12939453125 1025.74951171875 1018.31927490234 1009.44543457031 1017.88525390625 1018.03277587891 1005.42449951172 1003.21221923828 994.859375
959.576232910156 952.245666503906 955.978515625 964.09814453125 956.0087890625 951.28271484375 944.898559570312 938.62060546875 933.391235351562 935.014343261719 942.364196777344 947.496398925781 946.665161132812 944.798767089844 940.030639648438 940.508178710938 951.557922363281 955.178588867188 952.203979492188 950.835754394531 954.310119628906 950.8583984375 958.542724609375 951.818542480469 947.96826171875 946.658020019531 953.049072265625 949.266540527344 951.950866699219 957.209106445312 946.687744140625 941.00048828125 947.616577148438 959.603454589844 946.160827636719 947.156616210938 941.026794433594 938.4345703125 951.481262207031 951.870422363281 962.449645996094 958.760925292969 966.995178222656 970.289672851562 975.757751464844 974.133666992188 967.091247558594 970.937194824219 970.140014648438 975.698547363281 978.198608398438 978.017944335938 984.321166992188 978.007507324219 977.276245117188 971.873352050781 972.519287109375 974.1875 975.291748046875 969.827575683594 970.446411132812 969.542541503906 962.524719238281 968.439819335938 970.594055175781 970.745483398438 968.575866699219 966.435974121094 977.234008789062 972.845947265625 979.258911132812 974.144592285156 973.588989257812 972.848022460938 976.635803222656 979.556457519531 985.804260253906 978.509399414062 984.962768554688 974.274841308594 969.455444335938 982.202209472656 985.188049316406 978.290771484375 983.214050292969 981.003356933594 976.246887207031 980.609802246094 980.516479492188 981.597839355469 984.78271484375 991.009765625 988.388122558594 984.537170410156 991.657043457031 992.28857421875 988.867919921875 984.959838867188 980.537109375 985.228332519531 989.108520507812 998.380920410156 996.767578125 1000.07647705078 990.332763671875 998.281921386719 1005.07757568359 1005.67907714844 1004.58251953125 1019.22503662109 1026.04772949219 1011.63220214844 1013.52154541016 1012.91357421875 1018.05511474609 1030.12817382812 1037.64514160156 1032.06994628906 1045.81555175781 1041.39208984375 1037.86987304688 1034.49841308594 1031.24841308594 1034.05505371094 1029.83471679688 1030.03649902344 1025.22033691406 1026.10571289062 1021.70281982422 1024.37963867188 1023.98364257812 1017.33959960938 1006.84643554688 1009.28259277344 1025.50183105469 1015.34143066406 1021.07763671875 1032.94799804688 1029.85888671875 1026.22924804688 1031.09619140625 1018.85870361328 1016.86297607422 1020.23931884766 1019.35223388672 1006.49389648438 1008.68786621094 1000.94305419922 999.248901367188 989.436401367188
958.585510253906 961.571044921875 954.451538085938 956.637634277344 952.114379882812 941.28955078125 935.510314941406 934.415222167969 926.916687011719 940.724548339844 936.224914550781 942.714111328125 947.129577636719 947.738525390625 936.510864257812 939.339782714844 951.672302246094 956.911254882812 949.870910644531 946.695373535156 949.842041015625 956.126708984375 961.535278320312 953.025329589844 950.535095214844 947.799255371094 955.62353515625 955.935974121094 955.691772460938 952.537475585938 944.106994628906 944.707885742188 956.09033203125 961.710632324219 954.773254394531 959.563537597656 953.247436523438 946.938232421875 956.506652832031 962.652465820312 963.559814453125 966.528747558594 965.501159667969 978.505004882812 985.8583984375 983.978759765625 977.460327148438 979.194519042969 975.147033691406 975.656494140625 977.710510253906 983.63037109375 985.007995605469 980.056579589844 976.106079101562 972.691528320312 970.1357421875 981.596923828125 979.908935546875 974.015441894531 969.481689453125 976.951416015625 980.047790527344 971.822509765625 969.839721679688 973.341918945312 974.5048828125 966.91943359375 970.655639648438 979.858093261719 980.870422363281 982.063659667969 976.643615722656 980.6943359375 979.910095214844 983.619995117188 980.636108398438 982.835815429688 986.882751464844 981.013916015625 981.496948242188 987.034851074219 984.187377929688 981.142028808594 983.148803710938 982.143615722656 991.339782714844 984.065246582031 972.011840820312 981.109375 987.521728515625 996.036804199219 988.099670410156 987.744079589844 999.253784179688 996.313354492188 987.174743652344 969.906982421875 980.433471679688 994.986633300781 1002.38220214844 1003.08557128906 1001.52111816406 1005.23541259766 996.22216796875 995.55517578125 999.881286621094 1007.05627441406 1007.56323242188 1009.89611816406 1012.21527099609 1013.28265380859 1019.52319335938 1026.22521972656 1021.36791992188 1030.8466796875 1037.11267089844 1036.30993652344 1040.23559570312 1040.80578613281 1047.33947753906 1045.57238769531 1039.53210449219 1036.3916015625 1028.54895019531 1026.56896972656 1026.16162109375 1027.83715820312 1023.47052001953 1023.20471191406 1020.40679931641 1017.32641601562 1007.59991455078 1012.30902099609 1011.09100341797 1013.18969726562 1020.62762451172 1021.97918701172 1022.18841552734 1011.9326171875 1021.09521484375 1014.24749755859 1011.74145507812 1013.56719970703 1011.51904296875 1000.71997070312 1004.28021240234 999.065246582031 1000.21661376953 989.687072753906
