NCOLS 150
NROWS 37
XLLCORNER 7394249
YLLCORNER 4842719
CELLSIZE 30
NODATA_VALUE -9999
951.352661132812 962.38720703125 975.751831054688 976.112915039062 973.955749511719 978.943603515625 968.266723632812 961.864013671875 956.416137695312 967.810546875 967.511474609375 960.45458984375 967.513671875 969.763671875 963.829345703125 970.051391601562 974.2568359375 976.821350097656 982.211547851562 977.921813964844 974.2548828125 978.519104003906 973.043823242188 967.046997070312 971.705505371094 972.93408203125 980.201538085938 974.037658691406 963.467468261719 968.569152832031 975.277160644531 978.411437988281 980.224975585938 982.012634277344 989.464416503906 975.907287597656 973.758239746094 976.197875976562 972.302429199219 976.543823242188 976.247436523438 970.94091796875 977.043823242188 975.860900878906 970.968444824219 971.393737792969 972.027404785156 965.383178710938 968.455200195312 967.485778808594 971.75244140625 969.47216796875 968.657836914062 976.106079101562 974.091369628906 980.702331542969 976.340942382812 982.530395507812 968.593383789062 971.758422851562 972.414855957031 972.773742675781 972.011047363281 962.092041015625 963.576110839844 963.690124511719 970.739196777344 967.836547851562 963.333679199219 971.17578125 981.598388671875 971.268127441406 970.440063476562 972.335083007812 973.722473144531 974.806945800781 973.744873046875 974.78759765625 975.290344238281 986.339721679688 989.764770507812 991.98779296875 994.19970703125 1001.14404296875 1001.76318359375 1000.40411376953 1000.16241455078 994.520141601562 997.870849609375 993.891235351562 1000.82653808594 998.543090820312 996.560363769531 1000.17022705078 1000.66821289062 995.507263183594 998.613586425781 1001.57305908203 999.729919433594 999.967224121094 995.522766113281 993.709899902344 993.424377441406 992.068969726562 982.555236816406 974.101867675781 972.798889160156 970.339477539062 978.756713867188 976.881530761719 988.919311523438 994.303894042969 1000.32177734375 1001.34197998047 1007.24682617188 1004.85552978516 1002.59185791016 1008.48797607422 1007.99383544922 1008.90661621094 1006.86602783203 1003.34094238281 1009.66839599609 1009.14617919922 1004.37872314453 1005.44512939453 1000.76647949219 1006.96014404297 1011.98577880859 1007.98370361328 1018.14111328125 1018.34252929688 1029.0126953125 1027.29357910156 1031.10217285156 1032.73303222656 1027.85327148438 1039.15368652344 1050.68298339844 1063.478515625 1066.50634765625 1065.83068847656 1074.96240234375 1095.2841796875 1110.21057128906 1113.88391113281 1117.27954101562 1122.40283203125 1135.07995605469 1136.29711914062
956.825439453125 962.34423828125 978.047912597656 976.200500488281 976.171569824219 968.156982421875 967.496337890625 967.787780761719 957.713928222656 960.081420898438 962.328491210938 961.027221679688 973.598876953125 970.172241210938 970.489135742188 972.125671386719 979.143615722656 980.014892578125 974.18798828125 971.702880859375 978.167785644531 973.35595703125 977.671691894531 977.544250488281 980.018798828125 981.735290527344 981.049987792969 978.273681640625 975.043151855469 975.548950195312 974.695251464844 983.125549316406 989.169799804688 980.729309082031 986.893798828125 984.906127929688 975.415954589844 974.009521484375 978.094543457031 974.670837402344 973.738525390625 981.261108398438 982.650268554688 976.349548339844 973.849243164062 966.17626953125 965.081237792969 966.10546875 967.030029296875 970.875610351562 971.136596679688 968.619262695312 966.142639160156 973.355773925781 969.80810546875 975.412292480469 966.132141113281 971.007995605469 975.341857910156 962.526184082031 972.161499023438 982.714904785156 977.358764648438 972.339538574219 964.906188964844 962.568481445312 971.294128417969 967.801818847656 969.418884277344 971.203063964844 971.939697265625 974.562438964844 963.051086425781 964.011657714844 970.179931640625 974.412414550781 976.928588867188 977.280151367188 977.139404296875 984.285278320312 989.635070800781 991.811340332031 987.328552246094 997.570922851562 996.041931152344 990.116638183594 995.715759277344 1002.40734863281 988.5966796875 992.585998535156 994.512512207031 992.204406738281 991.301635742188 991.521667480469 998.363403320312 1002.32989501953 997.178283691406 999.398742675781 999.823791503906 995.490234375 1002.28601074219 995.327331542969 994.302490234375 989.720336914062 991.293090820312 980.599914550781 971.374450683594 976.723754882812 977.124267578125 988.009338378906 989.598510742188 992.495239257812 994.473205566406 1002.03283691406 1002.82904052734 1004.32568359375 997.513732910156 1001.92828369141 1001.08441162109 1009.15637207031 1008.42163085938 1002.93011474609 995.209228515625 1003.69891357422 996.941772460938 1001.72729492188 1012.58374023438 1014.48669433594 1011.38049316406 1018.70947265625 1022.99731445312 1026.09265136719 1031.04919433594 1029.46496582031 1035.7392578125 1037.39587402344 1045.25524902344 1046.64489746094 1058.44934082031 1064.49340820312 1069.43872070312 1075.28942871094 1077.45544433594 1102.49340820312 1115.47741699219 1127.326171875 1134.57666015625 1131.64965820312 1143.54211425781 1151.80456542969
961.879028320312 964.14892578125 969.197875976562 971.336059570312 972.349914550781 966.024963378906 956.186767578125 960.988342285156 966.148376464844 965.467834472656 959.640258789062 970.307678222656 972.212585449219 967.242492675781 977.464660644531 973.091247558594 976.091064453125 982.878051757812 973.696960449219 974.45068359375 978.091003417969 967.464172363281 973.503112792969 977.793029785156 968.848205566406 977.365234375 986.819458007812 987.65185546875 977.220703125 972.876892089844 978.541564941406 977.927062988281 983.744689941406 989.166259765625 987.314514160156 986.484680175781 976.222839355469 975.5634765625 974.592346191406 964.971374511719 964.093933105469 977.437255859375 972.0634765625 969.629577636719 972.891967773438 970.625305175781 974.152770996094 968.109130859375 965.141784667969 969.98095703125 971.850280761719 979.35693359375 977.327392578125 975.51953125 973.648132324219 970.677307128906 976.384887695312 982.715759277344 982.821166992188 969.778259277344 979.685791015625 981.418884277344 987.737426757812 977.463317871094 970.406860351562 964.883239746094 974.975036621094 970.071655273438 972.268249511719 965.38671875 972.677978515625 976.516235351562 972.828308105469 968.357177734375 966.005981445312 974.142700195312 985.692932128906 980.983520507812 973.880004882812 984.679626464844 984.466552734375 982.467102050781 986.625915527344 991.368530273438 990.701110839844 992.871520996094 994.534729003906 995.080139160156 991.169494628906 993.716064453125 995.373229980469 991.459228515625 987.738708496094 991.418212890625 986.121643066406 989.175415039062 999.027465820312 997.146667480469 996.239440917969 996.912719726562 990.174499511719 995.641418457031 996.315612792969 995.968078613281 978.674377441406 987.497436523438 979.402709960938 975.336791992188 973.098449707031 980.968322753906 983.936645507812 986.477478027344 987.502563476562 1000.98486328125 995.40625 992.276306152344 1000.82702636719 1005.21569824219 1001.78173828125 1001.78552246094 1003.64703369141 1001.17358398438 1000.11004638672 1003.82940673828 996.07373046875 996.519165039062 1016.14624023438 1025.966796875 1016.72430419922 1021.79858398438 1025.30749511719 1028.3828125 1035.89807128906 1045.61315917969 1048.37841796875 1044.81726074219 1053.21875 1052.71691894531 1062.87902832031 1075.35241699219 1074.31652832031 1072.82861328125 1078.95166015625 1101.75610351562 1113.75317382812 1126.39208984375 1138.05859375 1138.95166015625 1149.42529296875 1153.65588378906
955.444213867188 948.964111328125 955.350280761719 957.072387695312 956.791015625 959.988464355469 953.05322265625 958.721313476562 963.930847167969 961.166748046875 964.784729003906 973.642883300781 975.743957519531 968.424621582031 967.424682617188 967.929626464844 970.427795410156 981.108154296875 980.670288085938 972.007873535156 966.497619628906 975.727172851562 977.143005371094 978.68017578125 969.203186035156 973.604248046875 977.4990234375 976.359191894531 972.874938964844 980.367431640625 980.399780273438 980.067077636719 985.744689941406 989.548767089844 986.898864746094 981.62451171875 977.501770019531 964.978271484375 964.447509765625 967.184875488281 969.324584960938 967.669555664062 962.969787597656 972.470397949219 982.792724609375 977.096923828125 974.479125976562 974.003662109375 963.025756835938 971.171447753906 970.908508300781 976.049987792969 981.085571289062 981.703308105469 977.343566894531 969.033203125 975.242919921875 982.623046875 985.173828125 977.747619628906 980.1669921875 972.462585449219 975.888549804688 969.752014160156 968.478759765625 972.747009277344 968.569763183594 964.746948242188 961.472778320312 969.898864746094 974.695861816406 973.158630371094 969.389404296875 972.107055664062 969.376770019531 965.717712402344 980.242919921875 975.65576171875 980.023803710938 981.121276855469 977.9453125 987.642333984375 986.190612792969 989.74072265625 995.197204589844 998.556030273438 990.140930175781 981.333801269531 988.822570800781 992.315124511719 990.680419921875 983.815673828125 983.426330566406 986.952026367188 986.604370117188 986.354309082031 982.009399414062 989.943664550781 985.061401367188 988.738098144531 991.899291992188 987.351379394531 996.141967773438 985.461181640625 983.334899902344 981.706665039062 986.302551269531 986.487243652344 973.892700195312 974.598876953125 984.39453125 988.920532226562 990.887573242188 991.3291015625 996.707153320312 993.093688964844 999.619873046875 995.514526367188 996.605834960938 999.436279296875 998.116943359375 994.765686035156 998.498229980469 1005.99261474609 1014.33233642578 1005.55023193359 1013.04998779297 1021.07562255859 1027.0986328125 1034.30627441406 1031.25476074219 1035.95715332031 1048.47705078125 1054.67138671875 1055.69458007812 1058.5703125 1062.70617675781 1069.72619628906 1078.41357421875 1083.38696289062 1082.93835449219 1076.40087890625 1094.52941894531 1112.7099609375 1131.33557128906 1139.54016113281 1143.92053222656 1141.7353515625 1152.86987304688 1154.81787109375
944.22607421875 946.023803710938 949.955200195312 951.507080078125 951.599853515625 951.109008789062 954.316284179688 955.943481445312 973.833374023438 969.488342285156 970.198486328125 968.135314941406 964.270385742188 967.410278320312 968.266845703125 970.595703125 965.659240722656 978.576599121094 975.022338867188 982.35302734375 975.587463378906 969.894348144531 972.482238769531 973.825988769531 975.708312988281 970.4189453125 971.370178222656 977.971984863281 974.738159179688 980.881530761719 979.919311523438 980.50341796875 983.40771484375 990.428894042969 981.89404296875 984.2587890625 979.590759277344 978.198608398438 976.934143066406 973.991577148438 968.759765625 965.374450683594 965.062072753906 965.273132324219 971.312072753906 971.403442382812 973.022827148438 968.552307128906 972.789428710938 976.784301757812 973.401977539062 968.838806152344 969.761352539062 969.660339355469 965.376647949219 967.700988769531 970.087707519531 978.501708984375 978.598327636719 981.648193359375 977.566772460938 970.460632324219 966.495910644531 965.691162109375 971.861572265625 975.045959472656 973.437072753906 972.244812011719 959.651184082031 953.850158691406 962.209777832031 968.548828125 962.963928222656 970.931091308594 972.147338867188 966.054931640625 967.886840820312 972.019470214844 975.685729980469 975.112182617188 974.998046875 985.177429199219 988.485534667969 991.04541015625 995.738098144531 987.016662597656 981.978332519531 985.998657226562 988.682495117188 985.0400390625 986.422973632812 987.962829589844 987.636291503906 990.622619628906 983.248779296875 981.976196289062 988.050170898438 993.314880371094 992.3994140625 988.136169433594 983.021545410156 990.548889160156 985.61328125 982.380859375 986.147705078125 982.943054199219 986.877807617188 983.209533691406 988.028503417969 984.171264648438 987.336364746094 987.419067382812 987.397277832031 991.001220703125 985.012634277344 998.803649902344 998.20556640625 1002.04302978516 993.0693359375 994.69482421875 998.142211914062 989.842102050781 997.855773925781 1004.47644042969 1007.97015380859 1012.51403808594 1015.58117675781 1024.52233886719 1028.12817382812 1040.57214355469 1047.10949707031 1050.83618164062 1057.58142089844 1055.05627441406 1054.33703613281 1066.8310546875 1075.86828613281 1092.54174804688 1095.71569824219 1101.55578613281 1094.84497070312 1097.34704589844 1105.46325683594 1115.63464355469 1128.50646972656 1139.68579101562 1148.9375 1159.02648925781 1161.892578125 1169.56726074219
950.478149414062 951.151245117188 948.82373046875 954.201354980469 947.090698242188 949.505798339844 957.049377441406 962.545593261719 964.749206542969 974.496948242188 978.178405761719 981.799011230469 971.200012207031 965.533081054688 967.509887695312 966.953918457031 978.841796875 972.643493652344 974.465576171875 979.714233398438 980.918518066406 979.217346191406 965.101318359375 969.878051757812 975.509338378906 974.23876953125 962.258728027344 971.323303222656 975.348205566406 980.096557617188 978.374694824219 983.341491699219 982.676635742188 985.989013671875 980.359924316406 970.396240234375 974.959655761719 977.002990722656 967.838562011719 976.345520019531 971.729064941406 958.450927734375 961.937866210938 965.339233398438 963.609191894531 965.897399902344 966.116394042969 963.690063476562 963.854614257812 965.760986328125 966.216735839844 963.832153320312 968.26806640625 962.125549316406 962.796997070312 962.143127441406 973.085632324219 972.158081054688 971.5419921875 969.779968261719 976.445556640625 974.435852050781 967.349243164062 968.831420898438 973.893615722656 974.458312988281 973.870178222656 963.159362792969 958.373901367188 955.820861816406 960.347534179688 973.598571777344 965.421752929688 967.778198242188 967.517211914062 966.113647460938 971.208190917969 973.372131347656 969.902954101562 975.760864257812 974.348266601562 978.871520996094 984.884460449219 988.629455566406 993.508850097656 991.12646484375 984.947082519531 981.210693359375 985.020629882812 979.288146972656 980.008361816406 995.394897460938 985.870910644531 987.156066894531 987.530578613281 984.833129882812 985.49169921875 991.859130859375 990.046264648438 980.8271484375 984.752685546875 988.922668457031 982.617492675781 981.844848632812 982.802978515625 981.690307617188 991.325561523438 990.193725585938 997.260559082031 992.879150390625 994.802001953125 982.112365722656 992.876647949219 992.945983886719 988.733642578125 1001.28771972656 1004.44244384766 999.116943359375 996.471008300781 992.476684570312 1009.93634033203 996.923156738281 1002.67083740234 1006.77160644531 1008.90008544922 1018.74237060547 1010.68786621094 1019.19738769531 1034.89636230469 1041.99963378906 1050.82897949219 1058.16479492188 1056.04858398438 1060.75170898438 1060.25830078125 1067.40869140625 1077.58825683594 1099.04724121094 1108.34729003906 1111.25024414062 1109.47863769531 1111.65356445312 1113.06298828125 1119.7060546875 1136.57348632812 1143.45104980469 1149.654296875 1163.33557128906 1173.5205078125 1176.11535644531
953.25830078125 945.485900878906 952.895935058594 961.073425292969 957.548156738281 955.812744140625 949.428527832031 965.942504882812 967.340393066406 976.467407226562 977.984497070312 973.705444335938 972.019836425781 965.542175292969 965.555358886719 970.085876464844 977.813659667969 978.841735839844 980.813598632812 980.396179199219 978.674133300781 973.252868652344 969.896057128906 972.742004394531 976.0341796875 976.441650390625 969.339477539062 971.931518554688 971.924560546875 978.649780273438 981.482299804688 983.514709472656 980.285888671875 981.145202636719 972.038879394531 969.594177246094 970.868408203125 968.466064453125 980.24951171875 966.762512207031 971.429260253906 967.170104980469 964.088989257812 962.864868164062 964.189880371094 973.3837890625 975.138610839844 970.366455078125 965.712646484375 974.8984375 964.730712890625 967.239685058594 964.265563964844 962.264770507812 960.046569824219 963.597595214844 969.187744140625 964.01220703125 972.370971679688 977.764343261719 975.049133300781 969.756408691406 964.355163574219 971.648742675781 971.726379394531 976.537658691406 974.828552246094 963.640502929688 963.965026855469 961.571350097656 968.486633300781 964.992980957031 960.365600585938 957.783874511719 960.637145996094 965.257263183594 978.587036132812 978.998474121094 969.983459472656 973.937316894531 975.3701171875 969.961059570312 986.238586425781 983.936767578125 996.268798828125 993.741821289062 978.875 975.582702636719 981.666015625 989.345642089844 983.793518066406 981.090270996094 986.528503417969 983.187744140625 982.575561523438 976.014892578125 978.909118652344 986.097900390625 981.353942871094 981.438049316406 984.880432128906 980.329406738281 977.094177246094 986.729919433594 992.932678222656 987.35498046875 994.743713378906 995.059326171875 995.982299804688 1004.96331787109 1000.90606689453 990.131774902344 998.792663574219 1002.41986083984 1002.09790039062 1005.75445556641 1003.13446044922 1003.93090820312 1006.08911132812 1001.05255126953 1005.85906982422 1013.87921142578 1001.74237060547 1009.80126953125 1012.37438964844 1017.51226806641 1010.83294677734 1018.78863525391 1036.18933105469 1036.61779785156 1043.61315917969 1059.25085449219 1059.12646484375 1069.08276367188 1059.46228027344 1068.44201660156 1081.79382324219 1101.71411132812 1108.92456054688 1118.87939453125 1118.08093261719 1122.20349121094 1119.90551757812 1130.3134765625 1141.71374511719 1149.67456054688 1161.18933105469 1175.48559570312 1176.712890625 1178.34851074219
955.703369140625 944.291381835938 949.642944335938 954.155700683594 960.16259765625 954.236694335938 962.452331542969 970.469116210938 968.729370117188 972.822326660156 971.115844726562 973.161560058594 964.661743164062 961.1240234375 962.496398925781 967.195495605469 975.217407226562 978.518615722656 983.784240722656 973.532165527344 972.625305175781 981.559631347656 974.30810546875 972.878540039062 974.021301269531 963.911315917969 967.710021972656 975.163330078125 974.166442871094 976.791381835938 982.505493164062 982.355407714844 977.367797851562 973.372436523438 975.3623046875 973.418762207031 968.370727539062 976.165222167969 973.442016601562 981.033752441406 967.683227539062 960.165100097656 957.199096679688 957.381530761719 962.601501464844 964.243835449219 979.087463378906 972.403564453125 967.604736328125 980.343322753906 976.982971191406 965.812255859375 961.956726074219 952.439758300781 959.779235839844 960.053405761719 968.139099121094 972.013549804688 971.323181152344 975.352966308594 967.7021484375 970.905883789062 965.620056152344 971.280944824219 968.200927734375 977.507751464844 977.444030761719 964.641540527344 960.87939453125 965.907836914062 958.3271484375 959.336364746094 959.539978027344 958.593017578125 959.491516113281 968.102783203125 975.640441894531 982.338012695312 976.621826171875 969.571350097656 964.890380859375 969.603515625 979.465698242188 981.141723632812 981.969665527344 977.676696777344 972.70068359375 985.320922851562 975.639404296875 982.602844238281 981.497985839844 975.052490234375 985.242431640625 980.830017089844 985.792053222656 984.629333496094 974.374755859375 985.175903320312 980.029663085938 978.638793945312 981.533447265625 988.623291015625 998.621398925781 998.101684570312 993.241455078125 996.336303710938 988.228332519531 998.106262207031 988.058776855469 1000.09436035156 999.858520507812 997.839294433594 997.783386230469 1000.197265625 1010.82537841797 1010.79547119141 1003.39965820312 1009.26666259766 1004.89599609375 1010.70349121094 1012.77734375 1011.39007568359 1006.24676513672 1013.95190429688 1017.783203125 1018.80871582031 1014.47741699219 1016.20361328125 1034.34777832031 1040.47839355469 1053.2900390625 1059.99658203125 1068.62060546875 1075.59777832031 1075.49243164062 1076.09094238281 1086.12561035156 1100.54479980469 1115.09985351562 1127.38342285156 1131.40124511719 1128.57958984375 1133.55126953125 1142.18212890625 1148.36181640625 1154.44714355469 1164.83947753906 1168.80773925781 1180.18859863281 1184.10864257812
956.630249023438 951.053771972656 946.212280273438 949.076049804688 954.067993164062 962.652648925781 971.194580078125 964.351867675781 968.553588867188 962.8349609375 972.482116699219 972.276184082031 962.053161621094 970.198852539062 968.033630371094 969.30322265625 975.995971679688 989.337280273438 977.927917480469 976.378356933594 968.102844238281 972.680480957031 972.886352539062 963.95361328125 963.495422363281 964.260009765625 958.775634765625 975.121154785156 969.718444824219 970.649841308594 976.436767578125 977.632690429688 980.078674316406 977.916687011719 973.71435546875 968.172119140625 966.481811523438 970.13720703125 967.684631347656 974.371276855469 963.935119628906 964.705200195312 962.975830078125 959.232666015625 959.413696289062 964.581970214844 971.30517578125 971.2265625 969.581787109375 982.861022949219 982.394104003906 967.54345703125 952.1953125 953.342834472656 963.094360351562 958.006530761719 963.982238769531 970.977600097656 970.883422851562 969.307250976562 970.001892089844 967.124084472656 972.311706542969 974.879699707031 971.286499023438 971.983703613281 970.441711425781 973.925842285156 966.12841796875 958.006164550781 954.663208007812 961.214477539062 955.451904296875 951.048217773438 966.605529785156 975.210510253906 979.189636230469 969.815856933594 976.138854980469 970.303466796875 967.840454101562 966.12939453125 969.722106933594 976.420776367188 981.526672363281 979.1826171875 980.257751464844 977.676025390625 974.654113769531 978.626770019531 972.859130859375 968.885925292969 978.542602539062 988.590270996094 986.352233886719 984.706787109375 973.979248046875 976.177124023438 978.00146484375 968.986389160156 972.690979003906 983.472961425781 988.008422851562 991.357788085938 993.388916015625 986.970397949219 992.893676757812 990.3466796875 995.751159667969 998.760192871094 990.676513671875 1000.94744873047 999.661682128906 1002.39837646484 1007.61004638672 1010.52661132812 1008.12756347656 1010.15100097656 1003.48815917969 999.220275878906 1002.37048339844 1004.18640136719 1009.77362060547 1018.04473876953 1025.93481445312 1022.95349121094 1020.52783203125 1018.30755615234 1023.51300048828 1029.81762695312 1044.5048828125 1058.07360839844 1065.90734863281 1077.89013671875 1073.97790527344 1085.9677734375 1094.94299316406 1105.63879394531 1114.45446777344 1121.73718261719 1133.62023925781 1135.21594238281 1143.24780273438 1144.66052246094 1158.52026367188 1164.55834960938 1164.76708984375 1166.18115234375 1167.73291015625 1167.39807128906
955.77783203125 952.727172851562 952.949279785156 952.634033203125 962.043701171875 960.458740234375 955.830871582031 967.777465820312 965.591552734375 971.880676269531 967.264404296875 965.707214355469 970.498657226562 969.695251464844 976.094116210938 980.91259765625 978.71875 987.556884765625 982.552185058594 973.936401367188 968.973022460938 965.430541992188 960.175415039062 953.718872070312 964.032348632812 964.559814453125 968.618530273438 966.615417480469 962.614624023438 968.974304199219 976.7802734375 972.061706542969 974.439697265625 971.327270507812 970.624755859375 968.300964355469 962.760986328125 961.755432128906 966.615783691406 972.286987304688 959.246948242188 960.622192382812 966.528686523438 961.774780273438 960.184753417969 960.399963378906 958.978271484375 964.177551269531 968.407897949219 973.425659179688 968.49609375 963.990417480469 959.591369628906 960.295043945312 962.155456542969 956.880065917969 965.169677734375 967.055603027344 975.096069335938 977.644287109375 970.600769042969 958.409423828125 970.905212402344 964.471069335938 958.098449707031 961.643615722656 953.522705078125 953.523376464844 955.790161132812 945.541564941406 957.316772460938 954.312561035156 961.977905273438 955.838439941406 963.353820800781 963.374694824219 968.838684082031 976.984008789062 967.947021484375 970.279907226562 971.328186035156 970.313354492188 968.077697753906 983.457824707031 977.54052734375 969.908874511719 971.916198730469 969.897338867188 983.641784667969 979.564697265625 978.929260253906 980.551696777344 970.493896484375 983.298522949219 985.60302734375 979.143798828125 974.186279296875 978.99951171875 972.091918945312 972.46533203125 984.816284179688 986.763366699219 984.896362304688 988.441711425781 989.220764160156 993.865539550781 995.820068359375 994.197021484375 984.546875 987.657165527344 992.554931640625 1002.32000732422 995.118774414062 1001.11102294922 998.660705566406 1002.62567138672 1009.37475585938 1012.31201171875 1006.55145263672 1002.88781738281 1004.57299804688 1007.17193603516 1008.03405761719 1011.68634033203 1027.81005859375 1025.49230957031 1032.50537109375 1031.01794433594 1032.3994140625 1040.82751464844 1044.70837402344 1045.58435058594 1059.54016113281 1069.03210449219 1071.6103515625 1076.15002441406 1088.49279785156 1108.56066894531 1105.439453125 1121.20678710938 1124.43591308594 1122.6416015625 1135.04870605469 1143.49682617188 1154.10852050781 1160.47497558594 1158.78015136719 1160.01306152344 1157.06762695312 1158.96398925781
962.178344726562 958.931213378906 960.509704589844 952.802917480469 955.536987304688 959.226135253906 966.598876953125 973.06640625 975.082763671875 964.627014160156 964.867309570312 962.158020019531 974.690979003906 972.405517578125 977.611145019531 981.543762207031 970.439086914062 974.725402832031 974.481262207031 976.251342773438 964.255859375 957.238464355469 960.599670410156 960.225952148438 963.33984375 958.083618164062 954.105895996094 968.579711914062 963.430908203125 964.268371582031 968.933349609375 967.576110839844 975.287780761719 967.789855957031 973.704956054688 965.902160644531 963.708801269531 960.263366699219 961.730590820312 968.141357421875 958.249633789062 961.183776855469 959.244873046875 959.219482421875 956.046936035156 957.893432617188 962.53466796875 966.013244628906 956.54736328125 973.031311035156 972.4609375 976.77978515625 968.588928222656 965.646240234375 960.505432128906 969.207458496094 962.3505859375 962.659362792969 969.515014648438 964.028625488281 964.36328125 965.476867675781 968.62158203125 975.6669921875 956.384460449219 954.139404296875 956.041137695312 954.465576171875 951.187133789062 951.126892089844 965.886169433594 969.938842773438 961.004150390625 966.1162109375 969.175659179688 961.811950683594 973.589599609375 971.345336914062 970.376770019531 962.907531738281 963.699401855469 970.14697265625 970.513488769531 975.187683105469 974.440368652344 970.532348632812 966.119567871094 974.137023925781 971.173583984375 982.462524414062 973.939331054688 973.610656738281 966.114929199219 972.612121582031 978.102783203125 978.167175292969 976.830139160156 974.109985351562 968.546447753906 976.785400390625 982.989196777344 980.381164550781 983.0703125 979.260864257812 978.46826171875 988.220581054688 989.981811523438 990.917053222656 985.662658691406 991.088623046875 990.839233398438 997.589904785156 1002.62103271484 1000.65356445312 999.134399414062 1000.60150146484 1009.32800292969 1013.68634033203 1010.78436279297 1003.90466308594 1001.59197998047 1004.41339111328 1014.13171386719 1020.71771240234 1026.85229492188 1026.15100097656 1024.7216796875 1042.21411132812 1034.37414550781 1041.48425292969 1047.8193359375 1042.66735839844 1050.82214355469 1064.12927246094 1077.8037109375 1086.96008300781 1094.04772949219 1098.31030273438 1093.11413574219 1102.44177246094 1115.71911621094 1119.47131347656 1120.19177246094 1135.35729980469 1144.83911132812 1148.83410644531 1150.90795898438 1146.81774902344 1146.05151367188 1154.9443359375
965.292358398438 961.608459472656 958.1318359375 956.194213867188 956.507385253906 957.874572753906 958.513122558594 966.186706542969 973.185913085938 970.689636230469 969.158386230469 975.429138183594 980.075073242188 970.695129394531 979.991577148438 986.3134765625 971.870239257812 973.111755371094 979.633422851562 980.185791015625 969.937194824219 962.723205566406 958.687316894531 960.744812011719 959.230224609375 953.658569335938 955.386596679688 966.123657226562 963.683654785156 969.620056152344 968.482055664062 970.161376953125 968.991943359375 972.687683105469 969.185791015625 965.632019042969 963.129699707031 953.961059570312 964.476928710938 958.106201171875 959.145446777344 960.283081054688 966.438293457031 960.36083984375 961.408569335938 961.104125976562 967.476196289062 968.659057617188 967.248474121094 968.235656738281 975.795593261719 969.341918945312 965.374877929688 973.366516113281 963.656311035156 970.364624023438 969.093444824219 957.077331542969 956.533569335938 952.253234863281 957.901062011719 964.878540039062 964.4921875 970.525756835938 963.430419921875 960.959228515625 965.5078125 955.626342773438 957.385009765625 959.231750488281 965.156188964844 962.980773925781 967.17626953125 965.488159179688 971.657043457031 965.867614746094 964.107543945312 971.173645019531 965.341979980469 964.932800292969 962.982543945312 966.667907714844 961.177551269531 968.660522460938 970.786071777344 964.833679199219 965.2529296875 971.908081054688 970.8408203125 976.3271484375 987.720886230469 970.221740722656 970.709106445312 973.697509765625 978.796752929688 975.687133789062 975.919128417969 964.102600097656 968.568908691406 981.8232421875 981.267944335938 979.634887695312 981.26123046875 981.396301269531 983.477416992188 994.234680175781 991.660949707031 991.81884765625 990.265686035156 989.996337890625 988.34423828125 995.136535644531 1004.83819580078 998.736389160156 996.076416015625 996.996826171875 1000.75927734375 1007.1943359375 1000.82531738281 997.520812988281 1009.38336181641 1011.22692871094 1017.81573486328 1022.02185058594 1021.98931884766 1022.55084228516 1028.56896972656 1029.41955566406 1040.96508789062 1041.15795898438 1047.28503417969 1044.63513183594 1055.52380371094 1071.4326171875 1077.02844238281 1087.779296875 1086.2548828125 1093.75708007812 1087.74401855469 1098.75012207031 1109.67333984375 1106.59790039062 1113.17651367188 1119.52429199219 1131.14807128906 1138.52514648438 1142.294921875 1139.37048339844 1142.28442382812 1134.80407714844
959.793518066406 965.495910644531 961.333251953125 969.270690917969 966.172058105469 956.303527832031 954.257446289062 973.781311035156 976.925231933594 974.633850097656 972.689575195312 971.088195800781 978.546875 977.910583496094 982.451416015625 982.968688964844 976.746276855469 979.825378417969 979.511596679688 988.513122558594 976.735778808594 970.877380371094 970.500854492188 961.321899414062 957.552551269531 962.271606445312 963.459533691406 967.084106445312 965.598205566406 966.611877441406 977.468322753906 976.207336425781 974.677001953125 971.385009765625 970.369567871094 967.837097167969 958.00439453125 960.572387695312 959.530029296875 947.017028808594 953.251220703125 954.718444824219 969.420104980469 970.800903320312 973.18505859375 970.825500488281 960.949157714844 962.255981445312 962.440002441406 971.959838867188 971.023864746094 966.9873046875 971.222412109375 969.4912109375 965.179565429688 968.898986816406 960.016052246094 955.845275878906 955.171142578125 956.125610351562 961.287048339844 968.441650390625 974.608337402344 964.097106933594 963.271850585938 963.050048828125 961.186950683594 951.399047851562 955.901184082031 959.112121582031 963.831970214844 966.516540527344 965.556091308594 966.687927246094 970.125183105469 969.617004394531 959.692504882812 968.3330078125 970.425720214844 960.46142578125 960.380981445312 955.550903320312 964.727233886719 962.275939941406 972.495788574219 975.626159667969 972.278564453125 966.283508300781 963.952880859375 969.688293457031 971.941040039062 971.705932617188 973.1904296875 975.171081542969 977.243591308594 969.085144042969 974.368530273438 965.906311035156 967.707092285156 980.172180175781 981.373291015625 984.145141601562 979.858215332031 976.694458007812 982.502197265625 992.969360351562 992.668701171875 989.297912597656 987.500061035156 991.768371582031 993.670104980469 990.780517578125 988.841125488281 996.116394042969 999.036804199219 1006.14367675781 997.997741699219 1003.28826904297 1008.70831298828 1014.58160400391 1015.10504150391 1020.830078125 1023.02563476562 1024.84704589844 1025.79846191406 1026.93347167969 1026.91577148438 1030.47802734375 1036.19982910156 1044.55603027344 1043.07922363281 1047.15063476562 1053.78796386719 1069.82067871094 1067.58264160156 1082.10021972656 1086.90966796875 1092.57531738281 1090.30456542969 1093.32312011719 1096.42492675781 1116.13989257812 1114.96411132812 1119.9921875 1127.02526855469 1130.68310546875 1142.26623535156 1137.64318847656 1139.77551269531 1131.79821777344
960.646118164062 964.9052734375 974.802978515625 968.942138671875 967.464477539062 963.988098144531 964.90673828125 972.202331542969 974.53271484375 971.573181152344 976.920532226562 974.793029785156 975.681579589844 984.287841796875 982.504943847656 977.678649902344 974.103332519531 978.09521484375 989.363708496094 982.066589355469 978.498046875 964.923583984375 959.8427734375 960.397399902344 958.461547851562 952.61767578125 960.311218261719 958.287536621094 965.452026367188 965.363098144531 968.236022949219 975.475524902344 971.7001953125 968.208923339844 966.542602539062 969.587646484375 960.015502929688 957.11376953125 956.02734375 958.82958984375 956.921691894531 964.208923339844 966.123474121094 968.505493164062 973.812744140625 975.346862792969 973.154724121094 962.169738769531 965.371398925781 970.952697753906 970.481628417969 962.978881835938 963.572265625 963.909912109375 957.666320800781 962.180419921875 958.188598632812 959.544799804688 952.535400390625 961.702270507812 958.936218261719 960.883239746094 958.193908691406 957.029235839844 962.278869628906 960.718017578125 957.662658691406 955.608581542969 951.087707519531 954.863220214844 953.606201171875 963.581726074219 959.451599121094 966.060729980469 970.647827148438 967.341979980469 964.626159667969 951.477172851562 964.334655761719 967.536499023438 973.030212402344 969.028625488281 962.153869628906 959.186157226562 962.378723144531 964.429992675781 970.408813476562 966.079406738281 961.509948730469 969.659973144531 973.426147460938 972.866638183594 977.7958984375 973.965759277344 972.819030761719 968.248474121094 973.640869140625 973.813781738281 977.637023925781 981.556335449219 976.691040039062 969.574035644531 962.771850585938 972.769653320312 982.318542480469 978.694030761719 987.493774414062 986.997924804688 979.75537109375 989.880920410156 986.377807617188 985.832214355469 992.115051269531 993.814331054688 993.259094238281 1002.99664306641 999.276245117188 1004.79827880859 1012.88214111328 1015.53552246094 1020.03753662109 1021.14947509766 1024.99890136719 1024.4111328125 1028.82873535156 1030.40112304688 1029.07312011719 1033.68334960938 1035.67236328125 1031.82397460938 1041.29125976562 1040.18933105469 1044.87976074219 1059.35974121094 1063.80517578125 1074.21459960938 1087.91638183594 1084.62585449219 1080.92712402344 1083.73291015625 1100.57653808594 1110.75671386719 1116.25610351562 1116.38208007812 1119.94775390625 1119.37170410156 1127.59375 1125.81896972656 1133.25842285156 1131.13305664062
964.161437988281 966.17724609375 979.795776367188 974.087036132812 965.57666015625 969.010009765625 969.939025878906 978.074035644531 969.779846191406 974.066467285156 973.531433105469 972.797180175781 976.7109375 981.693786621094 979.383239746094 970.602294921875 973.131469726562 975.469665527344 982.212707519531 979.120483398438 969.939697265625 965.447265625 962.7119140625 961.107482910156 959.915710449219 952.463073730469 956.063842773438 962.208862304688 962.885864257812 966.911254882812 966.865234375 969.512451171875 971.051330566406 971.198486328125 971.076843261719 964.568908691406 966.644958496094 968.038269042969 960.548095703125 959.552062988281 953.316284179688 961.907958984375 963.957275390625 971.814453125 982.602294921875 981.713623046875 975.208068847656 967.488037109375 970.623901367188 970.231323242188 964.817443847656 963.437072753906 965.293273925781 963.325317382812 962.579223632812 955.284301757812 957.363586425781 945.848754882812 958.61376953125 953.573791503906 959.817565917969 965.045593261719 965.138916015625 959.371520996094 954.30810546875 955.129699707031 958.976928710938 953.451904296875 946.429992675781 954.64013671875 962.827758789062 961.409606933594 961.679443359375 962.122436523438 964.737731933594 967.830932617188 961.522094726562 950.6796875 966.873046875 976.198974609375 977.794616699219 973.039001464844 975.406921386719 977.370239257812 977.419799804688 973.038330078125 969.155395507812 959.978393554688 962.904357910156 971.806213378906 980.289306640625 960.934692382812 965.440307617188 965.427795410156 960.640930175781 970.303283691406 978.44970703125 978.26708984375 978.51318359375 973.729858398438 973.655334472656 969.388366699219 966.230224609375 962.845520019531 965.597229003906 974.657043457031 987.282897949219 989.662658691406 991.343017578125 982.442932128906 976.49365234375 983.865295410156 988.013977050781 997.504638671875 1001.892578125 1000.10949707031 1002.44671630859 998.172119140625 1005.64251708984 1008.84893798828 1014.32177734375 1017.39050292969 1014.05853271484 1020.36401367188 1033.66540527344 1030.51416015625 1034.21533203125 1032.05212402344 1030.04675292969 1036.09497070312 1040.59521484375 1046.81726074219 1047.19787597656 1053.44958496094 1066.58129882812 1084.05529785156 1088.99438476562 1090.20825195312 1088.576171875 1091.59106445312 1106.83544921875 1105.009765625 1110.87023925781 1110.23693847656 1109.46655273438 1123.74060058594 1125.7158203125 1133.44213867188 1132.61560058594 1121.91394042969
967.508666992188 972.083312988281 971.953002929688 972.554870605469 974.412414550781 975.088623046875 968.660583496094 968.75390625 965.272888183594 971.718078613281 963.50341796875 979.012329101562 979.941101074219 987.41943359375 974.924743652344 970.622802734375 968.98095703125 973.747375488281 975.927978515625 974.706298828125 970.992553710938 968.285400390625 962.95458984375 969.195983886719 959.895568847656 956.456909179688 964.055541992188 957.203796386719 965.66162109375 964.920104980469 963.010803222656 964.72021484375 963.117004394531 969.2685546875 972.694519042969 974.920593261719 963.514404296875 964.145812988281 957.831420898438 952.421936035156 953.254089355469 965.026062011719 964.667114257812 961.624633789062 972.656982421875 970.155212402344 968.927978515625 966.839904785156 968.652038574219 970.818725585938 971.985290527344 968.357421875 967.211608886719 968.009643554688 959.520263671875 961.92431640625 960.098937988281 956.933349609375 959.087585449219 963.142333984375 955.948120117188 964.133728027344 966.51806640625 954.6337890625 957.043151855469 955.18359375 955.226379394531 950.875854492188 944.746459960938 960.798034667969 960.852905273438 958.949157714844 958.153747558594 968.602111816406 960.998596191406 965.09130859375 959.137390136719 955.968383789062 966.465881347656 974.772583007812 972.863403320312 974.430297851562 978.354431152344 982.39599609375 977.306518554688 969.625915527344 978.802917480469 966.727844238281 966.67578125 971.867919921875 962.8037109375 958.977416992188 957.957946777344 962.557739257812 960.562255859375 977.347961425781 975.853759765625 982.324157714844 982.528747558594 973.220825195312 976.434875488281 975.733093261719 962.433715820312 961.912719726562 966.866943359375 974.775634765625 987.058715820312 995.318420410156 997.957885742188 980.840759277344 983.609191894531 990.581787109375 996.974548339844 993.433715820312 996.827819824219 997.532104492188 1002.61529541016 1003.18231201172 1006.86877441406 1007.12927246094 1006.30517578125 1020.166015625 1019.63891601562 1025.61547851562 1027.96813964844 1023.25512695312 1028.51928710938 1030.10070800781 1030.86645507812 1040.13696289062 1041.98950195312 1051.66638183594 1051.79956054688 1052.85339355469 1065.75415039062 1082.22412109375 1097.16772460938 1091.92980957031 1095.13586425781 1098.67578125 1105.73620605469 1111.02893066406 1110.24047851562 1101.77270507812 1108.99243164062 1110.25500488281 1112.1337890625 1113.59436035156 1116.53198242188 1115.29577636719
970.04052734375 968.20458984375 974.397094726562 967.487976074219 971.486267089844 976.609069824219 976.960021972656 970.111572265625 966.927429199219 970.093139648438 969.238098144531 976.972106933594 968.583618164062 974.036499023438 971.993530273438 975.317565917969 974.415405273438 963.6640625 973.505493164062 969.607360839844 969.2255859375 981.191284179688 974.290100097656 966.65234375 961.592346191406 970.118774414062 968.602294921875 966.142211914062 966.994384765625 975.78857421875 965.459838867188 959.088806152344 961.029602050781 962.425537109375 966.899597167969 974.307495117188 968.617553710938 962.867492675781 952.775634765625 962.825317382812 954.162292480469 962.078430175781 966.323120117188 964.203735351562 963.68212890625 960.7333984375 960.412170410156 955.42626953125 964.113952636719 968.348205566406 974.236022949219 970.530639648438 965.949645996094 966.91552734375 958.110168457031 948.719177246094 957.01953125 952.259826660156 956.457885742188 959.171569824219 959.953186035156 961.971618652344 963.930603027344 962.387939453125 956.985717773438 968.841125488281 956.067932128906 942.018249511719 953.211120605469 961.853454589844 953.662231445312 949.400207519531 951.722961425781 954.793518066406 957.76953125 959.466979980469 967.968933105469 969.88916015625 971.574401855469 970.827392578125 968.242797851562 967.492919921875 973.910217285156 980.098388671875 977.407104492188 975.237182617188 977.905090332031 973.893615722656 976.245544433594 969.073852539062 966.5966796875 958.660034179688 966.644226074219 967.418884277344 967.402221679688 979.78662109375 972.586181640625 978.705993652344 976.085754394531 976.556640625 977.144348144531 977.546630859375 972.224243164062 966.740600585938 969.502319335938 973.949890136719 986.536499023438 1004.87902832031 999.328674316406 986.511657714844 996.740234375 996.056274414062 987.586608886719 990.586547851562 990.114807128906 995.853332519531 989.659912109375 996.912719726562 1001.13659667969 1002.27160644531 1002.57135009766 1013.6279296875 1022.93017578125 1024.990234375 1030.69592285156 1024.60961914062 1021.56890869141 1021.9326171875 1038.46496582031 1044.68872070312 1047.93603515625 1056.08984375 1064.138671875 1063.17102050781 1080.13549804688 1085.33679199219 1087.94567871094 1089.33081054688 1101.66943359375 1095.82922363281 1098.67614746094 1102.80773925781 1104.80187988281 1104.23803710938 1100.67321777344 1095.6455078125 1101.23547363281 1097.86865234375 1100.24572753906 1092.38732910156
971.74560546875 976.537414550781 982.67724609375 970.631408691406 970.823608398438 981.838562011719 973.8017578125 970.434875488281 964.464782714844 965.038696289062 968.54541015625 963.69482421875 969.531494140625 976.594604492188 971.691345214844 976.481689453125 976.4541015625 963.926940917969 964.506103515625 965.867492675781 970.977905273438 973.8740234375 974.466003417969 964.034423828125 969.964599609375 970.175537109375 959.854858398438 963.639526367188 965.472473144531 969.023986816406 958.808715820312 958.616333007812 958.285278320312 950.875061035156 955.642333984375 965.137756347656 968.077209472656 961.745788574219 957.978698730469 961.591552734375 961.494934082031 962.326599121094 970.374084472656 959.920593261719 956.290893554688 957.676940917969 957.021301269531 964.014770507812 965.697631835938 967.7421875 964.755126953125 962.309875488281 953.113830566406 959.512756347656 948.939697265625 953.009643554688 961.688171386719 957.52685546875 951.524475097656 957.447692871094 954.392883300781 962.231384277344 961.576354980469 967.608032226562 959.375366210938 960.542602539062 956.924987792969 952.174987792969 953.924987792969 953.489685058594 956.219970703125 953.550903320312 940.216247558594 953.036193847656 957.586486816406 959.352111816406 959.655578613281 965.591125488281 972.0791015625 970.359252929688 959.63623046875 964.106872558594 971.711242675781 974.994445800781 971.4638671875 974.837890625 972.989685058594 970.302917480469 975.169067382812 966.084167480469 965.750854492188 965.626037597656 974.259887695312 972.113525390625 968.690856933594 974.592529296875 977.350463867188 981.742004394531 977.508117675781 974.117919921875 974.436706542969 974.765258789062 968.607666015625 966.892272949219 974.804321289062 976.424438476562 986.125427246094 998.171813964844 1003.41577148438 1000.54559326172 1009.40979003906 998.026794433594 999.119262695312 991.144348144531 994.740234375 989.580444335938 986.978881835938 989.408203125 997.527160644531 1000.26422119141 1007.54156494141 1000.73370361328 1014.25 1023.40765380859 1023.46807861328 1028.13842773438 1027.30578613281 1030.53112792969 1044.52270507812 1053.10180664062 1054.36047363281 1052.04113769531 1060.42260742188 1071.14538574219 1089.50158691406 1089.55944824219 1086.02429199219 1085.63293457031 1089.3095703125 1092.99011230469 1086.78234863281 1090.84997558594 1095.90112304688 1091.32385253906 1091.92761230469 1081.30590820312 1088.00378417969 1094.39331054688 1090.20092773438 1085.16320800781
969.853942871094 975.469360351562 981.844665527344 975.606384277344 969.022155761719 976.321044921875 977.144470214844 973.572937011719 971.451354980469 964.98388671875 961.120788574219 962.185180664062 962.626831054688 970.62060546875 968.946044921875 968.273315429688 969.458129882812 965.201782226562 963.457946777344 973.036865234375 965.727600097656 971.790100097656 976.056762695312 975.540710449219 968.778686523438 962.734619140625 957.219360351562 954.378356933594 956.422790527344 958.762878417969 957.994140625 955.10009765625 959.541809082031 960.191772460938 955.296691894531 954.507629394531 962.177124023438 963.160949707031 958.813110351562 957.271789550781 952.4541015625 961.322814941406 957.943542480469 954.031860351562 956.718383789062 952.398071289062 959.624755859375 963.522155761719 963.880187988281 968.241516113281 962.134704589844 962.094116210938 957.65673828125 951.463623046875 952.474853515625 955.196228027344 956.034729003906 956.276916503906 952.641235351562 956.5859375 954.414123535156 962.728942871094 965.531188964844 961.397705078125 954.040222167969 957.035522460938 961.4287109375 963.381713867188 965.478515625 962.977172851562 963.835510253906 953.033386230469 948.980895996094 962.826354980469 971.24658203125 963.468078613281 959.603149414062 971.228942871094 968.866455078125 968.769958496094 969.357727050781 962.285278320312 965.155883789062 972.488159179688 970.181701660156 965.193603515625 974.299072265625 970.835327148438 976.001098632812 964.779235839844 971.018127441406 975.535583496094 977.391540527344 976.869079589844 975.044677734375 968.312683105469 971.638427734375 973.804260253906 982.979919433594 974.609558105469 974.622497558594 975.053527832031 974.952880859375 969.085021972656 970.04296875 984.195861816406 987.669250488281 990.936218261719 995.222961425781 1006.17291259766 1003.82653808594 1000.56420898438 1000.89666748047 993.996948242188 994.820678710938 991.617614746094 985.642395019531 990.674682617188 992.684814453125 992.250061035156 999.797241210938 1006.90185546875 1014.31683349609 1029.31591796875 1032.3095703125 1028.97790527344 1034.56652832031 1029.87622070312 1040.73046875 1061.96984863281 1055.90869140625 1051.60803222656 1058.78552246094 1057.90283203125 1070.06408691406 1078.73767089844 1081.66711425781 1071.77404785156 1077.11083984375 1071.82299804688 1078.52099609375 1075.36108398438 1072.51733398438 1077.40588378906 1064.32775878906 1067.28063964844 1070.68872070312 1076.10290527344 1086.62194824219 1080.54016113281
964.933898925781 973.662536621094 974.481994628906 963.347045898438 965.719909667969 968.56689453125 971.372436523438 977.3017578125 979.218811035156 973.144470214844 966.426940917969 959.999938964844 959.66552734375 965.835144042969 967.032348632812 959.445129394531 965.127563476562 966.447509765625 965.913330078125 967.905029296875 965.727478027344 959.7431640625 958.234985351562 962.058288574219 963.900512695312 963.142456054688 948.576477050781 952.920593261719 952.105834960938 955.133605957031 947.338195800781 961.335327148438 958.419189453125 958.115295410156 955.716003417969 948.076354980469 948.289489746094 954.583251953125 954.588684082031 951.733276367188 945.749389648438 951.873168945312 954.138122558594 947.714111328125 944.252685546875 954.950561523438 955.80810546875 952.648010253906 952.060974121094 962.25732421875 964.176696777344 966.640502929688 958.018371582031 953.469848632812 948.888427734375 954.579040527344 960.605895996094 963.844787597656 956.812377929688 957.8173828125 971.6123046875 976.85595703125 969.527038574219 960.555847167969 961.522888183594 959.344055175781 961.382446289062 961.422668457031 961.699157714844 962.777526855469 965.784362792969 964.21630859375 963.933349609375 955.172119140625 972.076721191406 970.401977539062 966.447021484375 969.379760742188 962.636840820312 965.924560546875 966.188720703125 969.90966796875 967.857971191406 960.782043457031 962.946594238281 963.674133300781 958.662231445312 965.76953125 971.485229492188 963.096313476562 968.504211425781 979.512145996094 974 979.321655273438 974.428100585938 977.200744628906 975.353210449219 979.577209472656 981.550476074219 978.279846191406 969.061950683594 973.641845703125 980.980651855469 975.761901855469 971.315490722656 980.174438476562 983.638977050781 987.187561035156 995.054321289062 997.564331054688 993.884155273438 990.782531738281 1002.62622070312 996.433837890625 1007.93701171875 1002.29937744141 996.765319824219 986.299133300781 987.16845703125 994.054321289062 996.632202148438 1006.85748291016 1019.88348388672 1021.74243164062 1015.94836425781 1022.123046875 1020.89953613281 1022.70550537109 1043.94372558594 1050.33361816406 1044.40515136719 1049.04345703125 1045.34936523438 1050.60876464844 1057.56494140625 1062.21667480469 1061.59558105469 1066.10546875 1070.9296875 1067.79467773438 1060.09362792969 1057.76745605469 1058.68249511719 1059.04162597656 1062.2138671875 1060.9697265625 1062.20520019531 1066.2998046875 1072.41149902344 1070.81140136719
962.233215332031 969.600769042969 977.688354492188 966.443176269531 966.146301269531 962.846923828125 969.584716796875 978.596313476562 975.001831054688 971.31201171875 966.453674316406 959.938903808594 961.019470214844 962.441955566406 962.236450195312 961.819396972656 967.306579589844 958.523986816406 953.401672363281 952.580139160156 963.481323242188 962.745361328125 961.263305664062 958.681274414062 959.004699707031 952.877197265625 954.775634765625 945.029174804688 958.767517089844 958.9560546875 960.846862792969 954.094909667969 959.841369628906 958.479125976562 959.399719238281 947.440307617188 948.623107910156 948.894165039062 952.3740234375 941.722900390625 945.761840820312 951.823852539062 953.33056640625 946.409912109375 946.428039550781 946.513732910156 953.63037109375 946.684814453125 949.595397949219 958.246398925781 954.284790039062 953.190368652344 954.844177246094 954.525268554688 946.949645996094 951.170837402344 950.274230957031 960.97216796875 953.168701171875 961.213134765625 962.822204589844 977.036560058594 967.564514160156 959.834167480469 967.728515625 959.964904785156 959.161010742188 966.992431640625 962.139526367188 960.998901367188 964.784606933594 961.976257324219 952.363403320312 970.114196777344 978.877624511719 972.631591796875 969.985595703125 964.257629394531 970.635620117188 967.384094238281 964.517822265625 974.482299804688 967.665893554688 962.213684082031 961.231140136719 966.250732421875 958.011840820312 962.284545898438 966.836669921875 972.141540527344 981.846801757812 970.187622070312 974.954467773438 979.427551269531 972.335571289062 973.855895996094 973.149963378906 977.250854492188 976.442993164062 980.157897949219 978.850341796875 978.117431640625 981.470947265625 983.554443359375 974.295288085938 980.337036132812 986.121520996094 981.575927734375 995.397399902344 989.227233886719 990.952270507812 992.196350097656 1006.01214599609 1012.70892333984 1002.15307617188 1010.57653808594 994.766662597656 998.933898925781 997.259460449219 998.618286132812 1008.44323730469 1012.82019042969 1018.75872802734 1026.44775390625 1024.15100097656 1018.65252685547 1026.64184570312 1030.48254394531 1038.27416992188 1037.30334472656 1040.796875 1042.18493652344 1040.61608886719 1041.04089355469 1049.935546875 1040.61218261719 1053.51013183594 1052.59777832031 1060.18774414062 1047.35876464844 1048.81506347656 1045.44543457031 1047.68798828125 1054.03002929688 1058.34924316406 1055.46423339844 1060.22473144531 1062.62414550781 1056.51318359375 1055.35217285156
960.532043457031 974.792419433594 967.894653320312 961.194885253906 956.644897460938 967.331787109375 975.90234375 968.967529296875 967.892883300781 970.355834960938 957.471740722656 958.795715332031 953.293762207031 958.529602050781 957.8056640625 960.282592773438 960.950805664062 960.277526855469 947.832763671875 945.934143066406 948.997314453125 951.654602050781 942.057495117188 950.393371582031 957.818420410156 953.064697265625 952.2001953125 949.994750976562 954.099243164062 959.564208984375 957.139587402344 951.458374023438 951.964660644531 958.003173828125 952.728698730469 957.825134277344 949.5380859375 948.585205078125 941.801147460938 942.817077636719 939.426635742188 951.499938964844 953.646362304688 945.837524414062 951.207946777344 947.632446289062 945.704711914062 952.700317382812 951.055908203125 954.936340332031 943.805297851562 956.630920410156 958.731262207031 962.014526367188 951.0283203125 947.706726074219 952.243103027344 955.527526855469 960.427307128906 961.881774902344 967.171264648438 969.177062988281 963.405700683594 961.626586914062 960.791931152344 958.446472167969 963.856750488281 962.009155273438 957.913635253906 963.629760742188 965.29541015625 961.559326171875 958.674377441406 969.059875488281 960.989379882812 966.985534667969 964.168395996094 960.065673828125 966.566467285156 975.132019042969 976.114196777344 975.722778320312 976.0205078125 966.01953125 969.090270996094 959.177062988281 961.6640625 978.38037109375 977.588562011719 978.569274902344 979.345703125 981.559020996094 986.74951171875 978.767700195312 971.680419921875 969.564514160156 978.4169921875 978.053161621094 982.573791503906 984.515014648438 983.952026367188 983.908813476562 977.241149902344 980.220397949219 977.362060546875 982.604064941406 979.846435546875 977.585998535156 982.409545898438 996.312805175781 1002.60791015625 1001.99798583984 1004.03845214844 999.278198242188 1003.30438232422 999.366027832031 993.618041992188 1002.98205566406 1002.73229980469 1002.28747558594 1001.49597167969 1003.39312744141 1021.81311035156 1018.98449707031 1017.84332275391 1022.68286132812 1021.38549804688 1026.63366699219 1036.71911621094 1039.00793457031 1035.15808105469 1030.18408203125 1029.083984375 1036.57885742188 1041.00805664062 1039.70776367188 1037.18774414062 1045.48352050781 1037.27600097656 1038.58996582031 1033.20458984375 1028.88684082031 1032.7138671875 1039.16369628906 1047.30737304688 1047.29455566406 1050.75317382812 1050.97888183594 1052.15441894531 1045.6162109375
954.22998046875 971.023559570312 961.162170410156 956.625061035156 966.230041503906 973.109375 971.575073242188 965.4306640625 965.943542480469 958.822265625 951.663513183594 954.133483886719 964.215576171875 952.086547851562 948.935180664062 942.917724609375 957.232788085938 954.253723144531 953.127197265625 947.0263671875 945.569702148438 945.40771484375 941.685607910156 939.830688476562 940.620971679688 949.563659667969 942.78076171875 944.004760742188 945.5576171875 955.373779296875 952.776550292969 947.917846679688 953.049865722656 952.804443359375 949.877075195312 953.262939453125 951.100830078125 942.429321289062 945.610107421875 933.545349121094 932.802368164062 943.205261230469 954.741149902344 948.717834472656 956.918762207031 949.543701171875 946.650146484375 947.038391113281 954.775268554688 958.324340820312 956.857116699219 956.992553710938 961.821411132812 955.426147460938 953.130126953125 955.632568359375 955.264343261719 953.988220214844 953.429443359375 965.758972167969 968.980529785156 967.787109375 965.184265136719 959.496398925781 959.238525390625 959.041687011719 958.48388671875 963.01220703125 955.633911132812 961.819946289062 965.175354003906 959.061706542969 966.889953613281 962.125793457031 967.432495117188 960.223022460938 960.258850097656 962.407653808594 964.030456542969 965.302490234375 972.798095703125 971.645080566406 985.980346679688 973.858337402344 971.280090332031 971.145263671875 972.414733886719 970.11181640625 978.628051757812 972.267639160156 973.80517578125 979.748413085938 976.138305664062 975.524353027344 969.791442871094 971.080932617188 981.520812988281 979.722351074219 984.311218261719 989.380065917969 995.841430664062 985.501708984375 989.477172851562 981.297729492188 972.907897949219 977.0439453125 970.809387207031 981.97412109375 983.520629882812 989.858520507812 992.649169921875 1006.0703125 1004.7626953125 1005.623046875 999.485290527344 996.28271484375 998.268493652344 1004.30224609375 1007.40045166016 1006.60906982422 1003.15612792969 1006.47259521484 1013.96228027344 1020.90563964844 1018.96209716797 1016.98876953125 1027.35180664062 1036.96228027344 1031.8046875 1041.96630859375 1037.27416992188 1025.73486328125 1026.66748046875 1029.37426757812 1032.7294921875 1035.68627929688 1033.23828125 1030.49194335938 1026.83410644531 1023.36730957031 1022.04351806641 1023.14361572266 1021.89392089844 1028.62109375 1037.99499511719 1040.13732910156 1040.58117675781 1040.41784667969 1050.09887695312 1040.939453125
951.182556152344 962.144287109375 957.076843261719 960.939636230469 968.301025390625 973.476257324219 964.626342773438 961.775451660156 962.903442382812 958.76513671875 955.295166015625 948.658996582031 949.435424804688 946.923767089844 948.059387207031 939.956848144531 949.770202636719 949.065368652344 945.2216796875 942.258483886719 940.293212890625 945.272888183594 938.231811523438 939.623840332031 931.204040527344 942.315002441406 939.427673339844 947.341918945312 955.273681640625 955.170288085938 956.725646972656 946.437805175781 949.635864257812 947.689208984375 947.462097167969 948.081787109375 942.12939453125 948.574523925781 948.485900878906 935.168701171875 937.058410644531 938.826599121094 949.012023925781 957.38916015625 964.630004882812 951.649108886719 952.362365722656 956.127258300781 953.179260253906 953.045288085938 964.122314453125 963.198364257812 958.5419921875 960.176513671875 964.348571777344 964.874389648438 960.255981445312 953.839050292969 953.566223144531 963.300598144531 967.719177246094 974.066284179688 972.981750488281 968.773315429688 961.844482421875 956.687133789062 948.992858886719 956.964233398438 962.785461425781 965.605834960938 970.735717773438 968.836975097656 968.323791503906 966.151977539062 960.746276855469 962.982116699219 959.543090820312 963.705932617188 966.657653808594 972.019287109375 966.671081542969 969.70947265625 974.985229492188 980.917358398438 980.496765136719 982.849426269531 979.498474121094 979.321105957031 973.443908691406 973.629211425781 980.485595703125 976.895935058594 973.287292480469 972.862609863281 974.831848144531 973.351379394531 980.443603515625 984.431213378906 985.849060058594 991.0048828125 994.530395507812 991.69580078125 994.418090820312 987.972961425781 975.994506835938 978.643798828125 981.266357421875 987.065063476562 985.871826171875 989.722351074219 1002.96044921875 1013.51672363281 1010.89544677734 1010.12481689453 1011.97705078125 999.321411132812 1003.15167236328 994.365173339844 996.463562011719 1000.11022949219 1017.22375488281 1020.49810791016 1018.82611083984 1021.63934326172 1015.58532714844 1020.65502929688 1022.5615234375 1026.67028808594 1038.15319824219 1039.439453125 1030.59436035156 1031.11193847656 1030.294921875 1028.21594238281 1025.58984375 1029.33471679688 1024.96069335938 1036.3369140625 1031.19885253906 1022.91369628906 1025.58947753906 1016.64605712891 1017.42205810547 1016.03173828125 1033.70532226562 1039.14562988281 1030.232421875 1042.15795898438 1039.7802734375 1036.30065917969
951.956787109375 967.158752441406 962.756958007812 961.415283203125 960.134460449219 958.680908203125 961.664916992188 959.956176757812 967.921325683594 963.578186035156 953.102966308594 937.195861816406 935.713806152344 939.972351074219 939.905456542969 944.640930175781 946.001831054688 942.050537109375 946.513793945312 943.176452636719 943.6923828125 942.484191894531 936.023315429688 935.578796386719 926.545471191406 941.178649902344 935.14453125 950.41845703125 953.315795898438 954.823608398438 955.415893554688 957.339782714844 949.913757324219 944.820983886719 948.400390625 951.922912597656 940.487060546875 949.355773925781 951.146423339844 942.142639160156 937.988647460938 951.514404296875 957.311218261719 959.72412109375 957.447570800781 964.733459472656 958.932922363281 955.97314453125 955.082153320312 961.776550292969 962.01318359375 960.561340332031 957.276672363281 958.080078125 965.535766601562 963.864440917969 957.744323730469 956.9921875 956.576293945312 969.776977539062 968.887939453125 966.264892578125 969.104248046875 962.794311523438 968.049499511719 963.592468261719 952.656188964844 951.319396972656 954.239074707031 963.151611328125 967.865844726562 971.13720703125 969.792846679688 968.051452636719 970.812133789062 967.257934570312 969.225463867188 965.614990234375 963.945373535156 970.011413574219 971.414367675781 969.693908691406 977.2587890625 980.577453613281 989.628112792969 989.021850585938 984.011169433594 982.165954589844 975.571655273438 973.361999511719 976.780822753906 971.787658691406 971.995422363281 978.778747558594 976.798461914062 977.871765136719 984.590209960938 985.020385742188 989.844604492188 993.047607421875 986.426574707031 991.501892089844 986.2880859375 990.916320800781 986.650390625 986.555358886719 987.346984863281 992.546203613281 993.328552246094 990.672607421875 1001.39654541016 1014.52325439453 1019.8232421875 1018.66760253906 1014.19738769531 1012.00531005859 1013.40600585938 1007.04321289062 1003.27593994141 1005.02313232422 1013.43133544922 1019.83209228516 1026.18212890625 1015.95794677734 1030.74877929688 1019.47216796875 1025.14392089844 1023.13989257812 1032.80358886719 1041.00109863281 1039.16027832031 1025.80798339844 1029.47448730469 1021.39739990234 1028.55065917969 1030.82751464844 1021.31170654297 1028.64270019531 1027.64697265625 1022.0634765625 1017.83361816406 1010.32427978516 1013.11572265625 1010.67706298828 1027.798828125 1032.61669921875 1021.58673095703 1025.92785644531 1020.59515380859 1025.20617675781
950.7861328125 958.110656738281 960.826721191406 953.549255371094 963.304443359375 959.366027832031 954.448913574219 950.7080078125 956.507690429688 952.190002441406 948.989807128906 937.804504394531 934.005920410156 939.505249023438 936.843688964844 940.057434082031 941.668701171875 939.863525390625 945.018493652344 947.417846679688 946.560363769531 936.577880859375 931.854553222656 941.685668945312 936.527282714844 942.949523925781 934.780395507812 948.114013671875 951.164245605469 950.066589355469 949.038452148438 953.769165039062 956.056823730469 954.692504882812 947.263366699219 946.793029785156 953.905517578125 958.720031738281 954.622924804688 951.408081054688 952.4833984375 959.997375488281 951.752868652344 958.366516113281 961.61083984375 953.333129882812 956.724304199219 941.696838378906 954.263610839844 964.521850585938 960.997619628906 961.176452636719 955.208251953125 954.042663574219 969.577941894531 969.396240234375 960.756774902344 967.228393554688 960.990966796875 967.123291015625 970.835327148438 971.193542480469 968.608581542969 960.817687988281 948.839477539062 955.778625488281 955.622863769531 952.62646484375 954.476745605469 966.73486328125 957.082946777344 972.769958496094 975.630310058594 979.986145019531 971.971618652344 964.013000488281 975.910461425781 970.599182128906 970.02880859375 976.265380859375 978.146301269531 973.886108398438 977.515441894531 983.746826171875 987.741271972656 985.542907714844 976.648559570312 981.986999511719 980.387573242188 981.953247070312 977.336853027344 979.585205078125 981.598083496094 971.789428710938 983.844665527344 985.776916503906 987.342895507812 993.553100585938 986.7587890625 991.911376953125 979.920654296875 991.266174316406 982.40234375 986.191162109375 981.709838867188 985.1953125 991.929138183594 985.864807128906 992.167236328125 993.697509765625 1014.91564941406 1013.37396240234 1019.35296630859 1023.08538818359 1022.17401123047 1013.39807128906 1018.76507568359 1012.142578125 1011.90295410156 1014.57189941406 1012.42803955078 1030.44006347656 1034.37194824219 1020.16668701172 1025.515625 1021.10870361328 1024.28076171875 1034.79504394531 1037.57495117188 1042.41943359375 1032.29479980469 1028.47839355469 1031.38830566406 1027.04711914062 1027.96899414062 1031.33850097656 1030.38977050781 1035.64270019531 1026.78735351562 1013.87585449219 1009.71337890625 1013.11120605469 1009.49084472656 1014.05908203125 1021.28845214844 1022.69738769531 1022.43902587891 1024.19189453125 1016.52197265625 1015.54821777344
949.55078125 961.096557617188 963.076538085938 965.398071289062 957.991882324219 963.596130371094 962.085021972656 951.94775390625 947.869934082031 942.621032714844 937.993835449219 932.581237792969 942.173706054688 946.800415039062 942.816345214844 949.971740722656 943.050842285156 947.65576171875 944.048034667969 949.682983398438 944.591369628906 947.805053710938 944.819580078125 945.898681640625 946.911437988281 945.418395996094 934.495300292969 937.076171875 950.114868164062 947.821105957031 953.239990234375 953.439453125 950.043701171875 956.275939941406 955.996276855469 952.457336425781 955.583251953125 954.120727539062 954.560180664062 953.357421875 954.171020507812 954.648010253906 960.0244140625 960.455444335938 956.656311035156 951.121398925781 953.187927246094 956.70751953125 950.858764648438 962.87841796875 974.437194824219 971.143127441406 967.173217773438 962.069885253906 966.746032714844 964.258605957031 965.937622070312 974.398742675781 968.67822265625 966.92431640625 971.84423828125 972.602294921875 969.991333007812 965.259765625 960.9169921875 960.092163085938 963.673278808594 964.663818359375 954.675598144531 965.463684082031 968.735778808594 968.177368164062 976.393188476562 976.457763671875 973.524047851562 974.5244140625 982.554443359375 974.926147460938 978.316955566406 971.358032226562 972.162475585938 974.103332519531 979.504577636719 989.258605957031 982.12646484375 985.433654785156 988.604431152344 984.785827636719 985.834838867188 981.218505859375 977.7666015625 981.751342773438 979.929809570312 980.864013671875 986.049621582031 981.952026367188 989.230651855469 988.786987304688 991.4189453125 998.457641601562 989.531005859375 993.437255859375 982.972412109375 986.63330078125 988.864624023438 990.559509277344 983.068603515625 984.471313476562 989.753784179688 1003.56396484375 1007.06451416016 1014.85186767578 1028.05419921875 1031.82080078125 1022.08074951172 1026.84887695312 1024.70983886719 1016.97296142578 1017.9208984375 1009.97680664062 1018.92425537109 1035.42724609375 1039.03332519531 1028.208984375 1024.30334472656 1021.31280517578 1029.66223144531 1032.92993164062 1032.46032714844 1026.50903320312 1030.29089355469 1025.49169921875 1022.26214599609 1019.78271484375 1021.83471679688 1026.3193359375 1028.45642089844 1032.42102050781 1032.44055175781 1022.03509521484 1018.29290771484 1014.56817626953 1024.13891601562 1015.30340576172 1020.99859619141 1019.81970214844 1020.86505126953 1016.89721679688 1012.46002197266 1006.85864257812
955.1640625 962.667907714844 965.250793457031 964.594604492188 965.304504394531 962.073364257812 958.140014648438 941.673583984375 938.182312011719 938.143127441406 939.255004882812 935.464660644531 939.189453125 946.200866699219 949.913452148438 957.433837890625 943.643615722656 944.830871582031 947.78759765625 952.207153320312 953.263854980469 947.944641113281 953.74267578125 948.47998046875 948.418518066406 952.973571777344 949.984191894531 951.674682617188 947.033081054688 958.861999511719 955.058776855469 953.09033203125 948.544799804688 947.078002929688 953.5 957.585144042969 947.444702148438 948.744567871094 956.651428222656 956.131103515625 955.862182617188 950.63037109375 961.514038085938 964.445434570312 960.661010742188 960.806091308594 962.026733398438 968.964904785156 959.81005859375 969.907775878906 980.188781738281 974.539184570312 969.8408203125 960.205993652344 965.421447753906 966.274658203125 980.252990722656 973.798034667969 972.629455566406 973.109130859375 970.534790039062 972.197875976562 979.942749023438 961.69189453125 961.358215332031 963.430969238281 974.879760742188 966.81103515625 966.800659179688 968.835632324219 972.669982910156 984.402465820312 981.847839355469 975.774108886719 973.537170410156 975.990478515625 986.482299804688 978.175476074219 975.994506835938 973.891784667969 980.172729492188 974.105041503906 973.198974609375 981.298095703125 972.050659179688 987.000427246094 975.8916015625 984.197814941406 980.622497558594 977.215515136719 980.415222167969 981.239562988281 977.707824707031 983.771118164062 986.765014648438 988.7080078125 984.217590332031 989.507080078125 991.647033691406 994.779113769531 986.428649902344 983.069885253906 986.925903320312 988.948181152344 988.150146484375 991.519409179688 986.549865722656 991.312744140625 1005.34637451172 1002.08728027344 1006.53564453125 1010.57293701172 1018.33020019531 1028.52185058594 1031.23266601562 1026.01416015625 1027.87414550781 1030.90356445312 1028.89074707031 1028.63525390625 1026.13684082031 1031.99072265625 1031.40808105469 1035.52404785156 1025.37231445312 1020.3740234375 1029.58312988281 1031.60266113281 1022.18804931641 1022.87286376953 1024.3857421875 1023.45989990234 1023.67724609375 1017.74456787109 1015.54345703125 1025.21936035156 1027.66625976562 1030.80969238281 1028.28393554688 1021.07745361328 1014.07800292969 1014.99267578125 1015.49865722656 1014.40264892578 1014.84399414062 1012.25500488281 1007.31976318359 1004.38629150391 1020.90264892578 1010.44470214844
954.435302734375 949.337463378906 952.636535644531 954.383117675781 954.837646484375 954.116088867188 949.354614257812 941.08984375 937.137939453125 936.750549316406 944.824951171875 941.242004394531 941.207214355469 941.607543945312 943.249206542969 950.012145996094 947.468017578125 952.014892578125 947.604675292969 951.355163574219 945.503295898438 949.644409179688 950.56640625 954.216186523438 949.619201660156 953.4658203125 956.681579589844 954.51513671875 952.921875 962.941284179688 957.281921386719 955.167724609375 943.138793945312 951.89453125 953.4248046875 950.47265625 943.504150390625 957.13818359375 963.051391601562 962.745422363281 968.18994140625 956.684692382812 970.570617675781 970.233093261719 961.94091796875 964.348266601562 961.142700195312 971.550231933594 974.903015136719 975.909545898438 985.077209472656 979.035522460938 979.809387207031 969.5703125 974.118591308594 977.279724121094 983.615600585938 981.142883300781 974.244140625 968.194274902344 966.690795898438 970.813354492188 969.289001464844 968.539672851562 960.430725097656 968.063720703125 967.594116210938 961.508911132812 970.682495117188 971.924255371094 983.411682128906 981.168579101562 976.748291015625 982.228576660156 979.205932617188 975.360900878906 975.460876464844 976.469055175781 976.440002441406 972.825927734375 971.403076171875 983.175598144531 986.822509765625 988.944213867188 982.346740722656 977.919006347656 980.947692871094 979.866027832031 984.695129394531 978.070617675781 973.93994140625 984.563049316406 979.509216308594 981.135437011719 989.799865722656 992.565246582031 984.031494140625 985.786743164062 994.202331542969 986.323364257812 989.947998046875 987.031982421875 996.341552734375 996.914672851562 994.256958007812 997.233154296875 994.943542480469 994.229125976562 1004.02612304688 1004.43530273438 1008.58129882812 1014.01593017578 1021.56732177734 1024.86743164062 1026.55749511719 1023.88598632812 1028.79699707031 1029.70727539062 1031.38537597656 1027.92407226562 1040.58630371094 1039.31823730469 1031.3349609375 1024.79650878906 1027.46765136719 1024.99328613281 1021.02099609375 1021.60424804688 1020.65850830078 1022.89215087891 1015.96246337891 1015.95452880859 1019.93676757812 1011.24890136719 1012.62518310547 1017.92193603516 1025.61791992188 1024.2734375 1025.43212890625 1023.46783447266 1022.30139160156 1017.03594970703 1008.86376953125 1005.02886962891 1012.44683837891 1016.6474609375 1015.16369628906 1008.40216064453 1016.31286621094 1015.96051025391
953.40478515625 954.95556640625 944.403686523438 947.978515625 944.298461914062 953.932373046875 950.410095214844 946.176208496094 936.401794433594 936.393615722656 938.693664550781 944.1953125 943.699279785156 941.220092773438 944.798278808594 939.886901855469 956.149597167969 959.048950195312 954.38720703125 953.049072265625 949.034057617188 953.185485839844 951.726501464844 950.5068359375 956.427856445312 955.509826660156 957.589477539062 954.917236328125 969.468566894531 964.50537109375 955.792602539062 953.586181640625 957.019165039062 948.490295410156 952.7119140625 947.34716796875 948.304809570312 954.698364257812 957.31787109375 958.732299804688 966.101867675781 958.185241699219 967.178405761719 974.090454101562 972.874450683594 970.274719238281 967.97998046875 969.276550292969 973.974731445312 985.236999511719 991.406982421875 979.589477539062 978.950988769531 974.063293457031 980.251892089844 976.169189453125 976.763305664062 985.235107421875 985.724548339844 975.81591796875 973.838500976562 970.268615722656 973.088500976562 971.440124511719 967.860595703125 969.04248046875 965.74462890625 967.487426757812 969.645263671875 979.758483886719 980.743225097656 986.728820800781 976.67529296875 981.529052734375 972.199401855469 978.842895507812 979.583374023438 980.47802734375 977.548767089844 969.469543457031 970.210327148438 982.736083984375 985.158813476562 985.288696289062 985.47216796875 984.799621582031 983.080261230469 985.981750488281 977.434753417969 981.680053710938 973.607604980469 977.576721191406 975.365356445312 975.597961425781 985.800231933594 981.290405273438 984.888305664062 983.705200195312 980.242004394531 986.333251953125 983.001770019531 982.39111328125 988.690246582031 991.737915039062 983.263977050781 995.631958007812 991.622009277344 993.890808105469 1001.20269775391 1006.70703125 1010.99987792969 1019.00354003906 1025.81005859375 1024.73596191406 1024.73388671875 1031.09948730469 1037.19714355469 1034.53649902344 1047.21496582031 1032.08544921875 1046.27502441406 1044.90832519531 1034.98999023438 1027.56396484375 1024.11059570312 1012.18792724609 1020.75848388672 1025.64489746094 1016.41174316406 1007.53765869141 1016.1533203125 1013.94268798828 1012.94171142578 1015.58801269531 1023.70483398438 1017.44482421875 1014.96154785156 1021.18774414062 1018.17218017578 1020.27795410156 1015.599609375 1016.07342529297 1000.69183349609 1009.66595458984 1016.25347900391 1015.24261474609 1013.92761230469 1015.6767578125 1007.87365722656 1008.32574462891
957.993469238281 952.097839355469 951.004638671875 944.602478027344 948.164855957031 946.2958984375 940.726257324219 945.176147460938 937.41552734375 933.447998046875 934.706420898438 936.687316894531 950.546936035156 947.356140136719 944.062072753906 946.195190429688 952.446411132812 956.545959472656 957.448364257812 959.578979492188 947.766357421875 948.457397460938 955.406799316406 953.295166015625 970.384643554688 965.195434570312 960.290161132812 954.954956054688 952.274475097656 963.64111328125 960.310607910156 952.862609863281 952.238708496094 954.527770996094 956.940551757812 957.617736816406 966.055603027344 964.260681152344 962.827087402344 963.039794921875 966.091369628906 961.259338378906 969.541137695312 972.370666503906 975.587158203125 979.353210449219 973.9287109375 982.370422363281 987.265991210938 976.488037109375 985.020629882812 981.595458984375 980.376220703125 976.889831542969 976.045715332031 966.712646484375 971.884033203125 979.321044921875 983.404174804688 984.273071289062 977.314147949219 972.129760742188 974.4970703125 974.994079589844 975.466491699219 968.173217773438 973.175720214844 976.588134765625 979.644653320312 977.699279785156 980.320617675781 984.940795898438 980.997314453125 981.544677734375 976.580627441406 979.017456054688 974.732360839844 980.681213378906 984.445007324219 972.538391113281 975.09130859375 978.888854980469 981.961181640625 982.874816894531 986.738464355469 984.132019042969 986.634155273438 978.9765625 981.500122070312 978.20263671875 981.216735839844 973.346862792969 978.536560058594 982.020751953125 985.583129882812 984.611206054688 979.272827148438 978.757141113281 989.97265625 985.958923339844 976.632995605469 983.103271484375 1000.96258544922 993.953979492188 993.740783691406 1009.36865234375 1001.47760009766 998.453369140625 1007.96746826172 1011.92590332031 1024.62084960938 1031.91101074219 1030.45422363281 1028.91088867188 1024.95666503906 1030.99633789062 1033.0390625 1043.01452636719 1044.67492675781 1051.03088378906 1046.13891601562 1045.69299316406 1036.37292480469 1036.76708984375 1028.3544921875 1011.49096679688 1020.33850097656 1014.16400146484 1012.46228027344 1006.64093017578 1009.05346679688 1015.84997558594 1020.52917480469 1021.08544921875 1023.67852783203 1017.77758789062 1019.98999023438 1024.19274902344 1022.75128173828 1020.56823730469 1010.43029785156 1009.59527587891 1008.64459228516 1003.61083984375 1016.11572265625 1006.11383056641 1006.88818359375 1003.59442138672 1014.56262207031 1006.93103027344
950.515197753906 953.370727539062 947.9990234375 942.492980957031 944.004333496094 940.563171386719 934.4853515625 941.642150878906 945.287963867188 932.067199707031 933.184143066406 928.054382324219 939.355773925781 949.892517089844 951.344543457031 949.877685546875 954.092163085938 956.625366210938 963.893310546875 965.583190917969 957.628051757812 963.40673828125 964.782897949219 954.171447753906 953.727966308594 958.476196289062 958.496948242188 955.64404296875 958.27490234375 955.217712402344 957.302124023438 964.36572265625 963.617980957031 958.173156738281 970.878662109375 960.05615234375 964.135803222656 971.407958984375 974.266845703125 955.955322265625 961.73193359375 967.80615234375 973.653137207031 971.171508789062 978.131408691406 987.266052246094 987.703186035156 989.689147949219 993.919006347656 988.242248535156 988.036071777344 985.110290527344 974.5712890625 972.30810546875 977.003479003906 973.000610351562 974.622680664062 982.6416015625 987.40966796875 985.092956542969 970.908203125 967.146850585938 965.688659667969 974.33447265625 969.9384765625 978.83544921875 981.356994628906 979.457336425781 984.549133300781 980.98779296875 981.889099121094 987.891357421875 988.332763671875 985.493591308594 983.441345214844 984.769470214844 981.801330566406 978.646789550781 977.518432617188 977.613220214844 985.178466796875 978.663818359375 987.360168457031 987.461975097656 985.112060546875 984.996765136719 978.322509765625 984.592834472656 981.604553222656 977.133239746094 978.221801757812 978.696350097656 987.715759277344 989.739807128906 992.945373535156 984.351318359375 991.253234863281 991.160400390625 995.54638671875 989.131774902344 983.859924316406 989.64697265625 998.648681640625 997.283569335938 1004.85736083984 1011.90325927734 1011.64038085938 1014.45776367188 1009.60089111328 1023.20068359375 1027.53869628906 1039.94067382812 1041.26379394531 1034.50549316406 1029.41369628906 1027.943359375 1031.11669921875 1036.18664550781 1044.59399414062 1047.00354003906 1041.19812011719 1046.36059570312 1047.27734375 1036.80786132812 1023.31457519531 1018.55999755859 1010.51153564453 1020.6201171875 1015.49029541016 1013.83709716797 1022.22619628906 1019.90063476562 1021.61517333984 1024.91821289062 1021.50262451172 1014.21264648438 1021.89117431641 1026.74011230469 1021.35998535156 1021.48834228516 1010.13732910156 1005.65130615234 1008.11743164062 1012.63989257812 1015.27154541016 1008.11480712891 1008.83776855469 999.957885742188 999.51025390625 987.332336425781
956.769836425781 949.2255859375 953.551818847656 945.555236816406 940.450073242188 943.352294921875 939.446472167969 937.539123535156 935.380554199219 938.380798339844 941.347290039062 942.446960449219 943.671569824219 950.174255371094 960.842468261719 962.403259277344 960.680358886719 964.789184570312 969.72900390625 971.365112304688 972.558410644531 969.618835449219 966.07763671875 965.619201660156 960.304321289062 962.633239746094 956.454833984375 962.377990722656 955.817687988281 960.443664550781 964.279724121094 976.099182128906 975.174194335938 970.457580566406 978.767578125 969.390869140625 977.929260253906 970.157836914062 974.691528320312 968.791809082031 971.234130859375 963.656494140625 965.902526855469 978.686218261719 981.088989257812 994.364196777344 993.374755859375 999.680541992188 1000.23504638672 996.831909179688 993.682861328125 980.720275878906 968.050659179688 968.796569824219 973.328186035156 976.3857421875 978.693420410156 983.602294921875 982.204650878906 983.522888183594 982.145202636719 971.789672851562 963.149597167969 963.812622070312 969.944213867188 970.847473144531 973.706298828125 978.815979003906 982.398193359375 976.072509765625 980.127746582031 981.438537597656 977.98095703125 982.145263671875 977.742004394531 985.914184570312 989.202026367188 984.041748046875 978.464599609375 972.552978515625 981.372497558594 987.006530761719 987.891174316406 980.626647949219 984.750915527344 989.01904296875 977.367492675781 982.013671875 981.772094726562 977.548156738281 981.37646484375 978.6806640625 985.452270507812 984.117065429688 994.129211425781 991.879028320312 989.776550292969 990.339111328125 994.324523925781 994.47216796875 994.025390625 994.284790039062 1001.46453857422 1003.39080810547 1004.98687744141 1019.11840820312 1014.62109375 1019.60455322266 1021.48040771484 1033.83654785156 1041.6826171875 1043.08203125 1041.28735351562 1024.56872558594 1032.81323242188 1035.59094238281 1034.82263183594 1028.67248535156 1034.07104492188 1038.32946777344 1042.63586425781 1052.93615722656 1045.052734375 1037.46691894531 1022.77404785156 1021.92779541016 1021.66064453125 1016.69030761719 1011.71557617188 1012.79321289062 1015.71264648438 1020.45263671875 1017.56213378906 1028.44140625 1023.05041503906 1017.99462890625 1019.36407470703 1021.93218994141 1018.99670410156 1015.47418212891 1017.45709228516 1014.38708496094 1007.41101074219 1011.40502929688 1007.64990234375 1008.69720458984 1006.02966308594 1002.42230224609 991.521789550781 983.5966796875
964.683410644531 954.883422851562 950.267944335938 937.292907714844 944.707397460938 938.679138183594 939.269287109375 935.476806640625 935.144165039062 937.183349609375 948.572326660156 945.676574707031 948.590148925781 951.240051269531 973.453002929688 962.865539550781 966.640747070312 973.0966796875 977.636779785156 978.555541992188 982.447570800781 973.678161621094 973.769470214844 979.329833984375 974.86865234375 966.326110839844 963.677673339844 970.472778320312 970.031799316406 968.695556640625 972.117858886719 977.611572265625 984.429260253906 982.553405761719 978.644714355469 982.771667480469 982.689392089844 979.785949707031 977.769836425781 982.63037109375 982.548034667969 971.598327636719 971.727966308594 973.226013183594 983.921081542969 987.061096191406 989.08984375 995.88427734375 992.106750488281 1001.02502441406 985.722839355469 984.44091796875 971.932861328125 973.225280761719 977.849853515625 975.983520507812 980.754699707031 979.11083984375 978.933898925781 981.041442871094 978.434814453125 965.248352050781 965.302185058594 962.594665527344 964.321228027344 965.100219726562 970.630737304688 975.583801269531 978.221618652344 982.50244140625 975.882934570312 981.354614257812 981.335266113281 986.359619140625 985.065307617188 987.100830078125 994.134338378906 988.334533691406 977.948547363281 981.127868652344 979.829833984375 986.566711425781 990.326904296875 985.665954589844 984.492065429688 965.721862792969 983.101013183594 981.126098632812 978.234436035156 972.533203125 968.882995605469 978.476257324219 984.110229492188 984.773071289062 990.366577148438 988.981689453125 982.481018066406 986.421447753906 990.892395019531 990.034912109375 997.764465332031 996.574401855469 993.883178710938 1002.70495605469 1011.94696044922 1014.82623291016 1009.21417236328 1021.62066650391 1026.70434570312 1037.53796386719 1043.9541015625 1043.45690917969 1029.08361816406 1027.85717773438 1034.69702148438 1035.20422363281 1026.19079589844 1028.85424804688 1032.787109375 1036.6904296875 1037.435546875 1047.29956054688 1042.6357421875 1039.90466308594 1023.33532714844 1020.87664794922 1022.9013671875 1015.70129394531 1008.41741943359 1007.12048339844 1011.15301513672 1020.17669677734 1014.55352783203 1020.30456542969 1021.60717773438 1027.44775390625 1018.03924560547 1017.33355712891 1019.13793945312 1015.15850830078 1019.84735107422 1012.52087402344 1002.95880126953 1003.865234375 1004.17852783203 1005.23370361328 1000.39642333984 1000.58111572266 989.178527832031 979.666259765625
954.108947753906 952.548278808594 941.741760253906 933.824340820312 944.260131835938 942.822937011719 938.742858886719 933.694458007812 934.728698730469 945.747863769531 946.288146972656 950.094116210938 960.425476074219 961.498962402344 973.801025390625 980.429870605469 974.745056152344 985.449768066406 984.867797851562 980.443176269531 983.964538574219 984.610595703125 983.708862304688 982.826599121094 983.80419921875 976.997314453125 973.15234375 972.288452148438 978.895141601562 970.123291015625 966.754333496094 973.750610351562 979.771789550781 986.166320800781 982.255126953125 985.018737792969 981.943664550781 983.056091308594 976.803466796875 986.853454589844 986.515502929688 985.71923828125 983.6533203125 976.726806640625 975.717163085938 990.179138183594 983.860717773438 984.729858398438 996.366882324219 1001.22412109375 992.881713867188 988.282836914062 981.165405273438 979.640197753906 982.800659179688 991.432373046875 980.079711914062 976.759155273438 971.34765625 976.851379394531 974.280517578125 964.124755859375 964.266845703125 963.655822753906 968.650329589844 969.221130371094 981.965576171875 978.705139160156 981.978637695312 985.987609863281 990.467895507812 985.797119140625 982.797607421875 987.687133789062 980.103942871094 987.004577636719 999.122131347656 990.305603027344 993.611267089844 985.218994140625 976.800048828125 983.1826171875 984.445922851562 986.044067382812 982.010498046875 978.780151367188 983.705627441406 983.815124511719 979.965759277344 974.986877441406 974.644714355469 976.6181640625 980.470336914062 984.220520019531 992.2568359375 988.420043945312 989.731506347656 991.225769042969 988.217346191406 992.054321289062 988.150390625 992.379760742188 997.505310058594 1007.91766357422 1012.64605712891 1014.37933349609 1018.83862304688 1025.80786132812 1031.59130859375 1035.87561035156 1037.27734375 1034.04138183594 1032.92993164062 1040.53393554688 1033.32360839844 1033.68334960938 1021.98559570312 1033.61206054688 1028.57592773438 1031.95959472656 1036.82067871094 1036.7060546875 1029.59753417969 1027.91027832031 1026.38586425781 1014.97106933594 1010.94396972656 1005.8232421875 1000.41357421875 998.992980957031 1006.17504882812 1010.51519775391 1008.39758300781 1016.97760009766 1015.46752929688 1028.95678710938 1029.28784179688 1017.18225097656 1009.95727539062 1009.17797851562 1011.42297363281 1012.89453125 1004.98260498047 1001.74908447266 1001.39764404297 993.843872070312 992.541320800781 991.963012695312 996.258056640625 993.331237792969
951.869323730469 944.811340332031 940.244384765625 934.013671875 936.813842773438 934.413757324219 942.921569824219 936.733642578125 931.090148925781 939.8203125 944.5078125 945.183166503906 963.709411621094 974.374328613281 977.587280273438 983.831604003906 981.424011230469 994.628295898438 996.236633300781 998.887268066406 989.38818359375 989.894348144531 981.997985839844 981.144592285156 982.98046875 986.059448242188 985.007141113281 981.783020019531 976.087524414062 970.6318359375 968.452209472656 970.512145996094 980.099731445312 985.581604003906 977.904418945312 985.84814453125 984.306335449219 981.424377441406 974.050109863281 980.174865722656 986.22998046875 990.725891113281 978.005004882812 981.568542480469 981.134521484375 985.141174316406 986.558959960938 982.334350585938 992.7783203125 985.985900878906 988.677429199219 994.132507324219 993.074096679688 989.941589355469 990.56787109375 990.535705566406 988.904174804688 976.883605957031 977.384826660156 984.197814941406 973.744384765625 966.670654296875 966.163208007812 968.355712890625 974.042602539062 987.149230957031 992.931457519531 991.286560058594 987.036865234375 986.7412109375 981.139526367188 979.655883789062 983.034606933594 981.711181640625 986.49658203125 981.563537597656 991.258911132812 995.550964355469 991.256591796875 994.970581054688 979.083557128906 970.481079101562 982.468322753906 982.219604492188 983.50927734375 986.560729980469 987.815307617188 987.964904785156 981.508117675781 979.531921386719 975.600463867188 970.737976074219 985.493896484375 980.463012695312 993.858215332031 997.577453613281 998.421875 991.575134277344 990.626525878906 991.07373046875 995.528503417969 993.46875 997.6181640625 1008.65051269531 1012.74658203125 1014.54138183594 1016.30059814453 1017.70861816406 1030.31750488281 1027.75085449219 1035.90551757812 1027.32275390625 1030.64526367188 1034.62548828125 1036.4990234375 1024.97106933594 1018.01763916016 1017.40972900391 1027.69970703125 1021.57464599609 1019.3662109375 1023.51495361328 1014.71844482422 1019.80584716797 1019.65008544922 1012.20892333984 1008.81298828125 1014.38000488281 999.35693359375 998.512451171875 1007.04278564453 1011.02209472656 1013.43890380859 1022.73114013672 1021.97149658203 1013.27911376953 1025.83374023438 1011.17205810547 1015.61541748047 1011.64465332031 998.878112792969 998.542663574219 997.572570800781 1003.13580322266 996.6806640625 994.383178710938 989.362670898438 997.510314941406 1002.93347167969 997.745544433594
949.009338378906 942.385620117188 943.044494628906 939.15576171875 934.337097167969 937.176513671875 942.693359375 938.412414550781 935.770568847656 938.811584472656 944.910034179688 950.131103515625 958.815368652344 979.503540039062 968.991821289062 969.135192871094 977.254516601562 985.960876464844 992.388000488281 994.163452148438 986.964904785156 986.309997558594 989.873107910156 981.031616210938 992.659301757812 990.541687011719 991.366394042969 985.757690429688 977.696838378906 970.502807617188 967.475952148438 975.739074707031 983.278930664062 986.778625488281 983.530151367188 985.297241210938 985.384948730469 984.757629394531 987.458312988281 983.849853515625 986.870300292969 984.309692382812 986.201416015625 984.153747558594 991.087524414062 997.645690917969 996.768615722656 990.477416992188 986.181518554688 990.2158203125 994.097595214844 1001.26971435547 995.244384765625 1000.69305419922 996.901550292969 996.463256835938 990.249694824219 980.775085449219 981.312561035156 982.6865234375 966.387512207031 971.769775390625 969.244812011719 972.413024902344 982.701843261719 988.615844726562 993.703002929688 998.18212890625 992.923034667969 987.259155273438 977.362976074219 977.189575195312 974.592529296875 971.577087402344 983.326232910156 995.903015136719 992.42333984375 997.800231933594 989.615112304688 995.906005859375 984.399047851562 982.522216796875 977.063049316406 984.949401855469 987.343444824219 982.324645996094 981.199829101562 988.735290527344 982.012390136719 985.859924316406 979.151000976562 983.232971191406 979.025085449219 984.441162109375 980.797668457031 990.89453125 994.119140625 993.961303710938 995.836303710938 1002.17584228516 994.559631347656 999.029724121094 1006.97741699219 1009.75225830078 1014.97332763672 1017.81677246094 1017.29779052734 1014.58361816406 1021.39898681641 1021.48681640625 1024.3837890625 1025.59057617188 1033.36645507812 1038.42395019531 1028.2998046875 1015.15130615234 1024.63720703125 1013.91540527344 1024.96850585938 1026.46350097656 1021.31512451172 1015.99279785156 1020.48638916016 1024.37084960938 1025.17614746094 1020.8916015625 1011.9951171875 1015.04376220703 1007.56237792969 1002.17663574219 1007.66296386719 1007.69342041016 1014.44842529297 1020.26867675781 1024.43640136719 1019.37036132812 1021.09674072266 1013.20104980469 1004.41241455078 998.774353027344 991.560363769531 995.638610839844 989.692016601562 999.123962402344 992.756591796875 989.079528808594 986.667053222656 986.997375488281 1002.74993896484 998.708068847656
