NCOLS 150
NROWS 37
XLLCORNER 7394249
YLLCORNER 4843109
CELLSIZE 30
NODATA_VALUE -9999
940.406677246094 944.587890625 951.539672851562 950.125183105469 952.859191894531 945.340698242188 961.564270019531 960.730773925781 957.738098144531 959.393432617188 964.350036621094 958.936218261719 959.912048339844 951.7919921875 953.772827148438 963.763671875 962.004211425781 962.870544433594 965.545288085938 963.63623046875 976.537414550781 982.022338867188 980.213745117188 979.492065429688 988.135131835938 993.663269042969 998.1435546875 990.835266113281 991.4697265625 990.143676757812 987.904541015625 995.655639648438 995.805053710938 1000.23516845703 1005.49072265625 1012.779296875 1006.0966796875 1013.56396484375 1015.07202148438 1023.55548095703 1012.96551513672 1023.77001953125 1017.58483886719 1015.71240234375 1010.49279785156 1009.13836669922 994.173828125 988.207458496094 985.148864746094 982.906372070312 982.590270996094 974.938659667969 977.746215820312 978.0087890625 983.858459472656 986.540771484375 993.9755859375 1003.76922607422 1002.36450195312 1003.65661621094 1006.58319091797 1010.42645263672 1019.35589599609 1008.95489501953 1008.26226806641 1009.23529052734 1011.552734375 1011.4580078125 1011.52703857422 1009.91461181641 1001.87799072266 1004.35559082031 1008.25219726562 1006.57427978516 996.29296875 992.693725585938 995.216613769531 993.048461914062 991.357177734375 991.583068847656 1005.11193847656 1003.64764404297 997.321350097656 999.79736328125 1015.38903808594 1010.03161621094 1012.49890136719 1010.77734375 1015.51196289062 1013.2109375 1028.08569335938 1032.658203125 1026.74291992188 1028.68859863281 1017.56921386719 1011.08081054688 1011.95635986328 1013.64135742188 1020.58728027344 1025.77294921875 1012.96405029297 1002.83428955078 1006.88830566406 1009.06115722656 999.003356933594 1002.42816162109 1004.99047851562 991.526428222656 988.679565429688 981.953857421875 964.80126953125 961.862670898438 948.285949707031 952.2822265625 937.943908691406 945.637817382812 958.125610351562 965.510986328125 976.998596191406 988.223449707031 996.337890625 1005.56756591797 1009.53234863281 1012.92877197266 1020.57000732422 1023.13934326172 1033.09008789062 1040.14453125 1047.82897949219 1055.56188964844 1052.69140625 1053.34033203125 1049.01062011719 1051.21069335938 1048.83581542969 1048.4404296875 1050.15979003906 1052.46337890625 1060.24609375 1060.21887207031 1053.38269042969 1053.89538574219 1065.08972167969 1066.69091796875 1062.1357421875 1062.06555175781 1071.71069335938 1074.81896972656 1083.84912109375 1090.11206054688
946.008605957031 946.867553710938 950.758178710938 957.301208496094 951.904235839844 957.681945800781 967.833190917969 971.355407714844 964.31005859375 964.736999511719 960.473327636719 968.450134277344 957.646118164062 955.703186035156 967.610229492188 975.432922363281 976.152038574219 975.013549804688 972.6806640625 970.68310546875 973.212707519531 982.449096679688 980.629638671875 984.1806640625 986.414123535156 997.754150390625 985.7236328125 990.300659179688 983.094604492188 985.208435058594 989.658447265625 992.153747558594 986.351379394531 1001.99835205078 1006.26110839844 1005.09661865234 1001.87268066406 1006.20788574219 1005.91174316406 1005.27386474609 1008.42108154297 1015.26391601562 1014.40637207031 1008.08172607422 1008.00378417969 1002.80078125 995.748901367188 987.841735839844 988.0234375 984.535583496094 985.635925292969 975.776672363281 981.390991210938 981.748046875 985.75146484375 986.829162597656 989.794128417969 1004.7412109375 1009.2919921875 1010.77600097656 1015.6826171875 1014.00372314453 1006.98852539062 1005.02111816406 1010.70062255859 1011.59246826172 1007.17816162109 1008.64147949219 1002.74395751953 991.379638671875 998.958068847656 1000.01110839844 1006.35717773438 1005.99005126953 1000.89642333984 996.718627929688 988.112548828125 989.037109375 993.340637207031 995.064392089844 998.760375976562 1004.7822265625 998.876831054688 1001.31365966797 998.847595214844 1006.25415039062 1008.52911376953 1015.40399169922 1014.31353759766 1015.80328369141 1017.58032226562 1034.44006347656 1037.64831542969 1023.95635986328 1018.13232421875 1017.64611816406 1014.13366699219 1019.05926513672 1024.013671875 1021.39581298828 1024.88684082031 1009.36260986328 1009.10015869141 995.214477539062 997.28564453125 1003.93420410156 1003.94055175781 989.678649902344 977.476684570312 975.564025878906 969.949768066406 966.57373046875 959.445129394531 943.679870605469 939.287292480469 934.686645507812 958.886535644531 969.052734375 981.80322265625 986.984802246094 996.630920410156 1007.80773925781 1014.75366210938 1031.63684082031 1032.56787109375 1026.32092285156 1042.28637695312 1049.1494140625 1046.83813476562 1055.00732421875 1057.02954101562 1045.68872070312 1049.11108398438 1047.61755371094 1052.29016113281 1052.39587402344 1048.65185546875 1050.02136230469 1052.02368164062 1051.18383789062 1057.71398925781 1047.94738769531 1060.12170410156 1059.40698242188 1057.91174316406 1062.04150390625 1074.32543945312 1075.49426269531 1080.0517578125 1089.16223144531
948.2978515625 952.342651367188 946.927551269531 952.628295898438 963.887268066406 952.4619140625 961.004089355469 959.153930664062 971.739685058594 968.151794433594 957.691284179688 967.546569824219 965.687133789062 975.25048828125 979.175537109375 971.897705078125 968.431823730469 970.433044433594 971.544311523438 974.567077636719 974.605529785156 970.952575683594 979.436340332031 983.057800292969 989.617309570312 992.753295898438 980.49365234375 990.009521484375 987.742309570312 983.951232910156 982.304748535156 984.270568847656 990.792175292969 998.197509765625 995.687866210938 992.853210449219 985.786682128906 991.968505859375 989.641845703125 1000.98187255859 1004.541015625 1002.74041748047 1001.73406982422 1003.845703125 998.629699707031 993.048034667969 989.901977539062 990.56201171875 989.032165527344 985.909118652344 977.186645507812 973.918090820312 979.1044921875 979.255981445312 983.280456542969 985.540588378906 994.542358398438 996.550598144531 1006.83154296875 1006.86370849609 1002.65484619141 1009.00537109375 1016.30889892578 1013.25531005859 1003.54559326172 1000.17504882812 1001.81530761719 994.977844238281 987.683410644531 983.697448730469 992.359313964844 993.861450195312 1000.59600830078 998.532531738281 1002.82891845703 1000.35772705078 987.381164550781 989.505187988281 985.0048828125 992.460083007812 995.763427734375 991.82763671875 993.693298339844 999.386352539062 1002.38793945312 1005.77783203125 1007.50201416016 1009.48797607422 1020.41278076172 1026.203125 1030.30749511719 1035.16247558594 1035.40710449219 1034.08068847656 1025.34350585938 1021.27203369141 1018.43872070312 1017.23986816406 1025.90246582031 1018.73626708984 1023.52624511719 1020.255859375 1003.72998046875 998.453430175781 996.958801269531 994.749877929688 1000.71588134766 985.464294433594 974.122131347656 971.593872070312 960.542053222656 950.598937988281 952.464477539062 945.664916992188 934.964050292969 948.096862792969 961.924255371094 973.474487304688 977.415649414062 981.255493164062 1000.73126220703 1000.68762207031 1015.48553466797 1031.978515625 1037.84069824219 1041.482421875 1047.34851074219 1045.95227050781 1046.04675292969 1055.82092285156 1057.70764160156 1038.2158203125 1037.21643066406 1043.45532226562 1037.11389160156 1044.12145996094 1044.23986816406 1049.07751464844 1048.80395507812 1051.54309082031 1046.23876953125 1052.3427734375 1058.138671875 1063.77673339844 1064.18139648438 1068.84020996094 1077.25439453125 1078.27673339844 1084.06665039062 1090.99047851562
937.545837402344 944.495727539062 942.944946289062 958.186950683594 962.254028320312 953.009643554688 958.38916015625 961.047119140625 967.135925292969 965.675048828125 958.17822265625 975.291137695312 973.414001464844 969.7724609375 981.7939453125 979.606262207031 974.992736816406 982.705688476562 985.590576171875 973.120666503906 979.259582519531 977.921630859375 984.040100097656 985.671691894531 981.142395019531 981.790161132812 983.071655273438 983.08740234375 981.673645019531 982.613952636719 989.652282714844 992.098876953125 997.831665039062 996.759094238281 998.167297363281 995.936462402344 996.019775390625 993.499877929688 993.991943359375 993.693603515625 999.920104980469 989.8212890625 988.403564453125 991.957580566406 986.665649414062 989.989135742188 994.336181640625 991.372314453125 991.4775390625 982.067687988281 975.761352539062 975.897705078125 977.647338867188 977.674011230469 978.838806152344 985.566772460938 983.707702636719 989.154541015625 990.017333984375 996.590637207031 992.865783691406 998.985961914062 1005.54901123047 1001.54321289062 998.635437011719 1003.47796630859 994.49658203125 990.152038574219 988.308715820312 988.485046386719 994.003234863281 982.961059570312 988.493835449219 998.595458984375 997.356384277344 996.306030273438 986.822021484375 985.465942382812 984.514404296875 986.346923828125 991.554565429688 994.957397460938 997.548706054688 1005.25115966797 1014.78436279297 1012.05780029297 1008.81219482422 1010.38500976562 1019.05126953125 1019.72143554688 1022.7177734375 1031.37927246094 1035.99230957031 1028.93603515625 1026.73034667969 1018.00408935547 1014.44177246094 1010.65875244141 1012.03588867188 1011.19506835938 1018.79138183594 1009.64678955078 1007.50946044922 1009.82116699219 1005.20318603516 1003.41552734375 994.319213867188 992.658508300781 977.807250976562 971.110961914062 962.821533203125 961.363464355469 956.747314453125 941.97412109375 946.078063964844 943.395263671875 964.507873535156 969.026000976562 977.626220703125 988.741271972656 997.140869140625 1011.78009033203 1014.08392333984 1027.66577148438 1033.1376953125 1042.16918945312 1033.15393066406 1034.4091796875 1042.69860839844 1044.28991699219 1049.31384277344 1039.44860839844 1034.91296386719 1043.80480957031 1037.20373535156 1043.908203125 1040.30126953125 1044.46728515625 1050.38049316406 1045.29333496094 1046.87451171875 1048.49035644531 1059.14465332031 1062.47338867188 1071.73071289062 1080.35131835938 1079.64831542969 1087.77490234375 1089.05297851562 1101.68823242188
944.336120605469 948.695068359375 943.295166015625 961.960266113281 965.520568847656 956.422058105469 956.637512207031 961.880615234375 970.649291992188 971.828491210938 969.637878417969 977.561950683594 976.553527832031 973.283081054688 974.930969238281 974.106689453125 973.353515625 978.401062011719 987.718933105469 982.960815429688 984.612976074219 978.864379882812 983.52978515625 983.808532714844 992.316833496094 984.197204589844 993.034729003906 989.244812011719 981.904663085938 985.6162109375 986.594421386719 990.966918945312 997.708068847656 997.084411621094 993.629516601562 996.813049316406 994.949584960938 985.136352539062 993.744873046875 993.644592285156 995.813110351562 988.424621582031 987.849670410156 986.476806640625 986.426391601562 986.259399414062 988.687866210938 991.720886230469 995.172302246094 988.947998046875 975.192504882812 972.583923339844 972.167541503906 974.563415527344 979.601257324219 980.39697265625 973.838317871094 979.483032226562 978.988647460938 988.123779296875 994.302368164062 992.0634765625 992.49658203125 989.352172851562 995.783569335938 1002.50689697266 996.729919433594 994.343078613281 996.858520507812 991.915832519531 997.145385742188 1000.71789550781 990.713623046875 990.569396972656 1003.490234375 995.384094238281 994.8681640625 990.285827636719 992.187866210938 992.020629882812 1003.91967773438 1000.89910888672 996.919311523438 1004.55816650391 1018.01782226562 1020.20697021484 1018.21466064453 1012.43542480469 1021.42059326172 1023.88482666016 1025.34301757812 1022.11810302734 1025.86706542969 1022.05084228516 1017.05328369141 1024.70983886719 1006.78271484375 1015.36505126953 1002.03955078125 1008.86547851562 1015.14959716797 1006.89184570312 1005.94476318359 1005.90625 1004.23376464844 1003.01318359375 1000.29498291016 987.730346679688 982.778686523438 978.875549316406 982.991760253906 961.8984375 955.948425292969 950.418395996094 953.600830078125 953.13818359375 958.01953125 971.2119140625 981.5107421875 980.571105957031 995.257446289062 1004.71350097656 1019.00433349609 1022.80432128906 1023.89587402344 1028.28662109375 1022.57373046875 1029.37121582031 1039.72180175781 1041.69763183594 1050.32092285156 1044.26354980469 1038.71252441406 1032.25720214844 1043.82165527344 1040.75048828125 1026.19287109375 1031.09716796875 1034.49389648438 1040.61071777344 1048.80334472656 1054.12646484375 1054.94604492188 1066.72692871094 1079.12951660156 1070.92407226562 1081.84594726562 1085.94470214844 1094.38977050781 1102.86022949219
955.609313964844 951.011474609375 949.8466796875 963.603759765625 970.692687988281 966.7333984375 968.574890136719 969.922790527344 965.416320800781 966.093505859375 975.634033203125 977.3134765625 973.142883300781 971.772766113281 971.952880859375 971.103515625 983.338989257812 982.874267578125 988.943298339844 981.196228027344 982.47998046875 984.537292480469 981.586547851562 982.147216796875 991.224609375 993.247131347656 990.226379394531 983.474975585938 980.753356933594 981.092163085938 986.247863769531 993.376770019531 989.288452148438 981.832336425781 995.911315917969 994.56640625 990.6328125 988.418884277344 990.575378417969 988.509704589844 992.719909667969 985.511535644531 990.405212402344 987.606628417969 988.918273925781 985.883056640625 977.803833007812 984.755981445312 983.839721679688 980.599487304688 970.380859375 977.084533691406 974.892944335938 975.30078125 973.270141601562 969.600830078125 968.37060546875 980.421020507812 982.403930664062 989.008178710938 989.369506835938 987.976684570312 987.413269042969 986.947875976562 991.924438476562 988.366149902344 999.448791503906 1003.25891113281 997.381530761719 985.198364257812 994.966674804688 996.024047851562 994.58544921875 993.920288085938 1002.42230224609 989.73486328125 993.684631347656 993.004272460938 996.70751953125 1003.81231689453 999.36279296875 1011.82434082031 1007.94818115234 1011.42926025391 1013.38928222656 1013.26873779297 1011.22265625 1016.70208740234 1020.15686035156 1016.93395996094 1017.13629150391 1022.94940185547 1023.51983642578 1022.47595214844 1018.11169433594 1015.77001953125 1009.5986328125 1002.26947021484 992.054443359375 1002.06243896484 1002.88659667969 1007.31237792969 1000.20855712891 1001.18597412109 997.591369628906 995.818603515625 997.307739257812 993.9111328125 989.565063476562 987.971069335938 979.069519042969 969.921203613281 951.382080078125 953.624145507812 958.660827636719 963.777099609375 967.730407714844 967.807067871094 975.409606933594 988.515747070312 997.085021972656 1004.96612548828 1010.40838623047 1018.09606933594 1017.18237304688 1020.65283203125 1023.30853271484 1030.52685546875 1031.50476074219 1030.80920410156 1034.82043457031 1033.48376464844 1021.86004638672 1019.95031738281 1030.94470214844 1022.19763183594 1018.07653808594 1027.73889160156 1031.94165039062 1037.03332519531 1043.74645996094 1050.14245605469 1067.37170410156 1070.38403320312 1080.1044921875 1087.63232421875 1095.64892578125 1094.59167480469 1106.06994628906 1113.06359863281
949.80126953125 954.261047363281 958.330871582031 960.60400390625 965.762390136719 966.5634765625 970.289428710938 964.671447753906 976.356994628906 968.57080078125 970.621643066406 979.920104980469 977.014892578125 978.843933105469 978.343383789062 980.212158203125 975.732482910156 975.271118164062 976.253540039062 980.924865722656 985.350219726562 984.816467285156 984.823059082031 984.781433105469 985.92138671875 995.0146484375 989.233459472656 979.364318847656 975.326782226562 990.322082519531 984.711730957031 987.129638671875 985.022827148438 983.991271972656 986.19091796875 985.092346191406 987.251037597656 996.413513183594 999.844787597656 980.618225097656 977.34375 985.450988769531 988.367614746094 988.164978027344 984.10546875 989.273254394531 982.115478515625 986.950561523438 983.508911132812 982.223693847656 976.069213867188 979.210021972656 973.789184570312 983.893310546875 981.247375488281 970.199340820312 962.990417480469 970.917602539062 974.765991210938 977.238342285156 979.89697265625 974.189147949219 983.155090332031 993.805786132812 988.366577148438 987.658142089844 988.300170898438 998.363037109375 999.12890625 993.144653320312 986.307800292969 996.44775390625 1005.17407226562 988.836791992188 991.274597167969 988.056030273438 986.269226074219 988.893310546875 994.53759765625 1001.41204833984 1002.00531005859 1004.53350830078 1007.51165771484 1001.50659179688 1003.64990234375 1010.08953857422 1014.31195068359 1010.84875488281 1016.6376953125 1012.96594238281 1009.07476806641 1008.24749755859 1019.43298339844 1021.03918457031 1014.41882324219 1011.78363037109 1009.47290039062 998.712219238281 991.909851074219 999.216369628906 1005.53314208984 1013.07012939453 1010.12615966797 1010.56750488281 986.854431152344 992.354248046875 989.478332519531 991.704162597656 989.271362304688 991.109130859375 983.289123535156 972.991149902344 966.485595703125 963.281494140625 967.986022949219 958.701538085938 971.841247558594 971.302978515625 981.7919921875 988.113708496094 998.746765136719 1010.97766113281 1017.28625488281 1017.38494873047 1021.40057373047 1016.25433349609 1014.32049560547 1026.09436035156 1026.71801757812 1021.46551513672 1022.80023193359 1017.22912597656 1025.17797851562 1023.03698730469 1017.21136474609 1004.51452636719 1017.18627929688 1026.25134277344 1024.09753417969 1038.80200195312 1038.78759765625 1054.26000976562 1067.87170410156 1077.853515625 1086.62255859375 1088.54467773438 1102.25073242188 1105.78784179688 1110.21496582031 1108.43518066406
951.549499511719 953.190551757812 957.740112304688 967.195434570312 964.0234375 972.902160644531 969.172912597656 960.235534667969 974.2509765625 975.356994628906 976.032775878906 970.214111328125 977.654968261719 982.587829589844 982.36865234375 977.21337890625 978.692932128906 980.918640136719 975.904235839844 983.82275390625 982.118896484375 984.18212890625 979.330871582031 978.1796875 987.269714355469 988.541381835938 984.947998046875 975.528137207031 975.695373535156 984.520935058594 980.708862304688 986.92138671875 988.50341796875 984.056579589844 984.100280761719 979.668151855469 984.305908203125 996.132873535156 996.743347167969 985.9384765625 976.421630859375 983.503112792969 992.86083984375 999.95751953125 997.504699707031 988.629211425781 983.701293945312 984.150451660156 980.302185058594 984.285339355469 983.272766113281 987.077026367188 975.348388671875 979.283264160156 975.378173828125 975.279968261719 969.866760253906 971.454284667969 980.083923339844 980.011901855469 978.579528808594 986.358093261719 994.517700195312 994.492797851562 994.527221679688 982.998168945312 981.900085449219 984.740783691406 988.289733886719 986.401306152344 981.13623046875 992.21337890625 1001.87420654297 991.417541503906 983.296325683594 992.208435058594 991.88818359375 986.168395996094 991.219787597656 997.653930664062 999.416381835938 1003.16900634766 1002.8720703125 1007.34838867188 1008.009765625 1005.10711669922 1004.9970703125 1018.00482177734 1019.67315673828 1010.70922851562 1009.50897216797 1009.83374023438 1011.98840332031 1010.64288330078 1008.47839355469 1007.09167480469 1002.05853271484 1001.51000976562 995.740356445312 986.40966796875 998.639404296875 1005.26080322266 1008.14953613281 1001.73663330078 993.121948242188 985.205993652344 991.09912109375 996.014282226562 991.693725585938 985.917358398438 975.568603515625 972.587951660156 978.761291503906 974.874572753906 974.7197265625 965.564086914062 972.441955566406 981.965576171875 987.435363769531 996.2978515625 1012.60870361328 1019.70013427734 1018.02337646484 1025.82604980469 1021.65130615234 1015.94732666016 1015.10003662109 1021.79742431641 1022.94055175781 1010.21569824219 1010.84655761719 1014.44183349609 1019.44903564453 1009.27642822266 1009.84680175781 1013.19165039062 1028.99560546875 1025.49328613281 1033.13525390625 1041.94470214844 1043.556640625 1056.76037597656 1069.26171875 1079.45043945312 1081.74291992188 1092.87744140625 1101.46704101562 1113.51538085938 1117.19079589844 1123.43298339844
948.836181640625 955.773498535156 955.476379394531 967.043579101562 974.649536132812 968.433288574219 960.946838378906 958.900756835938 968.587890625 971.345764160156 974.609252929688 972.00439453125 974.200317382812 970.67333984375 981.770080566406 971.04052734375 973.898559570312 976.546020507812 980.442443847656 978.741516113281 977.755981445312 984.471557617188 981.185485839844 979.048706054688 985.036804199219 988.737487792969 981.074096679688 978.656188964844 979.714294433594 973.726013183594 984.515991210938 982.842895507812 991.107788085938 986.143188476562 990.460510253906 980.5751953125 986.781921386719 992.912414550781 991.522338867188 980.346618652344 981.790954589844 986.401672363281 987.257995605469 984.964660644531 989.473876953125 993.063049316406 991.612670898438 985.859741210938 976.70703125 976.3017578125 985.310668945312 988.176818847656 976.922485351562 978.052673339844 975.505187988281 975.264099121094 969.254760742188 976.35986328125 980.9111328125 993.210571289062 989.319519042969 985.760009765625 989.473022460938 985.114013671875 985.75537109375 979.517578125 985.008178710938 982.456359863281 982.111450195312 988.165405273438 987.168762207031 1000.18078613281 996.225402832031 988.427673339844 983.842529296875 998.55859375 995.164855957031 995.810546875 994.896484375 999.78662109375 994.127563476562 1003.32635498047 998.3125 1008.29217529297 1004.03338623047 1005.52740478516 1004.86267089844 1011.2421875 1012.546875 1008.34698486328 1016.19097900391 1009.64514160156 999.835876464844 997.826965332031 999.733276367188 1006.24609375 1005.30035400391 1004.99188232422 994.778625488281 993.531433105469 986.701782226562 999.156005859375 1006.45861816406 996.244934082031 993.501403808594 989.995361328125 988.506286621094 985.298034667969 986.853881835938 997.322509765625 989.639526367188 983.53564453125 983.13623046875 983.069274902344 985.090454101562 972.573547363281 978.12158203125 980.963439941406 989.621276855469 1004.84545898438 1009.48498535156 1017.57763671875 1017.82922363281 1021.71099853516 1024.24963378906 1024.47985839844 1019.38708496094 1028.22521972656 1018.81732177734 1018.57110595703 1004.61633300781 1010.30798339844 1010.18109130859 1012.24975585938 1013.07940673828 1023.76232910156 1026.22644042969 1034.55773925781 1047.67260742188 1050.14331054688 1064.88732910156 1075.77478027344 1073.51086425781 1083.32629394531 1097.30773925781 1099.99145507812 1101.54406738281 1118.59252929688 1120.41345214844 1122.70874023438
954.141967773438 954.59912109375 954.000122070312 959.900329589844 965.009460449219 964.063537597656 959.637756347656 958.081359863281 954.369323730469 968.298278808594 978.7421875 972.734558105469 965.956665039062 967.269897460938 967.122924804688 978.54931640625 981.529724121094 979.109191894531 978.001220703125 985.209655761719 978.048583984375 971.241516113281 980.7060546875 973.282958984375 978.620178222656 982.578308105469 992.1533203125 980.154968261719 965.641845703125 970.6025390625 983.992553710938 980.112548828125 984.746520996094 977.860412597656 986.10302734375 981.823852539062 976.692749023438 982.901550292969 982.050598144531 976.209594726562 974.777160644531 983.790771484375 982.607727050781 984.307922363281 980.073303222656 975.497924804688 972.393615722656 971.598449707031 976.83203125 978.028137207031 984.6728515625 974.970031738281 975.261962890625 977.967529296875 978.579528808594 976.423522949219 973.593994140625 979.304809570312 981.235778808594 982.749450683594 986.950927734375 985.407897949219 985.851684570312 982.771789550781 976.809997558594 978.719116210938 988.414123535156 988.108703613281 980.891906738281 981.284362792969 991.123962402344 995.273193359375 989.515075683594 991.1953125 988.085388183594 985.2666015625 995.179504394531 996.049865722656 1002.90002441406 987.764465332031 997.765686035156 994.708679199219 1002.89825439453 1000.51440429688 1006.45031738281 1010.23022460938 1002.240234375 1004.27679443359 1012.29675292969 1005.46038818359 1009.94427490234 1005.24597167969 999.348815917969 998.428283691406 994.941955566406 1000.93798828125 998.380554199219 1003.42181396484 1001.64526367188 992.458312988281 987.704772949219 997.640747070312 1007.28759765625 1002.43505859375 992.541748046875 989.229187011719 990.858459472656 986.724426269531 989.053161621094 989.512939453125 997.297607421875 999.20849609375 991.296630859375 993.194396972656 988.5859375 981.780639648438 976.806823730469 982.009216308594 991.740478515625 1010.28643798828 1009.21575927734 1018.33160400391 1021.89019775391 1028.81860351562 1022.41809082031 1034.54467773438 1022.76165771484 1021.12713623047 1015.77587890625 1012.24285888672 1010.01159667969 1009.86785888672 1011.72052001953 1015.63507080078 1015.90594482422 1022.98901367188 1034.12268066406 1045.13647460938 1053.912109375 1052.2607421875 1063.38012695312 1069.85266113281 1079.64428710938 1083.19592285156 1106.06481933594 1113.30725097656 1115.68615722656 1110.5693359375 1115.28564453125 1121.5390625
953.409790039062 950.126281738281 957.687255859375 954.979553222656 974.709655761719 972.054748535156 969.426940917969 966.595825195312 970.28662109375 971.044738769531 979.084594726562 965.357482910156 967.479125976562 962.230834960938 969.522216796875 973.322326660156 986.403198242188 986.019226074219 974.561218261719 978.136047363281 986.945739746094 972.168823242188 978.120727539062 979.998657226562 980.586608886719 983.500427246094 982.717407226562 969.415771484375 973.599609375 975.681213378906 979.095031738281 971.737060546875 977.816467285156 991.1103515625 989.331481933594 986.176208496094 977.580200195312 979.879943847656 981.994201660156 972.731628417969 973.137939453125 977.250366210938 980.862060546875 981.029724121094 983.376586914062 973.526672363281 973.86181640625 978.7705078125 980.060424804688 976.258361816406 971.844360351562 969.991394042969 966.062927246094 979.529663085938 981.548522949219 973.786987304688 970.132690429688 974.383972167969 983.776611328125 981.957214355469 986.075073242188 980.672607421875 985.165405273438 985.927673339844 986.332275390625 981.401916503906 982.897583007812 995.182861328125 987.242065429688 988.416870117188 990.630310058594 994.416137695312 992.849548339844 989.055786132812 985.973815917969 993.753845214844 989.824340820312 996.888732910156 1001.46380615234 986.950744628906 994.775512695312 997.983154296875 995.73046875 998.421020507812 1008.95251464844 1006.30767822266 1008.99768066406 1012.6748046875 1012.19989013672 997.459655761719 1007.39916992188 1011.18823242188 1006.60858154297 1002.88824462891 1001.17388916016 998.194213867188 998.666931152344 993.563720703125 993.592956542969 996.388000488281 999.908386230469 991.085083007812 997.393920898438 995.983337402344 994.193420410156 997.258605957031 992.923217773438 994.424926757812 992.679870605469 993.09228515625 1001.24945068359 1004.10015869141 1003.15789794922 992.612060546875 995.18212890625 995.958923339844 990.223022460938 992.664916992188 1000.78253173828 1007.34063720703 1009.37744140625 1009.56945800781 1020.86236572266 1027.09106445312 1033.45947265625 1027.0302734375 1027.72485351562 1017.42687988281 1013.72454833984 1010.08020019531 1011.81842041016 1017.03485107422 1018.64654541016 1025.96142578125 1022.30316162109 1028.50817871094 1038.64099121094 1041.92895507812 1060.044921875 1061.15893554688 1069.83874511719 1067.390625 1087.48779296875 1095.83874511719 1113.11962890625 1125.66577148438 1118.24084472656 1112.23779296875 1120.25622558594 1120.728515625
955.250549316406 955.672180175781 966.264343261719 961.287719726562 961.901062011719 971.841125488281 977.938049316406 973.214538574219 975.866516113281 969.736999511719 970.215759277344 975.90283203125 969.695068359375 967.7607421875 971.150085449219 966.842651367188 973.943359375 975.14306640625 975.134216308594 973.860534667969 980.59326171875 982.96044921875 977.892944335938 983.156982421875 981.786804199219 975.718383789062 973.733459472656 971.235595703125 977.72021484375 981.630004882812 980.196655273438 979.13427734375 982.19580078125 990.253845214844 986.923522949219 985.875549316406 985.984741210938 979.51806640625 974.059692382812 973.190002441406 974.723937988281 975.175476074219 983.991271972656 977.660827636719 976.489135742188 967.958618164062 972.025146484375 980.563598632812 979.866394042969 978.803100585938 973.249389648438 975.060607910156 973.927612304688 975.42041015625 987.484619140625 976.993713378906 973.794311523438 976.206604003906 977.058288574219 982.466369628906 973.945922851562 975.755798339844 974.043395996094 972.996704101562 981.6513671875 986.022155761719 990.115234375 989.793823242188 982.094909667969 983.46435546875 979.449645996094 984.30224609375 992.441711425781 995.732727050781 988.924438476562 983.0830078125 984.658813476562 998.336303710938 1000.31115722656 991.847351074219 994.343994140625 1000.60076904297 1002.81811523438 1007.37609863281 1006.03704833984 1009.48474121094 1011.14166259766 1018.26385498047 1010.07098388672 998.077392578125 1010.6181640625 1001.35070800781 1003.35961914062 1002.98767089844 1003.32666015625 1001.43878173828 992.185852050781 992.244079589844 991.572631835938 1000.28894042969 995.048278808594 994.459655761719 994.044982910156 995.223510742188 1001.40740966797 996.931884765625 999.911804199219 988.2421875 991.425964355469 998.352172851562 989.975891113281 999.304931640625 999.8564453125 998.611328125 1003.40197753906 1005.32647705078 998.449829101562 996.7216796875 999.801879882812 1006.69555664062 1013.78741455078 1008.75329589844 1004.84399414062 1014.48101806641 1012.6875 1008.80865478516 1004.72790527344 1009.87493896484 1013.39685058594 1008.56671142578 1012.00744628906 1018.61285400391 1014.96014404297 1021.58453369141 1025.52502441406 1027.42077636719 1033.04516601562 1036.77282714844 1047.67565917969 1056.30346679688 1069.89245605469 1076.0078125 1091.52404785156 1108.03356933594 1118.69030761719 1120.32275390625 1121.24169921875 1121.62341308594 1118.8046875 1125.73034667969
951.031372070312 955.041442871094 966.138122558594 966.513610839844 963.115539550781 974.010192871094 969.07421875 976.837219238281 968.823913574219 965.612915039062 966.004333496094 973.983703613281 967.429931640625 960.84375 956.703369140625 961.045593261719 970.029846191406 973.869323730469 975.829711914062 977.027282714844 980.938293457031 976.715087890625 970.489379882812 973.864868164062 974.097900390625 971.741760253906 972.253540039062 961.191101074219 966.403869628906 975.929748535156 982.412780761719 985.344848632812 977.465759277344 983.177490234375 981.344909667969 983.833557128906 974.066955566406 969.827758789062 968.992431640625 974.335693359375 969.137817382812 968.895874023438 971.890625 970.574951171875 970.302307128906 974.692810058594 967.570190429688 969.310180664062 973.216003417969 970.370727539062 978.815307617188 979.520935058594 969.202209472656 974.73486328125 979.04052734375 966.267456054688 983.480346679688 979.062927246094 977.016723632812 978.498901367188 972.1669921875 972.74365234375 973.276611328125 973.91943359375 980.852966308594 982.289978027344 983.655639648438 980.323181152344 982.834106445312 979.714782714844 978.072875976562 970.280578613281 981.371948242188 991.416259765625 974.489013671875 966.754699707031 974.415771484375 988.339416503906 997.908813476562 989.035888671875 992.768859863281 1004.43542480469 1004.56036376953 1003.97650146484 998.115173339844 1009.361328125 1008.796875 1010.86700439453 1008.64660644531 1003.21203613281 1002.50787353516 998.929138183594 997.444030761719 995.614318847656 995.44384765625 994.680236816406 991.310791015625 991.016357421875 990.079406738281 989.560546875 988.400573730469 992.294555664062 990.170471191406 1000.61199951172 999.60888671875 997.60693359375 995.523742675781 991.526977539062 996.435607910156 989.093505859375 984.388488769531 991.1865234375 992.715148925781 1001.96051025391 1001.16882324219 1000.46630859375 997.969848632812 996.391479492188 1000.58795166016 1010.12017822266 1011.21929931641 1000.99871826172 1009.75146484375 1006.2451171875 1000.04736328125 1003.33374023438 999.124084472656 1002.59185791016 1008.32824707031 1014.03790283203 1010.14807128906 1021.89477539062 1022.92980957031 1027.67138671875 1035.57983398438 1034.52673339844 1038.02868652344 1035.14233398438 1048.65295410156 1060.36596679688 1068.66833496094 1084.9052734375 1102.42260742188 1106.45202636719 1120.31896972656 1118.54638671875 1126.61901855469 1132.12463378906 1124.75512695312 1136.22521972656
951.971923828125 952.9287109375 954.670776367188 955.961853027344 963.210510253906 961.432922363281 970.237609863281 976.488464355469 968.054931640625 963.02783203125 964.715454101562 969.89306640625 964.727111816406 970.044189453125 966.18115234375 974.085815429688 981.576416015625 970.641540527344 974.746276855469 976.153198242188 978.485229492188 978.523498535156 972.680236816406 971.666564941406 972.842712402344 977.038696289062 973.80224609375 972.025573730469 968.227966308594 982.371154785156 979.304260253906 976.882873535156 973.512939453125 984.078430175781 979.210144042969 976.431945800781 973.334899902344 966.706298828125 971.291015625 972.648498535156 961.828552246094 973.29345703125 968.707580566406 964.548950195312 963.254699707031 968.983032226562 967.110290527344 969.85888671875 968.274841308594 967.138671875 972.909423828125 965.998962402344 978.333129882812 972.025451660156 973.552856445312 977.083801269531 976.900024414062 978.371154785156 980.429016113281 972.730651855469 977.374755859375 981.387329101562 980.883483886719 978.051635742188 977.728637695312 983.603271484375 979.201721191406 990.046569824219 981.1591796875 977.890991210938 979.641723632812 976.641357421875 983.239013671875 988.437744140625 977.942199707031 976.816467285156 974.269714355469 984.553466796875 991.800354003906 992.665832519531 996.061584472656 992.411376953125 1002.82672119141 1000.89215087891 1001.55749511719 1005.51306152344 1005.923828125 1003.13702392578 1005.95068359375 1009.07568359375 996.281860351562 996.086303710938 994.60205078125 993.114501953125 1000.09320068359 990.271606445312 984.814575195312 980.524963378906 979.351684570312 984.776123046875 997.281005859375 996.636962890625 986.020141601562 996.935302734375 994.500366210938 978.570068359375 981.798645019531 976.792846679688 988.011047363281 986.084777832031 983.528015136719 991.2099609375 998.781433105469 996.867126464844 993.441101074219 992.942138671875 994.299194335938 1003.45532226562 1000.73657226562 1007.90808105469 1008.84735107422 1003.99395751953 1004.01940917969 1001.98419189453 1004.06018066406 1002.13427734375 998.619995117188 1001.17419433594 1007.59216308594 1019.29345703125 1024.30200195312 1022.50109863281 1025.14733886719 1031.74145507812 1040.38940429688 1035.48876953125 1038.63647460938 1043.85437011719 1056.2109375 1063.76135253906 1077.75439453125 1089.44030761719 1102.33911132812 1110.48852539062 1123.31396484375 1128.62353515625 1140.23986816406 1143.67456054688 1143.85510253906 1142.40563964844
961.480041503906 951.943481445312 951.297485351562 946.353271484375 955.636047363281 972.337585449219 971.357238769531 968.892272949219 961.696594238281 966.723937988281 970.563415527344 970.923278808594 971.840942382812 969.036682128906 970.253784179688 978.468627929688 978.919616699219 983.699645996094 978.356506347656 978.307434082031 970.540222167969 975.486145019531 966.395568847656 970.840148925781 976.806884765625 972.894409179688 973.623657226562 980.170471191406 987.0224609375 978.893432617188 979.221862792969 972.955749511719 980.024475097656 971.334167480469 969.142456054688 971.710021972656 972.478454589844 972.324462890625 974.305053710938 969.755004882812 973.32080078125 965.728454589844 966.722534179688 963.001037597656 973.159362792969 968.632629394531 961.188720703125 965.243835449219 969.972717285156 977.954895019531 967.808959960938 970.002258300781 968.051025390625 964.962219238281 975.095336914062 977.327819824219 982.878967285156 974.959045410156 973.820434570312 978.452087402344 977.185485839844 976.781311035156 981.079162597656 971.07470703125 979.744689941406 969.462158203125 972.072204589844 979.421264648438 975.549438476562 974.817932128906 972.904418945312 980.409423828125 986.532165527344 988.289367675781 973.273986816406 975.546691894531 972.163940429688 972.100158691406 982.916931152344 989.595947265625 992.871704101562 994.4775390625 995.88916015625 1000.99884033203 999.891235351562 1002.00347900391 998.022827148438 998.860168457031 998.1494140625 995.975708007812 990.388793945312 987.684387207031 994.333801269531 999.195068359375 997.271362304688 991.696594238281 982.668701171875 982.190979003906 983.074645996094 975.725708007812 988.907958984375 983.929748535156 991.334716796875 989.518615722656 984.756103515625 982.788513183594 978.250244140625 986.111450195312 984.800964355469 985.022277832031 990.67626953125 996.918151855469 989.975769042969 998.066772460938 999.368286132812 1004.08032226562 997.227416992188 998.206848144531 1002.14624023438 1007.08093261719 996.178039550781 998.240844726562 1002.31555175781 1003.66107177734 1000.46185302734 1007.08605957031 1008.59692382812 1010.83984375 1009.37170410156 1017.04919433594 1030.77563476562 1031.48107910156 1030.19506835938 1033.49279785156 1043.52392578125 1047.56103515625 1046.58251953125 1050.84973144531 1063.00048828125 1076.74523925781 1086.6630859375 1097.78405761719 1108.48815917969 1118.67053222656 1122.6025390625 1126.00720214844 1134.86474609375 1141.87023925781 1163.6162109375 1158.4912109375
960.203125 959.107421875 951.717529296875 952.061584472656 952.613647460938 960.645324707031 964.561584472656 964.350219726562 967.928405761719 967.984497070312 963.946960449219 972.860107421875 970.717102050781 966.592468261719 967.651550292969 971.44921875 976.707336425781 978.762756347656 977.208129882812 966.016662597656 969.928466796875 967.262939453125 956.533508300781 962.913269042969 970.842041015625 970.67041015625 977.011169433594 973.873046875 984.636169433594 983.838745117188 979.922729492188 974.311584472656 973.193908691406 966.22900390625 971.529174804688 967.998901367188 975.045654296875 978.907409667969 976.00146484375 974.364013671875 968.90283203125 962.976928710938 968.900756835938 973.835266113281 969.621520996094 975.351257324219 967.998352050781 962.813781738281 966.149108886719 973.760864257812 968.893737792969 965.31005859375 969.441162109375 969.194030761719 978.495361328125 976.107543945312 972.392944335938 968.296875 975.392333984375 979.556884765625 981.537292480469 984.1201171875 978.7978515625 970.527770996094 970.396545410156 972.620544433594 979.73779296875 979.894897460938 972.527038574219 968.97314453125 971.028015136719 977.680908203125 976.453247070312 973.245483398438 969.087036132812 975.140991210938 974.426452636719 978.949279785156 981.389099121094 989.080749511719 987.271057128906 994.828369140625 1002.43353271484 998.645141601562 997.8154296875 1001.14276123047 1005.19964599609 990.692077636719 998.682739257812 999.812622070312 979.629150390625 991.759887695312 990.891418457031 993.182373046875 992.805969238281 991.989013671875 989.152648925781 985.506652832031 980.337280273438 974.773803710938 976.191223144531 978.167846679688 987.537902832031 984.537902832031 984.853271484375 987.842102050781 989.74853515625 984.941589355469 978.342163085938 986.098388671875 988.413940429688 984.19140625 986.618835449219 990.665344238281 1000.50982666016 999.443115234375 992.96630859375 988.64208984375 998.563171386719 998.619934082031 1001.68280029297 1000.32177734375 994.250671386719 1000.97528076172 994.335998535156 996.266418457031 1011.53100585938 1021.91088867188 1024.98596191406 1020.1943359375 1033.01000976562 1038.37939453125 1043.7109375 1042.73791503906 1044.78967285156 1046.47082519531 1051.26538085938 1057.376953125 1061.85266113281 1073.40270996094 1087.044921875 1097.291015625 1108.21740722656 1126.46105957031 1136.24060058594 1138.013671875 1139.26171875 1152.77587890625 1161.48315429688 1164.62573242188
943.565795898438 950.656860351562 952.928833007812 950.970153808594 949.976257324219 951.827331542969 961.4697265625 973.898376464844 968.214904785156 968.176513671875 965.930236816406 971.902038574219 967.65625 967.800964355469 970.180541992188 970.39794921875 976.744934082031 969.874755859375 967.607727050781 976.489074707031 967.523498535156 964.711364746094 966.123352050781 958.111938476562 964.3984375 975.505004882812 976.254455566406 979.976989746094 980.925415039062 976.569152832031 978.849304199219 972.820251464844 963.005187988281 969.722900390625 970.928100585938 965.995849609375 977.435119628906 977.929016113281 972.4404296875 972.860229492188 970.801574707031 967.220520019531 963.941284179688 977.419372558594 979.675354003906 971.507629394531 972.851379394531 972.272216796875 974.01806640625 972.978698730469 971.87548828125 969.064208984375 973.818054199219 975.628051757812 972.462951660156 965.946044921875 965.211547851562 978.643310546875 974.130859375 975.478271484375 979.038146972656 982.552978515625 976.089111328125 969.689331054688 971.876220703125 977.701721191406 977.450073242188 980.377563476562 979.764892578125 971.534423828125 969.419189453125 973.985412597656 970.196472167969 963.663940429688 977.323669433594 970.50830078125 974.086608886719 980.367492675781 973.441223144531 991.08984375 984.070190429688 990.163391113281 990.380493164062 988.070983886719 992.89697265625 990.618591308594 990.073913574219 993.198364257812 989.303771972656 980.853271484375 981.062072753906 984.835876464844 981.722473144531 985.46875 987.073425292969 993.358581542969 985.601013183594 977.462646484375 975.68701171875 973.07666015625 979.072326660156 975.841369628906 980.381286621094 978.402282714844 980.115173339844 991.963073730469 986.779418945312 983.970458984375 983.480651855469 985.067749023438 987.991577148438 995.644226074219 995.385864257812 987.905822753906 992.452941894531 986.588684082031 990.026550292969 992.187561035156 991.623229980469 996.773864746094 996.792175292969 991.665222167969 988.247924804688 993.23681640625 1000.44500732422 1006.63873291016 1014.82354736328 1021.91723632812 1029.39892578125 1025.96655273438 1031.31091308594 1046.22253417969 1046.63061523438 1047.97021484375 1050.34765625 1053.43005371094 1054.38403320312 1063.33459472656 1062.69665527344 1079.59313964844 1092.47204589844 1108.89404296875 1111.12475585938 1129.17224121094 1137.572265625 1142.48193359375 1147.7568359375 1155.55871582031 1159.74584960938 1167.06921386719
944.849304199219 943.244140625 951.998840332031 947.098510742188 954.816955566406 953.861694335938 960.782531738281 965.120788574219 965.550231933594 962.191772460938 966.900451660156 969.986694335938 965.585327148438 963.32666015625 969.771118164062 972.506713867188 972.204223632812 972.553771972656 971.366149902344 970.394104003906 972.613403320312 966.734130859375 966.255798339844 964.502380371094 961.685668945312 976.613952636719 980.760192871094 972.278869628906 975.047729492188 971.941711425781 972.730895996094 975.391174316406 963.66162109375 972.81884765625 962.825744628906 966.495239257812 971.335510253906 976.409973144531 977.6611328125 975.104858398438 968.059875488281 965.219421386719 966.127258300781 975.663635253906 968.659423828125 967.608703613281 978.234436035156 975.712463378906 974.507141113281 972.056335449219 970.059143066406 970.447937011719 970.371765136719 967.907409667969 969.133911132812 968.749633789062 972.330322265625 972.31103515625 970.797790527344 976.073547363281 977.259338378906 981.237243652344 977.413452148438 967.919677734375 976.249572753906 976.065307617188 976.831481933594 976.708740234375 974.147094726562 970.467529296875 971.840515136719 972.046752929688 974.411499023438 970.582824707031 977.203063964844 967.263549804688 977.138244628906 976.531982421875 969.66064453125 975.395202636719 974.595886230469 976.927490234375 972.064025878906 973.357116699219 978.027526855469 982.103454589844 989.393432617188 990.171875 991.593505859375 980.535888671875 989.90185546875 984.481689453125 983.488403320312 986.107604980469 981.310302734375 991.296508789062 980.084899902344 975.313049316406 979.973449707031 972.803283691406 976.719665527344 981.460266113281 985.555114746094 984.87353515625 981.570617675781 987.954162597656 984.931701660156 980.105590820312 982.443481445312 979.799377441406 985.054748535156 987.904846191406 995.669128417969 995.3515625 998.745239257812 994.803833007812 995.493225097656 1002.30163574219 999.426940917969 996.929138183594 994.202941894531 1000.37481689453 996.357971191406 996.442199707031 1001.44085693359 1009.32116699219 1009.86761474609 1014.32537841797 1022.10125732422 1035.71350097656 1041.72900390625 1049.24926757812 1060.37316894531 1056.07971191406 1054.39624023438 1053.64147949219 1061.42260742188 1067.32019042969 1080.74243164062 1091.11450195312 1100.77502441406 1108.73046875 1119.9443359375 1128.59020996094 1140.50158691406 1144.62768554688 1149.74536132812 1161.71301269531 1164.59106445312 1166.32690429688
944.311401367188 941.042541503906 949.572387695312 948.811706542969 948.998962402344 950.50732421875 955.766723632812 960.658630371094 965.834838867188 963.465087890625 966.652587890625 959.1435546875 965.018981933594 965.814758300781 969.748413085938 975.906127929688 972.107360839844 978.242065429688 978.549743652344 975.902893066406 971.024780273438 967.470886230469 971.707397460938 962.981628417969 960.899963378906 969.225524902344 962.727722167969 965.2265625 971.550415039062 979.247436523438 977.991760253906 980.880187988281 971.308837890625 971.111328125 965.894348144531 959.246154785156 973.156127929688 973.981872558594 968.845825195312 973.473266601562 968.744079589844 969.955444335938 968.794616699219 971.842407226562 969.660278320312 967.717224121094 975.131164550781 976.345703125 970.397521972656 966.190979003906 971.127563476562 975.038879394531 973.822387695312 966.730163574219 965.321166992188 963.801147460938 969.108825683594 972.15234375 976.411560058594 972.496520996094 976.703674316406 968.098449707031 974.256103515625 982.081604003906 978.4169921875 979.932800292969 979.456420898438 975.646667480469 982.064697265625 974.143432617188 975.874694824219 962.152893066406 964.361328125 972.794616699219 976.415710449219 973.416809082031 974.937438964844 973.855285644531 972.532043457031 973.449523925781 969.398071289062 973.746948242188 966.245849609375 964.775329589844 967.078186035156 968.027038574219 973.642578125 989.16162109375 989.61474609375 984.147888183594 989.398132324219 981.9541015625 983.206115722656 986.417358398438 984.955688476562 981.225708007812 971.843078613281 978.704895019531 979.344177246094 978.893371582031 977.999145507812 980.643859863281 981.130981445312 981.052856445312 984.82421875 983.30810546875 986.820434570312 988.880187988281 986.426208496094 990.331359863281 982.783508300781 991.17919921875 994.821105957031 997.561218261719 1001.85272216797 1002.89178466797 999.468566894531 999.96142578125 1008.189453125 1005.22155761719 999.144409179688 996.606750488281 1004.12707519531 1007.10290527344 1004.76403808594 1009.35949707031 1014.033203125 1022.57318115234 1026.30444335938 1030.24926757812 1048.65270996094 1046.7646484375 1054.11181640625 1060.34545898438 1070.65454101562 1068.66796875 1072.74865722656 1076.16687011719 1079.35095214844 1082.35095214844 1091.19262695312 1103.81115722656 1113.00415039062 1120.13415527344 1134.03137207031 1144.986328125 1160.89111328125 1173.96618652344 1170.50939941406 1167.04284667969
934.451293945312 944.403686523438 943.407531738281 945.309631347656 948.533569335938 954.804992675781 957.797973632812 961.550842285156 967.195617675781 960.4267578125 963.426330566406 955.031555175781 959.957458496094 967.077209472656 976.994140625 970.406311035156 975.004638671875 982.092407226562 979.175598144531 979.255493164062 973.710327148438 970.830993652344 972.181396484375 970.125549316406 956.034790039062 960.5341796875 956.306640625 961.5908203125 966.985473632812 975.623596191406 976.065979003906 978.424682617188 977.25634765625 971.504272460938 966.570556640625 975.517639160156 965.098937988281 968.706604003906 974.183776855469 971.88818359375 962.631958007812 959.377380371094 965.516479492188 966.855895996094 965.722473144531 961.37353515625 965.979736328125 975.97021484375 972.593139648438 966.8671875 965.830261230469 973.827392578125 974.657958984375 964.6435546875 972.161743164062 963.820373535156 970.8291015625 969.8642578125 974.897705078125 980.227416992188 972.791809082031 972.016235351562 973.052795410156 974.13525390625 977.661804199219 976.28759765625 966.402404785156 977.687622070312 976.891906738281 969.792846679688 972.056518554688 971.53857421875 965.11376953125 972.752685546875 974.248901367188 973.4033203125 969.223266601562 964.843505859375 957.588256835938 966.976440429688 979.306396484375 963.670593261719 964.132568359375 963.089416503906 961.380004882812 969.838989257812 975.655944824219 982.138854980469 978.63427734375 991.665893554688 984.203186035156 975.462280273438 978.546691894531 982.359741210938 978.823486328125 977.511474609375 980.204650878906 982.4013671875 989.843322753906 986.702209472656 981.427551269531 978.834899902344 974.717834472656 984.188659667969 973.843872070312 981.762634277344 987.292358398438 994.001342773438 997.106079101562 993.763488769531 999.770141601562 993.25537109375 1002.96997070312 1004.16027832031 1003.28381347656 1009.00177001953 1007.20373535156 1004.65100097656 1008.22528076172 1002.36956787109 1007.25317382812 1000.49694824219 1003.77032470703 1006.46850585938 1006.43438720703 1007.86553955078 1020.75787353516 1024.00012207031 1023.50189208984 1041.22924804688 1044.69409179688 1047.27331542969 1053.88635253906 1069.16833496094 1070.57922363281 1075.86242675781 1073.58935546875 1079.81335449219 1076.74987792969 1079.57055664062 1090.05041503906 1100.59985351562 1117.93017578125 1117.68188476562 1126.70861816406 1140.64916992188 1155.81201171875 1170.49377441406 1175.05871582031 1169.0380859375
938.371643066406 948.719421386719 952.398620605469 946.051208496094 948.871643066406 956.337829589844 960.838928222656 952.412658691406 959.531311035156 966.237548828125 967.0576171875 966.027648925781 961.252746582031 958.603210449219 974.225280761719 980.970581054688 982.105712890625 983.710083007812 975.95556640625 976.303344726562 980.302368164062 966.122802734375 969.430786132812 963.180236816406 961.553039550781 960.440185546875 959.81640625 963.711120605469 967.686157226562 969.233520507812 975.890808105469 973.361755371094 966.103454589844 959.711608886719 966.756225585938 966.272277832031 962.652893066406 959.684448242188 966.251770019531 970.505615234375 959.224731445312 960.838623046875 960.802368164062 966.340515136719 971.595581054688 967.153015136719 965.68310546875 962.246032714844 968.20166015625 965.933349609375 970.434448242188 975.146484375 965.926696777344 949.248291015625 959.256713867188 968.998718261719 975.818176269531 972.731567382812 972.085876464844 979.106628417969 974.75048828125 970.82861328125 968.959289550781 964.327270507812 969.940612792969 971.710327148438 966.324951171875 975.83837890625 981.660949707031 971.006469726562 970.169311523438 961.149047851562 970.57177734375 973.453979492188 981.268127441406 973.313537597656 965.018493652344 962.248840332031 969.104309082031 969.161926269531 974.299926757812 973.919372558594 965.894165039062 971.3427734375 972.584228515625 977.123718261719 977.284423828125 988.5849609375 997.808898925781 989.979431152344 993.070190429688 973.809814453125 974.297546386719 980.845092773438 978.284240722656 977.792053222656 979.615356445312 988.247985839844 986.786193847656 986.550537109375 988.983947753906 987.713562011719 984.145568847656 988.732849121094 987.220031738281 986.010620117188 991.821044921875 994.182800292969 994.913146972656 988.967163085938 997.796081542969 1007.85290527344 1009.75274658203 1004.75048828125 1002.76385498047 1006.07269287109 1004.68646240234 1003.53430175781 1004.11791992188 1003.07818603516 1005.72314453125 1005.65960693359 1006.13977050781 1008.85168457031 1014.98980712891 1018.0146484375 1025.12255859375 1027.85949707031 1039.98889160156 1045.80639648438 1050.916015625 1053.64807128906 1063.66748046875 1073.28979492188 1066.10986328125 1080.46850585938 1077.70959472656 1087.30102539062 1091.41772460938 1084.85900878906 1095.83715820312 1102.92077636719 1112.9375 1130.48974609375 1124.98571777344 1137.08422851562 1148.87573242188 1159.37121582031 1164.71276855469 1162.67919921875
957.494018554688 954.781005859375 958.039367675781 955.128234863281 952.037353515625 964.135864257812 960.967651367188 958.602661132812 962.669860839844 962.813903808594 968.667907714844 968.117736816406 966.025390625 965.061584472656 971.407897949219 975.356506347656 977.165649414062 972.260192871094 981.872253417969 981.803955078125 968.908752441406 964.906921386719 973.766296386719 964.386840820312 965.50244140625 961.808654785156 959.781555175781 961.767883300781 972.752014160156 968.702941894531 967.191162109375 973.922058105469 967.473327636719 971.43310546875 973.892944335938 965.935852050781 959.837036132812 964.5380859375 968.617858886719 982.095886230469 965.924255371094 957.809387207031 972.192077636719 964.575988769531 956.490600585938 960.594360351562 961.741455078125 974.803527832031 973.571472167969 963.828674316406 964.928100585938 967.439514160156 974.922424316406 963.685729980469 959.722473144531 964.039733886719 969.280639648438 971.931823730469 975.487243652344 977.433349609375 970.827514648438 962.302001953125 964.364501953125 964.008056640625 970.731872558594 970.088928222656 973.465209960938 973.08447265625 976.2919921875 969.167785644531 966.766052246094 962.380249023438 967.597900390625 974.707641601562 967.397644042969 973.60205078125 963.414611816406 966.285278320312 963.671203613281 961.750244140625 965.698181152344 970.97802734375 968.893798828125 964.765747070312 971.736572265625 962.584533691406 975.85400390625 991.016540527344 989.53466796875 991.699462890625 980.927856445312 977.874206542969 976.109741210938 974.455017089844 979.4873046875 974.276977539062 977.500793457031 986.813415527344 985.410522460938 985.736511230469 978.863464355469 981.413146972656 979.048400878906 991.480651855469 986.238952636719 995.245361328125 986.962463378906 987.965270996094 991.998962402344 991.246704101562 1003.09722900391 1008.79260253906 1004.81878662109 1008.24127197266 1003.45648193359 1008.61535644531 1004.80841064453 1012.73797607422 1003.17431640625 1006.03918457031 1004.64147949219 1005.77398681641 1006.11120605469 1027.71594238281 1017.87701416016 1026.41711425781 1027.00354003906 1037.48901367188 1048.64343261719 1059.33801269531 1059.37841796875 1058.51489257812 1055.86059570312 1073.587890625 1071.07629394531 1074.09130859375 1085.10729980469 1096.11242675781 1097.18359375 1097.71423339844 1106.55126953125 1103.66711425781 1115.80432128906 1130.55212402344 1127.15661621094 1132.84521484375 1139.06481933594 1141.81921386719 1148.36584472656 1163.94299316406
966.397888183594 957.093627929688 952.389770507812 956.289733886719 959.404663085938 960.209350585938 962.529357910156 968.97509765625 966.855102539062 964.370788574219 968.439880371094 967.503173828125 961.514465332031 972.692626953125 972.543640136719 974.168884277344 974.21337890625 976.229248046875 977.835876464844 983.190002441406 976.401306152344 969.524597167969 966.630798339844 957.827026367188 958.146667480469 955.558898925781 963.146179199219 967.045227050781 979.13916015625 973.948669433594 978.581726074219 967.964721679688 968.953369140625 968.409118652344 973.567199707031 972.617370605469 966.545349121094 969.781677246094 975.53076171875 978.762939453125 968.977416992188 959.847106933594 961.390747070312 958.682861328125 962.531005859375 960.382141113281 959.891784667969 967.633117675781 965.408142089844 968.714416503906 964.309692382812 964.332458496094 965.569458007812 960.146911621094 958.273193359375 960.640441894531 960.306579589844 971.596557617188 973.862731933594 970.895263671875 972.543701171875 960.04541015625 963.452331542969 964.320007324219 960.550048828125 969.684997558594 974.288757324219 979.679809570312 979.914306640625 974.897521972656 971.284240722656 965.225341796875 967.352478027344 976.851013183594 970.596069335938 971.027526855469 969.89208984375 974.286254882812 970.602783203125 971.164367675781 969.841369628906 964.0634765625 973.102600097656 971.591125488281 970.515319824219 976.835327148438 975.846252441406 980.575073242188 989.184020996094 978.269165039062 977.626159667969 974.125427246094 973.359436035156 970.158935546875 978.961975097656 977.030517578125 979.728576660156 977.277282714844 980.830383300781 975.967468261719 978.284423828125 978.358581542969 983.348510742188 990.470703125 986.253784179688 987.177795410156 994.897094726562 991.532592773438 987.2626953125 984.976928710938 994.8671875 1002.87622070312 1007.07934570312 1001.45465087891 999.298522949219 1003.82550048828 1011.26690673828 1014.17846679688 1012.28515625 1017.62030029297 1017.35961914062 1018.40563964844 1016.80688476562 1023.23449707031 1023.19152832031 1027.62634277344 1035.82165527344 1047.900390625 1052.38745117188 1059.39147949219 1062.73315429688 1064.83898925781 1078.05676269531 1085.0419921875 1077.34899902344 1083.43835449219 1090.11291503906 1096.720703125 1102.87670898438 1103.86206054688 1107.19348144531 1113.37353515625 1124.037109375 1124.55261230469 1129.67333984375 1126.0751953125 1132.14904785156 1138.09387207031 1138.06774902344 1148.07409667969
958.14013671875 953.901000976562 954.706909179688 957.073791503906 959.492980957031 965.208557128906 968.776062011719 971.643188476562 970.152099609375 971.17041015625 966.901428222656 964.816711425781 966.518127441406 968.955383300781 968.418579101562 971.502746582031 974.009887695312 973.767761230469 977.987121582031 982.229370117188 980.482116699219 962.469177246094 964.517028808594 962.502746582031 962.502990722656 956.733093261719 960.009338378906 963.043640136719 966.701538085938 977.89453125 974.031616210938 971.06884765625 976.193969726562 979.976745605469 972.077392578125 971.152160644531 966.331604003906 971.139038085938 971.570617675781 963.10595703125 966.52294921875 962.541931152344 969.632629394531 963.585632324219 959.254577636719 962.314208984375 959.804077148438 960.865234375 957.068908691406 965.515197753906 963.148315429688 970.948181152344 969.990844726562 960.719604492188 960.075378417969 963.491088867188 963.403686523438 974.514099121094 964.391540527344 971.786560058594 971.0341796875 962.923889160156 968.12255859375 957.247436523438 963.066711425781 967.742370605469 969.866516113281 975.606750488281 974.369812011719 966.781066894531 966.384704589844 971.442138671875 974.566528320312 986.039672851562 977.584655761719 976.102111816406 968.805053710938 962.312805175781 967.367126464844 970.165771484375 968.009338378906 959.945861816406 961.397216796875 972.996337890625 972.406066894531 968.979919433594 976.735107421875 974.421081542969 976.029541015625 984.25341796875 974.6318359375 976.792907714844 971.875122070312 970.462890625 981.142395019531 983.61376953125 981.380432128906 979.882263183594 985.154724121094 976.550354003906 978.145690917969 985.731384277344 988.914489746094 990.613342285156 985.924011230469 984.446838378906 989.380798339844 992.391174316406 993.207763671875 984.058471679688 992.117492675781 1002.11511230469 998.2158203125 1003.70379638672 995.088012695312 1005.20703125 1009.66717529297 1009.93701171875 1007.20239257812 1017.82543945312 1014.82586669922 1012.91394042969 1024.06323242188 1025.44299316406 1027.39111328125 1038.98388671875 1050.49450683594 1052.48681640625 1060.12390136719 1060.36950683594 1064.06103515625 1071.29089355469 1077.06469726562 1087.63684082031 1078.19226074219 1083.22021484375 1087.5859375 1094.37377929688 1091.796875 1100.79174804688 1112.56213378906 1117.8642578125 1123.71704101562 1138.16943359375 1131.89501953125 1137.70788574219 1124.11071777344 1128.42370605469 1140.06420898438 1139.45080566406
949.0537109375 950.515991210938 956.225830078125 952.206420898438 956.055786132812 965.210510253906 978.386413574219 974.983154296875 972.982116699219 971.107727050781 967.560913085938 971.88818359375 972.040954589844 975.282775878906 976.878479003906 975.575256347656 975.443542480469 973.074645996094 972.927185058594 972.712768554688 974.932189941406 971.662170410156 965.05615234375 963.166809082031 960.243286132812 961.452575683594 955.4833984375 957.50439453125 962.34326171875 974.804626464844 970.277648925781 972.55810546875 973.504028320312 975.807739257812 981.522277832031 981.09619140625 970.688537597656 974.477661132812 968.322998046875 956.279418945312 957.256958007812 961.538879394531 966.091735839844 964.677551269531 963.480712890625 956.673400878906 963.461669921875 959.0869140625 962.055725097656 966.416625976562 967.127868652344 967.039367675781 959.509399414062 966.9169921875 957.973815917969 964.615844726562 959.229858398438 962.172912597656 966.279296875 967.483642578125 967.719665527344 959.3564453125 957.248291015625 957.746826171875 958.317321777344 961.927917480469 961.50048828125 964.405029296875 961.065856933594 959.650512695312 958.798645019531 968.9345703125 974.692687988281 975.10791015625 973.439086914062 980.435363769531 977.476745605469 970.922485351562 963.841003417969 963.396484375 971.653747558594 967.215270996094 973.052185058594 971.367126464844 968.846496582031 972.973815917969 972.415466308594 970.3193359375 972.977172851562 977.450805664062 979.286315917969 968.496154785156 974.020446777344 969.677368164062 976.260009765625 977.594665527344 976.337097167969 974.366821289062 978.447143554688 983.525817871094 983.358642578125 984.932556152344 991.379699707031 991.852478027344 983.248718261719 983.866333007812 995.541809082031 1004.13336181641 998.227172851562 987.956359863281 993.112121582031 1000.57421875 988.295959472656 994.439392089844 998.581726074219 999.300109863281 1007.74359130859 1012.18768310547 1013.06500244141 1022.57269287109 1022.53765869141 1010.80120849609 1018.52563476562 1022.63537597656 1031.59545898438 1049.69958496094 1045.52368164062 1045.86950683594 1064.86096191406 1058.64624023438 1072.08203125 1062.77966308594 1072.88439941406 1077.15344238281 1083.90441894531 1088.35986328125 1090.51892089844 1092.49255371094 1099.21435546875 1098.24926757812 1103.46850585938 1110.92468261719 1118.09729003906 1125.03601074219 1128.95849609375 1118.24108886719 1119.85180664062 1128.45959472656 1129.84741210938 1132.54162597656
958.70263671875 956.522521972656 956.663208007812 962.012023925781 966.130065917969 968.206481933594 978.646545410156 981.018310546875 977.477783203125 971.701782226562 970.776000976562 970.439880371094 971.018432617188 974.079406738281 973.068786621094 965.985046386719 970.231079101562 976.33056640625 981.7939453125 974.546203613281 970.527770996094 971.382385253906 968.485473632812 966.919006347656 957.911682128906 952.356506347656 953.650573730469 963.301330566406 957.65087890625 977.862548828125 976.757873535156 973.879089355469 973.485290527344 970.625793457031 971.400390625 975.581115722656 974.799926757812 975.498168945312 964.590270996094 959.649841308594 961.828125 956.31005859375 952.241333007812 962.632263183594 968.487121582031 960.488525390625 967.5908203125 954.3193359375 963.536254882812 974.417236328125 969.739807128906 974.935668945312 972.900512695312 969.588989257812 957.56787109375 962.933349609375 965.086120605469 957.642211914062 969.207702636719 973.651550292969 965.247131347656 956.941467285156 961.861999511719 962.301513671875 960.776733398438 954.449890136719 961.247436523438 956.790954589844 958.333435058594 962.786376953125 961.208251953125 962.938903808594 972.831481933594 966.579650878906 971.807434082031 968.970275878906 970.471862792969 974.447937011719 961.445129394531 968.34814453125 968.515930175781 972.636047363281 977.679504394531 973.674194335938 972.130676269531 975.649780273438 968.009216308594 968.070556640625 968.354797363281 964.405029296875 974.679626464844 972.030517578125 974.403198242188 975.166564941406 975.935974121094 972.156555175781 967.013366699219 968.828308105469 969.7021484375 979.388671875 985.242614746094 979.780578613281 985.09912109375 979.73681640625 981.687927246094 983.847106933594 993.459106445312 990.908813476562 988.326354980469 986.251037597656 997.018981933594 991.754028320312 999.156066894531 1000.12750244141 1002.85833740234 1002.12841796875 1006.83203125 1016.37731933594 1012.91943359375 1017.73004150391 1018.71258544922 1010.66107177734 1013.59869384766 1019.56323242188 1028.69409179688 1043.36828613281 1044.09692382812 1047.54846191406 1062.20581054688 1067.25207519531 1068.99792480469 1074.79016113281 1075.98291015625 1077.16577148438 1072.48669433594 1074.46362304688 1080.62524414062 1089.33410644531 1095.49499511719 1095.70153808594 1103.84875488281 1115.91784667969 1116.60021972656 1116.38635253906 1111.912109375 1117.11047363281 1120.36877441406 1116.25622558594 1119.54650878906 1116.83630371094
961.563354492188 969.140869140625 968.706115722656 953.936157226562 966.483215332031 973.514099121094 980.434326171875 974.9111328125 974.191711425781 970.657409667969 969.352783203125 977.053527832031 976.622619628906 963.834838867188 977.210144042969 982.97314453125 986.800109863281 984.301574707031 978.6611328125 974.898559570312 969.484802246094 963.092895507812 964.107055664062 963.286926269531 957.894226074219 963.786376953125 957.8984375 956.273559570312 965.652526855469 970.687133789062 971.840942382812 972.137573242188 978.721801757812 975.00830078125 967.057922363281 976.705688476562 972.975952148438 971.960327148438 965.985961914062 955.777160644531 959.528442382812 956.509582519531 958.265075683594 956.608154296875 961.699768066406 958.019592285156 960.020263671875 961.4150390625 963.638732910156 968.340515136719 966.024475097656 965.775817871094 969.902709960938 969.038635253906 955.350891113281 953.587463378906 956.972900390625 956.812316894531 964.359924316406 967.201354980469 966.796264648438 965.235168457031 964.636596679688 960.326416015625 958.101257324219 956.8232421875 959.327819824219 957.642395019531 962.650146484375 965.605163574219 966.435974121094 959.176879882812 958.397888183594 950.090026855469 957.062438964844 963.781982421875 964.318603515625 962.771850585938 961.791687011719 962.51513671875 964.904174804688 973.927856445312 990.408874511719 981.136657714844 978.108093261719 972.332214355469 963.015441894531 971.912048339844 974.325927734375 971.364990234375 975.286193847656 974.207214355469 972.716003417969 971.258361816406 970.717651367188 982.746032714844 976.187072753906 974.697204589844 974.377258300781 981.280700683594 975.35302734375 976.016296386719 972.502868652344 978.129516601562 979.364929199219 982.64208984375 985.405944824219 989.840454101562 986.631042480469 989.585510253906 992.742492675781 987.117919921875 996.167297363281 1005.96411132812 1002.90716552734 1001.064453125 999.077880859375 1008.97235107422 1022.65832519531 1022.32830810547 1022.58227539062 1022.16998291016 1013.96325683594 1015.73846435547 1029.76965332031 1040.13317871094 1045.48876953125 1037.92736816406 1050.42590332031 1067.82849121094 1069.38293457031 1070.73498535156 1077.89831542969 1081.40673828125 1076.24560546875 1083.06518554688 1094.90051269531 1091.837890625 1092.27062988281 1095.55102539062 1101.24975585938 1106.23840332031 1112.95703125 1112.1328125 1109.14440917969 1106.64501953125 1109.20837402344 1112.35180664062 1110.74609375 1115.12097167969
966.902526855469 970.796020507812 973.412475585938 963.502380371094 961.754333496094 967.110473632812 972.9765625 974.073547363281 969.366271972656 967.566040039062 959.20068359375 965.834716796875 975.338806152344 977.265686035156 976.763122558594 977.123901367188 975.985717773438 970.697875976562 977.945922851562 966.813049316406 967.427673339844 967.332275390625 967.422241210938 961.439331054688 964.510314941406 973.883850097656 959.295715332031 965.611877441406 965.129089355469 968.323364257812 976.5302734375 981.603759765625 979.17578125 965.121765136719 966.126159667969 974.174438476562 968.634460449219 954.782287597656 952.89599609375 953.718444824219 949.926452636719 946.276733398438 956.963073730469 946.104248046875 948.167114257812 948.75 953.772583007812 957.959594726562 973.042724609375 963.936096191406 952.703674316406 960.286315917969 958.593444824219 958.548461914062 962.99267578125 959.491149902344 954.132263183594 945.693603515625 959.765930175781 962.36474609375 957.262084960938 947.132202148438 953.647827148438 954.671936035156 959.276672363281 958.751770019531 958.536926269531 960.893432617188 958.946716308594 963.141479492188 961.377807617188 960.117736816406 962.395751953125 955.602233886719 947.960693359375 956.711181640625 960.908996582031 966.258239746094 962.890625 962.126037597656 963.312683105469 970.110412597656 974.573120117188 977.486267089844 971.305480957031 967.592468261719 965.736755371094 965.819213867188 968.20166015625 973.748229980469 972.347595214844 968.20263671875 966.43212890625 978.61962890625 972.591857910156 972.476318359375 979.903869628906 976.238037109375 980.48828125 968.838806152344 976.830932617188 974.092895507812 976.246520996094 977.164428710938 974.165405273438 977.389709472656 987.880310058594 989.056884765625 983.650146484375 977.057250976562 984.206420898438 988.470520019531 991.701171875 996.679809570312 1000.50927734375 1005.55975341797 1009.50024414062 1013.10577392578 1006.16839599609 1011.78991699219 1021.55615234375 1019.72143554688 1014.76507568359 1012.14916992188 1028.46423339844 1030.94604492188 1034.09155273438 1039.18371582031 1043.92993164062 1051.89514160156 1059.669921875 1063.45556640625 1074.14624023438 1065.4931640625 1070.45886230469 1085.37817382812 1093.42199707031 1095.09265136719 1092.02111816406 1087.99987792969 1087.8408203125 1100.68835449219 1109.94921875 1103.28271484375 1099.72985839844 1104.92272949219 1105.54919433594 1106.04016113281 1101.87316894531 1104.97827148438
966.539001464844 974.907531738281 974.139770507812 968.696899414062 968.748474121094 970.544921875 970.363586425781 978.268310546875 971.899841308594 974.109191894531 968.887573242188 967.696533203125 976.40576171875 973.894409179688 974.584655761719 982.999755859375 973.114074707031 969.737243652344 973.387329101562 974.042602539062 967.497253417969 965.991333007812 959.664978027344 970.899475097656 969.6689453125 974.144287109375 966.964538574219 963.980651855469 967.178955078125 967.821228027344 975.829284667969 963.070373535156 965.360595703125 966.229431152344 976.113830566406 965.259582519531 962.971557617188 951.40380859375 953.314819335938 954.219177246094 953.403625488281 954.909057617188 952.351684570312 938.372497558594 943.189880371094 950.393493652344 950.250122070312 955.172424316406 962.264038085938 964.207885742188 954.442443847656 949.80810546875 950.388549804688 949.71337890625 950.130981445312 956.577880859375 951.724365234375 946.455993652344 956.351318359375 964.290588378906 950.654113769531 954.468444824219 958.393615722656 956.646667480469 953.419799804688 956.359802246094 962.011291503906 961.989013671875 958.506713867188 961.040771484375 963.270080566406 966.174072265625 966.005676269531 965.094299316406 955.375915527344 960.3896484375 963.26513671875 975.698608398438 965.555786132812 960.452880859375 960.649353027344 961.823425292969 956.260620117188 965.390747070312 960.493103027344 960.894104003906 956.665405273438 958.603759765625 959.300109863281 964.521179199219 972.322692871094 972.189819335938 971.328918457031 965.291748046875 970.828186035156 974.962646484375 981.395385742188 977.193481445312 974.764038085938 976.231262207031 974.564636230469 974.8935546875 973.765380859375 981.975524902344 978.619384765625 975.184265136719 980.874145507812 978.553283691406 981.993957519531 981.518310546875 979.650512695312 992.378540039062 989.231689453125 988.308227539062 998.78759765625 996.687438964844 994.12109375 1004.13629150391 998.117919921875 1000.98645019531 1011.98901367188 1009.48394775391 1010.60876464844 1003.89196777344 1018.57037353516 1018.58074951172 1025.03784179688 1030.72387695312 1035.78295898438 1047.11340332031 1055.59912109375 1058.84460449219 1068.72705078125 1073.21472167969 1075.39428710938 1076.43469238281 1086.13928222656 1083.31970214844 1090.55847167969 1087.78442382812 1092.87719726562 1093.95690917969 1096.94848632812 1091.6796875 1097.990234375 1104.75842285156 1096.60314941406 1093.65563964844 1093.09106445312 1091.09350585938
964.308410644531 972.180419921875 979.690124511719 966.202941894531 971.294921875 972.004028320312 970.406799316406 974.23046875 972.86181640625 966.329711914062 962.213012695312 959.812805175781 976.06103515625 981.03857421875 981.036804199219 978.998596191406 974.068786621094 965.257568359375 975.870178222656 972.361145019531 968.082397460938 964.314758300781 956.925048828125 961.626831054688 970.118408203125 969.728271484375 962.625610351562 966.9951171875 962.049865722656 961.31982421875 963.757934570312 961.761901855469 955.962219238281 965.740539550781 969.008361816406 963.924560546875 961.595153808594 953.737487792969 954.622741699219 957.927917480469 953.674255371094 954.075073242188 953.325500488281 942.432800292969 943.425537109375 946.237060546875 949.837341308594 955.912536621094 961.39501953125 966.232238769531 967.2861328125 956.756774902344 954.099060058594 945.990173339844 953.435546875 958.5361328125 957.085998535156 949.793884277344 947.859375 957.727966308594 956.993713378906 946.251098632812 952.26171875 955.053894042969 949.789367675781 948.6572265625 955.724975585938 958.896179199219 952.865234375 959.065185546875 967.8525390625 963.478088378906 959.388122558594 959.993957519531 956.225036621094 948.631225585938 968.688171386719 972.772888183594 966.106384277344 958.6923828125 960.976745605469 960.680603027344 963.167114257812 963.522094726562 962.736511230469 957.045166015625 951.399230957031 959.143920898438 959.906860351562 973.605285644531 972.824584960938 972.011413574219 968.121154785156 972.30224609375 968.520446777344 970.614929199219 972.881469726562 971.920227050781 975.000427246094 983.159057617188 977.230773925781 976.42529296875 979.358215332031 986.361511230469 984.326721191406 982.017639160156 973.601440429688 984.389526367188 984.145568847656 987.055358886719 986.933959960938 993.451721191406 989.728332519531 983.327026367188 993.828674316406 992.35888671875 996.174377441406 994.533081054688 991.044677734375 1001.19537353516 998.296508789062 1000.08776855469 992.340393066406 992.78662109375 1005.99255371094 1018.40222167969 1026.58276367188 1026.10632324219 1034.7607421875 1045.68823242188 1053.80310058594 1047.91564941406 1059.15710449219 1059.88134765625 1077.00561523438 1082.0361328125 1079.41357421875 1083.32678222656 1083.10559082031 1089.26330566406 1090.1708984375 1083.97485351562 1078.31884765625 1072.77380371094 1089.36584472656 1090.89758300781 1092.15539550781 1091.47766113281 1091.84948730469 1089.638671875
967.102172851562 964.77783203125 967.73876953125 973.029846191406 974.442199707031 971.924011230469 969.259094238281 970.730407714844 967.461303710938 971.12841796875 970.614868164062 975.33984375 967.641906738281 980.584045410156 981.430480957031 970.581604003906 966.618774414062 974.405212402344 974.223693847656 971.99072265625 968.104309082031 956.854431152344 954.925109863281 957.741394042969 966.048400878906 962.974487304688 960.130004882812 953.969604492188 955.015319824219 961.034851074219 963.034729003906 962.670837402344 956.093811035156 959.960815429688 962.573425292969 958.757080078125 959.841003417969 958.483215332031 953.374389648438 955.405090332031 957.292175292969 954.709106445312 952.293884277344 953.155883789062 945.790710449219 952.897644042969 952.217651367188 955.051330566406 954.746215820312 959.927734375 966.01708984375 962.4140625 951.392639160156 947.332702636719 953.519836425781 960.450073242188 959.123779296875 956.209777832031 957.399475097656 954.385070800781 951.949829101562 948.780456542969 954.330810546875 955.00146484375 956.970825195312 955.089111328125 955.503784179688 956.815246582031 960.567687988281 966.989807128906 961.127624511719 958.276733398438 954.727722167969 958.158752441406 955.926086425781 955.601501464844 959.997253417969 954.189208984375 962.929992675781 965.369384765625 965.00048828125 965.739074707031 967.756469726562 953.413879394531 965.583068847656 962.029602050781 962.334594726562 956.439575195312 962.030822753906 972.4775390625 971.607971191406 965.811096191406 972.336547851562 970.589416503906 973.111511230469 982.067687988281 978.705627441406 972.556457519531 978.475402832031 985.848388671875 981.662414550781 979.429748535156 973.240173339844 974.378356933594 994.057495117188 986.356872558594 976.231506347656 982.449645996094 981.317749023438 988.578002929688 994.794738769531 995.971557617188 990.543212890625 985.051635742188 981.409423828125 991.112731933594 996.457275390625 994.379577636719 994.240783691406 993.396057128906 994.107971191406 996.324523925781 985.753845214844 993.220031738281 1007.67633056641 1012.58605957031 1021.16833496094 1027.18664550781 1027.75793457031 1035.20166015625 1041.00524902344 1050.58361816406 1051 1057.60034179688 1068.44482421875 1087.6640625 1091.25939941406 1089.42993164062 1085.91589355469 1083.38342285156 1079.1826171875 1078.48046875 1076.99768066406 1076.73474121094 1075.0361328125 1082.39367675781 1084.12316894531 1077.36682128906 1085.64208984375 1081.44482421875
982.18212890625 979.097473144531 962.882019042969 973.286193847656 971.60498046875 971.531677246094 974.434936523438 973.74365234375 970.430969238281 976.798645019531 975.678771972656 972.304870605469 970.729614257812 975.4345703125 974.304748535156 966.680725097656 960.144409179688 965.098083496094 963.181701660156 967.629577636719 956.658935546875 953.943298339844 948.648376464844 945.900451660156 961.075073242188 955.295776367188 952.412292480469 951.172912597656 948.558410644531 957.733764648438 969.121765136719 956.996459960938 963.140441894531 962.398803710938 962.605041503906 970.106323242188 973.50732421875 956.303039550781 946.533569335938 953.70556640625 953.704650878906 957.606140136719 955.62060546875 963.233703613281 963.203002929688 959.58349609375 958.278625488281 955.840148925781 951.862976074219 957.956909179688 965.457580566406 974.512939453125 954.460754394531 962.867309570312 960.932189941406 955.579040527344 951.952087402344 957.598693847656 959.900939941406 956.460815429688 948.002380371094 946.606384277344 955.624938964844 956.722778320312 954.526245117188 957.025634765625 956.759887695312 956.915222167969 956.4521484375 964.679931640625 964.547546386719 962.754455566406 953.27099609375 958.475036621094 954.252075195312 953.73681640625 953.663513183594 946.190368652344 962.858764648438 964.861022949219 964.983459472656 969.865417480469 965.885437011719 967.281982421875 970.553894042969 974.162658691406 964.617858886719 963.765502929688 969.528442382812 967.562194824219 973.027465820312 971.2060546875 967.403137207031 971.782592773438 973.378173828125 970.267639160156 974.943115234375 987.307006835938 985.594482421875 982.473815917969 976.223571777344 979.663696289062 981.174499511719 980.710144042969 987.619201660156 987.140625 979.218811035156 985.110900878906 989.853393554688 989.979858398438 991.956970214844 993.874755859375 989.199340820312 980.884704589844 985.579895019531 992.781799316406 996.927001953125 996.437194824219 998.64306640625 999.774963378906 1000.88488769531 995.061218261719 993.476684570312 995.710693359375 1002.23278808594 1012.42498779297 1023.16198730469 1022.83459472656 1029.89331054688 1029.83215332031 1042.525390625 1047.93395996094 1057.60998535156 1060.87927246094 1067.95153808594 1084.64624023438 1086.21862792969 1084.31274414062 1081.20007324219 1073.71569824219 1076.71325683594 1072.92907714844 1066.22875976562 1061.1328125 1066.45776367188 1069.50170898438 1066.73571777344 1063.93786621094 1081.16967773438 1081.45190429688
985.857788085938 973.203430175781 970.661071777344 967.255676269531 974.809020996094 974.801574707031 976.151916503906 968.75244140625 977.931091308594 980.775146484375 973.724304199219 968.878784179688 979.439147949219 970.899047851562 960.358764648438 960.929443359375 957.312377929688 959.549011230469 961.531494140625 957.314270019531 959.878967285156 950.678039550781 948.648803710938 945.609191894531 942.240478515625 947.4208984375 951.901245117188 953.072570800781 950.052551269531 958.294372558594 965.131652832031 963.624938964844 959.147644042969 960.369506835938 965.668762207031 966.363220214844 973.947021484375 965.825805664062 956.805725097656 962.688110351562 952.176513671875 957.924194335938 953.274169921875 957.110412597656 963.179260253906 966.488159179688 955.289306640625 950.123229980469 950.55224609375 962.527160644531 964.33251953125 956.842956542969 956.797180175781 961.550476074219 955.906616210938 959.06103515625 959.829162597656 950.176025390625 965.771118164062 968.733947753906 949.296569824219 949.51611328125 960.064636230469 960.397399902344 961.003601074219 959.30810546875 951.831848144531 965.13427734375 965.537231445312 964.073059082031 970.484985351562 965.362121582031 956.801940917969 956.900451660156 959.697143554688 952.61865234375 953.591186523438 953.355834960938 965.079650878906 968.511169433594 967.673217773438 975.877685546875 981.755676269531 978.081481933594 970.236083984375 970.981323242188 962.399719238281 957.853759765625 965.816772460938 971.779479980469 971.535339355469 972.919677734375 967.678894042969 970.988952636719 973.080627441406 983.033874511719 971.775390625 975.467895507812 975.870666503906 979.261657714844 979.850280761719 984.75244140625 978.396606445312 994.470336914062 991.744506835938 985.006896972656 980.587097167969 990.2099609375 995.411315917969 998.573181152344 998.417846679688 989.664306640625 988.8857421875 988.606567382812 984.693420410156 993.975952148438 1000.17303466797 996.344421386719 992.254333496094 1004.68566894531 1003.9970703125 996.146728515625 1000.78271484375 993.044189453125 1004.51885986328 1012.82116699219 1015.52697753906 1020.55157470703 1026.3486328125 1038.30432128906 1042.30407714844 1047.43151855469 1050.9296875 1055.3828125 1066.23303222656 1084.61511230469 1089.75390625 1086.00512695312 1080.68872070312 1075.32604980469 1074.791015625 1066.8369140625 1056.43957519531 1050.01196289062 1060.09851074219 1062.94970703125 1058.01831054688 1059.72131347656 1071.41381835938 1065.88757324219
977.689086914062 977.802673339844 970.892700195312 961.373229980469 965.295043945312 963.732849121094 969.89208984375 973.658142089844 975.370849609375 983.633728027344 967.843872070312 959.153076171875 963.611328125 964.748596191406 967.7255859375 971.366394042969 958.847229003906 949.983032226562 948.323791503906 950.1279296875 950.373962402344 950.827941894531 945.201049804688 945.392517089844 946.082214355469 941.856689453125 951.252624511719 956.856872558594 950.014404296875 959.670776367188 964.466735839844 955.651428222656 954.390197753906 956.579345703125 960.7666015625 963.015686035156 958.847717285156 952.109313964844 961.583984375 957.205749511719 952.419372558594 957.391296386719 948.753662109375 951.579040527344 960.533508300781 967.110534667969 955.481201171875 954.591247558594 948.398254394531 962.911682128906 953.856994628906 960.123107910156 949.859802246094 959.361206054688 959.848022460938 958.289428710938 956.965759277344 951.813354492188 958.210998535156 964.901062011719 956.231201171875 960.195617675781 960.201599121094 957.394714355469 965.493286132812 959.313232421875 957.97998046875 956.427551269531 966.219421386719 971.4130859375 964.460815429688 960.713562011719 955.783874511719 955.623291015625 963.246887207031 961.921691894531 961.8359375 962.559631347656 964.167297363281 970.596618652344 968.760375976562 973.4384765625 971.678283691406 971.270690917969 970.917602539062 973.826110839844 967.129333496094 966.161193847656 962.282775878906 956.617919921875 966.035583496094 972.417785644531 963.891906738281 967.256042480469 976.044067382812 977.061218261719 979.118591308594 987.671936035156 979.346252441406 974.345764160156 981.042236328125 982.012329101562 986.534606933594 988.898193359375 991.879943847656 982.124267578125 988.828796386719 983.866516113281 982.545776367188 1002.17309570312 996.571655273438 992.633239746094 991.8837890625 993.432250976562 994.488830566406 1001.90338134766 1006.25524902344 1007.73394775391 1001.39544677734 1004.40289306641 1009.40991210938 998.627136230469 1000.94708251953 1003.09558105469 1014.30767822266 1016.30578613281 1012.64678955078 1017.02960205078 1033.5673828125 1040.61755371094 1045.19458007812 1050.0947265625 1053.37829589844 1068.46337890625 1074.65783691406 1086.72387695312 1091.16918945312 1087.88854980469 1080.74011230469 1069.12329101562 1061.498046875 1050.91137695312 1032.01306152344 1035.50598144531 1040.47998046875 1045.85119628906 1054.25903320312 1055.33239746094 1059.31726074219 1062.17822265625
975.193054199219 967.551696777344 968.474243164062 957.287658691406 957.093139648438 960.425231933594 963.073791503906 966.194213867188 969.781555175781 969.443176269531 960.613098144531 953.6103515625 952.766540527344 948.464416503906 964.393371582031 968.857788085938 961.429565429688 954.835632324219 945.511352539062 940.063293457031 941.554626464844 944.973022460938 955.406616210938 954.542419433594 950.689270019531 942.2421875 943.2763671875 947.133972167969 951.624816894531 957.016662597656 960.520385742188 958.271911621094 952.136291503906 955.666687011719 950.479858398438 954.674499511719 950.439636230469 953.016052246094 955.608703613281 968.695068359375 962.87451171875 956.573303222656 946.892150878906 946.52001953125 954.091064453125 961.83740234375 958.544006347656 950.601928710938 946.130859375 952.660583496094 950.168884277344 957.216735839844 954.285888671875 959.716796875 957.491271972656 956.3134765625 950.51708984375 950.130920410156 953.823547363281 955.938293457031 964.836669921875 959.21240234375 964.361511230469 966.678466796875 962.901794433594 959.290771484375 958.952392578125 960.888122558594 970.88427734375 965.107849121094 959.523376464844 960.4873046875 964.371154785156 964.213012695312 965.910461425781 966.721618652344 961.559997558594 960.452941894531 966.183898925781 965.398376464844 966.598388671875 977.75341796875 969.520385742188 970.933959960938 972.887634277344 974.416320800781 968.853332519531 965.453552246094 971.117858886719 968.426513671875 958.7255859375 970.866027832031 963.636840820312 965.194213867188 972.744445800781 972.221069335938 981.355712890625 982.29638671875 982.852294921875 978.755920410156 983.484558105469 988.683288574219 982.987854003906 977.124267578125 978.802795410156 978.221008300781 988.635925292969 988.428283691406 991.794616699219 999.740112304688 997.47265625 995.859680175781 994.434997558594 1000.48529052734 997.693603515625 998.614379882812 1010.75347900391 1014.66668701172 1006.17016601562 1003.57183837891 1002.02655029297 1006.35003662109 1004.35290527344 1004.12811279297 1014.18609619141 1017.05877685547 1018.21350097656 1023.28515625 1034.76611328125 1034.31811523438 1044.14672851562 1052.97351074219 1057.33935546875 1053.43017578125 1064.77160644531 1071.46203613281 1073.4306640625 1076.00732421875 1066.87878417969 1060.46472167969 1046.79321289062 1043.16186523438 1030.890625 1028.29382324219 1034.46215820312 1032.85693359375 1049.80444335938 1048.90380859375 1047.21130371094 1054.8857421875
970.828430175781 960.408203125 963.386413574219 958.918151855469 955.124389648438 963.646179199219 964.284912109375 964.94580078125 962.985168457031 965.913696289062 957.307373046875 947.654296875 951.587707519531 951.088195800781 952.5009765625 957.261840820312 958.129028320312 958.218505859375 954.748229980469 946.326293945312 953.082397460938 953.424377441406 954.872619628906 967.948486328125 956.422241210938 954.736083984375 952.170532226562 947.731750488281 947.652587890625 948.028259277344 959.722290039062 959.347229003906 953.464782714844 958.904113769531 947.076110839844 944.164916992188 949.563720703125 952.77490234375 958.922668457031 962.833251953125 958.825317382812 960.175048828125 956.680358886719 957.027465820312 952.582275390625 956.588562011719 957.96142578125 951.708801269531 964.593139648438 954.708251953125 960.136535644531 952.733825683594 956.057861328125 963.093200683594 965.393371582031 964.584045410156 954.904357910156 952.7294921875 958.608154296875 960.984191894531 963.202209472656 970.863403320312 968.191772460938 965.024047851562 973.110046386719 966.060546875 963.418640136719 968.495788574219 966.712097167969 959.209411621094 958.12158203125 969.16357421875 962.187438964844 970.998229980469 967.764038085938 970.346740722656 968.631652832031 970.061767578125 967.145874023438 964.691467285156 980.315246582031 972.223571777344 973.010803222656 975.132873535156 972.879760742188 971.856140136719 970.206237792969 966.78955078125 969.714904785156 972.349731445312 965.760620117188 965.968994140625 966.818786621094 965.935913085938 966.20751953125 975.649230957031 972.744750976562 979.244506835938 980.770263671875 981.002990722656 983.172302246094 983.943542480469 982.99365234375 978.702819824219 985.79541015625 985.281127929688 981.66015625 995.582763671875 994.533630371094 996.049377441406 989.334533691406 986.944091796875 999.644104003906 1000.71472167969 1004.26635742188 1016.32067871094 1014.74694824219 1011.61193847656 1002.30218505859 1005.40588378906 1007.37976074219 1013.0009765625 1010.20092773438 1012.68560791016 1017.25750732422 1017.52203369141 1020.64208984375 1026.36840820312 1029.77258300781 1037.72766113281 1046.22082519531 1044.087890625 1052.76818847656 1053.78210449219 1064.04211425781 1064.91833496094 1065.6201171875 1060.88439941406 1054.73083496094 1049.2099609375 1051.08068847656 1048.95361328125 1030.97229003906 1030.14050292969 1027.73352050781 1028.88452148438 1035.88037109375 1036.05212402344 1042.40478515625 1041.38110351562
969.142700195312 964.417907714844 960.312927246094 959.825134277344 965.421569824219 959.5166015625 959.961364746094 959.447448730469 971.990905761719 964.173828125 952.413513183594 949.317443847656 946.02734375 947.244689941406 946.604431152344 945.258178710938 945.345275878906 946.103881835938 960.143310546875 951.687744140625 961.38330078125 954.061096191406 948.11083984375 952.484130859375 956.608215332031 946.865173339844 952.155822753906 951.465148925781 951.51953125 950.552673339844 946.106140136719 949.532836914062 957.989685058594 955.414916992188 956.900085449219 954.15283203125 959.615539550781 956.476928710938 962.025573730469 959.121520996094 955.1904296875 952.556457519531 950.713439941406 945.0693359375 956.573852539062 949.908020019531 951.429992675781 949.708129882812 955.879028320312 958.501892089844 951.902099609375 958.406188964844 964.552307128906 958.167358398438 962.794799804688 964.638549804688 964.242736816406 960.589416503906 966.469177246094 973.009338378906 967.723693847656 966.707458496094 970.076721191406 966.041320800781 970.362121582031 968.253601074219 971.647216796875 965.259216308594 967.072692871094 964.543762207031 965.703247070312 968.904907226562 967.047668457031 967.065551757812 968.229248046875 965.091918945312 970.314514160156 975.017761230469 967.988647460938 963.980041503906 971.64990234375 975.177673339844 969.154846191406 969.938659667969 976.800109863281 973.401672363281 976.871215820312 975.383544921875 964.616149902344 970.514770507812 968.510009765625 967.589050292969 966.856323242188 971.981750488281 975.416381835938 975.800720214844 977.428039550781 977.574279785156 985.410034179688 986.54296875 990.542846679688 990.840454101562 984.813598632812 990.439147949219 989.736083984375 993.837036132812 988.659790039062 994.45166015625 994.677429199219 984.290954589844 985.0712890625 978.740356445312 997.225158691406 1000.48162841797 1014.31372070312 1010.17199707031 1004.64324951172 1014.27349853516 1007.88421630859 1012.58514404297 1021.11962890625 1021.84606933594 1014.47003173828 1020.26794433594 1022.17687988281 1016.76574707031 1022.01898193359 1023.52319335938 1026.86047363281 1025.23669433594 1037.85766601562 1045.86755371094 1050.86279296875 1051.56896972656 1067.65551757812 1057.53210449219 1054.21496582031 1057.46337890625 1050.19091796875 1046.98559570312 1040.33947753906 1044.52270507812 1038.47521972656 1026.69799804688 1026.00805664062 1033.41235351562 1026.69470214844 1024.69946289062 1034.58325195312 1035.462890625
