NCOLS 150
NROWS 38
XLLCORNER 7394249
YLLCORNER 4842929
CELLSIZE 30
NODATA_VALUE -9999
971.182189941406 971.390747070312 969.274597167969 971.004699707031 965.639099121094 959.1318359375 963.591186523438 966.136352539062 969.01171875 976.047973632812 969.118225097656 966.454040527344 971.383117675781 979.909484863281 978.47314453125 980.844604492188 975.354675292969 975.222473144531 975.485473632812 983.050231933594 985.115356445312 981.216064453125 988.148071289062 989.210388183594 987.938537597656 988.895568847656 985.504150390625 978.045104980469 982.979858398438 985.050354003906 979.870849609375 990.234680175781 991.043090820312 992.873291015625 992.951721191406 986.867858886719 993.527526855469 988.694763183594 991.416870117188 987.874389648438 983.877746582031 985.764892578125 981.569519042969 987.032653808594 992.069396972656 993.640014648438 990.935363769531 978.777893066406 986.162231445312 990.779846191406 989.053955078125 997.902099609375 985.052978515625 976.337524414062 967.393432617188 981.849304199219 985.139282226562 989.250305175781 1000.7919921875 999.193054199219 993.466125488281 992.471923828125 997.912963867188 1000.96166992188 1003.43768310547 1008.96459960938 1008.97570800781 1001.87365722656 997.655456542969 995.821228027344 993.487915039062 990.5908203125 983.226745605469 978.190002441406 985.295349121094 986.076049804688 975.186767578125 986.03125 981.915222167969 979.360961914062 981.085754394531 984.637939453125 995.928771972656 993.214233398438 994.0458984375 1002.32678222656 1008.65942382812 999.485595703125 1011.68365478516 1017.45220947266 1021.22985839844 1023.05364990234 1020.43658447266 1018.10131835938 1023.26501464844 1020.97326660156 1019.97332763672 1011.35888671875 1010.18304443359 1015.14825439453 1022.55255126953 1018.87274169922 1013.173828125 1008.21112060547 998.178344726562 988.213134765625 1001.79901123047 997.146545410156 994.493041992188 984.756103515625 979.559387207031 968.817138671875 949.808959960938 944.423217773438 957.2861328125 958.870422363281 956.93603515625 963.908996582031 970.043029785156 971.377868652344 973.832885742188 985.624755859375 988.892883300781 1002.13238525391 1018.86340332031 1023.76947021484 1020.94940185547 1029.76135253906 1027.23999023438 1025.38696289062 1027.01696777344 1026.5625 1022.72131347656 1025.58435058594 1021.37451171875 1028.15759277344 1022.70275878906 1041.26184082031 1044.23388671875 1049.51428222656 1047.71704101562 1052.16455078125 1061.6826171875 1067.44079589844 1065.50061035156 1080.25427246094 1089.22595214844 1095.55554199219 1098.91198730469 1098.77490234375
967.815307617188 969.433959960938 970.783264160156 973.521057128906 959.891906738281 957.421081542969 971.279541015625 972.879089355469 966.691650390625 966.310485839844 967.510131835938 982.502380371094 975.7119140625 981.619689941406 980.353881835938 984.76953125 978.434204101562 981.781677246094 976.259704589844 982.114318847656 988.360961914062 984.672180175781 975.230407714844 983.965148925781 982.25390625 979.635070800781 980.346252441406 986.216491699219 983.910217285156 984.88818359375 987.023986816406 983.137573242188 980.954895019531 984.252502441406 983.243469238281 978.279846191406 981.389465332031 984.27001953125 986.982238769531 978.620361328125 977.027282714844 980.687438964844 983.419067382812 989.234436035156 988.644348144531 994.740356445312 982.858459472656 985.842651367188 990.371948242188 987.754577636719 984.690856933594 979.383544921875 975.271911621094 973.575256347656 972.635864257812 967.798278808594 977.139282226562 983.146911621094 994.7578125 993.897766113281 998.260314941406 985.088745117188 993.032348632812 995.175354003906 991.904846191406 997.8232421875 1000.75183105469 1001.97418212891 994.989990234375 989.081726074219 992.691650390625 984.768981933594 988.726623535156 977.470520019531 980.748474121094 982.241882324219 978.333251953125 980.198181152344 980.298767089844 978.686645507812 968.625183105469 972.0673828125 989.088989257812 992.724304199219 996.132995605469 1000.29772949219 1004.62396240234 1004.23638916016 1009.19573974609 1016.68328857422 1020.55310058594 1027.509765625 1019.44958496094 1012.50152587891 1024.61865234375 1021.50238037109 1018.13702392578 1016.38000488281 1007.46783447266 1015.44763183594 1010.72863769531 1009.88287353516 1003.70751953125 999.556396484375 988.70654296875 990.628601074219 991.879455566406 1011.87194824219 998.92919921875 980.233825683594 975.556884765625 973.595458984375 963.051208496094 951.049255371094 958.676086425781 953.024353027344 963.614929199219 960.271789550781 966.967529296875 976.591735839844 980.843688964844 986.3125 990.505065917969 1005.54260253906 1012.44342041016 1019.80474853516 1025.92443847656 1023.673828125 1030.70239257812 1026.36499023438 1017.98840332031 1016.93304443359 1023.99249267578 1023.59191894531 1015.9013671875 1020.61865234375 1018.53424072266 1036.41455078125 1044.08959960938 1050.63403320312 1049.28588867188 1059.08630371094 1064.7158203125 1067.20178222656 1068.46203613281 1085.35192871094 1090.90014648438 1098.19262695312 1096.19921875 1109.12377929688
964.096252441406 977.167907714844 976.956726074219 972.604064941406 964.776428222656 968.775756835938 969.995788574219 970.504516601562 978.683898925781 972.597106933594 969.837646484375 981.854370117188 980.317077636719 982.865844726562 981.5107421875 984.323059082031 981.35986328125 978.249084472656 979.902465820312 976.375122070312 984.642517089844 988.578308105469 982.065612792969 983.439270019531 971.917053222656 986.408142089844 990.516845703125 984.495056152344 996.10498046875 988.5791015625 985.910949707031 981.771545410156 989.809631347656 971.878173828125 979.579162597656 987.049255371094 986.0048828125 979.568115234375 972.214965820312 981.960266113281 977.205688476562 983.634094238281 981.943359375 994.494750976562 992.180114746094 998.26708984375 995.124328613281 993.535278320312 987.530456542969 977.811157226562 979.653686523438 967.950378417969 962.972534179688 970.476745605469 970.520568847656 973.399230957031 977.068603515625 988.593200683594 992.519470214844 996.132873535156 992.552062988281 987.975830078125 994.92626953125 997.962219238281 995.875854492188 996.225769042969 989.430358886719 992.718811035156 988.643493652344 985.539672851562 983.282653808594 984.828491210938 979.071716308594 981.464721679688 980.992004394531 974.898803710938 975.56884765625 978.38134765625 973.152099609375 979.811218261719 974.661743164062 971.579223632812 978.87646484375 995.144592285156 1001.48626708984 1000.83660888672 1007.37036132812 1003.45526123047 1010.68426513672 1015.21392822266 1015.02099609375 1017.51086425781 1023.04022216797 1024.07092285156 1022.36004638672 1021.74865722656 1016.64605712891 1002.91656494141 1011.57629394531 1003.12512207031 999.172424316406 1003.07086181641 999.533752441406 999.01025390625 998.504211425781 990.54296875 996.711608886719 1003.39300537109 997.184631347656 989.504943847656 975.562072753906 970.467346191406 964.401489257812 962.5224609375 960.067993164062 963.568237304688 966.757995605469 972.942321777344 966.175109863281 975.347473144531 979.64599609375 984.224304199219 994.92529296875 1014.31585693359 1015.24749755859 1021.90338134766 1027.24755859375 1025.74987792969 1028.27209472656 1023.890625 1024.53100585938 1023.52966308594 1021.30859375 1024.38427734375 1017.75415039062 1020.08721923828 1024.53540039062 1031.06689453125 1043.18408203125 1054.5 1059.10656738281 1057.19201660156 1061.51965332031 1066.82604980469 1079.7001953125 1091.78540039062 1093.0185546875 1107.86157226562 1103.33752441406 1113.93579101562
955.88427734375 958.246887207031 963.192687988281 970.048156738281 961.536865234375 958.319702148438 975.189758300781 976.548767089844 975.928039550781 973.344848632812 968.315185546875 974.856506347656 982.100708007812 984.997009277344 979.716857910156 980.742736816406 976.109069824219 978.54296875 982.565856933594 987.268127441406 990.078125 981.525756835938 987.339782714844 984.024169921875 975.644836425781 978.56982421875 981.756408691406 983.14794921875 987.968383789062 989.561279296875 988.227233886719 987.77783203125 987.790466308594 985.89453125 977.133728027344 984.320678710938 987.72412109375 977.557922363281 979.870544433594 979.383178710938 982.344970703125 979.957763671875 981.640747070312 981.016357421875 987.4931640625 1000.92041015625 996.158386230469 989.805908203125 985.711242675781 978.053955078125 976.478881835938 968.859680175781 973.469543457031 972.496398925781 968.797729492188 971.978698730469 977.734680175781 977.193664550781 983.241516113281 991.02294921875 996.966552734375 979.287414550781 982.882446289062 988.118347167969 991.739929199219 994.145812988281 979.264404296875 983.369384765625 984.865417480469 984.306396484375 980.705749511719 984.903076171875 981.374572753906 984.091369628906 977.455871582031 979.773132324219 980.431396484375 988.260681152344 980.1005859375 978.494323730469 982.0126953125 983.288940429688 991.188659667969 1004.48126220703 1001.61724853516 999.675720214844 1004.92797851562 1006.85412597656 1015.82403564453 1013.95111083984 1005.96112060547 1015.58062744141 1024.89318847656 1014.37530517578 1018.50225830078 1012.63690185547 1016.41912841797 1008.19702148438 1002.80450439453 996.06298828125 990.336608886719 1001.21148681641 995.64013671875 1003.69519042969 1000.40295410156 992.881225585938 998.463500976562 990.315979003906 994.45166015625 984.416015625 976.351379394531 970.3642578125 970.77783203125 966.785827636719 974.450622558594 973.533996582031 975.243286132812 983.437866210938 978.161499023438 982.435974121094 978.321899414062 991.169921875 993.414611816406 1008.32666015625 1008.86309814453 1021.21276855469 1018.89916992188 1022.46990966797 1023.99078369141 1034.09265136719 1030.00134277344 1027.13635253906 1021.17065429688 1022.7392578125 1016.3740234375 1015.46514892578 1030.37316894531 1038.85852050781 1046.39074707031 1051.673828125 1060.82434082031 1063.15625 1073.38427734375 1074.1015625 1078.57055664062 1089.7099609375 1100.70739746094 1107.50012207031 1104.94860839844 1112.0205078125
953.947265625 956.790710449219 959.212707519531 961.090026855469 966.51025390625 961.3076171875 968.36181640625 969.935302734375 965.783874511719 968.097229003906 979.38671875 981.936218261719 979.6015625 981.382263183594 976.310729980469 972.977783203125 972.764709472656 979.631469726562 984.338745117188 987.109069824219 985.725402832031 986.002868652344 991.528869628906 981.674255371094 971.729125976562 971.287902832031 967.762817382812 978.217834472656 975.455383300781 982.257629394531 993.174438476562 986.769775390625 993.383239746094 981.729675292969 987.314819335938 977.85546875 984.558715820312 974.399597167969 982.135070800781 976.384704589844 982.318115234375 989.743347167969 983.839904785156 988.810607910156 987.260070800781 992.807495117188 990.727294921875 987.017211914062 973.599609375 973.357116699219 987.51953125 976.326965332031 976.643981933594 969.986145019531 971.592651367188 975.5263671875 977.68798828125 975.619079589844 983.014282226562 982.9169921875 987.923278808594 985.05908203125 983.69677734375 986.427734375 996.383972167969 990.291442871094 984.317565917969 986.523010253906 992.717529296875 988.329406738281 987.097717285156 979.473266601562 978.094604492188 984.828430175781 981.789672851562 989.694213867188 986.239501953125 985.382568359375 983.089416503906 985.289001464844 980.195556640625 988.191345214844 1000.29846191406 999.651977539062 994.73193359375 999.431274414062 1002.20690917969 999.916687011719 1009.7041015625 1002.27020263672 1004.71459960938 1006.11163330078 1008.31359863281 1011.37615966797 1013.43402099609 1012.6181640625 1021.27618408203 1002.19897460938 998.577026367188 994.970764160156 985.091369628906 995.478881835938 990.756774902344 997.776672363281 1002.33514404297 1007.32971191406 994.866027832031 991.382934570312 988.752990722656 984.966430664062 975.313903808594 984.078247070312 980.996154785156 982.95458984375 976.620178222656 986.306884765625 983.82177734375 990.052307128906 989.0546875 980.971313476562 975.709106445312 991.25439453125 993.188171386719 1001.99346923828 1008.517578125 1018.42376708984 1013.62640380859 1014.45825195312 1019.1181640625 1027.82568359375 1031.58129882812 1024.96057128906 1016.72375488281 1013.34289550781 1017.87115478516 1016.05328369141 1027.28869628906 1035.7138671875 1048.71716308594 1053.400390625 1055.10180664062 1066.48620605469 1081.6767578125 1082.06555175781 1092.89099121094 1096.02307128906 1097.68273925781 1106.39147949219 1110.54724121094 1108.30065917969
952.198547363281 950.884948730469 958.167907714844 961.115356445312 966.010131835938 968.315124511719 966.877197265625 972.950622558594 971.317260742188 967.302307128906 980.532958984375 975.039672851562 982.883911132812 975.432250976562 968.287719726562 971.899963378906 961.126159667969 971.512878417969 986.496765136719 982.737487792969 989.497436523438 989.376098632812 986.518371582031 980.160705566406 976.915771484375 960.613891601562 963.033996582031 969.323852539062 968.316833496094 986.215942382812 984.215454101562 984.204895019531 995.497863769531 996.703063964844 996.289733886719 981.194519042969 973.661499023438 975.293579101562 973.144958496094 975.679443359375 985.264038085938 988.948608398438 985.909912109375 984.596069335938 983.268493652344 982.470703125 984.429504394531 983.346923828125 976.162841796875 977.005249023438 980.279907226562 974.206970214844 969.594299316406 961.825378417969 975.8671875 979.204833984375 971.311889648438 977.789855957031 983.543151855469 982.029968261719 985.240112304688 980.530639648438 980.207458496094 983.2109375 994.022705078125 991.670593261719 981.209899902344 982.890319824219 983.801391601562 988.771545410156 973.724975585938 972.989562988281 975.710266113281 975.600219726562 985.921325683594 984.784606933594 986.147399902344 988.261779785156 979.807495117188 986.95263671875 989.705444335938 1003.31097412109 1005.43286132812 1005.57629394531 994.756591796875 990.856079101562 991.524719238281 995.567993164062 993.213500976562 994.258117675781 994.949890136719 1003.29162597656 1006.72174072266 1008.47869873047 1003.09075927734 1005.25238037109 1010.67657470703 1004.18688964844 1002.73583984375 998.311706542969 992.877807617188 990.602661132812 985.025756835938 985.188659667969 992.641479492188 993.917175292969 996.338623046875 999.444641113281 992.581665039062 986.36279296875 989.950927734375 990.642517089844 987.992065429688 993.758178710938 988.19970703125 996.242065429688 991.679931640625 1001.98846435547 998.408569335938 987.916381835938 993.316284179688 998.621948242188 1007.44110107422 1001.31286621094 1006.615234375 1001.50329589844 1005.75567626953 1009.29815673828 1001.62005615234 1012.49353027344 1015.23046875 1021.98773193359 1018.84521484375 1015.05334472656 1020.48083496094 1020.48754882812 1025.93688964844 1030.91613769531 1050.32775878906 1056.27673339844 1059.728515625 1067.90148925781 1077.90197753906 1090.73010253906 1099.27001953125 1102.16259765625 1102.54638671875 1114.59924316406 1113.17468261719 1118.17895507812
953.112060546875 963.047180175781 967.648681640625 970.26171875 963.669128417969 966.752746582031 969.058959960938 972.975280761719 976.17822265625 973.933715820312 976.143737792969 972.378295898438 980.149780273438 972.382934570312 963.304443359375 962.831909179688 966.785705566406 968.35400390625 981.13330078125 984.138610839844 994.062133789062 988.830749511719 982.445068359375 980.895751953125 975.220581054688 964.455322265625 958.572082519531 970.144348144531 970.914367675781 978.498229980469 982.894470214844 977.246032714844 986.949584960938 984.807678222656 985.043212890625 993.11865234375 981.885192871094 979.110229492188 972.519165039062 972.580688476562 973.948181152344 978.629272460938 973.881958007812 976.891784667969 979.293762207031 979.066284179688 975.603759765625 978.545227050781 978.188598632812 986.036743164062 980.406066894531 971.925476074219 971.944763183594 973.687255859375 985.896545410156 980.397399902344 971.650024414062 977.128662109375 985.838012695312 983.631042480469 984.685974121094 985.762145996094 987.509643554688 980.382568359375 988.480041503906 980.734008789062 974.788818359375 980.694274902344 993.230590820312 981.220153808594 971.531616210938 972.938842773438 971.959167480469 973.7412109375 996.600219726562 997.601379394531 988.703247070312 988.137573242188 982.807189941406 990.077087402344 990.301696777344 997.463989257812 1004.03381347656 998.210327148438 998.584350585938 989.012634277344 987.096252441406 995.624816894531 993.438781738281 996.924682617188 992.307067871094 998.30517578125 1008.66040039062 1001.34558105469 1005.50311279297 1006.87768554688 1012.89373779297 1002.26177978516 995.835815429688 995.542724609375 993.333923339844 994.569274902344 989.646240234375 984.866882324219 990.193298339844 986.3271484375 991.510131835938 993.672912597656 990.882446289062 994.326904296875 992.257751464844 993.243041992188 995.429626464844 1002.62854003906 1001.46472167969 1005.75146484375 995.427307128906 996.712646484375 999.639892578125 995.825988769531 997.079406738281 998.703735351562 1004.60729980469 1009.07958984375 1001.14495849609 997.15283203125 998.358520507812 1001.22106933594 999.446838378906 1006.79998779297 1011.62725830078 1019.46600341797 1017.78344726562 1026.17663574219 1020.28387451172 1022.39489746094 1038.03295898438 1042.59069824219 1052.61975097656 1059.55358886719 1065.54150390625 1067.09606933594 1080.02233886719 1092.95349121094 1102.43212890625 1111.6298828125 1119.33044433594 1122.38012695312 1123.1162109375 1121.13818359375
954.2294921875 959.783142089844 963.841125488281 974.263610839844 977.358703613281 968.968566894531 970.515197753906 959.634216308594 964.9013671875 968.395324707031 972.488952636719 968.903137207031 975.37646484375 971.478088378906 958.675842285156 969.821960449219 968.429260253906 977.117431640625 975.179809570312 990.154357910156 988.855041503906 981.51025390625 972.553039550781 977.858947753906 972.520874023438 972.752380371094 968.986083984375 965.873718261719 971.852966308594 978.430847167969 968.895202636719 974.126586914062 978.729919433594 979.173217773438 976.934753417969 982.537414550781 982.388427734375 973.810424804688 972.97607421875 970.354187011719 971.197814941406 975.990356445312 967.072570800781 972.68896484375 969.934814453125 972.183410644531 972.311584472656 977.815002441406 971.615844726562 968.306884765625 979.554992675781 978.973510742188 974.082275390625 972.767639160156 977.251831054688 974.128173828125 977.932983398438 973.591552734375 974.198059082031 981.552185058594 981.891479492188 992.142883300781 982.60205078125 991.7255859375 985.307373046875 982.006713867188 980.689270019531 986.6748046875 996.608276367188 987.037963867188 976.460876464844 971.28955078125 980.564758300781 977.826538085938 987.514343261719 995.032531738281 991.882385253906 993.370361328125 989.284545898438 989.634216308594 987.486938476562 995.166076660156 987.50634765625 989.827758789062 999.516967773438 996.022399902344 990.760192871094 992.136413574219 986.831237792969 1000.38763427734 997.457092285156 994.124389648438 997.932495117188 995.614379882812 997.857238769531 1007.85333251953 1008.25866699219 998.010559082031 996.408447265625 992.705139160156 988.527160644531 987.117248535156 983.581848144531 980.001647949219 980.400512695312 980.104187011719 984.584167480469 992.535949707031 989.845825195312 989.666137695312 996.601318359375 994.6416015625 996.679748535156 1001.99114990234 995.552124023438 997.333251953125 999.656311035156 1008.35028076172 1003.3994140625 1003.14526367188 1003.05871582031 998.545593261719 1010.91656494141 1008.837890625 1000.85498046875 1006.45245361328 1001.56848144531 998.592529296875 1000.30743408203 1002.62579345703 1009.38269042969 1009.82763671875 1018.98638916016 1021.26483154297 1028.99438476562 1031.275390625 1042.19384765625 1044.47314453125 1054.73400878906 1063.41284179688 1069.20690917969 1078.65856933594 1084.67785644531 1095.04943847656 1111.94909667969 1120.392578125 1124.04174804688 1123.017578125 1128.56469726562 1123.52966308594
959.656311035156 965.974548339844 961.854187011719 973.318603515625 966.266052246094 969.75439453125 967.015319824219 967.009826660156 964.712097167969 971.094055175781 977.768005371094 972.996887207031 973.580932617188 970.803466796875 962.861450195312 970.658996582031 977.649047851562 971.388000488281 972.856750488281 982.673095703125 981.808532714844 976.32373046875 975.072265625 976.596008300781 978.575439453125 971.804382324219 972.933227539062 974.094543457031 969.820739746094 970.691772460938 976.280700683594 977.4814453125 978.611145019531 979.893737792969 977.551879882812 989.39599609375 979.0546875 961.123168945312 968.98974609375 972.683837890625 976.649658203125 971.30615234375 959.877990722656 955.775268554688 964.248596191406 961.193603515625 966.407165527344 972.384094238281 984.179077148438 976.827941894531 980.327087402344 983.34423828125 977.135131835938 970.636291503906 972.088928222656 966.5576171875 972.986389160156 983.068725585938 977.14599609375 988.196960449219 983.454284667969 990.015319824219 987.852233886719 989.338317871094 995.191711425781 985.040954589844 978.285705566406 978.213989257812 985.348205566406 986.552673339844 980.131469726562 972.396667480469 974.304565429688 975.4287109375 979.649230957031 982.323425292969 985.884216308594 987.131042480469 990.413330078125 990.132080078125 997.906188964844 992.846984863281 996.037902832031 992.084777832031 991.763671875 995.3916015625 996.711181640625 1000.50988769531 997.687438964844 993.760803222656 995.917175292969 995.219482421875 996.738220214844 993.073669433594 997.530151367188 1003.82312011719 1004.86016845703 993.708618164062 996.661437988281 991.148193359375 990.908447265625 985.373352050781 984.312438964844 987.497863769531 983.507629394531 981.912170410156 987.705993652344 991.210266113281 986.880249023438 985.265869140625 994.25537109375 995.02197265625 996.11083984375 996.592224121094 998.861694335938 999.444091796875 994.682373046875 994.211242675781 1006.71368408203 1003.89727783203 1009.79931640625 1012.04351806641 1009.4560546875 1011.47570800781 1000.29510498047 1009.45269775391 1006.24224853516 1009.07342529297 999.732788085938 1001.82012939453 1014.44085693359 1016.40875244141 1024.95690917969 1028.6943359375 1040.021484375 1044.75231933594 1048.63916015625 1058.89306640625 1066.88122558594 1066.17419433594 1074.31457519531 1088.24487304688 1098.67041015625 1109.83435058594 1111.47253417969 1123.74499511719 1128.75573730469 1134.52258300781 1141.1201171875 1137.14245605469
955.142578125 965.69482421875 966.510192871094 962.439086914062 962.089599609375 959.448852539062 955.587585449219 969.139831542969 971.192749023438 962.499694824219 975.117858886719 980.84228515625 974.078735351562 970.775695800781 969.040344238281 977.13671875 973.062622070312 970.658081054688 968.413818359375 974.517883300781 976.92431640625 966.979553222656 972.008056640625 968.091613769531 971.807678222656 977.821228027344 975.314636230469 980.56591796875 972.176818847656 970.692321777344 980.480346679688 981.492797851562 980.751708984375 977.204040527344 990.426513671875 982.635131835938 975.76220703125 969.906982421875 978.807495117188 980.709411621094 982.832092285156 973.703491210938 964.574768066406 957.482849121094 962.268127441406 954.449829101562 962.973083496094 969.948486328125 982.744140625 973.667358398438 986.169189453125 985.055725097656 973.582702636719 978.128784179688 966.885681152344 969.709045410156 963.493469238281 976.334045410156 985.167663574219 983.198913574219 979.127075195312 991.023132324219 993.020141601562 988.804321289062 996.202453613281 984.047973632812 987.547424316406 975.595764160156 983.315612792969 986.387573242188 985.910766601562 975.140747070312 973.721374511719 971.733215332031 979.505493164062 985.225036621094 980.552856445312 988.419006347656 985.2470703125 985.037109375 978.875305175781 988.926513671875 994.124206542969 995.877624511719 990.666809082031 993.121887207031 998.22802734375 1001.99353027344 992.415344238281 989.520080566406 990.96142578125 985.881591796875 993.262390136719 1000.57757568359 995.425659179688 1000.01556396484 988.225158691406 992.958740234375 986.914306640625 985.973999023438 985.63671875 984.217834472656 979.51318359375 989.593688964844 975.304260253906 987.33984375 990.362731933594 984.587341308594 985.925170898438 993.433776855469 994.672546386719 996.933654785156 992.972595214844 998.738647460938 1003.78747558594 1002.34088134766 997.000854492188 991.772094726562 994.787841796875 1005.11383056641 1008.82977294922 1007.35852050781 1006.21051025391 1005.60943603516 999.528869628906 999.714477539062 1005.73571777344 1003.837890625 1003.10113525391 1014.07061767578 1026.01318359375 1031.35461425781 1027.85583496094 1034.68103027344 1046.31469726562 1055.33471679688 1056.1220703125 1069.5693359375 1077.671875 1076.13305664062 1094.88244628906 1097.80554199219 1109.24291992188 1118.41638183594 1128.21643066406 1132.90502929688 1139.78002929688 1141.03002929688 1141.81164550781 1149.3857421875
952.770812988281 960.644470214844 963.876220703125 963.723876953125 954.987182617188 953.531494140625 950.081359863281 963.310424804688 972.970031738281 976.636840820312 978.361328125 976.052490234375 972.277038574219 985.274841308594 988.346801757812 981.685913085938 979.8837890625 977.454040527344 971.878540039062 971.550903320312 974.624816894531 976.15185546875 971.262329101562 970.603210449219 966.290161132812 973.967895507812 991.693359375 981.379089355469 981.646179199219 978.50048828125 976.977355957031 985.33056640625 978.215759277344 969.56494140625 974.746643066406 977.80078125 970.286071777344 975.328125 978.53271484375 977.043823242188 983.406433105469 969.141418457031 967.183044433594 970.284484863281 967.875671386719 964.987731933594 966.358520507812 976.013610839844 978.877380371094 972.827819824219 978.302062988281 981.129455566406 981.3544921875 975.411010742188 964.704711914062 974.225280761719 974.695007324219 974.458129882812 978.986267089844 978.168701171875 976.057739257812 987.01220703125 991.902709960938 998.188598632812 993.112548828125 993.922973632812 991.924133300781 976.660400390625 976.161499023438 983.198059082031 975.764587402344 976.985778808594 972.510864257812 970.853088378906 970.196228027344 975.807067871094 974.725952148438 984.657104492188 984.910278320312 978.863647460938 985.919494628906 991.900756835938 988.083129882812 988.019958496094 990.158569335938 991.102111816406 991.001159667969 991.108825683594 988.865356445312 990.234619140625 988.75927734375 984.948181152344 985.780090332031 991.163208007812 994.571960449219 990.649658203125 988.279296875 985.684265136719 982.012634277344 989.944885253906 983.678833007812 991.611511230469 983.973022460938 982.6220703125 981.091735839844 983.882080078125 990.096557617188 986.244506835938 985.518127441406 992.393249511719 983.682067871094 986.3955078125 989.104797363281 991.196716308594 999.869567871094 996.925903320312 994.239501953125 992.536987304688 994.544494628906 1003.34320068359 1012.03857421875 1008.77355957031 1006.32037353516 1004.98089599609 998.265380859375 998.803588867188 1005.00067138672 1014.28045654297 1022.23852539062 1031.19384765625 1036.95520019531 1037.74291992188 1039.73278808594 1040.47241210938 1052.71875 1054.0185546875 1059.84777832031 1077.31774902344 1086.3759765625 1091.4619140625 1099.89111328125 1103.9423828125 1111.49731445312 1113.96984863281 1125.55822753906 1141.14440917969 1149.61596679688 1150.8017578125 1154.57934570312 1154.17114257812
948.668334960938 956.597045898438 954.41845703125 950.961120605469 955.869140625 951.570007324219 950.828979492188 958.665100097656 968.69189453125 980.219787597656 978.327819824219 974.685180664062 976.51025390625 983.890380859375 992.079284667969 981.696716308594 982.134338378906 976.419738769531 976.1787109375 971.575866699219 964.1748046875 967.103393554688 970.771179199219 968.124206542969 971.138061523438 973.260437011719 980.861511230469 990.379577636719 978.595825195312 978.607055664062 981.195251464844 974.670471191406 975.018188476562 973.143615722656 971.909545898438 968.934631347656 966.781921386719 972.07958984375 982.305847167969 985.219055175781 983.565307617188 974.138916015625 969.090026855469 968.084594726562 974.420166015625 972.227905273438 962.110534667969 979.078918457031 980.752807617188 971.340270996094 967.748962402344 977.005493164062 975.828430175781 972.717834472656 971.895141601562 968.741027832031 973.215637207031 976.547180175781 972.957153320312 967.884582519531 978.029418945312 985.682861328125 979.393981933594 989.379821777344 986.162353515625 982.5625 971.803771972656 969.11181640625 975.320495605469 978.93408203125 977.093872070312 967.611572265625 968.280883789062 969.307067871094 966.329833984375 969.029174804688 968.977783203125 976.185791015625 974.306518554688 978.593383789062 972.334716796875 980.000122070312 977.938293457031 985.62109375 984.663146972656 992.541137695312 992.859069824219 986.452880859375 980.063232421875 989.575012207031 985.299987792969 987.263488769531 982.750061035156 984.48779296875 987.320129394531 980.256958007812 975.19970703125 978.376525878906 981.714660644531 988.12646484375 988.672241210938 984.832946777344 974.694458007812 977.626647949219 980.141662597656 983.377685546875 987.619506835938 989.170227050781 981.417053222656 984.389343261719 984.784484863281 985.021118164062 995.31787109375 996.2919921875 991.074096679688 988.138732910156 982.403991699219 989.449096679688 990.924438476562 999.7451171875 1000.71295166016 1004.84478759766 1007.47088623047 1005.21923828125 1001.00646972656 1008.93292236328 1020.72326660156 1029.58288574219 1029.4873046875 1035.74304199219 1042.63757324219 1039.41198730469 1044.0234375 1039.56994628906 1044.48425292969 1059.65698242188 1056.49938964844 1079.27172851562 1087.98010253906 1090.28210449219 1100.283203125 1099.60217285156 1118.404296875 1116.64318847656 1131.26806640625 1149.15637207031 1154.74682617188 1167.07971191406 1168.01501464844 1169.904296875
944.013244628906 960.575866699219 948.176513671875 945.139099121094 946.030944824219 951.332214355469 949.793273925781 965.284912109375 965.750732421875 969.612731933594 977.247314453125 962.138122558594 972.4443359375 985.311889648438 985.846984863281 986.046752929688 982.023559570312 985.404724121094 978.860168457031 968.334838867188 962.758239746094 963.003723144531 966.667114257812 966.061157226562 969.992553710938 967.42724609375 976.6328125 977.849670410156 972.119201660156 975.644470214844 979.663269042969 981.419982910156 972.3896484375 972.065490722656 971.289245605469 971.513549804688 972.23974609375 971.033325195312 977.702331542969 981.256774902344 976.856628417969 963.882690429688 969.632690429688 966.272521972656 965.179931640625 970.558410644531 966.287963867188 969.158142089844 969.727111816406 969.8046875 965.938598632812 969.133972167969 976.452819824219 971.931335449219 962.523681640625 971.876525878906 971.34814453125 979.99951171875 969.456787109375 970.390747070312 977.05517578125 976.031066894531 974.18310546875 981.287292480469 978.75830078125 976.25732421875 978.494384765625 972.653686523438 966.149841308594 970.823913574219 964.617126464844 961.423278808594 965.275268554688 963.469665527344 967.472412109375 971.577331542969 966.768188476562 969.605041503906 971.5107421875 971.440490722656 974.647216796875 977.426025390625 972.152404785156 976.125061035156 976.547973632812 979.906372070312 988.385620117188 978.293395996094 980.0751953125 989.942993164062 980.58984375 985.643188476562 985.020629882812 976.857971191406 980.831420898438 970.670227050781 968.551147460938 975.774597167969 979.267944335938 980.294006347656 984.546020507812 981.18505859375 975.086608886719 983.0390625 979.693359375 978.934692382812 982.163391113281 979.68896484375 981.241027832031 984.160949707031 985.007629394531 985.811889648438 990.483520507812 995.751647949219 993.199279785156 990.572143554688 980.854187011719 991.599182128906 993.110961914062 1002.11444091797 1003.42718505859 1007.97332763672 1006.25244140625 1007.31994628906 1009.23059082031 1019.85461425781 1031.37280273438 1036.33923339844 1043.62609863281 1046.55358886719 1048.287109375 1049.52197265625 1049.11364746094 1047.56372070312 1052.99072265625 1076.86047363281 1068.01098632812 1077.96057128906 1084.95239257812 1096.66442871094 1107.07922363281 1110.63244628906 1116.80493164062 1124.7626953125 1124.2646484375 1155.57556152344 1157.322265625 1169.24084472656 1165.40112304688 1168.71875
943.831970214844 950.20703125 946.867980957031 938.736267089844 942.821716308594 944.66259765625 950.74462890625 959.564147949219 959.499145507812 963.436401367188 968.5791015625 966.515869140625 966.040405273438 973.413879394531 982.993347167969 980.666320800781 983.321350097656 986.174499511719 982.365600585938 972.104248046875 976.302490234375 967.618896484375 962.413269042969 967.513488769531 964.914978027344 965.289123535156 969.816284179688 963.833251953125 970.449035644531 968.174987792969 970.227172851562 974.300842285156 974.252136230469 972.173400878906 970.49658203125 973.735656738281 972.414916992188 975.441528320312 976.460998535156 974.713684082031 974.78564453125 960.989929199219 961.256774902344 960.716003417969 960.309448242188 961.448547363281 963.977478027344 975.177429199219 973.296691894531 968.717712402344 968.796020507812 974.161010742188 970.452514648438 976.183837890625 968.926391601562 964.470886230469 965.309997558594 974.000244140625 972.324279785156 974.953918457031 978.757934570312 976.02685546875 970.820007324219 979.616760253906 978.945434570312 979.407043457031 978.9599609375 971.954345703125 967.77587890625 971.361450195312 971.19482421875 961.7265625 971.741271972656 975.492004394531 969.564086914062 978.541320800781 975.424499511719 969.985168457031 970.318786621094 969.271484375 979.968688964844 978.31689453125 973.846435546875 983.490234375 982.172119140625 986.398376464844 981.96533203125 980.765930175781 974.365905761719 976.870483398438 981.201599121094 980.96728515625 975.451538085938 971.664855957031 981.97802734375 982.331726074219 985.759338378906 978.491455078125 980.412475585938 981.015075683594 984.423828125 980.350708007812 978.715515136719 982.204223632812 983.4150390625 979.995056152344 976.369201660156 982.190307617188 977.681213378906 981.767944335938 990.071472167969 984.5849609375 996.52099609375 995.75927734375 988.972778320312 994.670532226562 982.876403808594 995.993469238281 996.768676757812 997.074890136719 1003.62170410156 996.627197265625 1005.22302246094 1019.04022216797 1008.60052490234 1021.20196533203 1046.17224121094 1052.72058105469 1053.10424804688 1065.09814453125 1057.34545898438 1054.77966308594 1051.18420410156 1058.7744140625 1061.23193359375 1068.73254394531 1079.07788085938 1075.21911621094 1085.21032714844 1078.82104492188 1102.13854980469 1117.56506347656 1117.01513671875 1123.44934082031 1135.15625 1155.86999511719 1169.38842773438 1169.40979003906 1169.23559570312 1159.03662109375
945.318481445312 943.212707519531 949.444152832031 950.006896972656 945.914916992188 946.566284179688 953.239807128906 954.188354492188 962.032470703125 962.16943359375 964.895263671875 966.6474609375 967.754760742188 967.4208984375 978.217895507812 980.314208984375 977.398986816406 977.683959960938 979.209594726562 973.899475097656 966.195373535156 959.842834472656 955.834777832031 968.334716796875 955.967651367188 965.240600585938 962.767944335938 964.017517089844 965.707214355469 963.935729980469 963.188659667969 970.218322753906 973.276611328125 979.962646484375 975.003234863281 978.36279296875 976.749084472656 983.00634765625 975.707946777344 972.210998535156 971.493774414062 961.122436523438 957.220458984375 958.962707519531 952.836303710938 959.895874023438 964.338500976562 969.73681640625 971.842712402344 965.3017578125 965.682678222656 968.697509765625 974.214416503906 975.331909179688 972.471618652344 962.760498046875 963.788513183594 961.69091796875 964.8095703125 972.548217773438 982.983642578125 977.849853515625 973.339050292969 974.724975585938 977.3779296875 975.56494140625 971.54443359375 968.089233398438 973.897399902344 972.538940429688 968.769470214844 971.42724609375 971.149780273438 966.991516113281 969.367431640625 964.116577148438 972.335083007812 973.275268554688 959.6435546875 973.421691894531 973.955932617188 978.9296875 978.892333984375 980.934387207031 979.108215332031 977.544250488281 982.892578125 970.890258789062 971.937927246094 973.434509277344 977.54931640625 973.419006347656 979.58154296875 980.57763671875 975.874877929688 979.568054199219 977.50927734375 982.102416992188 982.274169921875 981.590270996094 970.856811523438 981.317138671875 984.283752441406 984.368347167969 985.430297851562 990.746154785156 987.764953613281 985.1904296875 986.815124511719 992.899658203125 990.608764648438 988.131103515625 993.739624023438 997.622253417969 991.343444824219 1003.08435058594 996.244873046875 1005.13171386719 1005.19451904297 1011.13970947266 1009.66632080078 1005.1865234375 1016.22192382812 1015.44427490234 1016.70935058594 1033.01708984375 1043.27465820312 1051.23083496094 1068.50354003906 1061.958984375 1060.93237304688 1056.13122558594 1050.8505859375 1061.59362792969 1073.05200195312 1069.14489746094 1075.01635742188 1082.05822753906 1095.03930664062 1094.47998046875 1110.51965332031 1116.20495605469 1120.59326171875 1125.33630371094 1130.60754394531 1148.73974609375 1159.23315429688 1166.22290039062 1171.26330566406 1162.07409667969
950.682922363281 952.909423828125 950.9951171875 956.395385742188 958.383361816406 955.748474121094 963.0029296875 966.260375976562 969.317199707031 970.807250976562 961.342407226562 972.079345703125 970.428649902344 976.075988769531 979.516235351562 971.295654296875 977.1611328125 986.092224121094 980.517517089844 975.909851074219 962.310241699219 954.289184570312 952.587951660156 962.464538574219 959.476013183594 960.234497070312 963.168701171875 959.390319824219 956.867614746094 965.216613769531 972.738464355469 975.046203613281 984.517578125 979.418640136719 971.36181640625 970.595703125 965.36328125 969.495788574219 968.883422851562 967.444091796875 967.333435058594 954.303955078125 960.531616210938 953.023864746094 953.340454101562 958.186950683594 968.604797363281 977.325134277344 972.213256835938 968.941955566406 968.945434570312 964.057678222656 968.350952148438 974.478942871094 967.034790039062 968.203979492188 963.023986816406 965.065612792969 964.763549804688 976.751098632812 981.721374511719 973.931579589844 970.0205078125 965.687866210938 971.069213867188 971.750732421875 968.092224121094 970.029357910156 972.537292480469 963.705139160156 970.27978515625 967.208190917969 969.613159179688 975.106689453125 972.898742675781 962.857177734375 969.45654296875 963.260498046875 970.516418457031 965.590026855469 964.371643066406 976.235656738281 967.432739257812 956.640686035156 969.712219238281 968.861389160156 966.693908691406 963.21826171875 961.033508300781 972.767822265625 976.985961914062 973.226135253906 976.34228515625 976.855163574219 983.039123535156 976.631164550781 971.531677246094 978.039672851562 976.603576660156 978.15869140625 982.268798828125 978.026550292969 984.54248046875 988.34619140625 991.025329589844 995.920654296875 999.771667480469 995.588745117188 1001.86627197266 1001.04241943359 1002.44989013672 996.590026855469 997.882568359375 1003.97399902344 1006.36901855469 1002.20068359375 1009.37377929688 1010.44165039062 1005.51513671875 1010.98425292969 1015.07177734375 1020.60064697266 1016.51782226562 1021.44329833984 1025.34118652344 1021.86511230469 1037.36486816406 1048.71594238281 1064.49206542969 1069.59851074219 1065.36328125 1066.92224121094 1060.90270996094 1057.66662597656 1068.54626464844 1074.75866699219 1086.76721191406 1099.03015136719 1090.87341308594 1102.56958007812 1106.49096679688 1107.16125488281 1116.2998046875 1117.32629394531 1130.39013671875 1146.33410644531 1161.46655273438 1160.71350097656 1165.4931640625 1163.06481933594
952.153991699219 958.414978027344 959.662963867188 952.224182128906 953.472045898438 962.022033691406 966.356628417969 973.540649414062 973.788391113281 967.840087890625 969.031555175781 975.488647460938 986.666137695312 977.829467773438 980.89892578125 976.113891601562 976.2548828125 979.839477539062 976.807800292969 976.701293945312 973.375366210938 959.544372558594 957.254028320312 967.741577148438 962.432983398438 960.576171875 962.869567871094 955.551696777344 960.338317871094 973.308410644531 976.267272949219 972.833862304688 977.596618652344 973.849548339844 973.158264160156 965.794311523438 960.045776367188 965.76025390625 967.431518554688 965.166198730469 965.378845214844 962.835632324219 961.8525390625 961.069152832031 962.256164550781 963.165222167969 971.422607421875 968.848571777344 970.630798339844 966.72412109375 962.536499023438 960.724609375 969.813354492188 974.664428710938 967.919250488281 959.048522949219 959.611755371094 966.626281738281 973.173950195312 971.500244140625 981.685302734375 979.674255371094 970.508178710938 965.600769042969 967.070922851562 966.234252929688 961.959838867188 960.44287109375 955.1943359375 962.582885742188 961.686462402344 960.820190429688 960.296264648438 967.61962890625 972.780944824219 972.55517578125 962.58056640625 953.468566894531 969.908508300781 971.509216308594 972.337768554688 971.937866210938 972.344909667969 962.899658203125 972.104858398438 975.009948730469 972.180969238281 968.629821777344 968.926818847656 976.777709960938 984.050109863281 971.667724609375 975.682067871094 968.473449707031 969.601318359375 971.121154785156 978.228210449219 983.267517089844 985.207946777344 981.4765625 976.132019042969 980.12255859375 986.532287597656 987.386291503906 999.866821289062 996.311279296875 1003.84466552734 1000.63818359375 1002.58428955078 998.3154296875 999.062683105469 998.358825683594 998.648986816406 1001.30151367188 1003.72528076172 1009.42590332031 1016.46215820312 1012.74615478516 1014.62823486328 1013.56011962891 1021.61248779297 1017.63342285156 1025.48315429688 1027.63940429688 1031.38781738281 1029.70837402344 1039.36267089844 1054.93688964844 1056.45983886719 1057.17736816406 1063.66796875 1062.94677734375 1056.306640625 1061.33703613281 1076.50427246094 1086.27185058594 1083.51110839844 1090.78845214844 1085.0419921875 1095.54248046875 1101.19714355469 1109.04125976562 1109.68041992188 1116.64440917969 1129.69226074219 1146.98046875 1154.35266113281 1152.94714355469 1158.82189941406 1153.384765625
952.037475585938 958.162414550781 965.187805175781 958.865112304688 962.975952148438 969.917602539062 965.854064941406 959.572631835938 972.07080078125 973.375122070312 974.593933105469 983.158264160156 977.288757324219 980.834838867188 978.717163085938 977.07421875 983.384033203125 977.611938476562 977.884338378906 978.135681152344 974.525024414062 967.28857421875 963.304077148438 964.988464355469 967.127807617188 966.273193359375 969.2802734375 965.728820800781 969.908142089844 964.333679199219 974.738586425781 975.744873046875 975.960571289062 979.323852539062 966.141174316406 966.9619140625 958.622253417969 953.842346191406 960.703735351562 966.473999023438 971.515075683594 960.273803710938 962.89990234375 954.879150390625 962.515258789062 955.131958007812 954.526611328125 955.978515625 965.683776855469 961.278442382812 961.863098144531 972.711303710938 970.524475097656 964.785949707031 965.194763183594 962.055725097656 965.630615234375 965.3310546875 974.3369140625 971.129455566406 979.670837402344 978.608947753906 966.425537109375 963.8232421875 969.666442871094 957.728515625 957.420104980469 950.20166015625 954.281799316406 956.069213867188 955.109924316406 959.266418457031 958.75 961.694641113281 974.758605957031 968.175720214844 961.117248535156 951.103332519531 961.5810546875 965.275451660156 971.620361328125 969.58837890625 969.070678710938 965.123107910156 968.84375 968.071472167969 969.266540527344 963.111633300781 973.123229980469 977.976013183594 975.653991699219 964.875305175781 966.119140625 972.65673828125 973.59912109375 972.221923828125 969.699523925781 976.875610351562 977.452392578125 986.684204101562 981.185546875 980.745788574219 979.511596679688 982.236450195312 985.699645996094 984.324645996094 991.388732910156 1005.91430664062 1009.72943115234 999.755798339844 1001.08337402344 995.518981933594 989.781860351562 999.362609863281 1003.83056640625 1023.97277832031 1024.46447753906 1014.53558349609 1024.24377441406 1027.38623046875 1024.55529785156 1023.10931396484 1027.9365234375 1027.77478027344 1022.87567138672 1032.6416015625 1043.48034667969 1043.33166503906 1047.41772460938 1056.25756835938 1056.08679199219 1057.53649902344 1056.37487792969 1072.28002929688 1072.34362792969 1083.97778320312 1088.31689453125 1094.09790039062 1095.6572265625 1097.10974121094 1102.4755859375 1102.09875488281 1105.91369628906 1108.49914550781 1123.47778320312 1131.60388183594 1152.79284667969 1157.96801757812 1162.36437988281 1149.80383300781
952.288696289062 963.410034179688 960.583923339844 958.527221679688 964.613586425781 973.836303710938 970.800415039062 977.220947265625 973.546081542969 964.082702636719 966.454650878906 970.720458984375 968.418395996094 974.0791015625 974.774780273438 981.254089355469 980.207336425781 980.583374023438 977.941711425781 968.037658691406 973.850952148438 977.495422363281 973.788452148438 965.943664550781 961.140258789062 958.897583007812 966.648132324219 970.334838867188 980.563415527344 973.6787109375 967.869323730469 972.477844238281 976.740112304688 982.305480957031 976.160949707031 968.941528320312 960.964111328125 963.608459472656 957.670349121094 964.450012207031 959.014526367188 959.325134277344 957.3037109375 957.36474609375 965.378784179688 962.891662597656 954.484375 959.408569335938 958.589416503906 960.481689453125 968.059997558594 977.00439453125 970.039611816406 962.692199707031 960.760070800781 971.074645996094 961.738647460938 958.196716308594 963.677490234375 970.165710449219 964.209777832031 973.083435058594 963.121704101562 964.557434082031 970.09130859375 966.754577636719 963.171508789062 958.673278808594 956.204345703125 957.9951171875 959.742126464844 961.823181152344 969.365905761719 961.325073242188 967.375427246094 962.196960449219 968.808349609375 964.565856933594 971.644226074219 971.307006835938 969.466186523438 970.103881835938 974.929504394531 968.819274902344 965.364624023438 969.306457519531 961.407775878906 962.4453125 972.959045410156 980.817138671875 976.2822265625 966.205200195312 970.24462890625 976.196105957031 970.2470703125 969.392028808594 978.57373046875 975.54736328125 976.232849121094 978.817504882812 974.657104492188 972.16552734375 976.632507324219 977.127319335938 983.873779296875 985.470764160156 993.826843261719 1002.84545898438 1006.16363525391 1001.20843505859 999.969909667969 996.192321777344 996.41064453125 997.045349121094 1009.79315185547 1025.90539550781 1026.8642578125 1018.0009765625 1021.96282958984 1021.30236816406 1019.29089355469 1020.72064208984 1024.37426757812 1031.92199707031 1030.48071289062 1035.81579589844 1043.13220214844 1029.93566894531 1043.939453125 1049.42138671875 1055.14343261719 1063.04968261719 1065.84191894531 1056.18713378906 1063.92932128906 1072.341796875 1094.20349121094 1094.7509765625 1090.10095214844 1091.00183105469 1096.87194824219 1103.31958007812 1099.86169433594 1110.52526855469 1114.0224609375 1129.4921875 1142.38952636719 1152.55151367188 1160.33581542969 1143.31237792969
959.108703613281 962.917846679688 964.996032714844 963.971923828125 965.724853515625 972.874389648438 978.702087402344 980.576721191406 971.107666015625 961.765625 960.750915527344 970.147644042969 972.12890625 976.251098632812 980.425537109375 984.337890625 983.841979980469 981.406799316406 971.303283691406 975.938293457031 970.784729003906 962.550964355469 968.48583984375 973.939514160156 967.388977050781 960.464782714844 960.454650878906 961.199890136719 962.309204101562 961.96044921875 971.99560546875 975.687561035156 971.7880859375 971.516174316406 978.59375 967.437805175781 961.6953125 959.898620605469 967.476440429688 961.754821777344 960.555419921875 962.025573730469 961.239929199219 963.762573242188 966.107360839844 969.181335449219 960.197631835938 961.493408203125 959.841796875 968.436828613281 971.939086914062 978.181091308594 966.259765625 959.613647460938 966.158996582031 959.562866210938 956.371520996094 962.302795410156 953.718444824219 958.85888671875 957.142456054688 960.236450195312 968.44287109375 965.431091308594 955.890441894531 961.330444335938 965.964721679688 955.501281738281 963.061584472656 956.712585449219 966.528930664062 968.727416992188 964.41357421875 967.388122558594 967.2646484375 969.305969238281 970.966247558594 959.194091796875 968.761413574219 975.801513671875 968.206665039062 971.850402832031 982.06884765625 970.130859375 971.970703125 969.388671875 965.486389160156 965.194641113281 969.789978027344 967.76904296875 970.303405761719 968.699035644531 975.670776367188 973.243896484375 972.343811035156 971.637084960938 979.41748046875 976.726745605469 975.374389648438 969.858215332031 966.005187988281 970.426147460938 980.162536621094 979.700561523438 986.892578125 989.977783203125 997.963439941406 993.582885742188 988.991638183594 990.611389160156 990.250244140625 993.258728027344 997.029174804688 996.896850585938 1011.48992919922 1014.65875244141 1016.15399169922 1021.36071777344 1008.74340820312 1013.82312011719 1020.05194091797 1019.61169433594 1023.48156738281 1019.05328369141 1024.40405273438 1032.45544433594 1033.61401367188 1027.47131347656 1035.51318359375 1045.92028808594 1052.66491699219 1062.67687988281 1060.79162597656 1065.853515625 1054.52575683594 1070.55102539062 1086.46569824219 1089.51794433594 1098.42846679688 1093.27600097656 1100.08850097656 1099.67102050781 1092.91442871094 1105.6455078125 1114.54919433594 1121.59326171875 1130.04797363281 1142.25354003906 1151.41796875 1147.89099121094
960.193298339844 959.229614257812 962.131530761719 962.955627441406 966.021423339844 970.774658203125 980.304443359375 975.65087890625 972.929809570312 972.505859375 968.361877441406 970.269897460938 966.059814453125 978.498718261719 976 981.898803710938 982.848937988281 980.126770019531 976.062377929688 975.201110839844 980.4755859375 962.207641601562 965.020202636719 974.745666503906 964.277526855469 966.121154785156 957.603881835938 960.311767578125 955.746704101562 958.712219238281 973.208557128906 975.684875488281 974.147277832031 975.863647460938 970.042053222656 965.528747558594 966.153869628906 966.741943359375 963.889465332031 968.615051269531 963.780517578125 958.446411132812 962.731811523438 962.343994140625 961.664001464844 962.201904296875 958.701965332031 959.470275878906 966.047790527344 973.762817382812 980.985717773438 969.986328125 972.102661132812 961.319885253906 957.301330566406 961.428955078125 956.571105957031 955.352233886719 955.624145507812 958.874816894531 948.529235839844 962.160461425781 955.768493652344 963.044494628906 951.319946289062 953.425109863281 959.100891113281 954.295227050781 955.932861328125 960.156127929688 968.937194824219 965.7919921875 963.589172363281 967.51611328125 968.582092285156 976.197082519531 969.231628417969 959.9921875 966.225952148438 974.1826171875 974.175537109375 973.241821289062 972.991760253906 969.422485351562 965.100341796875 968.786499023438 958.431579589844 965.427612304688 974.631286621094 970.197448730469 968.076782226562 972.058227539062 978.328674316406 979.379943847656 967.107360839844 973.855834960938 970.543212890625 967.477966308594 967.517761230469 966.050109863281 961.471069335938 966.11669921875 984.217041015625 984.408752441406 985.55029296875 986.496154785156 986.402709960938 991.039794921875 986.419860839844 974.516906738281 982.574401855469 983.476928710938 990.156311035156 988.526672363281 998.015075683594 1000.87322998047 1011.13885498047 1013.59265136719 1019.75543212891 1014.70166015625 1013.65686035156 1017.35363769531 1026.88208007812 1024.43786621094 1031.51086425781 1032.34533691406 1035.50354003906 1031.1806640625 1039.58898925781 1057.07897949219 1065.40771484375 1064.44311523438 1076.67224121094 1078.44555664062 1066.65539550781 1061.1357421875 1081.01232910156 1091.73425292969 1095.34594726562 1098.62194824219 1085.71423339844 1091.66223144531 1090.74926757812 1100.24658203125 1104.48315429688 1114.67883300781 1130.00341796875 1140.76831054688 1138.76477050781 1140.2138671875
965.568176269531 964.126708984375 966.374633789062 969.344360351562 965.630859375 972.685485839844 976.822265625 965.985046386719 968.765197753906 972.248657226562 969.260070800781 978.088806152344 977.698486328125 973.926086425781 967.750122070312 969.665100097656 974.98388671875 977.8154296875 973.71826171875 970.211486816406 963.530334472656 965.969909667969 963.334167480469 966.689819335938 970.441528320312 967.891296386719 963.934265136719 968.028442382812 966.497497558594 962.566040039062 971.445739746094 966.87060546875 966.342468261719 962.89892578125 967.822021484375 972.760681152344 963.294250488281 962.493957519531 955.180603027344 954.997314453125 953.856628417969 951.458801269531 950.685363769531 953.816833496094 956.004516601562 958.382690429688 962.632385253906 954.454956054688 971.07763671875 970.742797851562 975.209716796875 972.720642089844 967.584289550781 965.623840332031 966.263427734375 957.766235351562 959.010864257812 958.441040039062 961.622802734375 956.477722167969 955.618286132812 953.536315917969 952.248046875 950.528930664062 948.983825683594 948.695861816406 955.955200195312 959.624450683594 956.529907226562 963.779602050781 964.227478027344 960.366577148438 965.632934570312 968.634216308594 964.571228027344 970.963500976562 969.488830566406 967.604553222656 965.170837402344 964.383544921875 973.512939453125 966.000427246094 964.383117675781 966.070617675781 971.022644042969 966.442199707031 961.777648925781 965.276489257812 965.762817382812 967.592224121094 965.640197753906 974.272399902344 970.028991699219 971.730041503906 972.656188964844 971.689025878906 966.882446289062 972.555114746094 972.654907226562 968.679077148438 967.363708496094 967.717102050781 969.120178222656 982.120422363281 977.176147460938 983.23095703125 983.775573730469 975.452392578125 978.635070800781 978.650024414062 973.507446289062 974.128234863281 983.483459472656 990.72216796875 998.439514160156 994.733764648438 1005.44482421875 1005.57238769531 1010.04699707031 1010.29412841797 1010.55090332031 1018.31701660156 1030.85607910156 1033.81213378906 1031.24853515625 1038.96411132812 1033.32116699219 1039.15441894531 1038.87561035156 1044.66845703125 1056.11328125 1057.12414550781 1069.37927246094 1079.06848144531 1075.00305175781 1067.27758789062 1070.17956542969 1085.49914550781 1083.76904296875 1091.09753417969 1087.99365234375 1084.00964355469 1102.74230957031 1102.25219726562 1098.99780273438 1107.06262207031 1116.86645507812 1130.19299316406 1138.25244140625 1134.47839355469
968.954772949219 968.267395019531 972.373779296875 960.867980957031 965.702697753906 970.662780761719 977.395202636719 969.884582519531 965.893859863281 972.58203125 973.46533203125 975.974670410156 972.26611328125 964.353637695312 962.3564453125 974.425598144531 969.478942871094 971.861694335938 976.446228027344 970.148559570312 970.129699707031 964.252685546875 965.979125976562 963.124145507812 961.690185546875 966.55322265625 964.773132324219 960.694396972656 961.970458984375 967.841186523438 970.558776855469 970.201416015625 962.718688964844 958.362121582031 968.726318359375 965.293212890625 959.873779296875 960.808410644531 964.229248046875 957.037170410156 947.520568847656 949.9580078125 954.970520019531 956.641296386719 951.373291015625 953.391052246094 952.23876953125 967.626037597656 968.872924804688 971.424621582031 967.659484863281 967.669982910156 964.771362304688 964.566284179688 965.510131835938 953.612121582031 959.958129882812 955.11181640625 956.359741210938 958.546936035156 962.572326660156 956.550598144531 955.9384765625 949.381164550781 946.97509765625 951.780090332031 958.295532226562 961.77783203125 961.827758789062 959.276916503906 960.664733886719 957.738098144531 963.873352050781 957.741943359375 961.025390625 967.3232421875 960.710693359375 962.962463378906 961.847106933594 955.205627441406 959.15283203125 956.25927734375 953.990234375 964.333679199219 965.578857421875 965.16162109375 974.037902832031 969.995361328125 976.062255859375 968.08447265625 969.375 964.771301269531 964.194946289062 959.515686035156 963.431213378906 967.529907226562 980.452880859375 979.534973144531 969.516906738281 975.386291503906 974.406188964844 965.108581542969 971.598388671875 978.824768066406 979.676208496094 977.311462402344 975.767150878906 963.196655273438 975.245788574219 976.06396484375 969.014831542969 975.21728515625 980.944763183594 991.1240234375 992.895385742188 990.780517578125 992.960998535156 1007.40405273438 1007.20642089844 1005.15997314453 1003.60290527344 1005.47875976562 1017.69250488281 1029.09631347656 1033.79675292969 1026.7841796875 1030.20129394531 1037.81311035156 1035.56262207031 1045.96069335938 1050.76159667969 1054.84875488281 1069.12426757812 1068.22827148438 1072.81091308594 1082.85070800781 1081.44165039062 1078.62243652344 1086.04260253906 1086.84252929688 1081.91455078125 1091.96154785156 1093.46435546875 1099.43627929688 1099.77514648438 1106.373046875 1106.24755859375 1116.55004882812 1129.07006835938 1120.50378417969
964.138366699219 970.935302734375 966.750427246094 960.966125488281 968.041381835938 971.74072265625 970.804565429688 979.453247070312 974.413391113281 971.122314453125 970.585388183594 974.525268554688 968.477844238281 971.73095703125 974.184631347656 968.001586914062 964.342102050781 968.195617675781 972.531677246094 969.005187988281 963.806518554688 959.970336914062 966.875854492188 963.764404296875 966.080505371094 955.864685058594 963.692199707031 962.993835449219 968.380676269531 964.638366699219 966.850952148438 967.392211914062 958.364074707031 959.363220214844 965.581665039062 957.835693359375 965.760803222656 963.056396484375 966.245422363281 954.733703613281 944.698547363281 953.3095703125 952.61328125 954.377197265625 957.107238769531 949.887268066406 945.861877441406 954.292785644531 956.632080078125 969.851623535156 964.2001953125 957.850158691406 961.447692871094 968.199890136719 960.986572265625 958.104553222656 950.126708984375 956.241821289062 962.522766113281 962.042602539062 959.616577148438 958.232849121094 954.594421386719 952.919494628906 956.703186035156 959.22265625 962.968688964844 961.567626953125 956.331848144531 954.501647949219 958.310791015625 963.437255859375 958.953063964844 956.087768554688 957.406982421875 967.913452148438 961.127197265625 959.270568847656 949.213623046875 956.876159667969 959.534851074219 955.859619140625 959.23828125 956.125854492188 959.308044433594 968.861022949219 971.598327636719 969.958312988281 971.60986328125 978.883666992188 973.397277832031 957.830322265625 969.119140625 964.003540039062 970.492919921875 968.42236328125 969.009094238281 979.849182128906 981.271789550781 974.707824707031 969.559997558594 973.281677246094 966.58642578125 972.775634765625 969.365356445312 973.776489257812 975.569213867188 978.223999023438 973.730285644531 983.488464355469 974.90283203125 986.778198242188 993.342102050781 990.959289550781 989.955871582031 992.169677734375 1002.17883300781 1002.37414550781 1003.26605224609 997.91796875 1000.42504882812 1005.86755371094 1017.45947265625 1013.498046875 1021.31518554688 1027.13439941406 1020.67163085938 1027.419921875 1039.72058105469 1048.60778808594 1055.82849121094 1061.47924804688 1068.05114746094 1065.34985351562 1072.92761230469 1083.23095703125 1088.95629882812 1086.00549316406 1073.962890625 1077.50048828125 1074.37622070312 1084.9765625 1093.26257324219 1096.93359375 1092.01977539062 1098.99304199219 1101.966796875 1096.30102539062 1107.86889648438 1116.47985839844
958.556884765625 966.398498535156 957.5400390625 959.897033691406 970.650146484375 970.795593261719 973.432678222656 972.044128417969 972.329223632812 970.016967773438 968.990661621094 969.858093261719 966.511108398438 972.760314941406 972.585327148438 968.384521484375 969.282836914062 971.123474121094 968.364929199219 963.387817382812 957.533874511719 955.324951171875 962.520385742188 963.816528320312 952.26025390625 951.285461425781 960.145141601562 964.716735839844 964.418640136719 964.448364257812 966.907470703125 971.473999023438 955.377258300781 960.35009765625 958.393859863281 963.410095214844 963.44482421875 962.301635742188 962.94482421875 958.468811035156 952.496643066406 941.695129394531 952.85205078125 951.219848632812 953.557067871094 953.791809082031 948.90625 947.883605957031 952.380737304688 954.847717285156 956.085632324219 957.324157714844 960.093688964844 960.927124023438 961.146667480469 949.483825683594 959.372131347656 962.65771484375 958.947265625 963.708679199219 965.050598144531 964.942138671875 958.007751464844 946.99072265625 952.680847167969 960.256286621094 952.227355957031 962.579406738281 960.392944335938 960.349609375 963.648315429688 968.109008789062 956.669067382812 961.475830078125 964.767517089844 954.219543457031 959.734252929688 951.014953613281 953.826416015625 954.467102050781 961.986755371094 961.0439453125 963.228820800781 960.564758300781 965.324951171875 968.004821777344 979.171813964844 986.289794921875 985.755493164062 973.225952148438 969.520141601562 962.452087402344 971.422058105469 974.05224609375 971.901489257812 971.840148925781 968.407958984375 973.288146972656 977.380737304688 976.126525878906 972.542358398438 967.434204101562 965.087951660156 970.18505859375 968.614624023438 964.8310546875 980.113891601562 980.678344726562 983.303894042969 976.552490234375 980.283020019531 990.359252929688 993.573913574219 993.94970703125 995.282348632812 987.875915527344 987.7734375 993.911010742188 992.234191894531 990.882507324219 1001.79278564453 997.662414550781 1011.66009521484 1007.92706298828 1020.01684570312 1020.76208496094 1014.57440185547 1024.5107421875 1032.28515625 1042.287109375 1046.44848632812 1054.01049804688 1064.87292480469 1069.943359375 1069.66345214844 1083.85217285156 1091.34851074219 1089.94409179688 1082.23803710938 1077.2626953125 1071.02990722656 1082.43505859375 1077.70385742188 1076.92504882812 1079.52355957031 1086.06274414062 1094.83642578125 1093.48132324219 1101.57507324219 1109.654296875
965.927612304688 962.861938476562 958.290222167969 962.88671875 972.067321777344 974.847900390625 972.096069335938 970.591857910156 976.680358886719 972.5224609375 969.92138671875 958.917053222656 961.03125 969.452026367188 966.440490722656 969.230163574219 968.39404296875 970.068176269531 971.280212402344 960.752746582031 951.296630859375 961.602783203125 966.571960449219 955.165344238281 953.085693359375 950.505493164062 954.39208984375 962.157165527344 958.97265625 974.8701171875 967.527893066406 954.151428222656 950.025390625 958.629028320312 962.257568359375 961.265441894531 962.788208007812 961.845153808594 957.060363769531 955.1298828125 954.17333984375 948.475219726562 946.753540039062 952.496887207031 953.560241699219 961.082214355469 954.947448730469 958.593444824219 954.773559570312 955.493591308594 959.325561523438 957.564270019531 952.094970703125 954.642883300781 960.216735839844 961.214721679688 962.203063964844 958.570373535156 958.422485351562 951.3310546875 954.81884765625 956.070861816406 945.998291015625 949.320983886719 961.482666015625 956.042419433594 956.69775390625 961.062255859375 965.980590820312 971.368530273438 963.998168945312 961.642272949219 963.126647949219 954.459533691406 954.806274414062 963.517944335938 961.095886230469 964.179138183594 957.8251953125 957.787841796875 963.691467285156 961.713623046875 963.501403808594 968.833312988281 971.892211914062 966.325866699219 977.845275878906 975.096435546875 970.6884765625 974.321166992188 968.121459960938 967.236999511719 961.787780761719 970.747863769531 970.226196289062 975.297424316406 965.674560546875 969.991882324219 983.675720214844 980.674926757812 980.340576171875 968.346008300781 974.437744140625 975.214050292969 972.478149414062 976.180969238281 979.202575683594 976.640563964844 977.685302734375 982.015747070312 987.263366699219 993.804870605469 1000.39300537109 996.732971191406 996.445983886719 990.291015625 984.935241699219 991.728332519531 985.30224609375 995.307861328125 996.234069824219 996.447448730469 1009.21801757812 1012.88122558594 1019.07788085938 1018.75354003906 1023.07098388672 1028.4208984375 1033.80432128906 1040.46411132812 1059.38635253906 1059.30212402344 1052.08447265625 1059.92822265625 1070.01330566406 1082.34777832031 1091.91906738281 1089.1142578125 1081.63696289062 1081.28930664062 1077.9267578125 1070.71594238281 1062.49194335938 1077.03918457031 1070.3359375 1078.36157226562 1088.98522949219 1086.90515136719 1086.31530761719 1097.11645507812
961.800048828125 966.192626953125 960.928527832031 968.0771484375 972.262329101562 967.050659179688 974.660278320312 973.612731933594 973.617248535156 978.63525390625 976.662414550781 956.149780273438 953.444396972656 961.47314453125 962.965026855469 963.728881835938 963.933959960938 972.125671386719 972.014099121094 961.949829101562 947.964538574219 952.815124511719 963.745788574219 963.746215820312 954.64013671875 949.298645019531 956.525329589844 957.304260253906 962.650939941406 965.61962890625 961.550231933594 949.181213378906 949.895385742188 951.132751464844 958.132629394531 959.611206054688 955.299377441406 962.586853027344 960.30126953125 948.038513183594 953.535888671875 959.388732910156 959.786499023438 951.10205078125 957.208618164062 955.165283203125 951.742736816406 954.230041503906 956.044311523438 961.623291015625 964.450805664062 953.157836914062 948.007690429688 949.334655761719 951.603210449219 952.207214355469 954.35302734375 951.267028808594 960.119995117188 949.854553222656 950.841003417969 953.45361328125 951.787536621094 947.050720214844 961.935729980469 962.645812988281 961.859924316406 964.758117675781 965.937622070312 962.838623046875 963.890747070312 959.504577636719 957.278930664062 959.746215820312 953.64208984375 960.643676757812 971.075927734375 961.848266601562 964.906860351562 962.446228027344 962.543334960938 957.60205078125 964.044982910156 962.327514648438 969.8408203125 966.846313476562 969.334289550781 970.953918457031 974.188842773438 979.482055664062 972.722473144531 967.418029785156 972.848327636719 962.617797851562 967.502868652344 969.75439453125 966.954406738281 972.536682128906 979.229614257812 980.380798339844 977.358154296875 971.575500488281 978.313659667969 974.643737792969 980.964172363281 978.888244628906 988.139404296875 990.280212402344 979.233032226562 992.196655273438 995.930847167969 992.227600097656 998.288513183594 996.018432617188 986.637878417969 991.528991699219 987.557434082031 985.91015625 993.380126953125 997.43017578125 1003.70477294922 1006.17462158203 1012.56768798828 1014.27880859375 1023.58953857422 1025.10961914062 1020.78491210938 1013.85272216797 1017.34252929688 1034.24755859375 1042.3427734375 1048.99768066406 1056.31140136719 1068.63671875 1076.58581542969 1083.68859863281 1083.19189453125 1086.92517089844 1081.49133300781 1070.25952148438 1071.46423339844 1059.09460449219 1066.65087890625 1068.93005371094 1058.79272460938 1073.74426269531 1076.7109375 1072.67529296875 1079.00952148438 1087.912109375
954.828369140625 968.548217773438 964.920532226562 965.370788574219 965.512878417969 961.182678222656 971.388366699219 966.776550292969 974.531494140625 978.134887695312 969.170166015625 951.744140625 946.559997558594 953.466369628906 952.434936523438 960.61328125 968.164245605469 962.186157226562 958.257263183594 954.744323730469 957.325866699219 959.193237304688 956.824401855469 953.866088867188 957.1259765625 953.46533203125 956.248718261719 953.281433105469 962.491638183594 963.606994628906 959.497314453125 958.43701171875 955.604858398438 952.737854003906 955.65625 958.782775878906 959.264831542969 958.905944824219 950.27978515625 953.410522460938 948.988525390625 948.219787597656 949.310974121094 951.182800292969 952.635925292969 949.023559570312 949.357055664062 954.255859375 950.388244628906 957.274169921875 964.394226074219 961.773315429688 950.849243164062 948.965393066406 949.978759765625 960.9912109375 954.95166015625 954.931213378906 962.333435058594 956.2548828125 950.084716796875 951.524780273438 951.610900878906 957.668334960938 966.440307617188 964.274353027344 977.053283691406 967.289123535156 971.59814453125 960.627624511719 959.448608398438 965.226135253906 957.782531738281 958.196472167969 953.60009765625 955.571960449219 962.9345703125 963.438537597656 959.588500976562 966.7998046875 967.042297363281 965.080322265625 965.606689453125 972.674682617188 967.963745117188 960.30810546875 969.1806640625 965.806884765625 974.399597167969 970.856567382812 964.0166015625 963.799499511719 971.250854492188 966.622863769531 975.267944335938 974.68505859375 972.81982421875 975.87548828125 979.766479492188 976.951232910156 977.452941894531 983.621398925781 993.892211914062 987.188293457031 985.727416992188 985.770263671875 986.054382324219 985.81298828125 980.307189941406 993.600219726562 992.282348632812 1000.47277832031 996.286499023438 993.913208007812 984.706115722656 984.761840820312 994.040771484375 987.067810058594 997.896545410156 1001.72778320312 1002.00177001953 1010.18377685547 1012.55480957031 1010.79827880859 1021.76538085938 1034.00476074219 1021.00274658203 1006.66369628906 1015.86041259766 1030.38134765625 1041.33850097656 1040.05346679688 1052.09753417969 1066.17993164062 1068.72497558594 1074.32104492188 1079.46984863281 1078.74926757812 1075.78198242188 1073.34619140625 1065.75256347656 1063.54663085938 1046.9931640625 1043.10241699219 1048.81811523438 1057.39611816406 1064.23413085938 1076.0947265625 1075.92041015625 1077.49060058594
963.712341308594 967.099182128906 967.73974609375 971.395324707031 968.470275878906 966.183837890625 970.058227539062 965.408020019531 972.322692871094 968.283569335938 968.710632324219 956.156127929688 950.033020019531 947.633239746094 948.843383789062 960.80224609375 961.604309082031 956.975219726562 955.451232910156 955.662658691406 956.918701171875 949.476501464844 950.769165039062 948.580505371094 952.6357421875 952.060974121094 959.442016601562 951.574401855469 956.926391601562 964.182861328125 966.936096191406 951.307189941406 953.807434082031 947.9619140625 945.158081054688 961.602600097656 946.128173828125 956.831787109375 950.911987304688 946.582336425781 950.772338867188 943.873046875 946.056396484375 946.197814941406 948.130676269531 955.404113769531 952.980712890625 938.783874511719 949.357055664062 952.864135742188 961.402709960938 959.42822265625 955.216369628906 963.689270019531 964.672729492188 959.950134277344 959.670959472656 964.317749023438 965.177368164062 958.73388671875 958.1943359375 955.069458007812 950.073120117188 953.854614257812 956.973510742188 963.933959960938 967.124328613281 966.745544433594 966.466979980469 955.690124511719 961.514526367188 962.789245605469 962.518615722656 955.874206542969 958.538513183594 960.48193359375 963.450744628906 964.121337890625 970.68994140625 963.8779296875 965.590209960938 968.403259277344 965.799560546875 967.739929199219 973.834045410156 963.120422363281 965.11865234375 962.938537597656 971.655578613281 973.013366699219 958.192993164062 968.9375 966.287048339844 973.137756347656 982.881225585938 980.601501464844 975.6328125 978.800842285156 982.085388183594 978.754760742188 976.365661621094 974.344177246094 980.248596191406 974.255432128906 977.088562011719 983.869201660156 985.723815917969 988.955200195312 987.960021972656 988.080627441406 997.841918945312 1005.36413574219 1001.53680419922 995.553649902344 994.526550292969 988.919799804688 994.340148925781 992.075317382812 1003.85028076172 997.105590820312 998.957946777344 1006.09027099609 1009.92669677734 1014.80603027344 1018.02728271484 1020.54028320312 1020.37231445312 1017.78399658203 1020.40435791016 1028.73413085938 1047.26550292969 1046.97045898438 1052.23840332031 1053.61083984375 1063.51049804688 1066.57531738281 1070.82727050781 1067.87182617188 1069.02478027344 1067.28747558594 1058.81677246094 1052.46276855469 1040.81970214844 1039.83996582031 1041.90808105469 1046.35607910156 1050.55541992188 1060.45483398438 1062.02075195312 1064.86437988281
968.640563964844 968.328674316406 973.528747558594 972.436157226562 971.449401855469 978.399780273438 967.460998535156 968.3125 965.651184082031 970.82080078125 969.801391601562 959.407653808594 949.947692871094 942.758422851562 945.535278320312 951.283752441406 953.222106933594 955.303039550781 954.630065917969 955.189025878906 952.878051757812 942.597778320312 944.777893066406 941.696350097656 945.621276855469 951.290283203125 955.270263671875 951.690124511719 957.416809082031 962.774658203125 960.578125 956.817504882812 959.993469238281 943.776123046875 945.191833496094 949.851928710938 943.4541015625 955.944274902344 954.830139160156 946.167053222656 940.936401367188 946.001159667969 945.114562988281 937.267639160156 944.989929199219 947.868103027344 954.028625488281 947.991088867188 950.942199707031 954.685424804688 962.01953125 961.451965332031 963.7998046875 970.9375 972.667358398438 962.427734375 958.726196289062 964.680480957031 969.744018554688 964.466430664062 961.235534667969 952.977722167969 959.705383300781 949.323364257812 947.619079589844 958.884338378906 963.45458984375 959.709777832031 960.614990234375 962.730651855469 963.016479492188 956.758605957031 965.406127929688 959.911254882812 966.777038574219 969.956604003906 962.975891113281 965.434875488281 965.013549804688 969.338439941406 967.90234375 962.620666503906 966.6669921875 974.325500488281 981.950744628906 970.960327148438 964.24658203125 974.269714355469 967.103698730469 970.948669433594 970.242736816406 964.107727050781 967.875183105469 975.218200683594 980.813659667969 978.922058105469 972.068359375 979.707153320312 983.823425292969 977.791015625 976.42431640625 975.689819335938 986.247802734375 978.290710449219 977.658020019531 984.191589355469 984.877868652344 987.06103515625 996.114990234375 986.931457519531 989.921203613281 1004.02966308594 1002.06524658203 1001.97875976562 989.389953613281 992.152221679688 999.217651367188 1007.92352294922 996.835021972656 998.157653808594 1001.74743652344 1002.28546142578 1008.32055664062 1012.70471191406 1016.06024169922 1012.09503173828 1024.2421875 1027.43127441406 1034.4755859375 1032.482421875 1042.10437011719 1057.13525390625 1058.83959960938 1061.09997558594 1065.19580078125 1064.58447265625 1069.142578125 1066.25231933594 1056.81140136719 1051.12414550781 1049.67932128906 1033.73376464844 1027.69775390625 1029.95483398438 1045.17004394531 1046.96435546875 1045.50708007812 1052.28576660156 1053.25500488281 1056.58386230469
972.13037109375 974.488647460938 968.928833007812 973.282104492188 975.631958007812 975.924011230469 973.070251464844 964.106323242188 965.889892578125 963.096008300781 960.617248535156 964.429809570312 953.650146484375 963.6171875 955.800476074219 954.2119140625 949.724731445312 952.157409667969 950.668518066406 955.057189941406 953.108276367188 947.575439453125 946.791198730469 945.160583496094 939.750183105469 938.854431152344 931.510620117188 945.322265625 952.766906738281 956.815490722656 960.168762207031 953.567626953125 956.999694824219 950.609741210938 948.789489746094 944.643859863281 948.364685058594 949.735412597656 942.171203613281 949.406311035156 947.306945800781 948.523315429688 942.762329101562 942.275024414062 947.85205078125 961.433898925781 940.377624511719 944.525085449219 952.983459472656 953.9462890625 955.275329589844 965.646301269531 977.364685058594 971.362060546875 966.071533203125 963.551208496094 960.792114257812 961.749633789062 964.185974121094 960.688903808594 965.057495117188 961.784545898438 962.946960449219 954.275939941406 956.326477050781 950.727294921875 962.733825683594 963.540710449219 958.307739257812 964.08642578125 961.736145019531 963.891235351562 979.157836914062 974.618774414062 970.072387695312 961.734375 966.744323730469 967.563598632812 960.923217773438 966.46240234375 967.291320800781 967.234008789062 973.842041015625 975.187866210938 970.915222167969 969.612426757812 972.965576171875 973.556457519531 969.762390136719 975.108276367188 971.218872070312 969.904541015625 968.959228515625 974.200439453125 980.501953125 981.45556640625 977.596496582031 982.490905761719 981.002502441406 976.946655273438 985.412536621094 982.671142578125 981.810302734375 978.879699707031 977.208068847656 977.607666015625 993.14697265625 999.897399902344 999.575256347656 985.93310546875 991.19580078125 999.074768066406 1001.75335693359 999.996459960938 994.47412109375 995.763244628906 1005.25073242188 1005.68432617188 998.534423828125 997.608947753906 997.829772949219 1012.90270996094 1013.18994140625 1009.84478759766 1008.61138916016 1019.88000488281 1025.78991699219 1032.62829589844 1040.08764648438 1045.50708007812 1041.49133300781 1054.70593261719 1055.28283691406 1062.83923339844 1053.44799804688 1056.36083984375 1064.25451660156 1064.044921875 1054.109375 1044.57458496094 1040.36840820312 1029.22790527344 1025.71276855469 1030.70495605469 1035.95153808594 1044.34777832031 1045.572265625 1040.15832519531 1035.48449707031 1040.794921875
968.948608398438 966.580139160156 962.742004394531 961.376281738281 962.834289550781 964.083557128906 959.37060546875 953.703186035156 957.278015136719 961.224182128906 959.876037597656 963.738525390625 952.891906738281 959.037963867188 953.5673828125 952.544555664062 952.546752929688 952.646179199219 938.705139160156 938.413208007812 943.49853515625 944.0029296875 946.783813476562 942.441955566406 937.555847167969 933.636047363281 929.004699707031 933.593078613281 949.872741699219 948.380615234375 948.536926269531 947.830322265625 948.733581542969 947.917297363281 944.796752929688 944.179931640625 949.440307617188 944.619506835938 937.323791503906 942.462341308594 946.376953125 953.058349609375 949.136108398438 944.8916015625 958.442260742188 957.179809570312 949.284973144531 951.046997070312 949.237121582031 954.659606933594 955.501708984375 964.241638183594 976.85986328125 975.494445800781 977.600830078125 971.80859375 970.632263183594 961.957397460938 966.073059082031 965.8984375 962.989929199219 962.398376464844 970.475158691406 962.718383789062 957.266357421875 964.868896484375 967.289184570312 973.342712402344 968.837524414062 967.761169433594 969.098876953125 977.679870605469 973.65869140625 975.015930175781 971.115112304688 968.749389648438 974.339050292969 967.94189453125 961.635559082031 970.30419921875 968.670532226562 972.466247558594 973.141296386719 968.079406738281 963.943237304688 972.340026855469 973.963623046875 982.367736816406 972.217651367188 975.092529296875 969.884094238281 971.93017578125 960.827270507812 967.5771484375 969.901000976562 976.464477539062 985.555053710938 982.549682617188 983.457702636719 981.257995605469 984.587280273438 978.76806640625 978.037719726562 975.743713378906 974.681701660156 987.971374511719 993.81298828125 1004.12225341797 995.886108398438 987.287231445312 1001.70263671875 1010.111328125 1006.35205078125 1008.52966308594 1008.07543945312 999.345825195312 1006.62939453125 1009.14801025391 1002.87774658203 1012.07830810547 1004.76599121094 1002.43597412109 1020.55529785156 1025.46398925781 1018.42822265625 1018.34387207031 1026.70544433594 1041.73742675781 1040.94738769531 1042.25048828125 1049.85705566406 1057.94287109375 1057.91284179688 1054.81677246094 1060.23217773438 1060.86901855469 1063.84899902344 1054.35095214844 1049.5498046875 1040.40295410156 1033.00415039062 1037.1396484375 1033 1036.17614746094 1028.58666992188 1027.27038574219 1033.9521484375 1031.96337890625 1026.9541015625 1030.71862792969
965.626159667969 961.822631835938 957.926391601562 955.579772949219 961.15576171875 974.187438964844 965.412658691406 951.458190917969 951.8828125 955.167297363281 955.304138183594 952.197326660156 949.776733398438 956.193908691406 952.941345214844 951.5703125 949.025756835938 954.413208007812 946.708068847656 940.175659179688 943.886474609375 950.426696777344 950.243591308594 945.554626464844 937.518005371094 940.253662109375 933.762512207031 942.726135253906 945.500793457031 958.656066894531 951.807373046875 954.295715332031 941.37890625 945.225463867188 950.030334472656 944.652038574219 940.222778320312 945.9365234375 948.502014160156 941.097412109375 943.895568847656 948.123657226562 951.719421386719 959.358947753906 959.661682128906 955.704223632812 954.748840332031 959.570373535156 967.763305664062 965.153442382812 971.069580078125 977.144897460938 979.778747558594 977.844360351562 969.865600585938 972.269653320312 971.255981445312 976.361267089844 969.940246582031 970.862548828125 961.680358886719 965.359924316406 965.005920410156 967.511108398438 962.704528808594 967.161376953125 975.416748046875 970.096862792969 966.625915527344 967.397155761719 971.617736816406 976.380249023438 968.746948242188 968.746276855469 971.967834472656 969.341186523438 976.88916015625 974.529296875 969.755493164062 975.554504394531 977.734619140625 981.0205078125 976.34228515625 972.4755859375 966.147766113281 966.421813964844 973.005676269531 974.9912109375 974.887573242188 969.052429199219 973.414855957031 972.831237792969 964.999084472656 972.000305175781 976.147216796875 973.3623046875 976.302001953125 984.467163085938 982.916137695312 985.3447265625 984.408508300781 982.772766113281 971.906494140625 977.561279296875 987.716735839844 983.898498535156 990.299011230469 995.802429199219 998.3447265625 998.963073730469 1003.9248046875 1013.13311767578 1013.85455322266 1011.70666503906 1013.88653564453 1014.08209228516 1016.03070068359 1019.83276367188 1016.25866699219 1018.17932128906 1019.63055419922 1013.9248046875 1015.88793945312 1015.71673583984 1019.15014648438 1020.13934326172 1026.66186523438 1037.68530273438 1042.88525390625 1051.18383789062 1054.07849121094 1058.42724609375 1058.45202636719 1059.10766601562 1058.16320800781 1054.54125976562 1052.76000976562 1046.55090332031 1055.31481933594 1051.8095703125 1042.49548339844 1034.43054199219 1026.14270019531 1022.91876220703 1024.3173828125 1021.66271972656 1019.14691162109 1028.083984375 1020.00317382812 1013.86474609375
959.728088378906 953.934326171875 955.11572265625 952.336303710938 962.886535644531 956.7060546875 957.851928710938 954.739929199219 958.166198730469 957.813049316406 950.6357421875 945.143615722656 936.580505371094 945.813354492188 944.990600585938 946.370239257812 939.265625 950.708618164062 946.286193847656 937.99169921875 943.594421386719 948.125854492188 949.692687988281 943.162475585938 941.2158203125 944.084350585938 938.791625976562 941.828857421875 946.05419921875 946.933349609375 949.7451171875 950.306091308594 943.409729003906 941.491638183594 949.28564453125 949.643798828125 948.497009277344 951.267761230469 955.468811035156 957.623718261719 956.85205078125 952.62841796875 952.127075195312 966.746398925781 959.611938476562 955.78857421875 955.892944335938 965.6435546875 966.153747558594 978.840454101562 982.756652832031 986.715576171875 976.295776367188 968.613037109375 971.238830566406 976.140075683594 971.252380371094 973.494750976562 970.706604003906 965.988891601562 965.488220214844 961.136901855469 963.469848632812 961.2197265625 971.126220703125 977.356811523438 974.48779296875 979.502563476562 959.943298339844 965.394409179688 976.041198730469 973.816284179688 974.353210449219 972.111633300781 975.974487304688 985.87646484375 980.228942871094 977.327392578125 975.166564941406 983.382141113281 974.748474121094 979.024230957031 978.316528320312 983.357543945312 977.661804199219 980.572387695312 982.746337890625 982.809814453125 983.769775390625 974.9794921875 981.618896484375 981.255187988281 980.084167480469 972.974243164062 978.622131347656 972.518493652344 976.743835449219 980.510681152344 979.356018066406 981.172180175781 986.9248046875 982.243896484375 978.2197265625 978.258178710938 984.404602050781 986.577270507812 987.986145019531 993.828430175781 998.577209472656 1012.76239013672 1008.75891113281 1017.29998779297 1008.71240234375 1018.90490722656 1022.76385498047 1025.13391113281 1024.46826171875 1021.75085449219 1018.96911621094 1020.15612792969 1027.92065429688 1031.32019042969 1025.68725585938 1024.69580078125 1018.75439453125 1020.23254394531 1024.90258789062 1036.73400878906 1038.22570800781 1045.93627929688 1047.12377929688 1050.07250976562 1056.96667480469 1052.02209472656 1055.67529296875 1048.64038085938 1044.39147949219 1039.10461425781 1038.03039550781 1047.00756835938 1043.54711914062 1029.87609863281 1020.92663574219 1013.90216064453 1020.52319335938 1017.25427246094 1018.32257080078 1022.64172363281 1015.73358154297 1011.92266845703
961.161437988281 952.58544921875 953.225769042969 962.554138183594 955.126159667969 958.324035644531 952.419250488281 956.713134765625 948.467529296875 956.447204589844 945.16259765625 943.531188964844 945.34619140625 943.122680664062 947.80517578125 947.657165527344 944.251037597656 946.478149414062 943.973754882812 941.338439941406 942.718383789062 942.09033203125 956.007934570312 947.650390625 947.736145019531 949.14111328125 945.191772460938 949.636352539062 947.712707519531 956.534423828125 956.141784667969 942.837890625 942.257019042969 945.841796875 944.291015625 942.856506347656 942.36083984375 947.453735351562 960.492858886719 962.975280761719 960.474304199219 960.807678222656 963.749816894531 962.763854980469 956.875122070312 950.901672363281 961.096740722656 963.447875976562 966.678405761719 976.935607910156 993.082275390625 982.645935058594 977.337219238281 971.261840820312 970.255859375 978.599060058594 976.720520019531 978.722412109375 974.767578125 971.514892578125 968.071655273438 960.60791015625 957.237854003906 960.425415039062 963.217407226562 970.647033691406 979.726501464844 973.668518066406 970.102600097656 970.60986328125 970.329467773438 976.835998535156 979.270690917969 984.173461914062 984.212707519531 981.566162109375 972.752624511719 975.929260253906 983.369995117188 974.505554199219 977.437133789062 977.371459960938 980.122680664062 982.799682617188 980.376525878906 976.384582519531 987.420166015625 977.156311035156 975.083679199219 981.482788085938 984.361145019531 975.427368164062 977.366333007812 980.428527832031 986.134643554688 983.722778320312 982.458435058594 973.846923828125 982.176818847656 985.697082519531 978.768676757812 975.09033203125 978.611999511719 984.032592773438 990.338806152344 988.242309570312 994.14111328125 996.628112792969 1005.87469482422 1011.01330566406 1012.78198242188 1006.4912109375 1002.28851318359 1016.93383789062 1019.27301025391 1025.50402832031 1028.68017578125 1031.1376953125 1029.04138183594 1021.99737548828 1025.13830566406 1031.86535644531 1031.35913085938 1030.59887695312 1017.48852539062 1021.04040527344 1024.37329101562 1030.23266601562 1028.64489746094 1033.67297363281 1041.25183105469 1040.69189453125 1042.80578613281 1053.65002441406 1046.00329589844 1034.63073730469 1036.89831542969 1038.59313964844 1036.15771484375 1031.67541503906 1034.25732421875 1033.85302734375 1024.25122070312 1018.17474365234 1012.48193359375 1017.24438476562 1014.74536132812 1014.58532714844 1012.02185058594 1011.55163574219
956.902404785156 956.578857421875 954.482849121094 954.778625488281 947.658569335938 953.027526855469 954.7822265625 945.096374511719 945.401672363281 941.392028808594 942.052612304688 937.792602539062 941.351867675781 949.31103515625 950.358520507812 945.614868164062 946.670715332031 943.037353515625 942.620849609375 940.193359375 946.515747070312 946.686096191406 942.532470703125 943.710510253906 945.728454589844 950.416870117188 952.34423828125 948.094360351562 945.1240234375 956.133972167969 960.3134765625 947.705200195312 939.598388671875 941.425537109375 944.283020019531 947.254211425781 950.436462402344 949.62109375 957.825866699219 964.005187988281 958.511901855469 966.89501953125 965.001708984375 957.718200683594 956.347961425781 964.090515136719 966.350158691406 961.451721191406 966.041015625 975.273193359375 987.387756347656 984.804260253906 979.372680664062 977.146057128906 974.03955078125 975.874084472656 971.187927246094 977.393371582031 973.294982910156 976.116821289062 960.917602539062 961.808410644531 968.660705566406 960.904479980469 965.512634277344 978.834838867188 980.989013671875 979.266174316406 969.610412597656 968.469482421875 972.750549316406 971.940246582031 976.389892578125 977.716735839844 980.988586425781 977.229187011719 968.127746582031 968.540466308594 981.431518554688 976.839233398438 979.896911621094 968.703308105469 972.172241210938 975.4130859375 978.41845703125 987.129089355469 990.291931152344 982.207397460938 974.197570800781 976.316467285156 976.830078125 975.009399414062 973.00927734375 983.72314453125 984.819763183594 989.114013671875 990.033630371094 984.098754882812 977.695068359375 988.951721191406 979.81396484375 981.140686035156 981.911804199219 989.363037109375 989.039978027344 983.159790039062 995.371154785156 995.930419921875 1007.03350830078 1013.62939453125 1009.12347412109 1011.04815673828 1007.54254150391 1001.154296875 1012.03411865234 1015.79718017578 1029.3056640625 1036.87622070312 1032.17407226562 1026.33837890625 1036.77819824219 1033.685546875 1032.220703125 1026.51342773438 1022.88397216797 1021.18701171875 1021.56408691406 1028.1533203125 1036.31359863281 1034.23266601562 1031.30065917969 1022.59344482422 1028.3916015625 1036.70202636719 1033.23278808594 1037.60986328125 1029.99633789062 1024.97045898438 1035.50036621094 1039.49365234375 1034.86083984375 1030.32421875 1024.04528808594 1018.28210449219 1014.53692626953 1019.90832519531 1020.16870117188 1017.41528320312 1013.28985595703 1001.43756103516
957.439514160156 948.660827636719 951.330444335938 950.754028320312 948.072631835938 949.497802734375 954.976806640625 949.190979003906 938.098205566406 937.914367675781 946.020202636719 951.208190917969 944.414001464844 947.636474609375 949.862487792969 937.189331054688 949.841613769531 953.702941894531 943.896789550781 949.118225097656 956.247436523438 950.444030761719 952.862731933594 953.776428222656 959.396423339844 955.285827636719 950.7841796875 947.48193359375 941.635559082031 957.478210449219 954.490966796875 958.62353515625 942.970092773438 940.298522949219 947.981750488281 946.262329101562 958.618469238281 955.059936523438 954.857299804688 963.98388671875 959.66748046875 959.349853515625 963.882995605469 968.950866699219 963.460693359375 970.96923828125 969.024230957031 971.506408691406 971.700744628906 976.039306640625 984.028991699219 970.642639160156 973.081115722656 977.199890136719 966.658081054688 966.1533203125 966.055908203125 977.01904296875 972.788818359375 974.09033203125 968.752746582031 968.897888183594 972.755615234375 970.990173339844 960.6982421875 971.072021484375 975.217956542969 974.214721679688 968.250915527344 968.663635253906 971.082824707031 975.657104492188 979.995727539062 975.804992675781 971.878356933594 973.858032226562 971.285278320312 960.914184570312 969.205749511719 962.761840820312 961.683959960938 968.709594726562 975.067016601562 980.885864257812 985.564270019531 989.859130859375 986.85205078125 985.86279296875 976.20166015625 981.632690429688 969.033630371094 974.547546386719 976.23779296875 981.494384765625 990.797973632812 991.449462890625 990.181457519531 986.977600097656 972.154174804688 974.552917480469 984.003112792969 985.29052734375 993.440612792969 990.856018066406 994.846923828125 990.181823730469 1000.69781494141 1002.28881835938 1013.99749755859 1020.08422851562 1016.02783203125 1021.29644775391 1005.22967529297 1008.49530029297 1021.86383056641 1037.04748535156 1032.07116699219 1037.00952148438 1038.86376953125 1034.13537597656 1040.33020019531 1041.91040039062 1032.92175292969 1028.87683105469 1031.47473144531 1023.26879882812 1027.64953613281 1031.36206054688 1034.98803710938 1032.11572265625 1034.51293945312 1022.72155761719 1022.33807373047 1027.81091308594 1019.62133789062 1021.46484375 1018.4755859375 1026.32019042969 1036.23681640625 1039.63879394531 1021.06573486328 1020.95745849609 1017.72473144531 1013.70166015625 1008.31396484375 1011.29248046875 1016.32263183594 1010.61553955078 1003.73516845703 992.494873046875
952.449768066406 959.773315429688 945.887390136719 944.717529296875 946.884765625 947.587341308594 944.990356445312 944.08544921875 942.461730957031 943.324279785156 947.797729492188 951.180358886719 946.494079589844 959.880920410156 947.026550292969 947.137329101562 954.085571289062 958.446350097656 949.728759765625 967.036193847656 969.574340820312 952.864379882812 960.531066894531 965.407531738281 956.44091796875 967.185302734375 948.877868652344 946.657165527344 946.783386230469 955.387451171875 953.201965332031 951.576477050781 951.628173828125 944.676208496094 947.712524414062 955.612731933594 961.364135742188 951.831420898438 956.749267578125 957.550415039062 969.603942871094 970.207763671875 962.564758300781 965.218688964844 964.075805664062 972.521118164062 977.658935546875 982.355041503906 982.991760253906 986.07470703125 977.664001464844 974.907775878906 972.709533691406 974.155883789062 968.602416992188 971.707641601562 958.676696777344 971.682556152344 970.482299804688 961.9912109375 970.756164550781 964.246032714844 972.83447265625 972.233581542969 968.48388671875 966.433288574219 974.236022949219 963.773803710938 959.745727539062 968.998046875 969.032592773438 973.895935058594 977.172424316406 975.495727539062 974.460021972656 974.217407226562 973.81494140625 963.717956542969 977.807800292969 972.369140625 970.134582519531 966.779174804688 970.726867675781 970.075317382812 981.489868164062 984.819213867188 980.298828125 982.404663085938 988.775024414062 972.99853515625 976.128784179688 969.977294921875 972.439697265625 982.596496582031 987.037475585938 991.249450683594 990.835388183594 986.444030761719 976.002014160156 982.847351074219 983.917358398438 994.819274902344 1001.13018798828 991.476379394531 982.70458984375 997.694885253906 1003.80743408203 1009.27661132812 1012.25274658203 1022.24761962891 1024.57543945312 1025.6748046875 1023.6474609375 1023.83129882812 1026.884765625 1031.10083007812 1043.755859375 1041.92224121094 1044.5458984375 1047.96252441406 1054.27307128906 1037.7890625 1027.79016113281 1034.14294433594 1024.09313964844 1022.86212158203 1027.89501953125 1024.64465332031 1024.15600585938 1027.93640136719 1025.99047851562 1014.45538330078 1018.45678710938 1015.94720458984 1012.72845458984 1018.56030273438 1017.53704833984 1026.67419433594 1023.89050292969 1016.88525390625 1017.54864501953 1001.40496826172 1007.05438232422 1009.46960449219 1011.94165039062 1015.49822998047 1012.87017822266 1002.00549316406 996.483703613281 991.995483398438
