NCOLS 150
NROWS 37
XLLCORNER 7394249
YLLCORNER 4842899
CELLSIZE 30
NODATA_VALUE -9999
943.142517089844 947.251586914062 950.098999023438 972.192810058594 970.395629882812 980.762390136719 971.538757324219 973.915771484375 973.170532226562 971.702880859375 969.906494140625 976.52294921875 976.788696289062 981.133178710938 982.244995117188 973.40966796875 978.6552734375 974.17578125 978.395568847656 978.903930664062 975.678100585938 977.652465820312 982.320617675781 974.5712890625 981.882019042969 976.312866210938 978.226013183594 977.653991699219 980.77197265625 984.938659667969 982.547973632812 988.162719726562 989.542724609375 980.737121582031 983.757446289062 978.078186035156 977.160888671875 974.890380859375 972.997497558594 975.644714355469 983.833801269531 980.346130371094 991.518676757812 990.8955078125 978.126586914062 981.69482421875 983.653442382812 991.033752441406 982.831481933594 975.488098144531 978.945007324219 985.259338378906 975.026916503906 966.965637207031 967.825439453125 970.658142089844 968.535888671875 971.548767089844 975.901794433594 972.221862792969 980.390869140625 991.831298828125 991.421142578125 990.952697753906 985.153564453125 992.8720703125 992.278991699219 985.398132324219 985.694458007812 978.829345703125 980.388488769531 977.037109375 976.767211914062 981.336303710938 985.650329589844 990.592834472656 989.513244628906 976.25927734375 984.530578613281 991.150390625 997.613098144531 1002.08221435547 996.687377929688 1003.39410400391 1006.50817871094 1011.64111328125 1011.32562255859 1006.11834716797 999.766662597656 1004.68334960938 1008.62341308594 1011.94738769531 1018.91796875 1024.95568847656 1000.10858154297 1002.24383544922 1002.38018798828 1018.15490722656 1011.07727050781 1001.78656005859 996.104736328125 997.704284667969 994.024963378906 989.193664550781 986.169799804688 995.856201171875 1000.58624267578 999.955749511719 992.411315917969 989.275329589844 988.966613769531 968.784790039062 971.469177246094 977.586120605469 977.819641113281 971.613403320312 966.827209472656 967.735656738281 975.194702148438 977.227416992188 987.606872558594 994.567260742188 1002.81365966797 1018.36853027344 1020.84790039062 1021.49725341797 1024.29162597656 1030.91943359375 1018.65386962891 1018.11883544922 1014.30645751953 1014.80187988281 1014.82244873047 1018.02673339844 1012.08905029297 1019.27398681641 1024.18444824219 1020.94079589844 1039.78271484375 1047.27893066406 1059.048828125 1075.34106445312 1079.58508300781 1083.46691894531 1092.7734375 1109.24462890625 1097.27905273438 1108.22644042969 1117.50561523438 1117.95520019531
944.124450683594 943.887329101562 949.848693847656 965.982543945312 969.534240722656 974.380065917969 973.697875976562 978.17919921875 974.994201660156 978.503967285156 968.07861328125 969.969604492188 966.810974121094 969.446044921875 973.243957519531 973.193298339844 968.077819824219 971.145629882812 974.745849609375 982.249633789062 987.206420898438 979.254333496094 972.848693847656 980.748413085938 980.110595703125 986.908447265625 983.520874023438 979.402465820312 981.483947753906 986.085632324219 986.171325683594 984.566955566406 982.126159667969 972.147216796875 971.81396484375 974.414123535156 977.680358886719 974.564636230469 972.942749023438 978.4765625 979.4619140625 981.025512695312 989.904541015625 994.552673339844 981.996826171875 973.566589355469 980.325927734375 990.311462402344 985.567138671875 985.930847167969 985.726501464844 981.794494628906 980.831298828125 976.245239257812 970.214782714844 969.176879882812 969.411254882812 970.42138671875 971.774108886719 975.981506347656 977.552795410156 978.976135253906 987.178588867188 980.484619140625 978.566528320312 982.117980957031 987.1162109375 981.582458496094 990.594360351562 983.476684570312 984.484313964844 990.238830566406 981.407287597656 976.225891113281 984.624694824219 983.756958007812 986.095275878906 990.828674316406 992.451965332031 994.895263671875 988.020141601562 995.1552734375 994.512268066406 998.02490234375 1007.90765380859 1009.14605712891 1015.32220458984 1000.46142578125 995.545166015625 1000.48498535156 999.994079589844 1008.4931640625 1006.22546386719 1005.77117919922 997.98291015625 1001.49542236328 1005.18334960938 1008.42022705078 1005.21691894531 1007.77020263672 998.03564453125 992.897644042969 990.337585449219 994.899169921875 992.739562988281 1000.14031982422 998.736755371094 997.450073242188 994.034301757812 994.54736328125 990.078063964844 982.632934570312 974.159484863281 983.6865234375 980.496765136719 977.640869140625 968.3212890625 974.164001464844 986.387573242188 987.405639648438 992.409362792969 990.579040527344 1005.2900390625 1017.26898193359 1025.77966308594 1024.79235839844 1022.21417236328 1022.36590576172 1019.61846923828 1009.45910644531 1011.43713378906 1013.28338623047 1021.00854492188 1017.69189453125 1015.76812744141 1021.54577636719 1024.58569335938 1030.37414550781 1043.23974609375 1048.87316894531 1058.57727050781 1068.75427246094 1080.97253417969 1092.45129394531 1101.09484863281 1100.98693847656 1106.84643554688 1114.99060058594 1130.38269042969 1125.21557617188
953.801696777344 947.5107421875 957.548034667969 962.497131347656 975.265502929688 976.780944824219 974.722961425781 969.179748535156 971.812377929688 978.134582519531 978.069946289062 965.502502441406 962.847778320312 972.099304199219 975.103942871094 970.977844238281 976.5498046875 976.017700195312 974.266052246094 981.930358886719 990.035705566406 985.963500976562 972.726257324219 975.10888671875 980.175842285156 986.348999023438 978.600219726562 979.797790527344 976.992004394531 972.015197753906 964.189270019531 972.941711425781 966.476684570312 968.152099609375 962.712158203125 969.135925292969 968.667358398438 975.624328613281 975.954406738281 978.072204589844 981.139770507812 982.157470703125 985.026550292969 986.785217285156 972.03857421875 972.466613769531 978.962890625 978.255615234375 978.998901367188 976.647399902344 981.6953125 978.744384765625 981.054748535156 978.172973632812 969.964416503906 972.602233886719 972.757385253906 972.763732910156 980.96923828125 979.633239746094 974.966491699219 982.919677734375 984.341491699219 980.492004394531 984.347961425781 978.918518066406 977.903076171875 985.293762207031 978.002624511719 982.171264648438 987.609375 996.717407226562 992.166870117188 983.651916503906 978.705200195312 975.108154296875 976.689147949219 984.035888671875 986.71923828125 987.675598144531 988.043701171875 999.344665527344 999.962097167969 998.400390625 999.351257324219 1004.83465576172 1010.22229003906 993.16845703125 996.309265136719 995.256713867188 992.384094238281 987.653198242188 998.637817382812 1000.73785400391 998.157470703125 1000.70080566406 1008.14569091797 1007.14392089844 1000.03790283203 1005.61785888672 1000.86071777344 991.546813964844 990.79833984375 998.762512207031 995.878051757812 998.542419433594 996.465698242188 993.6591796875 993.770874023438 988.384643554688 985.851440429688 990.451354980469 980.681762695312 988.96435546875 986.252624511719 984.89208984375 980.995422363281 988.837646484375 984.096557617188 993.913024902344 993.364929199219 994.4375 1010.44873046875 1018.52899169922 1012.80047607422 1014.31817626953 1015.94183349609 1018.78411865234 1017.94390869141 1015.22589111328 1010.33184814453 1015.17913818359 1011.90728759766 1019.19592285156 1019.35009765625 1025.09643554688 1030.44311523438 1039.63269042969 1052.27331542969 1055.35266113281 1063.40490722656 1070.85986328125 1084.21215820312 1095.35595703125 1100.51928710938 1107.99914550781 1114.29138183594 1125.76672363281 1138.58740234375 1142.84313964844
944.310363769531 952.794006347656 959.3876953125 962.056091308594 971.436340332031 968.109985351562 971.709655761719 967.500427246094 968.148498535156 979.026245117188 974.745361328125 965.014587402344 971.843139648438 972.62841796875 978.638427734375 980.530212402344 981.958984375 974.34228515625 981.518920898438 982.379272460938 984.802124023438 987.124816894531 978.537719726562 974.309204101562 982.339782714844 986.667053222656 979.541076660156 978.911987304688 980.510681152344 973.610046386719 967.448181152344 968.71484375 973.292114257812 972.551086425781 973.7294921875 979.217590332031 976.153564453125 976.77783203125 978.526977539062 967.854187011719 968.456237792969 974.517944335938 980.807800292969 981.50048828125 979.220825195312 968.981811523438 976.650329589844 976.305541992188 974.86865234375 977.056579589844 977.383178710938 977.305847167969 980.368774414062 975.972351074219 983.293701171875 969.809265136719 961.156799316406 976.637268066406 981.359619140625 973.593872070312 979.868774414062 983.392517089844 981.0859375 976.67138671875 977.239013671875 979.888427734375 978.804077148438 974.6552734375 987.2626953125 980.825561523438 979.531066894531 988.168090820312 991.82177734375 989.957641601562 974.856201171875 970.632629394531 978.442993164062 978.962768554688 985.264953613281 983.339599609375 987.132995605469 1004.83685302734 1010.33276367188 1002.47924804688 991.724060058594 993.66552734375 994.607543945312 992.633728027344 996.213623046875 992.222778320312 985.161010742188 992.771179199219 999.281799316406 1001.77581787109 1006.70843505859 1003.48046875 1001.47772216797 1001.91491699219 996.88037109375 991.981384277344 1002.61572265625 988.088500976562 987.111450195312 991.240661621094 990.503234863281 1001.71533203125 987.013977050781 986.8564453125 993.386108398438 988.812622070312 996.007690429688 998.024658203125 990.932373046875 1001.38159179688 991.856811523438 993.73388671875 987.419006347656 983.056274414062 993.107788085938 990.724426269531 999.994384765625 999.914184570312 1007.24981689453 1016.56628417969 1015.77514648438 1014.78021240234 1007.34356689453 1002.0234375 1012.58325195312 1019.46948242188 1011.27075195312 1008.87902832031 1007.29541015625 1013.50018310547 1014.45751953125 1028.11083984375 1033.53088378906 1039.87878417969 1047.70739746094 1056.6103515625 1076.64855957031 1090.65966796875 1094.61462402344 1104.14086914062 1108.24475097656 1113.99072265625 1111.88537597656 1125.82629394531 1136.19909667969 1146.57421875
949.353881835938 952.695617675781 958.687438964844 966.075866699219 973.063598632812 979.305847167969 973.539733886719 975.135925292969 971.49267578125 970.234497070312 971.180297851562 964.920776367188 973.418518066406 972.73974609375 980.790222167969 980.930603027344 983.754638671875 989.433166503906 993.200500488281 993.93212890625 986.0244140625 981.189636230469 979.51123046875 976.19775390625 974.802490234375 982.754943847656 974.933837890625 971.153686523438 975.865478515625 975.817749023438 975.761413574219 964.356079101562 962.451477050781 971.739624023438 977.170776367188 980.053466796875 982.676818847656 981.317626953125 986.319763183594 977.478942871094 978.686584472656 981.383972167969 982.784973144531 982.758850097656 971.619323730469 971.002990722656 967.784362792969 975.838500976562 972.753784179688 974.680908203125 974.719787597656 970.220275878906 983.45556640625 981.546569824219 974.576721191406 962.663696289062 961.901245117188 972.207702636719 969.528015136719 973.603393554688 982.248474121094 972.234741210938 982.148315429688 979.461791992188 984.934143066406 991.423400878906 978.368774414062 976.481201171875 981.555480957031 975.860107421875 975.377624511719 979.701477050781 982.667785644531 978.28369140625 973.884643554688 970.255981445312 968.134338378906 980.298645019531 990.009460449219 985.526306152344 994.419372558594 998.302307128906 1002.18365478516 999.116882324219 993.247741699219 987.024963378906 992.48193359375 996.880920410156 993.506896972656 988.002258300781 995.875610351562 996.068542480469 1003.04138183594 1002.78991699219 1001.64227294922 997.794250488281 994.757385253906 986.744934082031 1000.97698974609 992.292846679688 989.294860839844 994.452880859375 984.187133789062 993.762939453125 985.987182617188 991.624755859375 997.9150390625 991.423950195312 993.433776855469 995.291809082031 999.190063476562 995.022521972656 992.537963867188 1004.43182373047 1000.31573486328 995.865661621094 994.655029296875 992.033386230469 1000.30554199219 991.174499511719 995.482971191406 1004.32006835938 1009.05316162109 1006.25738525391 1012.68640136719 1008.96636962891 1007.45178222656 1001.54803466797 1005.71697998047 1012.81561279297 1014.90887451172 1014.66644287109 1018.64025878906 1017.47204589844 1016.6669921875 1027.18603515625 1034.98645019531 1044.50354003906 1057.32202148438 1060.19384765625 1072.65686035156 1087.14880371094 1099.36096191406 1110.0205078125 1118.17163085938 1110.30603027344 1121.82153320312 1125.41784667969 1138.03930664062 1150.07751464844
947.216796875 958.108703613281 968.553405761719 971.180725097656 976.113342285156 971.398071289062 962.387878417969 966.557312011719 966.788208007812 962.460083007812 961.931884765625 960.86376953125 969.000244140625 968.09033203125 976.002380371094 977.974243164062 973.89794921875 980.695007324219 979.39404296875 981.699157714844 983.000244140625 975.447692871094 975.476928710938 974.971008300781 978.417419433594 975.062377929688 974.820983886719 974.459411621094 976.238525390625 974.238403320312 969.360046386719 976.661682128906 968.373229980469 971.818908691406 981.974060058594 983.636535644531 989.092346191406 990.350036621094 981.364135742188 975.106628417969 973.667114257812 982.363464355469 984.498779296875 978.234436035156 975.052307128906 968.856750488281 969.211669921875 974.737121582031 974.7021484375 967.632202148438 971.902099609375 983.547546386719 972.21533203125 979.112548828125 980.167663574219 962.328735351562 961.067138671875 968.278137207031 968.665466308594 972.719116210938 971.058227539062 974.117248535156 989.939147949219 984.710021972656 983.519226074219 987.469177246094 986.207153320312 983.537292480469 976.675476074219 967.152465820312 971.344543457031 971.73095703125 975.828796386719 977.39599609375 971.139038085938 982.271606445312 980.657165527344 979.54052734375 982.610595703125 989.503173828125 1001.24285888672 998.315856933594 1003.91473388672 997.006225585938 991.665161132812 990.624755859375 989.53857421875 992.3955078125 990.387268066406 995.280578613281 999.49755859375 1000.88562011719 1008.23864746094 1005.06494140625 1002.52307128906 1003.29638671875 994.244323730469 986.003356933594 986.260620117188 987.766540527344 997.012023925781 997.801025390625 992.280822753906 999.414672851562 999.815979003906 993.829772949219 989.433898925781 981.867004394531 994.190185546875 996.046630859375 999.293212890625 992.428894042969 989.830444335938 998.571838378906 997.583190917969 996.109008789062 991.568054199219 994.768432617188 1002.28881835938 1009.92864990234 1007.37994384766 998.847595214844 997.376220703125 1001.72033691406 1004.46142578125 1001.70947265625 1001.51574707031 1015.54644775391 1012.80090332031 1009.24700927734 1014.44714355469 1016.20434570312 1015.35827636719 1014.59020996094 1024.31396484375 1031.31262207031 1033.18835449219 1050.08935546875 1067.19580078125 1079.39953613281 1081.4638671875 1093.01110839844 1105.640625 1110.46337890625 1112.00231933594 1114.63952636719 1108.224609375 1118.55993652344 1129.47705078125 1136.48767089844
939.909057617188 953.228271484375 965.122192382812 970.982666015625 967.156433105469 967.47705078125 957.484191894531 960.0546875 956.120178222656 955.384094238281 962.660034179688 959.423095703125 970.219787597656 973.061096191406 967.88525390625 966.851501464844 971.809936523438 975.565368652344 980.323303222656 976.723266601562 979.782470703125 970.233947753906 968.160278320312 972.645690917969 971.512145996094 970.76416015625 969.334716796875 972.357604980469 982.74560546875 967.898315429688 979.960632324219 975.008117675781 977.146728515625 977.855712890625 976.152221679688 986.193481445312 988.203002929688 986.631958007812 978.213684082031 977.208984375 974.299072265625 973.525146484375 975.984008789062 981.280456542969 973.529724121094 965.230895996094 972.998840332031 970.619689941406 973.74951171875 970.995178222656 976.136962890625 977.950988769531 975.095031738281 976.73876953125 969.932739257812 957.98046875 960.383239746094 957.021362304688 967.6640625 973.73291015625 975.083251953125 979.037902832031 986.586486816406 986.568237304688 987.173645019531 991.668151855469 983.067626953125 973.090881347656 976.130920410156 975.439758300781 980.252746582031 975.828369140625 971.612182617188 979.343444824219 977.211181640625 980.581420898438 984.862060546875 983.6748046875 980.040649414062 984.979125976562 990.178466796875 1000.220703125 996.821350097656 994.8466796875 987.414245605469 992.004699707031 995.290588378906 997.780151367188 987.730651855469 985.391784667969 985.379516601562 992.952697753906 991.651794433594 998.064758300781 1008.08142089844 1001.49096679688 984.13671875 986.082153320312 988.3740234375 994.21533203125 995.5712890625 1002.84606933594 1003.89434814453 996.603149414062 993.791625976562 997.845336914062 987.868835449219 987.531311035156 991.447265625 995.676940917969 997.761352539062 999.531921386719 993.612182617188 992.758850097656 1001.84344482422 1001.23565673828 995.134338378906 994.260681152344 1003.814453125 1011.70587158203 1005.03076171875 1000.98223876953 998.893432617188 993.857971191406 996.623596191406 1005.17706298828 1007.28686523438 1013.96600341797 1015.81402587891 1014.30841064453 1020.55603027344 1015.28887939453 1013.79174804688 1026.84106445312 1025.85083007812 1032.609375 1040.95043945312 1051.79357910156 1067.64880371094 1083.57739257812 1091.93786621094 1094.80725097656 1100.13232421875 1103.70947265625 1107.16943359375 1113.88342285156 1117.67846679688 1124.61120605469 1129.59228515625 1133.83801269531
951.389953613281 950.776123046875 953.579833984375 953.677429199219 958.049438476562 953.810668945312 952.471862792969 961.376770019531 961.770263671875 963.815063476562 966.827514648438 958.668823242188 970.335693359375 970.045166015625 969.636352539062 972.453796386719 977.781799316406 975.468444824219 975.842102050781 969.814697265625 972.178405761719 967.046752929688 962.191528320312 974.303405761719 977.087951660156 965.22509765625 960.833618164062 971.560729980469 971.814086914062 969.841552734375 976.570068359375 985.268432617188 991.44287109375 983.345397949219 980.461547851562 983.821228027344 981.94775390625 984.364013671875 976.64697265625 969.231079101562 965.778198242188 968.618530273438 976.374450683594 966.44287109375 961.577209472656 966.378540039062 973.192749023438 971.928649902344 967.973388671875 970.677551269531 971.505859375 972.289611816406 977.938110351562 972.178344726562 974.837646484375 965.907653808594 956.650329589844 960.810913085938 963.416748046875 967.770629882812 977.658325195312 974.463745117188 980.455261230469 980.373291015625 982.665161132812 972.115783691406 965.7490234375 974.603271484375 972.33447265625 983.517211914062 977.44580078125 971.541870117188 975.160705566406 973.848510742188 980.991333007812 985.564270019531 978.29833984375 984.022033691406 986.345581054688 980.303955078125 987.384948730469 991.153442382812 995.219360351562 984.786010742188 985.970458984375 994.493774414062 1003.66479492188 991.22607421875 990.469360351562 986.719116210938 977.712768554688 978.888793945312 993.069763183594 997.08203125 998.909790039062 991.060485839844 993.309692382812 993.269714355469 994.3720703125 989.517700195312 997.08642578125 1008.20172119141 1003.43414306641 998.421264648438 988.168334960938 989.268676757812 979.392944335938 989.855529785156 990.002075195312 991.724731445312 987.475280761719 990.500671386719 987.774353027344 994.888549804688 998.326171875 1000.72143554688 995.932861328125 992.861022949219 1000.50085449219 1010.76977539062 1001.24761962891 991.998779296875 994.071838378906 994.220397949219 1000.63226318359 1012.03082275391 1009.40924072266 1006.20599365234 1012.94763183594 1014.15789794922 1030.30554199219 1023.56109619141 1020.62310791016 1020.05889892578 1031.63757324219 1034.93737792969 1039.5869140625 1050.79455566406 1073.1435546875 1085.68896484375 1097.35412597656 1104.12133789062 1107.46374511719 1118.84948730469 1107.49230957031 1125.97668457031 1136.27209472656 1135.90551757812 1144.32702636719 1142.2607421875
943.16162109375 945.878173828125 968.296081542969 960.550048828125 955.468627929688 946.450439453125 950.691772460938 948.942077636719 966.687927246094 973.098022460938 971.228149414062 967.239624023438 977.749389648438 971.860656738281 977.328369140625 980.757507324219 978.188781738281 980.796691894531 981.823425292969 977.939086914062 967.120727539062 970.609985351562 971.509399414062 974.279235839844 973.830078125 959.34814453125 962.737060546875 973.56201171875 969.1484375 972.845581054688 978.929260253906 983.458312988281 982.332153320312 987.339172363281 980.916931152344 987.477478027344 982.303344726562 980.715393066406 971.108581542969 964.507385253906 957.003173828125 964.730590820312 965.36474609375 971.398254394531 963.504211425781 968.265625 969.245971679688 965.05712890625 971.436218261719 974.819641113281 973.998291015625 970.559020996094 981.270080566406 973.858032226562 973.980224609375 965.257934570312 971.173828125 967.779846191406 970.17138671875 972.105041503906 970.825622558594 974.046020507812 991.915954589844 992.741516113281 977.618103027344 975.289611816406 965.300415039062 976.642517089844 979.8798828125 984.260803222656 972.525756835938 971.014953613281 975.66162109375 972.096923828125 976.638488769531 971.254760742188 980.555053710938 979.100219726562 989.724914550781 984.981323242188 976.50830078125 988.809143066406 993.642517089844 983.173583984375 988.196044921875 992.948181152344 997.5966796875 988.875183105469 991.966064453125 982.573852539062 973.642395019531 984.019104003906 988.914123535156 993.506713867188 991.239868164062 991.989196777344 991.392517089844 997.943054199219 996.258666992188 994.216674804688 1002.38220214844 1008.74169921875 997.806030273438 990.772155761719 982.697387695312 989.575866699219 984.532104492188 983.660095214844 986.190612792969 986.920227050781 984.6591796875 985.255187988281 988.217651367188 988.759033203125 999.025146484375 996.485412597656 988.345886230469 994.7333984375 1000.10632324219 1000.28216552734 1000.22399902344 987.763732910156 990.2744140625 996.977355957031 999.074035644531 1004.40521240234 1000.44854736328 1011.25927734375 1015.74621582031 1019.65124511719 1030.33117675781 1030.43884277344 1033.6220703125 1027.61743164062 1034.75073242188 1041.20385742188 1048.556640625 1070.68811035156 1078.43139648438 1092.34545898438 1096.93725585938 1106.18969726562 1113.412109375 1117.12414550781 1127.93774414062 1134.6630859375 1145.64697265625 1160.19543457031 1154.48864746094 1160.33117675781
954.187683105469 952.488464355469 957.061584472656 957.144592285156 949.120239257812 948.365478515625 952.491943359375 957.603881835938 966.839172363281 974.187744140625 970.69775390625 967.452453613281 965.45263671875 979.4990234375 973.424194335938 978.115234375 982.158264160156 985.291015625 980.710021972656 982.450317382812 983.4794921875 976.279296875 969.979125976562 962.457458496094 966.239440917969 961.865661621094 962.198059082031 966.619262695312 967.940368652344 976.012817382812 985.957580566406 984.098449707031 985.513671875 989.538635253906 980.29248046875 983.131042480469 977.559631347656 980.96337890625 979.448669433594 966.14306640625 965.511413574219 965.989318847656 969.918151855469 970.158508300781 962.679504394531 968.792297363281 965.028991699219 965.717163085938 971.998474121094 973.416442871094 974.352233886719 977.2001953125 986.619018554688 970.704284667969 966.140991210938 971.917175292969 964.23583984375 973.243591308594 975.346496582031 979.869445800781 979.661743164062 982.427978515625 984.504699707031 990.057312011719 978.223815917969 972.457885742188 971.807312011719 974.342407226562 978.385498046875 986.316955566406 984.646057128906 975.89599609375 967.586853027344 968.741882324219 969.770324707031 970.053100585938 980.183837890625 978.873229980469 983.438842773438 976.121826171875 981.220275878906 974.060852050781 975.294311523438 981.625915527344 988.70458984375 984.824890136719 987.460266113281 988.09814453125 985.133850097656 975.745178222656 978.220886230469 987.26953125 993.346130371094 993.259826660156 1000.14129638672 990.180114746094 993.424987792969 989.707641601562 995.63623046875 998.529052734375 1002.43676757812 992.083068847656 985.566528320312 983.833374023438 980.403015136719 977.655395507812 979.531555175781 983.787719726562 985.310180664062 984.232849121094 994.032775878906 987.725646972656 991.756652832031 986.623901367188 987.369812011719 984.442138671875 994.445739746094 994.5439453125 994.153930664062 994.482116699219 1001.21051025391 992.697143554688 995.950317382812 994.296020507812 1009.60888671875 1012.59216308594 1011.09191894531 1015.03344726562 1017.57849121094 1023.79913330078 1034.26892089844 1037.63098144531 1042.78063964844 1054.49951171875 1048.10754394531 1053.78747558594 1065.31762695312 1080.76818847656 1081.71252441406 1087.23779296875 1100.50463867188 1107.12243652344 1113.97814941406 1122.65991210938 1130.54052734375 1144.359375 1143.5966796875 1159.70043945312 1170.33251953125 1164.21911621094
948.810180664062 949.798217773438 954.223266601562 952.679382324219 953.370727539062 955.766784667969 958.845458984375 955.386901855469 965.237243652344 970.935729980469 968.321044921875 972.443237304688 972.3603515625 967.169677734375 976.709411621094 985.419189453125 977.278564453125 984.007446289062 976.8623046875 984.838134765625 976.182373046875 963.774169921875 971.6767578125 962.293334960938 962.898254394531 958.278137207031 968.883056640625 974.901733398438 985.146057128906 977.0478515625 978.232116699219 978.202270507812 975.139282226562 983.462646484375 971.521423339844 975.133422851562 975.478149414062 976.38916015625 977.308532714844 969.964477539062 967.822570800781 968.717468261719 967.601013183594 969.879577636719 970.330017089844 974.604187011719 970.002197265625 959.57275390625 962.876403808594 976.585632324219 968.054016113281 968.569946289062 979.779663085938 974.505981445312 970.092529296875 966.638305664062 964.494079589844 975.041381835938 976.929931640625 967.971374511719 972.378540039062 976.634948730469 984.099975585938 983.829406738281 973.140686035156 983.019897460938 969.333435058594 970.109313964844 976.007995605469 986.739624023438 977.055786132812 972.959350585938 961.288024902344 953.736145019531 955.377990722656 962.491455078125 974.669616699219 976.392333984375 979.676879882812 974.536254882812 970.927368164062 978.449462890625 981.203552246094 986.873229980469 981.331970214844 985.493347167969 988.666564941406 988.796752929688 983.6123046875 979.208312988281 976.331298828125 981.234497070312 992.61669921875 995.733093261719 986.010986328125 988.820861816406 989.201904296875 987.230529785156 997.55322265625 1000.30725097656 994.861206054688 983.3271484375 981.166198730469 986.317077636719 979.449279785156 974.407958984375 977.108520507812 984.067199707031 982.337097167969 979.1826171875 986.710388183594 991.099243164062 993.81689453125 991.048034667969 998.186096191406 987.718383789062 993.56787109375 999.040100097656 994.033203125 1003.64495849609 1004.46600341797 1005.71624755859 1005.16027832031 1002.38439941406 1003.61627197266 1009.88269042969 1007.22979736328 1014.39996337891 1023.23541259766 1036.27331542969 1035.13635253906 1042.89038085938 1048.96643066406 1050.34228515625 1053.5791015625 1060.06103515625 1065.18176269531 1081.59423828125 1078.34777832031 1086.40515136719 1091.765625 1107.48583984375 1122.28234863281 1125.92175292969 1133.31494140625 1146.98645019531 1158.2080078125 1168.75048828125 1166.66223144531 1168.0712890625
944.1318359375 945.21826171875 951.25634765625 947.794250488281 955.218383789062 960.59130859375 959.637573242188 968.198120117188 969.001098632812 971.873168945312 976.053405761719 970.388793945312 966.454772949219 968.458557128906 973.022033691406 980.121948242188 985.166809082031 983.234497070312 981.881652832031 979.412414550781 972.946716308594 966.336181640625 968.846496582031 966.506652832031 968.762084960938 969.13427734375 975.140869140625 974.426330566406 983.188537597656 983.08251953125 986.44580078125 985.316833496094 981.676879882812 976.970947265625 974.643493652344 965.513366699219 967.483154296875 970.649353027344 967.348571777344 968.474487304688 979.291931152344 980.253723144531 971.753662109375 964.030029296875 965.045959472656 956.871459960938 956.295715332031 960.142333984375 958.958984375 972.755737304688 969.63232421875 968.432189941406 968.199523925781 970.184997558594 965.101623535156 963.144287109375 966.087036132812 974.059936523438 976.9736328125 981.807739257812 975.999633789062 975.000366210938 978.786804199219 972.366821289062 977.005554199219 976.391784667969 972.003295898438 972.7724609375 969.66748046875 971.285583496094 973.366394042969 969.715881347656 958.78955078125 955.498840332031 958.007629394531 971.0009765625 977.269165039062 977.862182617188 967.744018554688 972.57958984375 968.429077148438 976.058837890625 978.201721191406 982.540954589844 984.007690429688 986.228881835938 979.43115234375 988.3134765625 982.029052734375 985.947082519531 986.444580078125 986.415832519531 987.580383300781 989.560852050781 982.566223144531 983.008911132812 985.713623046875 980.0068359375 983.213134765625 991.256591796875 992.459533691406 982.475219726562 977.405029296875 986.461120605469 978.39599609375 980.3642578125 985.589172363281 983.887939453125 986.319763183594 988.838623046875 988.95556640625 997.905029296875 1004.55194091797 1001.63439941406 998.372253417969 1001.02850341797 1003.18731689453 1005.91168212891 1015.59704589844 1009.81207275391 1015.42468261719 1006.55401611328 1007.41723632812 1011.28424072266 1007.96423339844 1013.13848876953 1013.48236083984 1022.36065673828 1044.62268066406 1038.82690429688 1041.06591796875 1041.90673828125 1046.99829101562 1044.28344726562 1049.77587890625 1061.84143066406 1067.9619140625 1078.16479492188 1081.32788085938 1085.80908203125 1094.85107421875 1109.40026855469 1124.88171386719 1127.19250488281 1136.85595703125 1142.53771972656 1158.69250488281 1171.74755859375 1170.62841796875 1165.33178710938
952.12109375 948.810668945312 948.830688476562 959.438903808594 961.448425292969 967.153991699219 961.71435546875 960.100280761719 962.049072265625 974.234802246094 973.767578125 974.901000976562 972.760681152344 961.969177246094 962.427856445312 976.994873046875 979.046081542969 982.487548828125 976.919250488281 981.661804199219 970.189636230469 967.321899414062 966.440246582031 969.597412109375 963.955322265625 970.546020507812 974.731628417969 981.335083007812 978.621215820312 985.126586914062 981.384887695312 984.002380371094 977.569213867188 975.456787109375 974.298950195312 962.051879882812 969.431274414062 969.229125976562 962.252502441406 963.196411132812 980.137451171875 976.559753417969 977.913879394531 970.530639648438 966.275939941406 948.923645019531 949.954162597656 957.500244140625 964.098876953125 968.09619140625 967.572875976562 965.666259765625 974.177612304688 971.491882324219 962.260070800781 968.088134765625 963.926330566406 963.985290527344 976.070434570312 973.885864257812 974.020751953125 967.745239257812 971.118835449219 971.815368652344 961.229370117188 962.497375488281 973.925231933594 975.800048828125 973.700317382812 972.936767578125 967.245483398438 971.668212890625 959.886535644531 965.3720703125 969.473571777344 967.421081542969 970.675109863281 973.566467285156 980.732727050781 974.786315917969 970.504943847656 968.070495605469 975.343444824219 972.842956542969 976.209045410156 978.544799804688 969.579956054688 973.627319335938 980.239318847656 982.032104492188 984.765625 987.065856933594 984.390502929688 987.017395019531 984.795166015625 977.657653808594 977.652709960938 974.442199707031 974.143371582031 977.553405761719 985.670654296875 991.618896484375 983.151733398438 982.10791015625 983.23046875 989.381652832031 984.371154785156 984.887512207031 992.309997558594 988.92724609375 992.576599121094 997.878540039062 997.845275878906 999.936584472656 1007.66162109375 1004.73834228516 1002.01281738281 1010.28851318359 1011.53118896484 1007.77880859375 1016.94482421875 1021.06127929688 1021.59777832031 1019.09539794922 1016.09112548828 1012.89367675781 1017.63110351562 1033.56030273438 1036.5654296875 1039.54663085938 1046.65893554688 1044.16540527344 1036.08703613281 1033.64697265625 1038.998046875 1052.71752929688 1064.35241699219 1075.5390625 1083.11389160156 1089.42565917969 1096.13635253906 1103.57592773438 1115.67529296875 1127.65270996094 1131.89050292969 1142.91662597656 1154.35388183594 1167.56506347656 1173.70239257812 1162.27770996094
950.65771484375 945.506896972656 947.511169433594 947.624816894531 962.756530761719 967.1767578125 959.460998535156 959.855224609375 966.080688476562 956.614685058594 973.054809570312 968.270324707031 961.509765625 957.748046875 968.510925292969 965.825927734375 975.490112304688 976.930908203125 972.779663085938 970.215026855469 966.703063964844 970.862915039062 966.611572265625 962.44384765625 964.787109375 960.866577148438 971.264282226562 969.143920898438 975.388549804688 976.599060058594 973.826721191406 974.254638671875 973.38330078125 974.271240234375 977.384399414062 968.415710449219 970.4189453125 962.753845214844 961.408386230469 964.330322265625 968.473937988281 970.418518066406 969.510498046875 959.65771484375 961.1552734375 954.633422851562 943.875610351562 948.859802246094 958.48779296875 970.03369140625 972.413513183594 967.080261230469 974.312683105469 966.368957519531 961.351318359375 965.492614746094 971.960998535156 972.582824707031 976.161865234375 978.545104980469 968.353515625 966.880310058594 968.782287597656 962.421142578125 967.1474609375 972.15185546875 972.106689453125 967.099914550781 971.763549804688 973.385314941406 969.495849609375 969.546936035156 967.476379394531 970.73486328125 969.893249511719 965.060668945312 971.406982421875 972.019104003906 973.833312988281 964.81982421875 969.349914550781 965.474670410156 971.679809570312 976.074523925781 974.047729492188 974.326110839844 970.574462890625 967.082580566406 974.109008789062 975.996398925781 981.863830566406 986.467163085938 982.996520996094 976.374938964844 979.229125976562 980.457946777344 978.027648925781 974.962524414062 967.316101074219 968.048828125 978.173278808594 986.830200195312 987.68017578125 984.680786132812 987.743347167969 987.397277832031 991.065307617188 997.369262695312 996.462829589844 992.626037597656 994.843566894531 986.98193359375 989.901794433594 995.544494628906 1002.89959716797 1002.07794189453 1006.55493164062 1014.294921875 1017.38000488281 1015.48315429688 1022.89489746094 1023.12878417969 1021.75872802734 1014.91265869141 1022.51318359375 1026.60900878906 1031.35864257812 1035.50744628906 1037.76049804688 1036.66638183594 1044.50085449219 1038.521484375 1044.57470703125 1041.25866699219 1043.70874023438 1055.07507324219 1071.822265625 1090.2314453125 1099.69958496094 1093.86145019531 1104.11083984375 1106.85205078125 1119.68518066406 1130.03100585938 1129.10278320312 1132.96520996094 1145.52941894531 1152.27197265625 1152.74658203125 1150.20690917969
955.783142089844 954.193664550781 953.473999023438 957.450561523438 955.953247070312 962.399108886719 970.003051757812 966.455200195312 971.124755859375 963.768920898438 962.409729003906 959.908996582031 951.999084472656 951.442993164062 962.953247070312 968.322692871094 971.920349121094 975.266052246094 975.823608398438 968.070556640625 968.607788085938 970.712463378906 968.96826171875 973.302307128906 965.414489746094 959.146484375 967.636535644531 964.008605957031 965.986633300781 978.244689941406 972.354858398438 978.372009277344 979.069030761719 976.504699707031 977.122924804688 978.858337402344 971.254516601562 966.50634765625 963.668884277344 964.371643066406 966.903625488281 968.900695800781 963.767639160156 963.4853515625 956.528015136719 964.523376464844 956.724914550781 967.416015625 966.802307128906 972.208374023438 972.528503417969 971.55810546875 966.635681152344 963.298706054688 968.542175292969 967.823059082031 969.8115234375 971.350769042969 974.366577148438 975.455505371094 973.221008300781 967.919738769531 966.162780761719 965.859375 971.266662597656 973.470947265625 971.495178222656 974.283996582031 963.719177246094 964.224609375 965.10693359375 961.828796386719 960.684204101562 965.981994628906 964.050048828125 963.459350585938 968.574096679688 963.301330566406 971.842468261719 972.123840332031 971.000732421875 968.532897949219 975.906433105469 975.719055175781 972.653442382812 973.503723144531 965.595458984375 967.535461425781 967.828308105469 969.968139648438 984.363647460938 983.38623046875 967.732971191406 974.642883300781 977.49560546875 982.09228515625 986.47265625 968.526611328125 963.628845214844 967.408752441406 977.810241699219 980.576293945312 982.6328125 986.496398925781 988.51611328125 993.675415039062 1000.73693847656 994.699157714844 994.290161132812 986.818237304688 985.313720703125 991.99658203125 993.63525390625 995.091064453125 996.359191894531 1000.07531738281 1003.37115478516 1023.63470458984 1025.82019042969 1024.78686523438 1019.09991455078 1025.5078125 1025.146484375 1023.47698974609 1028.54895019531 1032.67333984375 1037.1181640625 1042.51171875 1038.43225097656 1043.76110839844 1052.06982421875 1051.14697265625 1045.83068847656 1049.220703125 1051.1669921875 1069.82958984375 1078.2919921875 1088.6103515625 1092.62939453125 1100.39562988281 1102.30883789062 1104.3369140625 1117.84350585938 1122.60314941406 1123.85302734375 1131.25256347656 1140.41906738281 1136.12768554688 1136.353515625 1129.19665527344
947.234558105469 949.001708984375 958.717956542969 961.25244140625 958.662536621094 961.528259277344 971.595764160156 965.341674804688 963.198181152344 970.915100097656 966.735778808594 961.330200195312 944.204895019531 956.120544433594 964.185852050781 968.284423828125 980.204650878906 976.679382324219 974.563232421875 968.671936035156 968.575866699219 961.48681640625 965.75244140625 968.383361816406 972.169128417969 967.812194824219 961.407958984375 957.386413574219 963.242858886719 969.307312011719 973.382934570312 973.621704101562 974.307800292969 974.659118652344 976.259338378906 972.955627441406 967.847595214844 971.319030761719 961.644836425781 960.407775878906 957.733703613281 963.678833007812 963.7666015625 962.156066894531 959.657348632812 962.825988769531 970.593444824219 968.578308105469 966.709838867188 972.402893066406 969.706359863281 970.212097167969 970.958984375 958.74951171875 966.999145507812 966.957824707031 965.655456542969 971.597839355469 970.746887207031 970.60986328125 967.629821777344 968.033020019531 962.036499023438 968.646057128906 964.215148925781 966.741271972656 973.504821777344 971.579895019531 971.647094726562 960.165283203125 968.783386230469 963.493530273438 958.686584472656 967.357482910156 979.649841308594 968.6396484375 966.097717285156 957.971435546875 962.326782226562 965.726867675781 967.376342773438 974.841003417969 969.962707519531 971.662109375 973.324768066406 971.067810058594 968.091979980469 976.346740722656 970.575134277344 978.90673828125 979.917724609375 985.814086914062 968.411926269531 967.945190429688 969.59521484375 982.70166015625 986.342590332031 974.806457519531 961.597900390625 967.323120117188 967.121276855469 978.645935058594 978.656555175781 987.6416015625 983.390747070312 988.988464355469 993.3828125 998.341796875 994.799499511719 989.340393066406 979.503601074219 985.809814453125 994.210388183594 999.682006835938 995.413818359375 995.711486816406 1003.53637695312 1014.11907958984 1017.92059326172 1021.140625 1029.38659667969 1030.98779296875 1034.01843261719 1033.42443847656 1032.05725097656 1028.65881347656 1035.65209960938 1038.84753417969 1043.26879882812 1044.36975097656 1057.59045410156 1063.10180664062 1056.6826171875 1065.8740234375 1066.79248046875 1070.51098632812 1083.26379394531 1094.92651367188 1094.17138671875 1096.91052246094 1100.53625488281 1102.486328125 1115.06127929688 1114.44641113281 1119.65393066406 1123.13598632812 1138.55493164062 1129.04028320312 1124.03991699219 1118.27478027344
948.4462890625 946.360107421875 952.125671386719 960.182373046875 960.481079101562 971.261596679688 962.940856933594 967.932983398438 966.790649414062 974.754333496094 969.457580566406 969.857299804688 960.866333007812 955.591003417969 968.039367675781 973.475463867188 978.6787109375 979.251831054688 972.844055175781 969.582946777344 967.607788085938 967.763122558594 964.35986328125 958.606079101562 963.34912109375 968.510986328125 962.886291503906 961.961853027344 963.148315429688 973.385986328125 964.206970214844 974.155334472656 983.739685058594 974.503295898438 970.440490722656 973.692932128906 969.100036621094 961.021545410156 959.875366210938 960.456237792969 958.869262695312 960.17041015625 958.968933105469 955.220458984375 953.155883789062 962.139099121094 974.75146484375 983.099060058594 975.492492675781 973.089721679688 976.045715332031 973.057312011719 970.674987792969 969.849792480469 967.366394042969 963.725830078125 967.185485839844 961.502197265625 967.668701171875 970.286987304688 967.246459960938 963.065185546875 970.575134277344 957.016479492188 974.102233886719 969.335205078125 972.259765625 975.714782714844 980.044006347656 971.787292480469 966.257507324219 960.196044921875 963.952697753906 969.533569335938 977.627014160156 972.655090332031 971.135681152344 958.624633789062 956.028015136719 963.361938476562 975.789428710938 977.03515625 977.154418945312 973.160949707031 974.005676269531 970.435729980469 970.486389160156 969.876037597656 967.377746582031 979.9990234375 982.860046386719 978.051147460938 976.047729492188 967.185668945312 976.276000976562 978.815490722656 976.782165527344 975.971496582031 965.840026855469 965.580871582031 966.084411621094 970.279174804688 980.021362304688 984.492370605469 982.997985839844 979.6435546875 991.5224609375 985.502502441406 987.282897949219 980.031311035156 977.180419921875 984.78076171875 996.832092285156 1001.83935546875 996.117431640625 1007.45843505859 1005.83172607422 1010.19409179688 1015.20147705078 1022.84826660156 1029.51513671875 1035.90393066406 1034.47119140625 1039.54052734375 1035.97106933594 1032.27587890625 1026.40087890625 1035.14709472656 1036.12084960938 1049.65161132812 1056.92443847656 1073.14819335938 1073.87451171875 1083.22229003906 1077.61791992188 1078.59094238281 1086.07446289062 1091.77282714844 1094.21813964844 1095.41271972656 1102.86791992188 1093.14050292969 1104.392578125 1115.59838867188 1115.83203125 1122.10949707031 1126.359375 1118.01135253906 1110.13195800781 1100.40979003906
952.192138671875 945.914184570312 951.279907226562 949.146789550781 961.759033203125 968.752746582031 963.558715820312 970.489440917969 972.553466796875 966.559814453125 967.838562011719 973.213134765625 969.600952148438 963.210205078125 976.716430664062 971.74560546875 974.940368652344 975.534545898438 968.933227539062 967.086364746094 980.259460449219 964.930969238281 963.618835449219 959.570373535156 969.242431640625 962.617919921875 960.328796386719 955.733520507812 951.112976074219 965.6240234375 975.804016113281 967.4033203125 977.14208984375 973.481811523438 972.850646972656 976.801208496094 964.343566894531 954.297973632812 959.0068359375 960.003723144531 966.988159179688 965.247009277344 966.48486328125 959.302124023438 958.4453125 970.181762695312 972.376892089844 981.019836425781 970.640747070312 973.647827148438 972.338012695312 974.154174804688 977.403564453125 971.9423828125 965.669189453125 963.495849609375 958.139465332031 957.119018554688 957.804016113281 967.346008300781 961.718933105469 958.981140136719 958.028930664062 963.106628417969 965.376708984375 963.785034179688 969.687622070312 976.113525390625 977.8662109375 973.720886230469 966.235290527344 955.135070800781 961.715148925781 963.436828613281 965.884643554688 974.895324707031 973.261840820312 964.544738769531 965.228332519531 973.474731445312 972.671508789062 975.194213867188 971.0166015625 971.926513671875 976.896484375 970.453979492188 963.18359375 969.050720214844 973.509765625 976.468017578125 981.795593261719 980.168762207031 975.390197753906 968.476684570312 972.3623046875 976.401245117188 969.853698730469 972.254333496094 968.899475097656 961.399841308594 969.969848632812 965.682250976562 973.280578613281 981.435363769531 987.600036621094 984.699096679688 981.934753417969 979.629333496094 981.027648925781 976.526672363281 978.735229492188 988.308837890625 992.57568359375 1000.40844726562 1005.54473876953 1005.49664306641 1000.34912109375 1008.77612304688 1004.56030273438 1021.35290527344 1028.099609375 1027.56799316406 1026.29675292969 1031.06286621094 1029.99255371094 1035.47009277344 1031.40600585938 1038.53662109375 1046.55932617188 1045.28662109375 1055.9462890625 1068.18249511719 1072.26293945312 1080.27062988281 1077.49011230469 1090.63549804688 1098.54028320312 1092.94360351562 1096.03137207031 1091.89782714844 1094.59619140625 1102.32104492188 1094.91186523438 1103.37194824219 1110.84069824219 1117.0595703125 1114.22900390625 1105.39489746094 1097.20922851562 1105.32629394531
952.075073242188 956.491821289062 963.488891601562 966.210205078125 965.138610839844 969.501831054688 973.856689453125 969.24462890625 974.386657714844 970.995361328125 964.415466308594 973.28125 969.914306640625 977.753173828125 980.494934082031 983.489196777344 983.359069824219 978.553955078125 975.951049804688 977.675903320312 976.272094726562 971.940551757812 968.677429199219 965.088806152344 967.934875488281 964.453857421875 952.087707519531 950.365112304688 953.270446777344 962.297302246094 966.020935058594 967.77099609375 974.326416015625 976.588195800781 970.880004882812 975.40576171875 960.76904296875 955.135009765625 956.520751953125 952.707824707031 956.633422851562 957.676086425781 962.90185546875 959.746398925781 962.672485351562 974.157531738281 970.567626953125 977.176086425781 964.589782714844 967.760192871094 974.188293457031 969.672485351562 969.796020507812 967.347534179688 966.597106933594 960.2392578125 955.328552246094 954.387145996094 952.844665527344 951.59130859375 950.456115722656 957.109375 960.083740234375 956.239196777344 958.283752441406 966.228393554688 971.736999511719 972.543579101562 973.610717773438 970.970703125 963.930236816406 963.927429199219 959.71337890625 965.235595703125 966.720703125 969.317138671875 970.295959472656 967.380310058594 967.554016113281 966.361755371094 965.224975585938 972.862731933594 965.618103027344 972.043029785156 969.447021484375 972.486328125 965.992736816406 968.049377441406 976.791259765625 975.268188476562 975.488464355469 974.414794921875 973.05029296875 971.407287597656 973.570190429688 972.801025390625 970.745483398438 970.701965332031 977.503112792969 969.886291503906 969.929443359375 975.886535644531 979.545227050781 984.694885253906 975.655456542969 981.095458984375 972.079406738281 970.647705078125 973.426696777344 977.208801269531 983.277770996094 983.78466796875 994.708740234375 1006.05206298828 1000.73272705078 1002.42425537109 997.556823730469 1002.88568115234 997.261047363281 1012.42041015625 1013.69049072266 1022.93859863281 1022.8994140625 1026.57556152344 1031.24401855469 1027.62744140625 1026.96472167969 1036.13049316406 1049.32043457031 1053.08813476562 1051.97131347656 1059.39306640625 1066.84851074219 1074.42626953125 1086.16455078125 1095.49328613281 1092.56555175781 1092.86022949219 1091.30261230469 1091.77648925781 1095.32214355469 1095.38415527344 1087.67456054688 1093.96142578125 1097.07373046875 1107.00146484375 1102.97058105469 1094.03564453125 1084.34851074219 1085.81774902344
952.621765136719 964.281799316406 971.52490234375 969.942443847656 970.874877929688 974.425048828125 972.924682617188 969.177551269531 979.598388671875 970.428894042969 976.610961914062 976.779357910156 976.641784667969 972.361755371094 982.641235351562 980.288024902344 978.807556152344 970.001831054688 984.561340332031 979.86181640625 979.230163574219 975.1748046875 968.602600097656 963.859130859375 967.9677734375 956.076416015625 960.729248046875 955.584350585938 958.920593261719 971.228759765625 969.867065429688 964.598571777344 970.824768066406 974.344360351562 962.409606933594 973.632690429688 965.061950683594 958.379211425781 955.741577148438 959.701599121094 955.417175292969 958.219055175781 962.846130371094 966.145446777344 962.967529296875 974.107666015625 976.418273925781 969.292358398438 960.359313964844 959.158508300781 957.598266601562 957.007995605469 959.898315429688 961.088745117188 965.157104492188 958.734497070312 957.1259765625 951.730346679688 951.305480957031 953.870544433594 956.781494140625 965.332580566406 965.563659667969 959.1083984375 959.026306152344 960.965454101562 966.666809082031 968.417053222656 962.857849121094 959.755737304688 963.92431640625 963.411987304688 963.652160644531 966.745910644531 968.109436035156 963.6181640625 967.672790527344 961.218505859375 963.025573730469 967.964904785156 974.895080566406 972.709106445312 974.718688964844 972.045593261719 973.306945800781 971.991638183594 963.13134765625 965.901245117188 967.775695800781 971.034545898438 970.423095703125 965.764526367188 968.522583007812 974.21435546875 972.974792480469 971.253051757812 972.50244140625 970.21435546875 973.842468261719 974.35107421875 967.252380371094 976.159301757812 977.302612304688 974.173461914062 980.258178710938 972.295104980469 971.464599609375 967.167297363281 974.839416503906 975.419128417969 976.471435546875 985.066589355469 992.273803710938 998.634155273438 1001.47424316406 997.542724609375 999.680297851562 1002.11322021484 1000.76800537109 1007.03149414062 1008.8701171875 1022.8798828125 1015.5224609375 1023.68884277344 1028.99523925781 1023.3310546875 1035.64599609375 1044.93420410156 1042.82678222656 1048.21704101562 1054.19030761719 1057.76232910156 1055.54956054688 1066.67626953125 1070.69848632812 1085.91259765625 1087.63049316406 1093.75756835938 1095.68969726562 1094.83703613281 1099.45568847656 1095.40905761719 1088.73425292969 1089.73059082031 1093.31262207031 1088.10241699219 1086.29943847656 1085.03479003906 1076.1904296875 1082.27258300781
962.240051269531 967.888305664062 978.9453125 978.05810546875 972.304992675781 972.555114746094 974.607299804688 977.819396972656 978.311340332031 976.0966796875 971.242370605469 971.916381835938 975.245727539062 974.021911621094 975.738220214844 979.097839355469 973.823608398438 966.75390625 974.299560546875 982.6728515625 978.228881835938 974.345458984375 966.610168457031 957.102355957031 962.629577636719 958.839111328125 964.772155761719 956.241455078125 962.573059082031 968.739990234375 963.1201171875 965.551086425781 973.910827636719 970.913391113281 971.872131347656 967.103454589844 965.990295410156 968.972595214844 962.728759765625 957.559387207031 954.654418945312 955.422180175781 958.826721191406 974.989074707031 979.559265136719 973.634399414062 966.496337890625 962.513916015625 960.507141113281 951.4453125 954.800354003906 949.895935058594 954.871398925781 951.61181640625 955.689025878906 960.290710449219 957.366088867188 957.36962890625 956.590515136719 958.114562988281 964.818786621094 958.025756835938 957.741577148438 953.562683105469 953.174194335938 964.417053222656 964.112243652344 959.7412109375 960.142028808594 959.036987304688 966.035095214844 957.751770019531 971.157653808594 964.991516113281 966.749633789062 958.477661132812 964.964660644531 955.470397949219 963.181945800781 972.104919433594 980.8525390625 974.980285644531 972.360961914062 975.919311523438 963.016052246094 964.541870117188 965.067260742188 967.903015136719 961.12255859375 968.985473632812 977.840393066406 971.721130371094 967.330444335938 966.574096679688 975.895629882812 971.120971679688 972.292297363281 969.604736328125 974.958740234375 967.169494628906 966.9443359375 976.462646484375 975.916076660156 970.910766601562 967.142333984375 979.418395996094 974.850708007812 975.202026367188 976.636474609375 978.592834472656 970.645141601562 980.802734375 989.821105957031 1001.85485839844 995.071411132812 999.380432128906 1002.98577880859 1006.34521484375 1011.09533691406 1007.64733886719 1011.53247070312 1013.77880859375 1020.59271240234 1017.76959228516 1017.70501708984 1013.97241210938 1028.61889648438 1031.49951171875 1037.12231445312 1044.20874023438 1048.85717773438 1056.88024902344 1066.21313476562 1078.56384277344 1077.73229980469 1074.73132324219 1089.02990722656 1088.32165527344 1085.30200195312 1096.57861328125 1102.0791015625 1096.25744628906 1085.98388671875 1092.23425292969 1088.30639648438 1084.5234375 1082.21813964844 1075.25415039062 1080.12487792969 1081.62414550781
962.866455078125 966.868591308594 977.838745117188 981.814025878906 972.744201660156 977.130676269531 981.970397949219 982.126403808594 975.572082519531 968.169982910156 969.339477539062 972.21044921875 972.6142578125 971.953247070312 972.260559082031 980.249328613281 983.718994140625 974.686828613281 968.690612792969 974.97314453125 969.141235351562 968.871704101562 965.483581542969 960.24462890625 967.174072265625 960.626098632812 959.103088378906 962.281494140625 958.688171386719 965.325378417969 964.854187011719 958.813781738281 960.879760742188 976.510192871094 972.752258300781 968.605590820312 970.113037109375 963.879638671875 960.159423828125 953.3955078125 947.306396484375 951.321105957031 957.640075683594 964.600708007812 966.980651855469 969.430603027344 963.787902832031 960.331237792969 949.823486328125 953.526245117188 948.195556640625 947.323974609375 949.180358886719 945.899841308594 947.432739257812 957.759338378906 952.802551269531 950.55126953125 954.313232421875 949.510925292969 961.183532714844 959.083435058594 957.278747558594 957.605407714844 967.933227539062 975.114807128906 968.301574707031 961.417358398438 963.031372070312 965.015563964844 963.170837402344 961.574096679688 961.696960449219 964.148620605469 961.016052246094 955.099426269531 962.611389160156 959.902099609375 956.356079101562 970.209594726562 970.809631347656 964.857360839844 963.134887695312 964.640441894531 965.458923339844 974.522705078125 965.670043945312 972.910339355469 971.95849609375 976.287963867188 977.762084960938 969.206787109375 964.081298828125 969.244934082031 970.262634277344 966.419982910156 968.943359375 972.361206054688 977.599365234375 978.297790527344 972.052490234375 968.043334960938 966.995849609375 967.240966796875 969.527160644531 979.328063964844 973.406555175781 981.854736328125 980.725830078125 979.841125488281 977.495727539062 988.535217285156 994.495361328125 1000.33428955078 997.004211425781 995.960327148438 1000.07855224609 1002.05261230469 1006.55358886719 1006.09313964844 1007.02764892578 1006.94281005859 1019.2724609375 1018.70843505859 1012.36950683594 1015.23077392578 1025.00854492188 1024.27600097656 1032.56176757812 1043.53674316406 1055.54138183594 1052.9912109375 1066.96350097656 1074.23132324219 1077.94299316406 1077.90686035156 1090.54846191406 1090.7265625 1095.85278320312 1090.39855957031 1092.84191894531 1095.3994140625 1091.17431640625 1081.15673828125 1084.76684570312 1084.35168457031 1078.26794433594 1084.38305664062 1078.82434082031 1076.93212890625
962.798461914062 963.722595214844 969.613403320312 980.897583007812 978.244323730469 966.928588867188 981.02294921875 982.116394042969 977.950012207031 970.453796386719 973.714965820312 961.050170898438 970.71142578125 966.812438964844 973.403686523438 973.986450195312 971.095886230469 962.135925292969 968.127746582031 969.492431640625 972.120727539062 970.93359375 969.516235351562 964.549499511719 966.490112304688 965.503356933594 950.807800292969 947.966979980469 952.734802246094 958.952941894531 954.583557128906 957.509765625 966.085144042969 968.840270996094 958.904724121094 963.136108398438 967.699951171875 963.121398925781 957.038879394531 955.3798828125 945.304443359375 952.861328125 959.6552734375 960.590698242188 967.589538574219 956.301879882812 953.839538574219 954.543518066406 954.611572265625 948.580749511719 946.351257324219 944.133117675781 933.813415527344 933.056457519531 948.474792480469 950.450500488281 951.975524902344 954.579956054688 957.06982421875 951.20458984375 961.179748535156 961.330749511719 953.168334960938 952.7158203125 957.327697753906 960.718444824219 965.162109375 971.460998535156 966.811218261719 962.020446777344 956.775024414062 956.481140136719 960.470886230469 957.865417480469 956.434631347656 965.292114257812 956.839111328125 956.395141601562 960.207458496094 964.641723632812 958.716491699219 960.48681640625 955.266052246094 964.241333007812 967.73486328125 972.077331542969 974.944396972656 970.286254882812 975.277648925781 976.837768554688 972.424377441406 966.591003417969 964.029296875 968.477355957031 969.96044921875 976.868286132812 968.606079101562 972.936462402344 979.942199707031 979.040832519531 983.849304199219 973.270446777344 969.774597167969 966.526672363281 966.277526855469 969.915344238281 969.375122070312 983.504943847656 991.116577148438 985.516784667969 983.022094726562 995.963195800781 998.842529296875 995.484741210938 1001.50811767578 999.842529296875 1001.82971191406 1003.18194580078 1011.62268066406 1014.09173583984 1018.10400390625 1012.58978271484 1013.07312011719 1012.18109130859 1004.14221191406 1003.19702148438 1014.82086181641 1017.86865234375 1033.0693359375 1039.52294921875 1042.19677734375 1045.69982910156 1053.2900390625 1072.03625488281 1080.39245605469 1089.44250488281 1094.24475097656 1098.35473632812 1090.32885742188 1096.7041015625 1092.24243164062 1086.87097167969 1077.32434082031 1076.15844726562 1077.11657714844 1075.544921875 1082.83508300781 1088.17077636719 1091.15588378906 1079.22119140625
968.666442871094 969.697143554688 979.133666992188 975.306274414062 973.500427246094 971.457885742188 966.734558105469 971.466247558594 972.096801757812 974.380187988281 967.776794433594 964.168212890625 970.552124023438 975.5244140625 963.7119140625 975.330017089844 968.733703613281 965.293273925781 969.892639160156 973.256042480469 973.122924804688 971.163818359375 969.330871582031 969.116577148438 965.624389648438 953.120727539062 954.177551269531 948.117004394531 956.006652832031 954.211547851562 947.83251953125 951.407104492188 953.46923828125 956.642028808594 957.316467285156 962.293518066406 962.542236328125 960.116882324219 953.209106445312 949.155395507812 945.701599121094 951.861999511719 951.045043945312 955.034057617188 955.141784667969 959.084289550781 952.399230957031 947.16259765625 946.533203125 936.539367675781 944.655883789062 941.250549316406 939.870666503906 944.901123046875 950.552062988281 948.074035644531 945.982543945312 953.265991210938 960.577941894531 965.868469238281 955.608825683594 955.789245605469 960.705993652344 955.492797851562 956.767211914062 955.239074707031 958.041198730469 969.569152832031 977.500305175781 975.56591796875 965.972351074219 953.36669921875 953.623107910156 954.442199707031 955.309753417969 961.852783203125 961.369873046875 962.076049804688 963.297424316406 967.055053710938 960.72509765625 963.611206054688 963.14013671875 968.185241699219 965.090270996094 970.229431152344 973.853698730469 973.936645507812 977.31689453125 971.892272949219 974.412048339844 968.158569335938 963.3837890625 969.502502441406 974.272827148438 974.344055175781 970.524291992188 970.371643066406 976.378356933594 984.490234375 978.951843261719 973.875610351562 969.151550292969 967.90234375 973.143249511719 968.79833984375 968.937866210938 989.911071777344 1001.17700195312 996.556945800781 986.041076660156 981.138366699219 982.230651855469 988.430480957031 995.964233398438 1003.86437988281 998.3564453125 1000.12524414062 1007.4189453125 1008.33032226562 1013.83294677734 1019.40270996094 1012.31695556641 1010.1171875 1008.044921875 1011.00732421875 1014.50103759766 1020.71081542969 1034.27954101562 1028.09362792969 1042.47351074219 1047.93591308594 1055.07446289062 1071.28344726562 1076.30114746094 1082.69360351562 1093.51513671875 1091.45043945312 1086.33715820312 1081.85607910156 1086.396484375 1077.03930664062 1070.67626953125 1058.26489257812 1070.1357421875 1069.1865234375 1077.38757324219 1084.73120117188 1083.02673339844 1071.47998046875
967.841430664062 974.359497070312 973.087585449219 967.796997070312 972.248901367188 975.092407226562 969.725952148438 968.654418945312 968.8310546875 975.955200195312 965.341857910156 961.724182128906 971.285278320312 970.364135742188 965.534423828125 969.795959472656 975.645629882812 969.573120117188 971.216857910156 969.421142578125 969.138000488281 971.913146972656 960.143432617188 959.662902832031 963.039733886719 963.2685546875 951.59619140625 948.953796386719 944.855895996094 949.346374511719 952.0537109375 968.326538085938 958.330749511719 950.558166503906 956.668090820312 954.939819335938 957.354431152344 954.7451171875 952.393310546875 955.831115722656 948.430541992188 952.21533203125 959.725708007812 955.922607421875 962.805053710938 945.881591796875 939.8359375 947.962341308594 954.118591308594 951.224243164062 949.266357421875 940.317626953125 943.947692871094 942.734252929688 952.025817871094 951.347351074219 954.268859863281 951.352844238281 954.787292480469 961.526733398438 957.33154296875 955.164672851562 959.828735351562 957.0498046875 953.322570800781 952.541198730469 959.520629882812 970.41162109375 969.804321289062 967.346435546875 961.7080078125 961.9619140625 956.636108398438 964.401245117188 960.256286621094 956.270446777344 966.893981933594 972.033874511719 962.035400390625 962.791748046875 968.724548339844 962.7197265625 967.740966796875 973.435791015625 968.420166015625 969.383666992188 966.904296875 968.7373046875 972.325988769531 972.195983886719 976.450378417969 964.902404785156 971.091430664062 982.841857910156 976.543762207031 978.637756347656 970.423034667969 978.78662109375 981.513427734375 983.1123046875 980.736755371094 975.092224121094 974.065979003906 967.0966796875 978.469177246094 989.972412109375 980.299377441406 985.8974609375 992.942443847656 987.962219238281 985.238220214844 989.245483398438 989.282775878906 996.397766113281 998.659057617188 994.763427734375 997.226440429688 1002.77301025391 1007.22534179688 1015.86987304688 1006.96697998047 1009.70538330078 1008.13201904297 997.943237304688 1005.17150878906 1008.40106201172 1010.54150390625 1020.62725830078 1035.14270019531 1035.82995605469 1037.77661132812 1048.52319335938 1061.02404785156 1064.93347167969 1067.60437011719 1088.20483398438 1095.45690917969 1092.98425292969 1090.60095214844 1075.046875 1076.00268554688 1065.21545410156 1051.03234863281 1051.79113769531 1055.85009765625 1061.42016601562 1066.9716796875 1067.69714355469 1067.67077636719 1072.20617675781
970.038635253906 969.214721679688 971.32666015625 972.382202148438 976.090942382812 968.499694824219 975.266174316406 968.96923828125 969.117370605469 962.6953125 955.765319824219 962.228332519531 971.584838867188 966.043579101562 966.039978027344 961.745300292969 966.620727539062 960.107299804688 969.615600585938 962.663757324219 960.744140625 960.836608886719 956.210754394531 962.260559082031 961.620178222656 951.920837402344 952.758911132812 952.477416992188 952.1376953125 953.3642578125 951.422241210938 950.995422363281 946.337280273438 937.806030273438 943.782653808594 944.134948730469 950.821044921875 953.264099121094 949.542236328125 950.349853515625 956.74609375 960.152709960938 958.536254882812 968.083923339844 960.088134765625 950.750061035156 946.520690917969 960.398254394531 953.485656738281 950.950256347656 948.411560058594 953.4248046875 943.465148925781 943.55419921875 960.970092773438 955.256896972656 956.770812988281 959.935363769531 956.59765625 957.926025390625 955.267822265625 956.839538574219 966.932983398438 962.051879882812 955.25 962.088256835938 963.891052246094 967.587768554688 960.660217285156 966.140808105469 954.518127441406 956.594543457031 954.888000488281 953.270690917969 961.497863769531 963.052124023438 969.568054199219 961.860107421875 962.9248046875 964.832397460938 964.8017578125 968.806457519531 961.568237304688 966.213989257812 962.80810546875 968.954223632812 967.66259765625 967.583374023438 962.917175292969 964.498352050781 960.819641113281 969.636779785156 969.448669433594 973.4755859375 973.625366210938 975.188354492188 975.833740234375 977.3955078125 981.426208496094 979.255554199219 976.985595703125 971.982421875 980.719421386719 978.703369140625 980.743896484375 977.570068359375 983.910705566406 982.732543945312 980.441589355469 989.229797363281 991.215515136719 1006.91888427734 1008.71905517578 999.688598632812 996.95263671875 995.360595703125 998.568664550781 999.34423828125 1002.31756591797 1010.51513671875 1006.13018798828 1006.1220703125 1000.40496826172 996.911376953125 1000.5419921875 1009.80676269531 1005.978515625 1027.10473632812 1039.17016601562 1037.04235839844 1042.10498046875 1051.18469238281 1063.78759765625 1058.24157714844 1065.4814453125 1079.7294921875 1088.20849609375 1090.56359863281 1084.759765625 1068.78369140625 1063.54919433594 1053.46630859375 1038.98181152344 1033.77282714844 1043.72900390625 1052.04553222656 1049.17309570312 1053.84680175781 1055.5068359375 1052.48962402344
961.408813476562 977.487060546875 973.182495117188 970.557678222656 970.444885253906 964.653747558594 962.374938964844 965.175659179688 968.489440917969 963.550598144531 960.433044433594 953.962097167969 960.081420898438 963.382568359375 971.204406738281 968.513732910156 959.60986328125 960.872741699219 956.455993652344 951.623046875 954.410034179688 955.783020019531 956.683532714844 954.586669921875 942.95361328125 945.698608398438 951.204956054688 945.960693359375 952.76611328125 947.749145507812 946.295043945312 948.494995117188 945.62890625 939.1142578125 941.549499511719 944.978881835938 947.734680175781 947.619079589844 942.532775878906 944.256530761719 947.22412109375 956.513366699219 960.626342773438 966.582214355469 967.793701171875 951.767517089844 950.498962402344 957.840454101562 953.649841308594 946.336791992188 946.586181640625 947.270874023438 957.617126464844 952.031799316406 959.485717773438 958.973571777344 960.528869628906 968.149597167969 961.054138183594 965.584289550781 952.841003417969 957.745727539062 961.150085449219 959.733825683594 964.837585449219 965.093444824219 964.137756347656 964.839294433594 959.772705078125 958.017517089844 957.590393066406 955.887145996094 958.891235351562 960.623779296875 963.887634277344 967.907897949219 966.963500976562 967.688293457031 965.647705078125 965.675964355469 967.921508789062 970.814453125 966.894958496094 962.202270507812 965.334533691406 963.600952148438 963.844360351562 959.2119140625 956.940246582031 957.452026367188 959.067749023438 969.83544921875 972.927612304688 964.037658691406 971.956237792969 978.377502441406 979.531066894531 979.366638183594 974.779846191406 974.243835449219 971.576599121094 977.376770019531 981.256774902344 980.845947265625 979.336669921875 975.79638671875 985.252746582031 988.378784179688 987.517395019531 990.972595214844 1000.12768554688 999.005920410156 1008.14141845703 1007.40869140625 1004.86804199219 1000.24139404297 1004.75738525391 1006.60290527344 1000.53295898438 1001.50170898438 1001.15014648438 1001.95977783203 1000.55682373047 1001.58245849609 1005.43450927734 1016.52160644531 1012.39758300781 1024.39953613281 1031.73278808594 1040.095703125 1048.72399902344 1053.548828125 1055.44494628906 1060.89038085938 1064.07141113281 1069.41040039062 1079.10217285156 1078.55773925781 1081.39221191406 1073.7109375 1059.55688476562 1041.86437988281 1033.35681152344 1026.58264160156 1042.48107910156 1044.83447265625 1044.69580078125 1044.72619628906 1049.85144042969 1053.69128417969
951.306396484375 959.199645996094 969.431579589844 969.659790039062 966.649169921875 968.88427734375 965.656677246094 964.721130371094 965.186889648438 961.996948242188 961.472045898438 959.9091796875 954.357727050781 967.450317382812 968.57421875 964.797485351562 953.276428222656 953.177795410156 954.466979980469 949.311157226562 941.93798828125 944.790283203125 950.160400390625 953.375915527344 946.852478027344 945.421264648438 952.231872558594 947.974243164062 949.901123046875 948.94873046875 946.144897460938 946.2080078125 948.410888671875 943.521362304688 943.125183105469 942.541442871094 942.361877441406 947.833801269531 957.176330566406 950.092651367188 952.0205078125 956.309631347656 965.425720214844 952.669982910156 951.982604980469 945.684020996094 944.405517578125 953.204772949219 956.112609863281 949.301452636719 945.941711425781 945.694519042969 945.43212890625 957.820617675781 959.280151367188 958.842651367188 963.036254882812 964.004577636719 954.911560058594 956.91015625 952.335632324219 958.306762695312 960.557861328125 964.943176269531 968.256469726562 970.339233398438 962.731750488281 964.731201171875 960.910766601562 966.521911621094 961.407348632812 957.031433105469 962.382690429688 967.466796875 969.603759765625 971.736083984375 969.114318847656 969.001953125 968.586486816406 966.433776855469 971.340026855469 974.216064453125 978.270568847656 980.290161132812 962.675720214844 961.881286621094 974.89990234375 961.742248535156 968.151062011719 963.698364257812 961.720336914062 961.3515625 964.2392578125 971.157531738281 972.087463378906 974.239624023438 975.016967773438 975.3212890625 972.666381835938 973.517639160156 975.851989746094 978.319885253906 979.015197753906 985.70849609375 980.641479492188 979.129577636719 990.853759765625 998.783630371094 998.578063964844 1001.14672851562 998.111633300781 997.331359863281 1005.72125244141 1016.62670898438 1007.71417236328 1011.25396728516 1000.45794677734 997.671447753906 1010.66864013672 1005.3203125 1001.19921875 1001.01354980469 1004.59039306641 1001.77569580078 1006.27075195312 1016.55456542969 1014.68634033203 1021.96667480469 1026.720703125 1033.28979492188 1037.69665527344 1051.17138671875 1055.49291992188 1052.34448242188 1056.22180175781 1058.75512695312 1080.05822753906 1077.19116210938 1071.71740722656 1059.37194824219 1058.59045410156 1039.55541992188 1031.22424316406 1031.91711425781 1043.37329101562 1058.92687988281 1051.78588867188 1048.51110839844 1049.36755371094 1048.46252441406
952.667846679688 954.68408203125 968.446594238281 965.956420898438 965.664672851562 964.206237792969 967.804077148438 975.06201171875 964.538757324219 958.993225097656 959.60302734375 957.501953125 960.767150878906 962.48828125 961.179626464844 952.734497070312 952.331481933594 958.836059570312 951.944152832031 943.430297851562 939.910278320312 939.435974121094 942.063903808594 949.394287109375 940.56201171875 948.681579589844 948.73779296875 950.992126464844 955.525756835938 946.690002441406 947.975891113281 952.191223144531 951.748718261719 949.615417480469 944.942993164062 944.416320800781 946.653991699219 946.4541015625 956.077270507812 950.318176269531 956.711364746094 955.346923828125 959.04541015625 950.824890136719 946.459594726562 945.775939941406 945.723815917969 950.054809570312 956.287048339844 958.091430664062 957.740478515625 951.921508789062 961.614501953125 957.909790039062 962.635620117188 956.164367675781 966.889892578125 967.834350585938 958.164306640625 962.588806152344 960.14794921875 966.154357910156 972.088317871094 968.189025878906 974.166320800781 964.152221679688 958.595947265625 953.036499023438 962.032165527344 963.393737792969 969.333984375 963.568359375 971.915161132812 971.671508789062 972.908203125 973.822143554688 973.257080078125 971.820617675781 972.639038085938 966.789916992188 976.316955566406 976.841003417969 980.912963867188 976.826354980469 971.996276855469 970.358642578125 976.211059570312 968.262573242188 966.557312011719 965.123291015625 964.699890136719 960.002685546875 970.481506347656 970.944763183594 970.939208984375 973.53515625 970.422241210938 966.183410644531 976.744384765625 982.175964355469 980.60302734375 985.31591796875 976.736694335938 984.706420898438 983.217468261719 988.434814453125 994.695983886719 1002.86053466797 1007.95086669922 1005.97021484375 1007.94207763672 1002.11511230469 1007.24353027344 1018.64953613281 1016.96081542969 1006.47625732422 1013.86639404297 998.171752929688 1004.60406494141 1012.93280029297 1007.49615478516 1007.69555664062 1007.82794189453 1015.07012939453 1007.83923339844 1015.08050537109 1025.4931640625 1032.46960449219 1033.56188964844 1032.96301269531 1038.22827148438 1033.45935058594 1041.8115234375 1045.60375976562 1045.51611328125 1058.64245605469 1064.57470703125 1064.44689941406 1061.4111328125 1055.09973144531 1053.38513183594 1038.32287597656 1034.26477050781 1041.40368652344 1044.47180175781 1052.45397949219 1054.52917480469 1048.32263183594 1052.18688964844 1040.28942871094
950.865539550781 957.699035644531 963.307373046875 961.235961914062 962.346252441406 965.510498046875 964.67919921875 965.298950195312 961.340148925781 956.5361328125 955.428588867188 949.099731445312 963.868896484375 966.525085449219 964.657165527344 955.866882324219 954.895446777344 946.966796875 944.187683105469 948.321594238281 935.755187988281 926.025512695312 942.394104003906 945.012756347656 939.412658691406 954.339477539062 947.626525878906 962.390319824219 959.095825195312 952.134765625 952.248291015625 957.040222167969 948.744689941406 950.197021484375 951.953430175781 942.266479492188 948.282592773438 950.5615234375 952.38671875 950.946716308594 961.088806152344 957.418762207031 950.339599609375 959.008544921875 952.177917480469 944.968811035156 952.9931640625 942.47412109375 956.810424804688 963.572265625 965.0234375 959.519653320312 954.501403808594 959.829040527344 959.439758300781 957.208374023438 967.319152832031 965.776123046875 961.65673828125 965.670593261719 961.216857910156 967.697448730469 971.496948242188 976.864868164062 976.656555175781 967.821105957031 961.750061035156 963.458740234375 966.161193847656 966.25439453125 965.027099609375 969.53076171875 970.399230957031 967.427856445312 966.959106445312 971.116333007812 968.604370117188 971.88525390625 963.731140136719 968.920532226562 969.814086914062 982.057983398438 983.79833984375 985.603698730469 978.013061523438 972.945190429688 969.615783691406 976.592651367188 972.514404296875 972.517150878906 969.740417480469 970.292846679688 963.800659179688 971.495361328125 974.663696289062 970.207641601562 967.867065429688 961.632873535156 967.919006347656 983.301818847656 982.224365234375 982.878662109375 980.201232910156 979.163879394531 979.210021972656 988.803771972656 1001.51092529297 1004.72857666016 1009.77551269531 1014.14666748047 1009.59478759766 1009.57781982422 1014.01910400391 1024.27087402344 1023.76995849609 1014.96722412109 1010.11773681641 1002.95989990234 1011.73553466797 1019.17150878906 1021.65368652344 1015.93444824219 1015.21325683594 1005.00146484375 1010.80517578125 1008.28271484375 1015.98889160156 1027.64282226562 1036.64294433594 1037.17016601562 1041.52783203125 1035.05615234375 1032.72033691406 1034.42724609375 1038.68005371094 1058.83618164062 1055.67102050781 1056.10083007812 1052.67041015625 1052.232421875 1049.12341308594 1044.04943847656 1033.50805664062 1036.73999023438 1033.83764648438 1036.12487792969 1041.75048828125 1041.95715332031 1050.56567382812 1040.92846679688
957.69140625 955.429931640625 963.499450683594 959.019836425781 953.256103515625 959.876342773438 955.834167480469 960.232788085938 955.092834472656 954.856994628906 956.943237304688 951.008056640625 956.489501953125 956.265014648438 955.593078613281 947.442687988281 954.938293457031 950.020812988281 941.473937988281 940.014404296875 939.871887207031 936.071472167969 940.844421386719 935.111267089844 941.43505859375 940.904113769531 954.32763671875 953.374084472656 955.418029785156 953.0068359375 950.976379394531 952.123291015625 951.927551269531 956.750244140625 954.827880859375 952.343322753906 953.809448242188 955.743041992188 955.245544433594 957.6572265625 961.447387695312 956.415466308594 948.58740234375 960.875427246094 960.962463378906 955.305053710938 953.695068359375 954.717041015625 954.088073730469 957.081970214844 965.59765625 966.393493652344 964.258422851562 956.614196777344 963.015380859375 957.556030273438 966.26708984375 970.843078613281 969.966064453125 964.772094726562 965.648559570312 962.1767578125 967.851318359375 967.90087890625 973.849365234375 972.987182617188 964.028747558594 975.672180175781 976.950988769531 978.035827636719 969.053405761719 972.35546875 971.35009765625 967.987915039062 961.667053222656 966.659851074219 964.536987304688 967.262084960938 967.026245117188 968.761901855469 969.45556640625 971.626281738281 979.794067382812 978.429138183594 975.919616699219 982.682250976562 979.426452636719 977.780212402344 976.064086914062 975.235961914062 967.01171875 966.775512695312 967.419067382812 973.403625488281 973.359924316406 969.730834960938 969.35693359375 970.59033203125 970.114196777344 981.490173339844 981.128967285156 980.060180664062 973.228271484375 976.815307617188 985.650695800781 994.954040527344 1003.08312988281 1009.35052490234 1012.12744140625 1017.09564208984 1014.92858886719 1011.87530517578 1023.91485595703 1026.09326171875 1033.61279296875 1021.16174316406 1012.12219238281 1008.49169921875 1007.15710449219 1018.85809326172 1023.88879394531 1012.28979492188 1008.49914550781 1006.01928710938 1001.55120849609 1012.26885986328 1020.32012939453 1031.7958984375 1038.2900390625 1033.71789550781 1024.64770507812 1028.01086425781 1028.42736816406 1025.98364257812 1042.76696777344 1051.87719726562 1047.88952636719 1049.04406738281 1044.81298828125 1046.26293945312 1045.39318847656 1037.09704589844 1033.92822265625 1021.44055175781 1028.06286621094 1024.50903320312 1024.74145507812 1022.20953369141 1026.17687988281 1028.3193359375
955.266906738281 951.700866699219 957.158325195312 955.05908203125 949.025329589844 955.197570800781 949.171020507812 955.988098144531 958.519348144531 955.753845214844 951.866821289062 952.888671875 954.962219238281 947.583374023438 953.187622070312 945.077575683594 940.5185546875 944.124206542969 933.312255859375 938.531433105469 939.841735839844 940.3212890625 940.309265136719 943.895141601562 942.386413574219 938.403015136719 947.750915527344 948.978393554688 953.306945800781 944.494750976562 940.947265625 949.184631347656 953.641418457031 952.906799316406 951.366943359375 947.166687011719 948.795959472656 953.459411621094 960.439147949219 962.666870117188 963.327514648438 959.782592773438 957.560974121094 961.334228515625 958.312683105469 969.442321777344 970.005920410156 972.225341796875 960.361450195312 959.015075683594 964.939880371094 961.070495605469 961.782470703125 972.330322265625 963.401428222656 968.187866210938 971.525085449219 971.356567382812 962.57763671875 972.636352539062 966.465942382812 965.870300292969 963.793518066406 963.843688964844 963.302062988281 968.245971679688 967.117858886719 968.401428222656 973.838195800781 974.243286132812 973.755981445312 968.193481445312 973.741149902344 967.553344726562 962.842346191406 963.935241699219 967.088928222656 966.784057617188 969.949951171875 972.496215820312 968.88427734375 974.915222167969 980.703674316406 982.7412109375 981.699462890625 981.797424316406 979.728698730469 974.9931640625 974.766052246094 975.263061523438 960.9365234375 963.7705078125 975.203063964844 973.765930175781 979.4873046875 980.948059082031 979.407409667969 981.486389160156 995.121154785156 990.7421875 996.682189941406 993.912353515625 983.582946777344 984.680847167969 992.288269042969 1006.23986816406 1006.33233642578 1012.79376220703 1012.31359863281 1018.19317626953 1026.22424316406 1021.65405273438 1026.15063476562 1027.64562988281 1032.5283203125 1026.48986816406 1023.81457519531 1015.80352783203 1014.76953125 1024.58752441406 1031.04736328125 1024.56176757812 1016.80834960938 1021.10705566406 1025.8212890625 1019.45336914062 1028.30822753906 1031.97534179688 1036.81213378906 1034.04943847656 1027.04809570312 1019.34991455078 1015.55786132812 1030.06811523438 1031.203125 1042.35827636719 1040.28735351562 1047.36889648438 1049.58581542969 1046.7421875 1042.70849609375 1029.80920410156 1019.36206054688 1021.74713134766 1020.70135498047 1015.25872802734 1004.32336425781 1008.64923095703 1014.10070800781 1030.78820800781
957.398254394531 951.966918945312 959.417175292969 959.790954589844 957.351623535156 953.088317871094 952.515319824219 950.711547851562 951.275207519531 949.466735839844 942.618347167969 944.832336425781 942.812622070312 944.394897460938 945.102722167969 943.461608886719 940.620422363281 937.582153320312 935.487243652344 940.828369140625 943.002685546875 940.715942382812 949.240966796875 950.286193847656 942.208129882812 944.439392089844 946.336120605469 939.031921386719 938.400451660156 936.573486328125 944.294128417969 942.989501953125 940.708129882812 946.077819824219 949.549621582031 949.078308105469 953.242919921875 955.072509765625 961.03857421875 964.602966308594 958.998229980469 956.526000976562 964.917724609375 959.238342285156 961.116455078125 973.230895996094 975.2734375 968.026184082031 967.293212890625 966.267883300781 967.118286132812 971.934448242188 969.138061523438 971.472961425781 964.775634765625 974.984252929688 978.047790527344 968.028503417969 969.265869140625 970.728576660156 973.0107421875 968.288452148438 964.377258300781 966.554870605469 963.818359375 965.653625488281 957.1787109375 968.729125976562 974.602661132812 970.761108398438 965.626525878906 974.449645996094 976.622192382812 979.405334472656 975.492736816406 966.535278320312 971.297546386719 969.128234863281 969.12060546875 976.663879394531 980.52587890625 982.767517089844 974.96337890625 977.496704101562 979.890563964844 983.666687011719 987.124450683594 974.101013183594 971.818359375 965.681213378906 957.952209472656 969.013732910156 975.93408203125 980.029541015625 982.699645996094 981.443054199219 974.4248046875 983.486755371094 993.997192382812 994.635681152344 991.653137207031 991.661193847656 1002.20623779297 994.285827636719 995.422546386719 1003.99102783203 1007.74914550781 1011.28283691406 1011.11602783203 1015.16662597656 1022.29351806641 1018.68493652344 1020.52093505859 1018.92346191406 1030.15124511719 1026.78833007812 1021.78344726562 1018.17041015625 1021.04669189453 1033.73901367188 1030.99230957031 1037.150390625 1029.580078125 1029.09594726562 1030.30615234375 1035.73388671875 1038.23132324219 1037.40661621094 1031.77893066406 1028.14233398438 1024.90588378906 1019.2470703125 1020.47436523438 1028.15161132812 1026.7939453125 1034.33032226562 1042.13269042969 1042.24389648438 1050.16857910156 1040.65783691406 1026.90551757812 1027.41931152344 1009.99548339844 1020.06292724609 1009.10986328125 1011.75433349609 1008.14739990234 1003.73187255859 1009.76214599609 1015.38995361328
964.100280761719 955.835632324219 960.9140625 960.533996582031 961.229675292969 956.493041992188 947.5595703125 948.062194824219 945.864074707031 936.499816894531 936.656982421875 948.77587890625 943.4521484375 945.3427734375 943.306884765625 947.902893066406 949.664367675781 943.363403320312 946.845581054688 957.616638183594 948.456298828125 947.327331542969 941.782531738281 944.162780761719 938.167724609375 943.477233886719 949.159851074219 950.962890625 945.571533203125 942.654418945312 943.497009277344 946.673950195312 940.628234863281 942.171875 948.339904785156 950.693176269531 963.560607910156 965.5595703125 963.234741210938 966.409484863281 961.034790039062 956.366271972656 972.148986816406 968.507446289062 968.548583984375 972.708251953125 968.756225585938 972.090576171875 968.313781738281 972.007446289062 971.458618164062 977.820983886719 981.473266601562 980.026916503906 972.904479980469 972.497924804688 966.925415039062 969.671020507812 967.082214355469 971.012573242188 976.201416015625 971.354858398438 966.799194335938 968.966613769531 966.359802246094 965.903442382812 966.4599609375 967.281921386719 970.320373535156 979.119689941406 982.911804199219 977.702575683594 976.439453125 977.19384765625 974.941528320312 977.613159179688 973.768005371094 976.010192871094 972.109191894531 968.860290527344 983.30908203125 984.325073242188 980.905944824219 980.368041992188 982.970153808594 985.62841796875 990.80126953125 979.817443847656 971.294616699219 964.08447265625 962.895202636719 964.052001953125 984.336608886719 991.304748535156 986.94970703125 993.033203125 990.963928222656 990.808349609375 998.161376953125 1001.00476074219 994.817993164062 988.346374511719 994.934387207031 996.622192382812 1008.09643554688 998.96875 1001.23962402344 1001.12951660156 1001.904296875 1011.62274169922 1015.25091552734 1014.88317871094 1011.90838623047 1015.72595214844 1024.18237304688 1026.49682617188 1022.1630859375 1022.43054199219 1019.98699951172 1034.94641113281 1041.42639160156 1039.21740722656 1037.62866210938 1036.61279296875 1046.59802246094 1042.3359375 1033.1376953125 1032.02856445312 1028.29724121094 1022.34918212891 1011.54254150391 1015.35632324219 1015.70281982422 1016.46380615234 1018.32952880859 1031.15307617188 1038.76953125 1040.30297851562 1038.22216796875 1041.68139648438 1027.30541992188 1020.35675048828 1007.97540283203 1012.84716796875 1009.84466552734 1007.73773193359 1004.99719238281 1006.44897460938 1011.33392333984 1017.21722412109
965.235656738281 953.710754394531 962.909484863281 953.125549316406 953.631774902344 953.873413085938 944.253601074219 938.609619140625 932.583251953125 932.024719238281 938.813537597656 946.0537109375 949.445556640625 947.167785644531 954.009216308594 957.572631835938 949.758422851562 952.231262207031 952.0947265625 961.165466308594 949.96875 945.690307617188 948.098266601562 949.424987792969 944.322875976562 951.145141601562 959.990905761719 954.955932617188 944.332275390625 951.031677246094 952.140686035156 941.779663085938 943.296813964844 952.626525878906 949.220336914062 948.053466796875 966.167602539062 972.011352539062 969.250549316406 970.837280273438 968.119140625 969.151245117188 968.685485839844 965.007934570312 967.728759765625 973.603393554688 975.276672363281 977.485900878906 976.74462890625 975.891723632812 980.714782714844 976.440368652344 979.036987304688 978.280700683594 977.8779296875 972.897705078125 969.8125 966.539428710938 974.00634765625 966.666625976562 972.690734863281 973.078491210938 971.159790039062 968.090637207031 976.493103027344 964.299377441406 972.372680664062 972.760009765625 975.199890136719 974.781494140625 984.401794433594 978.678161621094 965.852905273438 977.806457519531 978.00390625 981.722229003906 982.657836914062 973.514038085938 975.96533203125 977.892517089844 983.170959472656 987.557495117188 987.829467773438 983.326904296875 986.803466796875 992.086791992188 984.660217285156 979.645141601562 976.295166015625 972.307922363281 967.796691894531 981.081970214844 977.458923339844 990.205627441406 992.181091308594 989.994750976562 984.640991210938 993.039916992188 991.203857421875 990.424987792969 993.969665527344 995.727294921875 992.737060546875 997.469848632812 992.093444824219 994.413818359375 1002.85662841797 1004.32537841797 1014.8125 1010.84283447266 1012.74212646484 1019.21112060547 1014.93811035156 1010.40728759766 1026.14392089844 1024.84606933594 1029.705078125 1030.16809082031 1027.48620605469 1035.89660644531 1040.27905273438 1044.36010742188 1035.35632324219 1040.09167480469 1041.51440429688 1047.37731933594 1037.39184570312 1025.60168457031 1015.71630859375 1014.61151123047 1013.12451171875 1005.13311767578 999.168212890625 1009.38806152344 1016.37921142578 1018.52862548828 1029.50988769531 1022.90808105469 1023.06695556641 1028.03442382812 1022.06921386719 1015.72607421875 1004.35247802734 1001.55700683594 1009.45788574219 1010.54241943359 1002.66107177734 1003.94250488281 1010.44708251953 1010.24676513672
962.391479492188 956.391662597656 954.030517578125 953.134216308594 946.359436035156 944.042724609375 945.505615234375 936.228881835938 930.372253417969 943.830688476562 942.106506347656 943.389404296875 936.367919921875 958.794738769531 960.806274414062 952.447021484375 952.500244140625 951.88916015625 955.889831542969 957.147155761719 952.830139160156 952.557800292969 944.610717773438 948.533630371094 943.909912109375 948.602600097656 953.169067382812 953.875366210938 950.11865234375 948.031860351562 944.867309570312 950.924438476562 954.347045898438 952.244934082031 955.757202148438 948.583740234375 958.751525878906 974.30126953125 964.142395019531 966.890747070312 967.847045898438 971.714538574219 966.616577148438 971.327514648438 980.179016113281 978.82763671875 981.399841308594 986.762817382812 983.23876953125 985.806335449219 987.30078125 982.042602539062 978.677001953125 979.409118652344 976.34521484375 960.913146972656 964.509582519531 957.425048828125 965.495056152344 966.838684082031 964.749267578125 979.290588378906 974.040283203125 975.109741210938 968.49755859375 969.473083496094 977.221008300781 968.744750976562 978.958679199219 975.383605957031 977.269470214844 976.849975585938 980.03076171875 985.017822265625 982.697570800781 972.824523925781 976.050476074219 972.708557128906 975.043273925781 985.334106445312 986.313781738281 986.46240234375 982.239074707031 984.823120117188 988.42333984375 988.393005371094 990.472106933594 980.77685546875 976.984130859375 972.717651367188 967.73583984375 983.118835449219 983.435485839844 989.137451171875 988.904479980469 990.545166015625 989.867492675781 992.950866699219 991.845031738281 994.223693847656 987.169982910156 992.312866210938 1000.15533447266 998.551635742188 993.303771972656 995.99560546875 1001.06280517578 1003.56256103516 1013.30120849609 1007.31176757812 1008.38531494141 1012.3017578125 1010.31799316406 1018.08892822266 1019.60589599609 1024.56652832031 1035.513671875 1035.76647949219 1046.69055175781 1047.96472167969 1039.48059082031 1043.21813964844 1044.33422851562 1039.2041015625 1045.9951171875 1042.84130859375 1033.39038085938 1020.84680175781 1016.04437255859 1017.28106689453 1012.37017822266 1009.90344238281 999.210144042969 1005.64172363281 1009.97058105469 1026.83581542969 1019.92926025391 1011.34576416016 1015.31689453125 1024.11071777344 1017.33966064453 1015.21313476562 1003.28796386719 1004.04974365234 1005.57440185547 1007.60229492188 1012.45874023438 1011.94885253906 1007.47192382812 1010.63836669922
962.570678710938 949.003784179688 955.848876953125 952.486022949219 949.111450195312 945.862915039062 940.180847167969 938.442932128906 933.986267089844 939.419128417969 941.00439453125 948.620239257812 943.219970703125 948.119079589844 954.570007324219 958.11328125 955.293212890625 956.734619140625 958.421447753906 958.1357421875 956.050109863281 951.804260253906 944.044311523438 948.566711425781 959.238403320312 961.278930664062 953.100280761719 947.684387207031 940.937438964844 949.232055664062 945.826965332031 957.585021972656 952.945678710938 956.751342773438 951.41259765625 955.153076171875 966.093688964844 973.056640625 968.0810546875 970.558349609375 969.902465820312 966.625427246094 969.685363769531 974.948547363281 977.0498046875 979.082153320312 984.466430664062 987.58251953125 995.489868164062 986.35498046875 983.336486816406 992.893615722656 982.327819824219 981.680847167969 973.137756347656 966.116027832031 958.528442382812 963.074096679688 961.82421875 966.622619628906 965.924682617188 969.703979492188 968.089660644531 964.294677734375 964.634826660156 971.384460449219 968.97998046875 972.258056640625 966.64599609375 972.767456054688 979.788330078125 974.076965332031 980.63623046875 981.863891601562 988.063781738281 985.403869628906 980.249267578125 972.921875 988.336242675781 981.416198730469 990.224426269531 997.109252929688 994.670043945312 992.075134277344 984.482788085938 985.349914550781 985.826354980469 980.157775878906 979.044250488281 971.006652832031 973.695068359375 977.183776855469 984.970886230469 988.090270996094 992.693359375 991.60595703125 991.642211914062 987.238891601562 989.773986816406 986.500427246094 995.232177734375 996.048767089844 1005.19842529297 992.485778808594 991.018493652344 998.824951171875 1008.70855712891 1015.82080078125 1013.1875 1007.78350830078 1013.17108154297 1002.8603515625 1017.08093261719 1022.09051513672 1023.40692138672 1029.53149414062 1035.50695800781 1044.29284667969 1052.48364257812 1047.42504882812 1045.86218261719 1036.73864746094 1041.54943847656 1038.76916503906 1038.41247558594 1026.81420898438 1031.19946289062 1028.28771972656 1020.48760986328 1020.18585205078 1017.18310546875 1015.97955322266 1012.9765625 1017.79595947266 1014.69390869141 1026.06823730469 1023.5107421875 1018.47338867188 1015.32318115234 1022.8955078125 1020.02697753906 999.856506347656 1003.76104736328 1004.72637939453 999.754699707031 999.14208984375 1001.10119628906 1004.78350830078 1006.00366210938 1003.50915527344
