NCOLS 150
NROWS 37
XLLCORNER 7394249
YLLCORNER 4843469
CELLSIZE 30
NODATA_VALUE -9999
986.335388183594 992.569519042969 991.778442382812 987.065002441406 985.51708984375 993.042541503906 988.095703125 991.567810058594 984.008056640625 983.044250488281 976.784240722656 978.457397460938 972.592102050781 968.87353515625 978.549499511719 983.392028808594 993.038635253906 1000.79150390625 997.035400390625 991.729187011719 978.660522460938 980.460083007812 986.320556640625 987.653442382812 992.046997070312 987.850219726562 998.615295410156 989.088928222656 999.871337890625 1005.6787109375 1007.08636474609 1010.67797851562 1022.27545166016 1030.73376464844 1026.2451171875 1024.31042480469 1022.51910400391 1034.3857421875 1040.95544433594 1040.46313476562 1032.53942871094 1040.61804199219 1030.27685546875 1029.966796875 1029.57751464844 1021.98858642578 1013.73803710938 1019.87103271484 1012.53564453125 1014.28094482422 1005.96484375 1019.31793212891 1021.76525878906 1012.05462646484 1018.87591552734 1017.77984619141 1022.18109130859 1015.44110107422 1019.47528076172 1020.99127197266 1020.14880371094 1026.77209472656 1034.69860839844 1030.17248535156 1022.44580078125 1016.03021240234 1019.42150878906 1016.5859375 1007.52362060547 998.226745605469 995.791137695312 996.49951171875 1003.06988525391 1010.16552734375 1017.69744873047 1022.34924316406 1019.75805664062 1033.08251953125 1030.376953125 1033.57250976562 1027.33508300781 1032.15551757812 1022.51751708984 1015.30529785156 1016.93603515625 1016.64074707031 994.631164550781 988.584716796875 982.427124023438 967.308349609375 957.520629882812 948.744323730469 944.167297363281 946.804077148438 940.757141113281 938.368835449219 951.3271484375 949.595520019531 950.284362792969 964.069885253906 963.372253417969 962.727722167969 966.797485351562 961.668518066406 955.139099121094 947.961486816406 958.084716796875 957.802673339844 972.624267578125 961.66748046875 952.693664550781 938.844299316406 934.775207519531 921.83251953125 915.29638671875 910.10546875 906.896240234375 921.998046875 921.363464355469 935.238525390625 954.882934570312 956.296936035156 961.001098632812 967.39404296875 978.533386230469 982.80615234375 992.872192382812 992.891845703125 1005.55224609375 1012.95648193359 1018.45068359375 1027.32141113281 1035.32458496094 1054.01110839844 1061.3056640625 1055.42431640625 1066.36193847656 1063.01110839844 1077.06018066406 1081.29272460938 1091.42321777344 1101.93237304688 1099.27026367188 1110.44091796875 1110.17517089844 1105.99890136719 1114.30859375 1111.23156738281 1108.16027832031 1118.48645019531
987.485229492188 980.545288085938 986.595458984375 986.221435546875 986.249938964844 993.911254882812 989.209228515625 983.650207519531 989.57861328125 985.388793945312 976.473388671875 968.751403808594 973.106018066406 971.975158691406 981.430969238281 983.002502441406 987.15380859375 988.925842285156 987.018493652344 979.828002929688 978.003173828125 984.215270996094 986.318115234375 984.916931152344 993.602294921875 993.468627929688 998.867431640625 995.669067382812 1005.97064208984 1015.19616699219 1027.66296386719 1023.57257080078 1034.57629394531 1030.84558105469 1022.93072509766 1035.22387695312 1041.02355957031 1046.03234863281 1041.06896972656 1044.07348632812 1038.49829101562 1036.29919433594 1033.86071777344 1036.248046875 1026.39135742188 1028.17248535156 1025.55810546875 1019.27130126953 1012.07550048828 1011.78088378906 1017.24066162109 1018.27587890625 1016.94781494141 1017.73907470703 1020.35913085938 1019.10321044922 1019.06781005859 1020.04321289062 1022.83795166016 1021.40850830078 1015.69018554688 1022.29724121094 1033.61633300781 1024.25537109375 1023.96203613281 1020.10595703125 1019.34338378906 1024.39978027344 1017.61871337891 1007.595703125 1002.91247558594 1000.21270751953 1016.31433105469 1008.59802246094 1023.55651855469 1030.1533203125 1024.05432128906 1031.73645019531 1035.6357421875 1040.27685546875 1040.84973144531 1028.32678222656 1026.64953613281 1024.94689941406 1016.07043457031 1008.98596191406 992.255859375 985.768981933594 976.284545898438 973.806335449219 954.832336425781 943.841064453125 938.0791015625 946.160766601562 944.743896484375 955.352233886719 960.000427246094 960.12841796875 964.562438964844 965.274597167969 962.688171386719 960.310485839844 971.868713378906 964.708129882812 964.456970214844 961.181396484375 957.058166503906 973.719482421875 979.737609863281 973.439392089844 958.066589355469 951.25732421875 936.2294921875 930.180969238281 925.153198242188 923.820922851562 916.525024414062 916.72900390625 924.868469238281 930.982849121094 949.772338867188 969.3837890625 966.417663574219 973.987365722656 979.978271484375 989.36572265625 992.6572265625 992.445983886719 1001.49829101562 1015.06628417969 1027.15747070312 1037.64868164062 1043.06213378906 1061.10021972656 1068.44580078125 1059.28833007812 1061.23876953125 1059.67785644531 1073.76196289062 1081.93408203125 1089.35046386719 1094.83276367188 1105.21997070312 1107.4013671875 1108.23229980469 1106.41003417969 1112.43395996094 1121.07275390625 1113.39221191406 1119.92687988281
976.560791015625 982.705688476562 983.596984863281 989.313415527344 994.930419921875 980.427734375 988.482421875 979.317687988281 983.373596191406 973.43994140625 970.6650390625 965.647644042969 964.296875 963.432373046875 973.221435546875 983.998596191406 978.973754882812 980.091125488281 974.099853515625 978.546142578125 978.055725097656 990.911865234375 991.271301269531 995.615295410156 994.197570800781 1002.78143310547 996.637573242188 1008.14916992188 1018.45086669922 1025.4775390625 1027.38452148438 1022.70080566406 1027.10278320312 1036.08850097656 1024.18823242188 1029.76440429688 1035.974609375 1042.77258300781 1044.97314453125 1038.01818847656 1037.47814941406 1040.53015136719 1032.74401855469 1035.37145996094 1036.25134277344 1036.27526855469 1035.02978515625 1021.75268554688 1022.53491210938 1014.7265625 1016.02032470703 1016.11572265625 1018.17108154297 1026.07751464844 1022.21643066406 1014.96752929688 1013.49633789062 1009.31365966797 1021.38244628906 1017.14367675781 1020.90124511719 1026.34045410156 1030.357421875 1024.57067871094 1021.486328125 1024.74035644531 1017.14636230469 1017.28387451172 1021.96136474609 1013.65106201172 1018.20556640625 1017.31170654297 1017.01702880859 1014.138671875 1022.48645019531 1028.20764160156 1026.66467285156 1036.3544921875 1032.87939453125 1034.18884277344 1029.08203125 1035.76989746094 1019.57818603516 1023.64141845703 1016.5107421875 1005.1044921875 991.583312988281 985.17626953125 986.967895507812 980.536804199219 964.3994140625 956.27294921875 948.091918945312 950.300537109375 954.265991210938 953.321594238281 948.877258300781 967.75732421875 978.757507324219 975.711059570312 980.03173828125 976.40380859375 977.471496582031 972.037719726562 974.105895996094 971.707397460938 967.263549804688 983.807678222656 975.583251953125 976.786071777344 966.936340332031 955.735717773438 937.4208984375 930.6796875 926.299194335938 922.210266113281 921.113464355469 922.298034667969 931.309143066406 933.552551269531 945.872253417969 969.549377441406 971.647583007812 969.445434570312 979.270874023438 992.080261230469 996.909057617188 997.951477050781 1010.36743164062 1019.69372558594 1030.02258300781 1039.318359375 1038.96875 1055.61694335938 1057.45654296875 1056.69995117188 1062.15759277344 1060.28247070312 1075.40771484375 1074.39929199219 1087.25341796875 1092.57287597656 1093.75695800781 1106.43908691406 1098.78149414062 1107.02697753906 1112.18762207031 1123.22326660156 1109.16076660156 1116.84301757812
971.61962890625 983.913818359375 982.253173828125 977.958435058594 985.382507324219 988.742248535156 980.781921386719 981.284851074219 983.786560058594 983.783752441406 970.535949707031 965.891418457031 964.647338867188 969.677185058594 978.538757324219 977.904113769531 980.209655761719 971.659790039062 978.435363769531 976.836486816406 983.611999511719 983.605041503906 989.44775390625 999.373291015625 998.562805175781 1002.23162841797 1004.34680175781 1007.65679931641 1018.55749511719 1023.8203125 1028.39086914062 1023.44635009766 1018.17175292969 1026.09289550781 1031.32788085938 1040.75524902344 1040.49926757812 1038.55383300781 1046.00537109375 1045.30017089844 1044.064453125 1039.91125488281 1042.80114746094 1045.92102050781 1034.35217285156 1024.70520019531 1023.83569335938 1011.24890136719 1012.51818847656 1009.15637207031 1011.75988769531 1018.95007324219 1017.24932861328 1012.92077636719 1017.92553710938 1018.22698974609 1007.90264892578 1013.12213134766 1016.82153320312 1019.33471679688 1019.41528320312 1024.39514160156 1023.32135009766 1028.974609375 1026.68566894531 1021.71575927734 1019.88684082031 1020.93658447266 1031.06945800781 1023.62335205078 1028.94189453125 1022.94665527344 1024.99621582031 1010.09411621094 1018.96435546875 1020.94055175781 1023.00622558594 1029.16015625 1031.98352050781 1032.28637695312 1025.03942871094 1031.57019042969 1020.41857910156 1017.98138427734 1011.81671142578 994.040649414062 989.270812988281 985.432067871094 983.555236816406 988.898010253906 976.9091796875 977.397399902344 974.1416015625 967.693664550781 972.045715332031 973.019897460938 967.53369140625 965.492553710938 975.491394042969 979.471374511719 984.640563964844 985.40478515625 976.394836425781 982.4482421875 982.107238769531 976.807495117188 977.783996582031 974.160705566406 976.548400878906 972.892944335938 976.322021484375 964.547973632812 943.714416503906 930.580383300781 934.076049804688 927.089904785156 931.912292480469 925.936767578125 934.067687988281 934.578430175781 949.112243652344 956.560729980469 961.351928710938 968.024597167969 988.38037109375 989.478271484375 1001.77600097656 1014.18969726562 1012.71490478516 1028.26501464844 1038.61047363281 1044.00915527344 1041.18664550781 1046.55651855469 1055.87426757812 1065.33068847656 1064.74450683594 1062.08959960938 1078.06323242188 1082.71301269531 1089.25085449219 1089.69750976562 1089.64123535156 1093.97131347656 1090.24743652344 1101.017578125 1109.79943847656 1113.40441894531 1113.16223144531 1111.65710449219
973.149108886719 974.651916503906 971.163208007812 972.565063476562 980.509460449219 977.527160644531 973.623229980469 985.4580078125 984.048522949219 988.4541015625 979.234436035156 972.745056152344 967.00537109375 977.701110839844 969.135681152344 982.696411132812 975.062438964844 968.85009765625 975.256896972656 971.933898925781 977.012878417969 976.572387695312 981.364624023438 993.735046386719 992.601257324219 995.614318847656 992.660766601562 1007.73712158203 1004.82257080078 1023.1640625 1025.19848632812 1027.71691894531 1015.38775634766 1012.16931152344 1023.16192626953 1039.42724609375 1042.11901855469 1043.67175292969 1042.66455078125 1045.287109375 1037.22875976562 1042.59851074219 1051.89111328125 1036.61706542969 1036.59240722656 1016.92822265625 1012.8076171875 1002.91882324219 1004.53771972656 1002.01257324219 1014.36486816406 1008.37579345703 1011.61065673828 1006.94458007812 1001.85083007812 1012.88079833984 1012.48565673828 1016.23944091797 1016.21453857422 1017.75567626953 1020.42504882812 1025.30627441406 1015.6220703125 1029.24096679688 1030.00939941406 1029.18237304688 1014.51403808594 1020.46673583984 1030.63635253906 1023.29504394531 1030.92639160156 1022.53051757812 1021.96929931641 1021.17828369141 1035.14050292969 1026.89221191406 1025.37670898438 1036.96374511719 1034.54064941406 1028.63671875 1029.87976074219 1026.50451660156 1016.97595214844 1018.08062744141 1008.91278076172 1009.15051269531 994.155151367188 982.378295898438 989.853637695312 992.694885253906 990.523254394531 1002.06298828125 994.532836914062 988.544372558594 984.875732421875 986.238220214844 982.031372070312 980.79248046875 988.50439453125 994.1513671875 984.293518066406 990.777465820312 988.633483886719 993.490783691406 984.448547363281 982.316284179688 971.883911132812 978.467956542969 978.187316894531 974.167724609375 961.175903320312 962.492126464844 949.679931640625 942.224731445312 938.92919921875 929.002136230469 931.594787597656 936.495971679688 941.17919921875 947.903991699219 955.041015625 965.2841796875 974.738891601562 982.829162597656 982.989868164062 994.547302246094 1000.66864013672 1015.73699951172 1016.46734619141 1031.62036132812 1039.13452148438 1046.89208984375 1055.03076171875 1051.67736816406 1051.92883300781 1059.02978515625 1070.37780761719 1069.11254882812 1076.21618652344 1079.98022460938 1084.31079101562 1088.02270507812 1086.46252441406 1082.88598632812 1092.73522949219 1102.552734375 1105.42907714844 1109.68688964844 1112.68249511719 1109.83410644531
968.848815917969 972.682495117188 961.197937011719 958.752868652344 969.427612304688 970.931335449219 972.083190917969 982.0439453125 983.76220703125 993.032348632812 973.107482910156 975.638610839844 967.505737304688 964.877624511719 969.583251953125 966.730407714844 961.716430664062 973.841552734375 968.480712890625 976.888732910156 971.454650878906 972.279663085938 982.082397460938 985.506408691406 987.88671875 994.257385253906 1002.51977539062 1010.59967041016 1014.66351318359 1021.32153320312 1019.53210449219 1022.841796875 1022.63104248047 1022.21441650391 1021.42059326172 1026.548828125 1037.76794433594 1038.59338378906 1044.46960449219 1038.51196289062 1038.17639160156 1041.32348632812 1037.36987304688 1037.14575195312 1028.05126953125 1007.27136230469 1008.47003173828 1009.16381835938 1015.35546875 1013.04327392578 1004.69616699219 1007.00671386719 1004.99072265625 1002.93298339844 1002.93981933594 1007.80078125 1015.83288574219 1015.47637939453 1020.52233886719 1017.95288085938 1023.89324951172 1022.775390625 1016.77886962891 1017.59149169922 1027.333984375 1030.73278808594 1026.525390625 1022.64013671875 1028.13562011719 1025.25183105469 1021.28277587891 1023.10357666016 1028.3935546875 1031.99133300781 1033.81066894531 1037.65441894531 1027.87365722656 1034.06481933594 1034.97009277344 1029.00378417969 1021.96362304688 1019.10223388672 1018.00231933594 1021.13763427734 1014.26086425781 1011.12060546875 1001.70477294922 998.892883300781 1001.11114501953 1005.28826904297 1010.12994384766 1010.626953125 1007.75616455078 998.941284179688 997.386108398438 991.554321289062 992.830444335938 998.892395019531 998.648986816406 1002.72967529297 1002.86614990234 995.684387207031 995.632568359375 989.640197753906 991.868225097656 983.248413085938 980.600402832031 978.522705078125 976.990783691406 974.235412597656 963.626281738281 964.990112304688 948.755493164062 940.290222167969 943.806091308594 934.68994140625 929.417175292969 938.127502441406 944.63232421875 949.1318359375 954.584777832031 973.404663085938 990.579223632812 998.233642578125 994.365417480469 999.085083007812 1013.23376464844 1023.07354736328 1030.27307128906 1041.40576171875 1050.64221191406 1054.27099609375 1056.85876464844 1054.30773925781 1058.22131347656 1054.97204589844 1061.35400390625 1062.82824707031 1059.58935546875 1072.99865722656 1079.21069335938 1084.92565917969 1086.73767089844 1088.36218261719 1088.66650390625 1098.60546875 1109.68786621094 1104.55944824219 1104.74780273438 1110.23022460938
967.851257324219 963.783020019531 955.095642089844 958.278198242188 959.095397949219 962.064758300781 964.468627929688 962.353576660156 977.972839355469 985.144165039062 976.500183105469 969.547912597656 965.594177246094 962.437377929688 960.787475585938 959.855773925781 960.265563964844 969.030700683594 960.963256835938 963.8134765625 972.507141113281 974.643859863281 982.291198730469 994.257507324219 989.23828125 995.394287109375 1000.85888671875 1005.80224609375 1005.81823730469 1017.44372558594 1012.68292236328 1013.12176513672 1015.42755126953 1017.06488037109 1019.75756835938 1025.37646484375 1032.88671875 1029.11657714844 1030.41760253906 1042.54602050781 1037.87329101562 1038.84436035156 1035.447265625 1029.66870117188 1023.75244140625 1007.57940673828 1006.79296875 1013.31335449219 1015.63043212891 1008.89764404297 1008.63549804688 998.596374511719 1003.84271240234 1007.92016601562 1010.92156982422 1007.19268798828 1008.76800537109 1006.00964355469 1013.37506103516 1017.17974853516 1020.84509277344 1015.60229492188 1009.9736328125 1019.89990234375 1027.89428710938 1032.39404296875 1024.54370117188 1016.81634521484 1023.36944580078 1026.38293457031 1024.52502441406 1028.18286132812 1030.11608886719 1034.18615722656 1019.06646728516 1019.13177490234 1020.21746826172 1025.07409667969 1027.55346679688 1017.80786132812 1012.591796875 1010.80792236328 1016.15472412109 1017.86389160156 1022.51849365234 1020.83386230469 1020.46130371094 1006.47540283203 1007.49108886719 1013.50244140625 1019.40423583984 1010.88342285156 1005.29565429688 1005.83587646484 1006.53393554688 1000.20758056641 1006.3408203125 1001.45007324219 992.925415039062 990.431457519531 997.369995117188 997.900817871094 990.339233398438 994.04443359375 996.714538574219 989.097534179688 983.939208984375 973.145446777344 968.112670898438 972.341918945312 966.035583496094 958.670166015625 952.768493652344 947.625610351562 938.614440917969 937.680603027344 928.552795410156 934.926208496094 940.492919921875 952.505798339844 965.045104980469 981.408203125 996.815368652344 1006.73461914062 1006.89739990234 1003.55157470703 1013.20880126953 1026.18908691406 1028.02258300781 1043.95275878906 1048.7939453125 1064.39294433594 1071.47009277344 1059.01843261719 1058.52380371094 1053.06945800781 1059.28088378906 1064.30920410156 1064.51599121094 1076.19018554688 1077.25073242188 1085.71911621094 1089.62512207031 1091.26318359375 1088.99084472656 1100.99206542969 1101.62963867188 1104.86853027344 1108.41625976562 1110.61657714844
962.038391113281 954.754516601562 959.379821777344 950.659301757812 952.342529296875 955.234252929688 953.769775390625 959.633728027344 971.335327148438 969.652404785156 967.86865234375 959.7314453125 968.055297851562 954.418518066406 959.258422851562 966.045043945312 972.404968261719 966.278503417969 950.227783203125 960.399047851562 975.28515625 985.625854492188 990.261474609375 992.844177246094 992.948486328125 996.417663574219 998.466613769531 1004.93994140625 1002.43371582031 1011.76092529297 1003.16479492188 1011.31427001953 1019.19598388672 1018.58673095703 1019.36505126953 1022.92565917969 1039.41564941406 1032.65368652344 1033.52978515625 1032.51611328125 1032.10668945312 1035.02282714844 1040.09973144531 1026.22680664062 1023.95458984375 1014.12579345703 1012.05249023438 1010.21649169922 1006.95812988281 997.93017578125 1000.91088867188 989.268371582031 994.371948242188 996.946350097656 1007.75341796875 1003.30163574219 1000.70635986328 1003.734375 1010.67376708984 1009.98596191406 1015.69665527344 1019.62548828125 1016.18817138672 1022.51025390625 1023.57568359375 1019.50860595703 1025.20642089844 1016.42572021484 1024.78601074219 1020.00970458984 1021.31970214844 1024.74438476562 1020.61437988281 1024.93859863281 1014.46423339844 1019.91839599609 1018.16357421875 1017.52282714844 1019.17901611328 1013.70660400391 1007.17608642578 1011.94970703125 1015.33282470703 1009.19830322266 1022.82122802734 1027.49011230469 1025.44702148438 1005.32550048828 1006.24072265625 1019.57342529297 1019.85363769531 1015.32574462891 1012.38580322266 1020.46185302734 1022.32733154297 1017.42987060547 1015.63983154297 1005.40692138672 1002.94805908203 1006.02575683594 1004.84240722656 1008.73010253906 1001.33422851562 990.19482421875 995.238342285156 989.896240234375 990.966674804688 980.679565429688 978.797241210938 968.091613769531 963.483642578125 953.652526855469 951.112365722656 947.827087402344 948.71142578125 942.155029296875 937.716064453125 939.898315429688 944.127014160156 957.260986328125 978.136413574219 984.672424316406 994.920654296875 1011.54132080078 1017.58605957031 1015.90704345703 1025.16662597656 1022.48724365234 1025.2880859375 1037.70593261719 1053.70922851562 1062.78625488281 1065.44921875 1056.7978515625 1058.83825683594 1058.02478027344 1050.15405273438 1058.71630859375 1061.23559570312 1068.18835449219 1072.61828613281 1073.41467285156 1086.0224609375 1091.64807128906 1082.3056640625 1090.34008789062 1096.75524902344 1106.82653808594 1112.03552246094 1115.13391113281
951.112121582031 951.30224609375 949.776123046875 946.370727539062 951.403442382812 942.401672363281 945.060302734375 953.6103515625 963.662902832031 963.399291992188 961.6064453125 954.650756835938 955.367980957031 963.871215820312 960.647155761719 965.296813964844 969.673156738281 971.68017578125 962.9609375 961.480102539062 973.661743164062 985.276184082031 989.056213378906 993.674438476562 1002.43463134766 999.537170410156 1000.82855224609 997.456909179688 1003.80926513672 998.002502441406 1002.13287353516 1013.54937744141 1011.67352294922 1010.03643798828 1005.01550292969 1024.81335449219 1023.11657714844 1029.27661132812 1033.35961914062 1031.49890136719 1029.74060058594 1023.33868408203 1024.38342285156 1025.42102050781 1021.45526123047 1021.08355712891 1003.15673828125 1008.23986816406 1006.41015625 1003.16906738281 995.084045410156 996.147094726562 994.383361816406 994.547729492188 996.619506835938 1004.03741455078 1012.04229736328 1002.96441650391 1010.64819335938 1009.70446777344 1010.77502441406 1010.64855957031 1008.57269287109 1020.171875 1024.12658691406 1022.24652099609 1022.75872802734 1018.60479736328 1013.98999023438 1022.02947998047 1015.32556152344 1016.17889404297 1014.62847900391 1013.02825927734 1011.15173339844 1005.80316162109 1013.46771240234 1017.34204101562 1012.46081542969 1004.55163574219 1003.00079345703 1007.78741455078 1010.63079833984 1001.15808105469 1009.11584472656 1014.34136962891 1010.99432373047 1009.88098144531 1008.33178710938 1018.26300048828 1025.67053222656 1015.60510253906 1012.85638427734 1017.16839599609 1021.97814941406 1026.99694824219 1012.97216796875 1015.50421142578 1011.02142333984 1011.03942871094 1017.89868164062 1015.603515625 1003.85284423828 997.790344238281 997.975524902344 993.514282226562 1003.32537841797 988.096923828125 983.461853027344 975.361694335938 964.564514160156 965.11083984375 951.438781738281 947.422973632812 946.379516601562 949.838989257812 948.086669921875 946.974609375 954.366271972656 960.594970703125 969.955078125 983.119445800781 1000.38891601562 1019.12646484375 1028.26171875 1029.02172851562 1028.63854980469 1025.75354003906 1038.41906738281 1048.09655761719 1054.697265625 1052.89306640625 1054.53186035156 1052.72253417969 1055.86779785156 1050.03088378906 1051.26037597656 1055.95471191406 1057.22802734375 1062.92114257812 1065.201171875 1072.72033691406 1087.41918945312 1092.57702636719 1088.77331542969 1083.55627441406 1093.92749023438 1101.73229980469 1116.74365234375 1117.220703125
951.148620605469 950.559020996094 945.976135253906 944.724609375 946.922607421875 941.698181152344 942.947814941406 947.711059570312 949.661743164062 962.859924316406 961.458129882812 947.959777832031 956.921142578125 962.157775878906 962.843566894531 960.391418457031 961.330139160156 963.527160644531 963.806213378906 967.072937011719 973.12353515625 986.69921875 984.570129394531 990.35546875 988.45361328125 1002.34350585938 1006.93597412109 1004.64154052734 1007.98205566406 1004.41027832031 997.826721191406 1006.26373291016 1011.71154785156 1012.20190429688 1015.46691894531 1011.69091796875 1016.40533447266 1016.70556640625 1021.25634765625 1022.98828125 1031.54125976562 1022.23693847656 1019.33422851562 1020.33465576172 1031.30688476562 1017.65618896484 1015.08160400391 1015.40563964844 1004.97357177734 989.399047851562 992.871215820312 989.641662597656 989.6552734375 998.941040039062 1011.95739746094 1008.28308105469 1008.06597900391 1005.04333496094 1005.16387939453 1000.00335693359 1009.67462158203 1002.34851074219 1000.94445800781 1011.62744140625 1020.22314453125 1027.08203125 1021.18218994141 1016.39630126953 1013.38537597656 1012.09149169922 1017.85784912109 1007.10064697266 1012.53698730469 1017.14758300781 1015.41949462891 999.024475097656 1001.65521240234 1007.34997558594 1014.30487060547 1005.39813232422 1008.33837890625 1008.06317138672 999.605285644531 1000.55194091797 1008.60906982422 1010.560546875 1012.29968261719 1007.52947998047 1012.43603515625 1018.97772216797 1020.77752685547 1017.55926513672 1010.27478027344 1017.98638916016 1027.08361816406 1035.32543945312 1024.65270996094 1013.62438964844 1009.13952636719 1009.29010009766 1013.91302490234 1007.90179443359 1005.99011230469 1002.96069335938 1009.61590576172 1007.27282714844 1006.57604980469 995.869201660156 991.607604980469 977.203308105469 958.320007324219 960.94580078125 950.406677246094 945.476928710938 946.087890625 951.572021484375 949.465454101562 958.171203613281 963.72900390625 978.84765625 980.140991210938 988.453369140625 1001.51892089844 1014.11175537109 1029.62182617188 1035.86767578125 1033.76525878906 1034.50512695312 1034.85546875 1051.44372558594 1052.34545898438 1037.18493652344 1049.63903808594 1057.24499511719 1047.45788574219 1048.42272949219 1048.72717285156 1056.708984375 1062.25622558594 1064.49426269531 1076.34741210938 1081.8662109375 1078.64013671875 1092.27661132812 1087.11462402344 1076.84240722656 1093.77612304688 1107.75927734375 1105.88415527344 1112.19152832031
949.118835449219 939.145812988281 941.921447753906 937.254272460938 944.102478027344 938.255187988281 938.526489257812 957.748901367188 952.003295898438 959.636474609375 958.612182617188 956.721740722656 955.496643066406 967.363647460938 971.602355957031 969.001647949219 969.682800292969 970.534423828125 965.766540527344 968.285583496094 981.682434082031 986.196594238281 982.64990234375 987.561218261719 984.882934570312 996.012756347656 1010.40979003906 1002.89703369141 1005.07073974609 1004.98962402344 1002.96527099609 1008.15423583984 1009.10180664062 1011.36602783203 1016.58416748047 1021.75250244141 1019.50445556641 1021.32177734375 1011.65209960938 1014.02709960938 1013.67370605469 1011.02532958984 1011.36639404297 1023.37933349609 1026.15124511719 1016.66564941406 1016.17877197266 1012.42395019531 1010.83483886719 995.462280273438 988.481994628906 987.450439453125 994.806457519531 997.1513671875 998.550231933594 1001.15246582031 1002.88250732422 1000.56646728516 996.382202148438 990.908081054688 1005.66333007812 1007.34796142578 1002.72143554688 1011.51104736328 1020.04284667969 1019.81805419922 1022.16925048828 1023.22534179688 1024.98571777344 1013.30548095703 1016.12103271484 1005.76727294922 999.127319335938 998.531372070312 995.755432128906 994.048583984375 998.56640625 997.971069335938 1007.45977783203 1004.86871337891 1005.58428955078 1009.28735351562 999.352294921875 1002.44036865234 1012.43890380859 1010.31567382812 1008.97399902344 1011.59539794922 1007.7353515625 1013.935546875 1016.31628417969 1007.98504638672 1015.27001953125 1022.25372314453 1029.89587402344 1033.64831542969 1034.89282226562 1019.6728515625 1008.26153564453 1014.75201416016 1009.38177490234 1004.59674072266 1011.76275634766 1010.25775146484 1018.20562744141 1009.93841552734 1010.11492919922 1004.96252441406 1003.60040283203 987.152404785156 963.002197265625 955.386108398438 940.132995605469 949.384094238281 950.627502441406 945.016479492188 951.499877929688 960.765258789062 970.82080078125 985.372802734375 993.948059082031 987.842468261719 997.754577636719 1013.94128417969 1032.15588378906 1034.29455566406 1039.2509765625 1047.30712890625 1044.52124023438 1049.07482910156 1051.08837890625 1039.06030273438 1049.95288085938 1054.71166992188 1054.88061523438 1050.49035644531 1047.46411132812 1053.15100097656 1059.05163574219 1072.748046875 1067.32067871094 1079.40270996094 1085.13830566406 1083.86511230469 1077.06176757812 1088.82666015625 1101.24487304688 1109.87976074219 1116.36950683594 1116.451171875
953.66259765625 955.404235839844 946.353576660156 944.399230957031 944.61669921875 949.518127441406 948.513366699219 961.690246582031 965.440185546875 957.263244628906 953.800842285156 959.716064453125 970.577758789062 977.372375488281 972.693359375 968.328918457031 959.753112792969 964.512756347656 964.73974609375 976.149353027344 976.617126464844 981.091491699219 981.199035644531 979.686157226562 984.250732421875 991.038635253906 999.928283691406 1002.84967041016 1002.26007080078 1005.41387939453 994.325073242188 1001.73071289062 1003.484375 1007.38854980469 1011.98492431641 1019.07781982422 1015.00720214844 1020.10498046875 1013.04675292969 1003.15887451172 1008.00134277344 1021.25170898438 1013.23370361328 1011.34307861328 1017.27801513672 1006.52886962891 1013.00122070312 1007.49060058594 990.244934082031 991.127868652344 992.0380859375 988.212341308594 992.896240234375 990.956481933594 991.376098632812 996.542663574219 997.733947753906 1001.71936035156 997.806701660156 993.92724609375 1001.86352539062 998.118225097656 1008.20532226562 1009.66845703125 1020.43463134766 1018.63641357422 1017.97637939453 1016.03039550781 1017.77178955078 1017.94073486328 1015.38519287109 1007.51544189453 1003.32623291016 997.989929199219 991.759399414062 997.012512207031 1004.40295410156 1003.79302978516 1000.51861572266 998.52685546875 1005.13482666016 1001.63500976562 1000.80139160156 997.482971191406 1003.70220947266 1004.29132080078 1010.62860107422 1015.16516113281 1012.73706054688 1015.94403076172 1015.47113037109 1022.34295654297 1015.00250244141 1021.05755615234 1027.23901367188 1028.31164550781 1039.16125488281 1026.39147949219 1016.86724853516 1016.72668457031 1017.98162841797 1005.31036376953 1004.45587158203 1006.26696777344 1008.36627197266 1004.14947509766 1008.06628417969 999.457641601562 997.052978515625 992.143981933594 965.582763671875 956.497131347656 957.84814453125 946.122436523438 940.217590332031 947.632995605469 952.598327636719 963.697937011719 974.216857910156 976.494262695312 993.528198242188 1005.86260986328 1010.20306396484 1020.76983642578 1030.82666015625 1033.87390136719 1032.12768554688 1025.8857421875 1037.76489257812 1040.01696777344 1050.79260253906 1048.99926757812 1046.236328125 1043.15600585938 1053.56323242188 1049.59350585938 1052.36059570312 1061.58410644531 1048.67077636719 1065.3427734375 1063.666015625 1071.86926269531 1080.53186035156 1089.20690917969 1083.52197265625 1093.59545898438 1098.31616210938 1098.11193847656 1113.07263183594 1121.42651367188
959.62109375 965.874816894531 951.9013671875 952.246643066406 948.587219238281 953.382995605469 961.317565917969 964.626037597656 966.387939453125 956.85986328125 959.823303222656 966.870971679688 970.071716308594 976.063781738281 974.934997558594 969.511901855469 961.727478027344 963.190246582031 975.5390625 976.848022460938 981.574768066406 978.23486328125 980.467346191406 982.199645996094 984.406982421875 983.137817382812 984.665222167969 991.76171875 989.108337402344 993.620239257812 990.996643066406 997.472900390625 1002.06463623047 1004.95440673828 1001.61938476562 1011.87121582031 1021.81213378906 1013.80932617188 1012.53839111328 1010.2060546875 999.597045898438 1012.39392089844 1004.46313476562 1010.09411621094 1012.72454833984 1004.7783203125 1004.4375 992.421569824219 987.061584472656 991.078796386719 990.943969726562 987.393371582031 986.608642578125 988.096069335938 985.267028808594 1000.41461181641 1007.94464111328 998.776733398438 993.952209472656 988.308776855469 992.031616210938 999.634338378906 1004.44244384766 1013.29211425781 1015.87713623047 1017.29528808594 1019.06134033203 1014.88104248047 1017.80017089844 1010.6796875 1008.53283691406 1002.66448974609 1008.04479980469 1003.67120361328 1003.33148193359 998.318176269531 1002.84405517578 1010.6435546875 1000.74468994141 1001.01214599609 1002.37023925781 994.596862792969 993.733093261719 1000.15838623047 997.737915039062 1008.05578613281 1010.048828125 1007.05065917969 1011.80773925781 1018.03967285156 1018.17730712891 1023.32775878906 1018.15112304688 1014.8212890625 1016.82531738281 1021.91925048828 1030.17468261719 1020.8798828125 1016.23675537109 1021.62371826172 1013.71405029297 1001.12371826172 1008.52551269531 1008.97680664062 1001.8818359375 999.961120605469 1001.13244628906 988.923645019531 982.825927734375 987.761657714844 985.22314453125 968.06640625 950.628051757812 942.490112304688 944.887817382812 943.251892089844 957.776062011719 970.961120605469 973.424743652344 988.399108886719 1000.57958984375 1004.77801513672 1003.11639404297 1019.84020996094 1036.25732421875 1037.45056152344 1033.77734375 1032.25183105469 1032.90051269531 1034.50952148438 1039.98522949219 1042.17541503906 1043.86340332031 1037.32922363281 1041.24963378906 1047.84094238281 1047.30017089844 1055.22705078125 1056.43103027344 1064.70825195312 1063.67956542969 1073.37194824219 1077.49145507812 1081.90246582031 1086.13244628906 1086.50659179688 1098.49829101562 1096.61303710938 1107.25207519531 1123.10498046875
964.031677246094 957.087646484375 956.224487304688 952.605834960938 950.002014160156 953.667541503906 953.903686523438 961.007873535156 955.905334472656 961.91357421875 971.938049316406 965.444213867188 972.26318359375 977.541259765625 971.90185546875 968.558959960938 971.214477539062 973.013732910156 974.72216796875 973.987854003906 976.613647460938 981.298950195312 981.89111328125 977.485229492188 978.251708984375 988.661743164062 991.206604003906 994.06298828125 996.289306640625 996.643188476562 993.339111328125 995.394836425781 1001.38024902344 1001.90625 1005.00317382812 1004.53448486328 1010.31976318359 1007.13415527344 1011.31811523438 1005.6015625 1003.34881591797 1012.18304443359 1004.66040039062 998.456909179688 1005.19323730469 1008.96606445312 998.057800292969 987.494140625 980.5234375 981.902404785156 980.793823242188 979.757080078125 977.152893066406 979.101623535156 987.440185546875 999.164184570312 995.614685058594 991.582397460938 992.877868652344 987.578552246094 987.015686035156 999.538513183594 1011.52508544922 1012.60632324219 1011.53546142578 1005.65960693359 1015.18231201172 1009.99139404297 1016.22064208984 1010.26690673828 997.949401855469 1004.43682861328 996.32763671875 998.16796875 1005.01568603516 996.780883789062 997.062927246094 995.862121582031 1004.46911621094 992.711120605469 995.016418457031 993.660278320312 994.17236328125 992.420471191406 1005.59301757812 1003.97985839844 1016.77899169922 1011.40893554688 1018.50366210938 1018.36956787109 1023.48779296875 1023.10949707031 1009.25836181641 1014.42218017578 1016.06280517578 1018.52893066406 1017.92797851562 1017.80108642578 1015.97015380859 1012.81726074219 1013.65490722656 1005.35479736328 995.551025390625 999.8544921875 1005.44860839844 1001.37756347656 1000.39117431641 989.749755859375 982.052978515625 989.641723632812 986.477233886719 971.607421875 950.201477050781 948.498168945312 947.566955566406 942.663208007812 951.615844726562 964.665161132812 982.192016601562 988.455688476562 994.793273925781 1002.47747802734 1019.94738769531 1022.73101806641 1038.12060546875 1033.19677734375 1037.88488769531 1039.89758300781 1036.25170898438 1038.12097167969 1032.69567871094 1032.873046875 1035.94445800781 1039.09619140625 1035.89953613281 1044.60803222656 1054.00964355469 1057.82873535156 1062.50476074219 1060.00708007812 1060.7587890625 1061.498046875 1069.154296875 1071.07397460938 1075.79296875 1081.31188964844 1094.61413574219 1098.76257324219 1103.49890136719 1114.02783203125
970.7578125 961.094665527344 957.599365234375 957.735961914062 957.2734375 952.679260253906 964.31494140625 961.981567382812 957.642822265625 959.009399414062 969.861328125 973.316833496094 986.831848144531 983.097106933594 978.187683105469 982.320190429688 980.235717773438 984.388732910156 983.17333984375 977.365173339844 978.688293457031 970.773498535156 980.149475097656 981.15087890625 979.582580566406 988.712463378906 999.446899414062 990.067443847656 994.787902832031 989.071228027344 990.310485839844 991.068908691406 993.590087890625 999.079528808594 993.095642089844 991.729919433594 999.649536132812 1002.52917480469 998.627685546875 1000.17224121094 997.009216308594 999.038452148438 999.806823730469 1001.66973876953 1005.04949951172 1002.43572998047 1000.03088378906 990.752807617188 980.336120605469 976.703857421875 982.052124023438 980.540832519531 987.565063476562 985.283874511719 978.810363769531 984.105834960938 979.674743652344 981.186645507812 985.059020996094 988.865356445312 985.52490234375 989.670471191406 992.820434570312 1000.46258544922 1000.29681396484 998.74462890625 1004.23229980469 1009.0888671875 1009.58093261719 1008.49456787109 998.236206054688 1003.07586669922 1002.40209960938 998.698608398438 1004.55883789062 989.605590820312 991.175537109375 993.507202148438 998.370422363281 992.221923828125 995.97607421875 996.413513183594 995.93505859375 1000.89794921875 1003.37890625 1014.17944335938 1025.22009277344 1023.13568115234 1019.54217529297 1020.69805908203 1023.19818115234 1019.51715087891 1013.65319824219 1009.81945800781 1007.40606689453 1009.13397216797 1018.00769042969 1014.56237792969 1006.52618408203 1005.93811035156 1003.91528320312 1004.2705078125 996.384460449219 995.169860839844 1000.37255859375 997.924865722656 1005.34655761719 987.582214355469 984.753540039062 981.243774414062 972.960754394531 960.950805664062 951.223388671875 953.27197265625 947.812194824219 941.916259765625 953.354919433594 971.052124023438 984.674743652344 994.161071777344 993.945251464844 1011.89764404297 1022.38916015625 1028.86254882812 1034.52038574219 1036.8232421875 1035.646484375 1033.10314941406 1043.04162597656 1039.22644042969 1034.13806152344 1030.03356933594 1036.54577636719 1041.48388671875 1038.51708984375 1054.92565917969 1048.53454589844 1059.2626953125 1052.15197753906 1044.35998535156 1046.12707519531 1052.83044433594 1064.337890625 1065.87915039062 1072.35168457031 1075.38256835938 1089.66259765625 1094.15771484375 1097.60119628906 1102.93591308594
963.302368164062 955.910583496094 954.046997070312 961.865112304688 958.141845703125 966.496704101562 970.19140625 966.353515625 959.024963378906 952.318054199219 960.885498046875 972.7734375 983.088134765625 983.75830078125 984.193603515625 982.513610839844 984.312255859375 981.5263671875 982.120239257812 983.581665039062 979.30908203125 982.276794433594 987.864929199219 992.185180664062 982.841735839844 986.563537597656 987.442565917969 991.618286132812 994.211730957031 989.603637695312 991.791320800781 995.468627929688 992.828857421875 996.713562011719 995.565002441406 997.240539550781 996.019348144531 992.267333984375 989.760009765625 985.534057617188 987.624450683594 991.335021972656 995.240173339844 997.062255859375 996.596313476562 997.318725585938 998.565185546875 991.340515136719 981.878234863281 977.798828125 978.755493164062 984.205322265625 983.015930175781 978.875915527344 974.84228515625 990.970886230469 987.987976074219 978.317443847656 974.8857421875 983.892456054688 988.590942382812 987.118041992188 993.587524414062 986.969787597656 997.370788574219 990.37939453125 994.829650878906 1003.33245849609 1008.91619873047 1013.62249755859 1000.61505126953 998.956481933594 999.4677734375 994.025329589844 988.134826660156 992.0166015625 991.322814941406 993.671020507812 1004.39025878906 991.437133789062 992.835632324219 998.340698242188 997.164245605469 1008.90661621094 1013.26538085938 1021.84045410156 1026.94714355469 1029.521484375 1017.76971435547 1014.69305419922 1013.27899169922 1017.66583251953 1018.97991943359 1020.02404785156 1013.65789794922 1015.11590576172 1006.81103515625 1008.12243652344 1005.41827392578 1000.52117919922 1008.15551757812 1012.08776855469 1005.13970947266 1000.26654052734 1002.23773193359 1008.49987792969 1007.24139404297 987.104919433594 975.69140625 981.697326660156 969.72900390625 962.230163574219 961.074829101562 944.030212402344 943.074523925781 951.509155273438 968.83349609375 969.974975585938 980.522583007812 988.513671875 995.858154296875 1005.73834228516 1019.64056396484 1030.57055664062 1030.81750488281 1039.38330078125 1035.0458984375 1043.31848144531 1031.46911621094 1037.51733398438 1034.51965332031 1028.37231445312 1031.91528320312 1044.97204589844 1041.25390625 1046.41271972656 1050.52734375 1053.80725097656 1053.66552734375 1052.13232421875 1048.17150878906 1049.68444824219 1064.9580078125 1063.57897949219 1065.60546875 1082.17504882812 1085.15881347656 1092.46081542969 1094.41186523438 1095.93444824219
950.618957519531 961.550842285156 961.602844238281 962.471801757812 965.049438476562 962.148071289062 962.489135742188 970.120544433594 966.416015625 964.882873535156 968.575805664062 974.957824707031 978.602661132812 982.915344238281 980.183227539062 982.046020507812 978.43017578125 986.287536621094 977.324096679688 972.163879394531 974.125305175781 981.749267578125 986.626525878906 992.541381835938 995.232482910156 989.799438476562 983.971130371094 988.230407714844 986.81787109375 982.445068359375 987.354675292969 986.86767578125 982.644775390625 993.194213867188 990.144775390625 986.776489257812 992.092956542969 995.304260253906 986.762512207031 985.665466308594 985.141418457031 985.152954101562 982.489318847656 987.791015625 992.157165527344 991.888671875 988.951232910156 981.671630859375 976.055358886719 974.860778808594 976.2158203125 983.569763183594 987.354248046875 979.078002929688 981.921936035156 983.805541992188 983.694519042969 984.561706542969 987.0830078125 985.009887695312 992.303527832031 995.595764160156 986.956787109375 994.823547363281 1006.35430908203 1004.73071289062 993.290222167969 1005.75994873047 1004.22930908203 996.351928710938 996.061889648438 996.227966308594 993.862915039062 989.021179199219 984.233337402344 981.880676269531 984.340026855469 982.332397460938 987.550231933594 992.478759765625 991.583984375 993.425109863281 1000.87298583984 1000.49127197266 1010.68518066406 1010.22760009766 1019.90753173828 1022.24517822266 1011.17645263672 1005.60632324219 1017.51770019531 1016.55249023438 1011.12677001953 1018.96478271484 1016.11071777344 1017.65087890625 1013.92108154297 1012.99377441406 1013.97381591797 1007.98040771484 1010.33599853516 1006.72436523438 1003.20635986328 1009.087890625 1000.65875244141 1007.38098144531 1003.43713378906 978.182922363281 970.374267578125 978.485961914062 972.140625 967.955871582031 950.639892578125 945.509399414062 945.739990234375 948.775939941406 954.818420410156 963.953430175781 986.189453125 988.734191894531 997.741577148438 1004.74621582031 1016.97399902344 1026.44189453125 1028.97192382812 1024.09802246094 1027.64147949219 1036.03088378906 1031.14196777344 1027.35791015625 1035.88110351562 1032.11267089844 1041.44909667969 1033.60034179688 1038.82336425781 1042.35852050781 1048.01330566406 1050.14904785156 1055.21215820312 1055.8603515625 1056.45971679688 1053.95068359375 1059.72680664062 1060.67150878906 1068.96484375 1079.54577636719 1084.60717773438 1094.68615722656 1096.71154785156 1087.80578613281
953.829162597656 956.540954589844 964.064208984375 967.733337402344 972.931457519531 964.988830566406 965.054077148438 966.340637207031 963.779968261719 974.7275390625 969.3642578125 975.982299804688 981.582885742188 976.724792480469 970.617309570312 977.650756835938 984.437622070312 984.603271484375 985.563537597656 978.823852539062 985.000122070312 992.078430175781 987.822387695312 991.545837402344 993.091674804688 987.826965332031 991.997802734375 984.704711914062 977.045288085938 980.880004882812 980.419067382812 980.502258300781 983.721130371094 981.6494140625 991.380187988281 986.96728515625 985.860778808594 993.693664550781 990.767028808594 984.252075195312 977.57080078125 978.857116699219 979.114318847656 980.345031738281 984.326538085938 994.399780273438 986.528991699219 983.479614257812 968.008544921875 980.117919921875 976.209594726562 988.32275390625 981.794250488281 984.552978515625 976.685607910156 979.508911132812 979.460754394531 984.174865722656 986.61279296875 988.282165527344 991.756103515625 993.699890136719 992.935913085938 993.483032226562 999.733154296875 993.148193359375 994.714904785156 1000.01007080078 996.5283203125 987.532104492188 994.11962890625 985.281555175781 985.477172851562 985.290100097656 982.747680664062 978.694213867188 985.014526367188 986.291564941406 995.502136230469 995.806884765625 995.550415039062 994.962280273438 995.171569824219 1000.11456298828 1008.72961425781 1011.36126708984 1018.52972412109 1013.55657958984 1015.05731201172 1007.01184082031 1008.91436767578 1011.28192138672 1008.70275878906 1015.60467529297 1014.29644775391 1014.15808105469 1016.70849609375 1007.93786621094 1005.92224121094 1010.78784179688 1005.33508300781 1006.50964355469 1007.71319580078 1006.21722412109 1005.65362548828 1001.93701171875 996.087036132812 979.889770507812 979.217956542969 983.988586425781 970.917419433594 966.784057617188 960.056884765625 952.378295898438 951.751220703125 952.2705078125 966.157836914062 969.0224609375 981.885009765625 992.339721679688 1001.54956054688 1003.81311035156 1009.49615478516 1018.24377441406 1019.34490966797 1024.65148925781 1029.79187011719 1024.36901855469 1033.13439941406 1036.09777832031 1039.30615234375 1039.12548828125 1036.64794921875 1031.52404785156 1029.02844238281 1037.46118164062 1031.46215820312 1032.39147949219 1045.86242675781 1044.59765625 1050.50769042969 1062.09399414062 1064.45483398438 1072.55725097656 1078.20178222656 1088.28918457031 1095.1455078125 1100.83312988281 1107.46203613281 1108.03979492188
959.044494628906 957.001037597656 959.089050292969 964.452941894531 970.594116210938 971.411376953125 973.32568359375 967.945739746094 963.582458496094 967.11083984375 974.162231445312 975.059753417969 982.607788085938 978.142700195312 965.522277832031 977.262329101562 980.421569824219 991.403015136719 981.2900390625 978.498962402344 984.288757324219 987.5712890625 979.755737304688 981.585571289062 989.351196289062 985.92724609375 987.38623046875 991.229736328125 984.792785644531 979.522705078125 977.648803710938 974.900634765625 971.30078125 983.794128417969 986.476440429688 987.452575683594 979.123352050781 977.500061035156 981.258728027344 985.142028808594 974.220764160156 977.225830078125 980.929077148438 992.735168457031 981.799560546875 984.767822265625 983.732727050781 975.007019042969 974.547241210938 973.363952636719 980.584594726562 976.74462890625 975.1474609375 983.477478027344 981.040588378906 980.413391113281 976.557800292969 980.485778808594 966.409973144531 980.632446289062 981.644653320312 996.330871582031 997.331970214844 995.266784667969 993.565063476562 997.3984375 1000.63342285156 996.648986816406 991.44287109375 985.989807128906 989.589050292969 991.777770996094 987.254211425781 976.247619628906 980.176940917969 981.983520507812 990.292297363281 988.195983886719 997.208312988281 995.232421875 993.626403808594 996.822204589844 995.397216796875 1002.97320556641 1006.40417480469 1006.23522949219 1014.103515625 1015.79443359375 1016.91595458984 1006.81298828125 1010.35693359375 1004.25390625 1002.50372314453 1006.37377929688 1014.08935546875 1013.22387695312 1010.62280273438 1015.11407470703 1003.34545898438 1004.28344726562 1000.13757324219 996.538696289062 1000.88928222656 997.800354003906 999.751525878906 1003.57104492188 998.58544921875 992.6484375 984.326904296875 978.286315917969 971.348449707031 968.388549804688 959.281066894531 957.091369628906 957.405517578125 957.934509277344 962.092163085938 968.944091796875 981.199279785156 983.936340332031 1000.83819580078 1013.08380126953 1012.2490234375 1014.79827880859 1014.68328857422 1027.91003417969 1019.77844238281 1017.41644287109 1019.55908203125 1021.85144042969 1019.39801025391 1018.326171875 1026.69030761719 1023.76782226562 1020.45788574219 1017.63348388672 1022.41766357422 1027.65881347656 1040.22595214844 1048.06701660156 1055.7333984375 1065.625 1075.55017089844 1079.83459472656 1081.51940917969 1089.95251464844 1099.57238769531 1101.23706054688 1112.1728515625 1116.08459472656
956.232482910156 954.824340820312 955.281311035156 963.489135742188 967.538635253906 978.438049316406 974.647399902344 972.144775390625 960.384826660156 965.705383300781 980.425964355469 973.351989746094 972.460144042969 977.208435058594 973.189270019531 986.183166503906 985.705627441406 986.586486816406 982.745178222656 977.054809570312 976.734741210938 975.785217285156 985.479064941406 981.805236816406 979.188232421875 986.951904296875 984.03173828125 988.8505859375 977.513977050781 983.838684082031 974.980773925781 983.679748535156 984.230590820312 981.12255859375 984.803283691406 990.645385742188 981.134460449219 976.388977050781 978.567932128906 969.475830078125 977.110290527344 977.161987304688 990.338806152344 994.249328613281 1000.62280273438 985.619201660156 989.029602050781 977.519836425781 975.888244628906 975.720642089844 970.921936035156 985.986511230469 978.730712890625 982.881103515625 977.069580078125 968.886291503906 979.483581542969 977.434509277344 970.967407226562 967.820373535156 967.22509765625 985.009948730469 997.559020996094 988.124633789062 991.892028808594 995.109252929688 990.868408203125 986.40966796875 988.723449707031 994.276123046875 990.898071289062 990.912536621094 986.87451171875 976.157470703125 977.353088378906 983.462463378906 988.102478027344 990.595581054688 983.889038085938 998.008972167969 993.158447265625 993.726745605469 993.8984375 1003.42700195312 1002.97229003906 1007.89984130859 1006.22741699219 1022.20971679688 1023.0966796875 1018.11212158203 1014.22088623047 1005.58813476562 1010.52496337891 1002.97076416016 1006.66705322266 1010.11560058594 1007.44653320312 1003.38653564453 1006.341796875 1002.15283203125 1006.18865966797 992.950378417969 994.357604980469 992.630310058594 996.482666015625 1003.31335449219 1006.74591064453 988.594177246094 988.774047851562 990.081176757812 981.143859863281 973.206787109375 965.559265136719 966.58837890625 970.473449707031 960.437255859375 962.792297363281 973.059020996094 982.354614257812 992.343200683594 1000.68444824219 1004.97143554688 1007.66235351562 1015.73229980469 1012.55883789062 1026.56042480469 1019.31140136719 1023.17620849609 1018.53393554688 1007.53771972656 1014.81970214844 1016.91522216797 1026.12963867188 1020.38238525391 1016.99481201172 1017.29577636719 1023.71008300781 1032.81713867188 1034.79223632812 1048.07373046875 1058.92077636719 1065.76904296875 1073.01428222656 1083.78051757812 1088.68603515625 1097.12353515625 1094.88610839844 1100.57653808594 1109.27307128906 1120.81091308594
956.652099609375 953.379333496094 952.015563964844 965.925231933594 972.331420898438 971.192565917969 973.14453125 975.707946777344 975.051574707031 979.265502929688 969.492919921875 976.466186523438 975.395690917969 982.296020507812 981.04833984375 974.949096679688 979.437316894531 982.817443847656 978.516479492188 982.119567871094 977.91259765625 987.159423828125 986.637512207031 987.091125488281 989.051940917969 981.167602539062 976.171569824219 977.811950683594 977.2001953125 980.001892089844 986.585144042969 987.7841796875 989.270080566406 978.831726074219 982.037719726562 976.223510742188 978.447570800781 968.921020507812 965.974548339844 975.998962402344 976.398620605469 980.771850585938 980.533447265625 988.831298828125 984.152221679688 987.792114257812 976.132568359375 972.392517089844 971.254943847656 979.1611328125 981.340576171875 980.084289550781 979.973693847656 975.803588867188 978.736633300781 977.591979980469 979.052062988281 978.701416015625 972.348693847656 960.114135742188 959.270568847656 983.617553710938 981.781494140625 986.732482910156 988.685974121094 993.246032714844 990.254028320312 982.509216308594 978.489196777344 982.715576171875 982.609558105469 994.091125488281 984.267456054688 978.433654785156 976.8017578125 981.863342285156 983.559387207031 989.3076171875 997.66796875 997.786376953125 1002.41003417969 998.590942382812 1001.51947021484 1000.51147460938 1011.81243896484 1009.53253173828 1008.01123046875 1016.38702392578 1018.26336669922 1017.94305419922 1013.69262695312 1007.77465820312 1011.74560546875 1011.64587402344 1000.47338867188 1000.24560546875 1002.78527832031 989.485412597656 1002.40447998047 1000.19274902344 1001.18225097656 990.112121582031 989.23291015625 990.823303222656 988.366149902344 997.52001953125 999.872253417969 985.734252929688 985.592956542969 989.685668945312 982.600036621094 986.067932128906 976.970458984375 981.381774902344 980.636474609375 972.650146484375 964.708557128906 975.443481445312 980.869567871094 989.829162597656 991.951965332031 992.558410644531 994.119995117188 1014.87786865234 1012.36212158203 1018.11968994141 1017.04577636719 1014.42413330078 1009.73547363281 1007.52423095703 1001.68249511719 1016.91479492188 1019.32214355469 1025.94445800781 1007.46643066406 1022.27239990234 1032.1552734375 1039.27990722656 1043.41552734375 1051.84191894531 1060.64697265625 1075.62243652344 1078.61364746094 1088.00500488281 1095.38562011719 1095.8984375 1104.9384765625 1112.25463867188 1108.39270019531 1115.67944335938
948.900939941406 950.55126953125 957.607971191406 957.650817871094 968.016357421875 972.560485839844 971.627502441406 974.235168457031 971.123779296875 970.758666992188 974.581481933594 973.525085449219 981.038940429688 978.980834960938 982.1953125 972.111267089844 971.138610839844 974.505798339844 972.238647460938 978.639282226562 977.409240722656 979.608154296875 978.132629394531 980.539611816406 989.22314453125 982.169189453125 978.897033691406 983.650634765625 978.614013671875 974.647277832031 988.640808105469 986.304016113281 986.923950195312 990.413940429688 981.856994628906 986.363342285156 981.223083496094 968.350463867188 962.189453125 976.265319824219 984.219421386719 984.019348144531 984.530639648438 981.079772949219 978.687316894531 976.689392089844 972.770080566406 973.505249023438 975.007263183594 985.61474609375 973.547485351562 976.961853027344 977.885498046875 975.704284667969 974.038391113281 976.315246582031 980.401245117188 975.083801269531 967.874572753906 961.9775390625 968.734375 976.628112792969 977.644714355469 979.392517089844 979.478454589844 989.6474609375 998.197692871094 984.565307617188 988.399719238281 989.966857910156 985.944152832031 982.724060058594 980.257080078125 978.512268066406 971.422668457031 970.045715332031 979.953735351562 983.189819335938 996.173034667969 1003.28820800781 1001.43841552734 998.137573242188 996.654968261719 1003.30090332031 1006.38665771484 1002.34210205078 1003.52465820312 1010.75030517578 1018.26794433594 1007.75799560547 1005.66979980469 1011.11846923828 1006.01019287109 1012.94708251953 1002.58526611328 994.153625488281 996.101623535156 996.229064941406 1005.21014404297 1003.75183105469 1001.81024169922 993.614318847656 1001.13494873047 993.174377441406 994.799255371094 995.25146484375 987.281127929688 986.956604003906 994.668579101562 990.188842773438 989.997741699219 987.358947753906 983.135437011719 989.227905273438 984.765686035156 984.837280273438 982.1396484375 988.990173339844 984.3544921875 987.938720703125 994.345336914062 991.893981933594 1003.56701660156 1001.26605224609 1006.40484619141 1009.32745361328 1012.55004882812 1012.04528808594 1004.18853759766 1007.87249755859 1002.50024414062 1010.01141357422 1026.14562988281 1020.43005371094 1018.19885253906 1032.46301269531 1032.93920898438 1041.23168945312 1042.72900390625 1061.81469726562 1065.61560058594 1072.04663085938 1086.54443359375 1104.05725097656 1105.33349609375 1106.64611816406 1111.54577636719 1119.09460449219 1115.00219726562 1114.82470703125
959.368286132812 954.309692382812 955.563720703125 956.765075683594 961.417846679688 969.883605957031 977.373413085938 972.654907226562 971.328125 968.533203125 963.647094726562 980.367065429688 982.96484375 983.18017578125 985.83154296875 977.912292480469 975.788696289062 978.422912597656 973.40234375 976.71044921875 972.707763671875 974.176391601562 976.359191894531 979.663879394531 978.721984863281 978.195556640625 976.045593261719 981.44921875 969.672729492188 972.023742675781 980.977844238281 973.28173828125 986.911193847656 983.784973144531 983.531188964844 987.026428222656 988.104858398438 976.192626953125 967.829772949219 977.518920898438 985.676879882812 992.521362304688 980.236389160156 971.924560546875 966.652038574219 970.04052734375 973.300476074219 969.313537597656 979.9658203125 979.2626953125 975.8271484375 972.681518554688 983.433288574219 976.279174804688 976.254516601562 971.845947265625 971.939697265625 971.61279296875 973.104553222656 961.597351074219 965.463684082031 966.70703125 972.857788085938 982.19580078125 982.109130859375 994.022888183594 994.622009277344 990.063293457031 986.192810058594 983.062927246094 978.65283203125 982.16259765625 981.078979492188 968.186462402344 971.564270019531 967.3916015625 975.65771484375 981.033081054688 988.815063476562 994.665771484375 996.181701660156 992.866760253906 996.624206542969 998.481384277344 999.847351074219 1002.53881835938 997.972839355469 1002.35260009766 1006.67504882812 1010.388671875 1005.04595947266 1013.12408447266 1008.54803466797 998.814819335938 1000.28601074219 989.699096679688 991.599243164062 989.941528320312 995.014221191406 996.506774902344 995.222534179688 1000.88653564453 999.224975585938 990.761474609375 993.669799804688 993.514465332031 987.281005859375 988.742980957031 1000.24603271484 1001.00012207031 991.275939941406 990.916442871094 992.28515625 997.982666015625 989.998901367188 987.863220214844 991.267333984375 992.88232421875 993.920837402344 991.751953125 992.482421875 988.297607421875 993.035278320312 995.688110351562 1000.9990234375 1006.96069335938 1010.70776367188 1010.68286132812 999.571166992188 1006.03704833984 1007.77624511719 1013.42529296875 1021.09130859375 1021.93078613281 1025.22412109375 1031.66040039062 1036.93481445312 1047.32446289062 1055.97973632812 1060.87121582031 1065.11193847656 1079.11474609375 1084.10546875 1098.42541503906 1115.7294921875 1126.45703125 1119.15124511719 1126.32592773438 1129.92639160156 1131.14819335938
963.919006347656 954.628234863281 966.692443847656 958.601013183594 965.569519042969 975.710266113281 967.714904785156 964.072204589844 966.390319824219 969.126770019531 969.971923828125 972.0224609375 974.402587890625 978.400817871094 977.944213867188 979.474243164062 976.395568847656 972.830871582031 969.35498046875 977.398498535156 978.044860839844 970.21142578125 974.94287109375 974.277404785156 969.415710449219 967.252502441406 968.25830078125 968.814270019531 966.9482421875 972.336364746094 974.426635742188 978.360107421875 983.446044921875 979.739868164062 978.802551269531 984.993774414062 982.29150390625 984.724670410156 974.493835449219 978.338073730469 974.500549316406 983.84521484375 989.744750976562 975.096069335938 969.483337402344 968.771179199219 969.338500976562 975.379516601562 980.571899414062 976.227294921875 970.630798339844 972.439270019531 978.408447265625 970.312866210938 979.630432128906 975.321411132812 977.100769042969 973.104797363281 969.999145507812 959.042846679688 950.081787109375 951.212097167969 963.16552734375 975.257263183594 982.548706054688 996.558532714844 985.153198242188 982.6884765625 970.745239257812 972.156677246094 969.868286132812 980.579772949219 976.0869140625 969.638427734375 968.877746582031 980.779052734375 981.508483886719 989.235595703125 985.805725097656 983.7353515625 1000.68469238281 991.075622558594 991.919128417969 987.087341308594 989.891357421875 992.431762695312 994.919311523438 996.384643554688 994.121520996094 994.777587890625 1009.43682861328 1010.54339599609 1005.71313476562 1005.43609619141 998.187438964844 985.800720214844 988.551574707031 994.598449707031 999.325012207031 989.403015136719 995.293212890625 995.107604980469 993.641723632812 990.164916992188 993.25537109375 985.739562988281 980.244873046875 981.886962890625 993.874084472656 989.389770507812 994.843505859375 994.755004882812 995.480590820312 996.470092773438 991.73193359375 994.250427246094 1000.30072021484 1001.48931884766 998.096618652344 998.513916015625 986.454772949219 994.538635253906 990.511291503906 997.652465820312 1002.32873535156 1003.70721435547 1011.53857421875 1003.85162353516 1002.20367431641 1005.306640625 1011.24609375 1020.05969238281 1020.81011962891 1028.87390136719 1035.70080566406 1036.26684570312 1037.71569824219 1045.44519042969 1058.96301269531 1064.73010253906 1076.84814453125 1084.73876953125 1088.06262207031 1098.54223632812 1115.30786132812 1125.51708984375 1129.84326171875 1128.73608398438 1132.78503417969 1136.3603515625
958.057250976562 963.652709960938 971.339965820312 967.601013183594 967.480529785156 974.129028320312 971.37353515625 959.844909667969 967.994201660156 971.932678222656 973.171447753906 966.859191894531 962.010131835938 966.896362304688 968.179443359375 977.737731933594 975.472534179688 972.170837402344 981.712524414062 977.658203125 978.42041015625 977.760070800781 974.1748046875 973.569458007812 968.718200683594 968.173828125 967.21044921875 972.763427734375 973.596130371094 976.182678222656 975.36962890625 978.341857910156 981.43212890625 987.532958984375 977.6982421875 976.109008789062 985.107177734375 977.349426269531 970.922241210938 971.187744140625 978.894592285156 979.38525390625 982.626098632812 979.325927734375 972.783630371094 964.995361328125 969.751708984375 970.760314941406 969.817443847656 975.483032226562 975.467407226562 977.515686035156 974.922058105469 973.236999511719 974.460510253906 984.880187988281 978.659790039062 966.66845703125 956.92724609375 955.929504394531 949.622680664062 949.688110351562 959.148559570312 965.638732910156 978.7041015625 980.188537597656 977.410461425781 971.296752929688 969.904541015625 974.539794921875 976.279968261719 971.86279296875 974.690551757812 966.489135742188 966.324890136719 978.860168457031 989.722717285156 985.258666992188 984.086547851562 988.1435546875 992.372375488281 986.101379394531 985.308715820312 998.940673828125 1005.25299072266 1002.08422851562 994.844665527344 991.568969726562 994.475830078125 1001.76458740234 998.751770019531 1006.54644775391 1000.07531738281 997.078186035156 989.553039550781 987.75244140625 987.236328125 995.33740234375 992.579223632812 991.429504394531 985.762451171875 994.404418945312 989.759094238281 988.084533691406 989.210021972656 978.789428710938 983.300537109375 989.316284179688 991.103454589844 992.489501953125 995.335266113281 1001.02282714844 1004.56744384766 996.193359375 995.293518066406 995.846923828125 998.982116699219 1004.31628417969 1000.7978515625 993.542907714844 990.268920898438 992.440551757812 994.618591308594 991.523681640625 999.01708984375 1002.38873291016 998.448303222656 1005.87902832031 1005.15368652344 1013.68731689453 1019.81079101562 1016.63165283203 1020.46063232422 1034.92919921875 1039.55444335938 1037.24987792969 1040.01708984375 1044.12683105469 1044.75988769531 1059.34265136719 1075.58520507812 1092.62768554688 1094.87963867188 1117.06164550781 1123.53759765625 1128.95812988281 1140.85705566406 1138.57556152344 1135.16430664062 1142.51135253906
958.606140136719 960.691467285156 967.670471191406 962.295532226562 962.783874511719 969.34375 970.035522460938 967.82275390625 973.602111816406 965.823913574219 967.027099609375 970.272583007812 971.954223632812 968.988159179688 969.505920410156 971.800537109375 980.279052734375 977.927795410156 973.652709960938 981.573547363281 982.979919433594 981.998474121094 986.478332519531 984.27294921875 978.278076171875 977.604736328125 966.606201171875 972.811584472656 983.137023925781 975.042236328125 980.55029296875 976.051208496094 977.768737792969 978.994873046875 979.17529296875 972.591369628906 975.867004394531 969.734558105469 972.696472167969 973.680969238281 971.3330078125 977.669128417969 973.591796875 967.763366699219 971.515747070312 958.799377441406 973.351684570312 973.282836914062 970.031921386719 967.466003417969 964.196960449219 973.867004394531 978.449401855469 977.352355957031 979.022094726562 977.365173339844 974.345825195312 964.077209472656 959.924499511719 949.095336914062 950.909118652344 957.047668457031 959.635681152344 971.381225585938 972.42822265625 978.978210449219 978.56591796875 974.600708007812 977.321899414062 974.921325683594 981.744567871094 972.055480957031 972.557312011719 974.344421386719 982.309448242188 984.119445800781 974.507263183594 976.430419921875 982.395446777344 984.320678710938 993.651611328125 992.286437988281 985.260437011719 997.499633789062 999.29736328125 998.825927734375 999.084350585938 997.624755859375 1003.99237060547 984.836730957031 995.548217773438 991.974487304688 1000.06292724609 999.0810546875 992.370544433594 984.862060546875 987.555847167969 993.751892089844 990.553649902344 988.807922363281 989.957580566406 996.423522949219 996.409057617188 995.873474121094 994.274597167969 988.529907226562 983.864562988281 998.752990722656 997.1572265625 989.048828125 990.155578613281 998.385803222656 999.727111816406 989.41943359375 990.12890625 985.3818359375 990.049560546875 998.395324707031 1005.19787597656 993.638671875 992.5537109375 1004.07299804688 1004.83209228516 999.9326171875 1004.31170654297 1005.58026123047 1009.05792236328 1006.71124267578 1010.89691162109 1018.81506347656 1022.16259765625 1025.19812011719 1033.015625 1043.57800292969 1047.77001953125 1047.97448730469 1046.68054199219 1050.79296875 1053.48120117188 1068.84252929688 1088.10229492188 1099.52416992188 1103.26403808594 1117.185546875 1132.83081054688 1140.748046875 1142.54907226562 1146.63134765625 1147.66467285156 1146.27282714844
960.618957519531 963.926574707031 963.051086425781 961.414489746094 965.320861816406 958.308776855469 969.785461425781 972.018859863281 967.753784179688 964.438110351562 968.933166503906 980.365295410156 978.157836914062 969.407348632812 968.117980957031 973.446411132812 981.670532226562 983.366333007812 983.15478515625 981.89990234375 981.626708984375 988.947937011719 987.135070800781 983.943969726562 988.899291992188 978.922241210938 971.788391113281 970.156555175781 968.616088867188 984.706481933594 981.995849609375 984.322326660156 981.351623535156 979.638793945312 973.193969726562 977.14990234375 976.669982910156 974.27099609375 979.144592285156 974.985778808594 978.76220703125 972.187561035156 972.329406738281 965.675659179688 965.391235351562 966.904663085938 976.912780761719 980.838195800781 970.744934082031 969.02099609375 975.42626953125 965.118835449219 971.111450195312 972.811645507812 976.726135253906 974.065551757812 975.890319824219 980.803771972656 966.841186523438 958.496643066406 958.506408691406 959.821228027344 977.007141113281 963.885925292969 960.884460449219 976.238342285156 985.600158691406 986.912841796875 974.421020507812 981.7958984375 976.35009765625 979.183898925781 973.884582519531 976.3955078125 980.1845703125 977.780151367188 976.679565429688 980.118713378906 983.720886230469 987.038757324219 992.214538574219 995.290832519531 993.969116210938 995.369567871094 998.16552734375 999.39990234375 995.357238769531 997.443481445312 1003.37908935547 999.004516601562 984.523193359375 987.878295898438 995.281433105469 995.110107421875 991.134155273438 989.948120117188 984.765502929688 994.110900878906 986.402709960938 985.662719726562 993.369934082031 996.241271972656 996.46728515625 991.325317382812 992.444396972656 996.333923339844 993.596130371094 986.139892578125 987.357849121094 988.818664550781 984.404663085938 993.533630371094 984.941650390625 979.457336425781 986.424987792969 990.2626953125 1000.31842041016 1000.72271728516 993.198913574219 990.105834960938 997.873657226562 1005.70782470703 1002.00860595703 1003.22808837891 1008.61138916016 1011.21447753906 1017.22967529297 1014.44323730469 1022.0751953125 1026.85913085938 1025.53662109375 1028.69909667969 1035.54309082031 1049.57739257812 1046.53576660156 1050.51599121094 1058.44494628906 1056.78698730469 1061.97375488281 1082.02746582031 1089.35986328125 1101.51977539062 1112.27429199219 1125.3662109375 1134.33447265625 1148.33032226562 1148.31481933594 1154.69470214844 1146.36828613281 1156.07312011719
961.755554199219 960.815490722656 963.060668945312 963.910278320312 957.658325195312 964.9482421875 964.694030761719 970.173583984375 960.882507324219 962.002075195312 976.775695800781 971.864624023438 970.593322753906 977.387878417969 972.845336914062 976.686279296875 976.8310546875 977.984252929688 988.036010742188 974.456237792969 984.170532226562 988.500915527344 987.386840820312 981.213562011719 988.749694824219 977.745178222656 973.205200195312 973.043640136719 978.3828125 979.828369140625 979.391845703125 983.308410644531 984.082336425781 980.719360351562 965.990112304688 969.568908691406 979.04052734375 977.091613769531 977.880920410156 977.64111328125 973.614685058594 972.137268066406 968.762573242188 966.072082519531 977.827453613281 972.8896484375 980.791809082031 982.571533203125 979.133483886719 969.412841796875 975.595336914062 966.636352539062 957.931701660156 961.817810058594 976.78173828125 973.786926269531 972.64990234375 977.909118652344 970.753784179688 973.049743652344 968.8369140625 964.123596191406 968.075805664062 972.528076171875 964.244567871094 982.946105957031 991.394775390625 987.716674804688 984.048950195312 983.307006835938 979.938903808594 970.266479492188 967.431945800781 973.161071777344 970.167663574219 969.031677246094 977.672973632812 985.204345703125 985.732238769531 989.06396484375 990.306030273438 996.097412109375 993.368835449219 995.306213378906 989.736022949219 987.44873046875 983.161926269531 991.250061035156 992.717651367188 994.673217773438 989.431884765625 986.980285644531 993.805725097656 1002.94165039062 985.082946777344 982.707763671875 989.908813476562 995.526184082031 991.841918945312 991.423156738281 989.095764160156 989.884399414062 993.359252929688 985.133239746094 985.3486328125 984.1826171875 982.55419921875 981.405578613281 987.167541503906 987.956726074219 986.298278808594 980.054016113281 976.989440917969 984.731872558594 987.945617675781 977.486022949219 994.824157714844 995.447814941406 987.813598632812 992.646850585938 1000.94836425781 1007.35168457031 1003.69110107422 995.998229980469 1009.54473876953 1020.19158935547 1023.34509277344 1025.68627929688 1033.06213378906 1026.57299804688 1033.55651855469 1026.29187011719 1036.1552734375 1040.17370605469 1056.33215332031 1058.20153808594 1056.67822265625 1056.63391113281 1069.95288085938 1080.94836425781 1087.99450683594 1102.43017578125 1117.2041015625 1121.35278320312 1130.18627929688 1142.20776367188 1148.30236816406 1153.03247070312 1160.18041992188 1167.6845703125
958.904418945312 958.389221191406 959.316284179688 959.684265136719 960.607238769531 957.61669921875 957.111877441406 962.721313476562 960.594543457031 967.305541992188 967.120544433594 977.303771972656 971.045349121094 971.611755371094 975.740966796875 970.32763671875 977.252136230469 975.977600097656 980.947509765625 972.933959960938 979.648498535156 979.837097167969 983.964599609375 986.117980957031 977.5771484375 973.232360839844 970.775329589844 977.088073730469 982.077941894531 982.105712890625 973.298950195312 977.975708007812 976.216003417969 986.785034179688 967.801696777344 968.973205566406 978.12890625 980.262939453125 978.491760253906 978.631042480469 975.887268066406 965.808715820312 965.302062988281 963.870544433594 960.451232910156 968.471862792969 969.454040527344 976.741577148438 971.492492675781 960.8818359375 974.054321289062 976.524719238281 962.454650878906 964.90380859375 965.327209472656 962.007446289062 968.6689453125 976.918334960938 972.224365234375 972.940979003906 969.514709472656 974.984069824219 967.222473144531 966.296508789062 975.101806640625 976.899291992188 989.878723144531 988.243774414062 985.854064941406 975.618286132812 972.062927246094 968.7333984375 967.768249511719 965.270751953125 962.91796875 967.044494628906 974.484252929688 972.871520996094 983.656677246094 985.359069824219 995.136474609375 986.424194335938 990.15966796875 980.83447265625 981.126953125 974.209777832031 985.547790527344 991.560913085938 989.314270019531 992.159973144531 989.02685546875 987.269409179688 985.740905761719 987.246398925781 982.083374023438 979.761840820312 984.783630371094 996.528198242188 991.703674316406 993.189270019531 990.537841796875 979.667785644531 983.209594726562 984.434753417969 980.03076171875 989.226623535156 972.431274414062 980.712219238281 984.564025878906 980.75048828125 983.905578613281 985.388732910156 985.982116699219 992.572082519531 978.166442871094 986.724975585938 993.419311523438 992.858825683594 983.392944335938 990.139892578125 992.564331054688 1002.74981689453 1001.31823730469 1000.75219726562 997.883056640625 1012.42553710938 1028.35314941406 1040.93591308594 1026.78759765625 1038.21997070312 1046.37963867188 1039.09484863281 1039.869140625 1044.33984375 1052.44738769531 1063.12609863281 1072.10754394531 1070.94055175781 1067.70715332031 1072.59741210938 1096.04455566406 1105.08715820312 1110.41809082031 1119.55810546875 1126.09777832031 1140.15478515625 1144.55725097656 1162.72790527344 1167.62561035156 1172.13439941406
949.928771972656 951.919555664062 950.887451171875 945.365966796875 955.004455566406 951.501831054688 958.043640136719 964.173522949219 969.422790527344 965.71533203125 968.307189941406 963.402587890625 972.534118652344 975.830200195312 975.507507324219 973.860778808594 980.580688476562 979.513000488281 974.064636230469 977.718872070312 974.234741210938 976.281555175781 968.837585449219 968.651672363281 969.713684082031 964.773132324219 963.774536132812 966.521057128906 976.355163574219 984.472290039062 981.45703125 984.163146972656 981.852600097656 981.503112792969 973.451049804688 965.310302734375 964.747680664062 972.276550292969 976.633728027344 976.236206054688 978.536499023438 965.424255371094 964.680847167969 964.817749023438 966.991271972656 965.048889160156 966.562561035156 970.436096191406 965.055603027344 968.987487792969 964.348022460938 967.709045410156 970.012084960938 971.092834472656 967.378173828125 966.926208496094 971.71240234375 981.492492675781 977.242919921875 969.513427734375 976.375610351562 971.053527832031 973.830261230469 969.561401367188 972.256164550781 979.327270507812 979.28466796875 982.676330566406 986.889892578125 975.115600585938 974.404357910156 975.878784179688 973.153869628906 971.31201171875 965.886657714844 964.983703613281 976.079650878906 976.242431640625 977.589599609375 985.712036132812 982.275146484375 984.900390625 980.131958007812 975.357666015625 973.435119628906 978.290283203125 976.625 979.258850097656 976.143371582031 983.752624511719 979.959106445312 990.530334472656 991.50927734375 990.190795898438 985.436218261719 971.552673339844 984.133178710938 980.888366699219 990.771179199219 990.54736328125 984.321228027344 977.394836425781 983.829833984375 977.721069335938 973.358459472656 977.519226074219 981.546508789062 987.9423828125 985.216979980469 984.115234375 977.200439453125 984.40966796875 985.902587890625 984.689758300781 989.729064941406 994.840148925781 1007.38757324219 997.030639648438 993.835571289062 998.312072753906 996.923522949219 998.59912109375 994.498168945312 996.983276367188 1004.50030517578 1021.97967529297 1032.34875488281 1032.66052246094 1039.71203613281 1051.11437988281 1052.67541503906 1051.92431640625 1052.76586914062 1054.44226074219 1063.90661621094 1072.48706054688 1073.23168945312 1080.82763671875 1083.24536132812 1088.55493164062 1106.69128417969 1113.80334472656 1112.00158691406 1125.47033691406 1130.05419921875 1137.73657226562 1149.11584472656 1162.7109375 1171.23852539062 1186.09521484375
938.719421386719 960.750549316406 948.879821777344 944.846008300781 952.073669433594 959.603393554688 960.997131347656 965.976013183594 965.5498046875 963.152648925781 956.303771972656 968.518493652344 973.213684082031 974.673828125 972.669311523438 982.942810058594 979.650695800781 981.501281738281 971.907653808594 977.36962890625 973.721252441406 972.949401855469 966.737976074219 972.409851074219 959.096557617188 962.121459960938 968.782592773438 975.195495605469 974.17919921875 974.099548339844 978.251342773438 985.849792480469 980.078308105469 980.9296875 979.735229492188 970.374450683594 967.485595703125 975.417785644531 978.251220703125 973.560241699219 974.395874023438 969.192016601562 961.590454101562 963.912170410156 969.42041015625 971.172607421875 965.939086914062 966.576721191406 969.180114746094 979.195007324219 971.316711425781 971.364318847656 970.382568359375 971.724304199219 963.972229003906 971.405334472656 981.825622558594 985.033386230469 975.561645507812 974.398986816406 974.436279296875 982.689514160156 986.127197265625 985.4267578125 972.34423828125 975.461853027344 973.256530761719 978.196105957031 978.174255371094 975.068908691406 974.029846191406 971.981689453125 964.414733886719 965.718322753906 963.84814453125 968.506164550781 969.049743652344 976.734497070312 979.575927734375 964.950012207031 967.508605957031 974.013305664062 976.624633789062 972.658752441406 969.634033203125 972.429260253906 964.075866699219 968.777038574219 968.949157714844 978.131408691406 982.352355957031 976.737365722656 991.452514648438 989.666870117188 981.422912597656 983.877685546875 985.134460449219 985.670166015625 977.414733886719 981.237365722656 981.013793945312 971.077270507812 973.315246582031 977.727844238281 981.981994628906 981.86865234375 989.279235839844 991.560607910156 992.953002929688 994.042663574219 995.466552734375 987.389526367188 986.615844726562 991.417236328125 997.297058105469 1003.43896484375 999.272155761719 1003.65985107422 1010.69769287109 1002.4892578125 1005.86755371094 1002.6845703125 996.869995117188 1008.49774169922 1012.18365478516 1020.92303466797 1026.39306640625 1034.20385742188 1044.94982910156 1053.21362304688 1055.35534667969 1055.98669433594 1055.51293945312 1055.0634765625 1073.25354003906 1071.66357421875 1083.67749023438 1087.84350585938 1086.21618652344 1093.90539550781 1095.30053710938 1103.69970703125 1111.61645507812 1124.49157714844 1128.26513671875 1142.45495605469 1157.43518066406 1168.99926757812 1184.244140625 1189.46057128906
942.090698242188 955.331420898438 953.890869140625 948.855895996094 947.326599121094 961.260620117188 955.242248535156 956.210632324219 964.629028320312 963.766357421875 960.374816894531 964.276184082031 969.007202148438 967.014587402344 962.410583496094 963.346069335938 977.956420898438 977.612854003906 975.7373046875 973.184143066406 974.284606933594 979.898620605469 972.745056152344 969.642211914062 958.838012695312 967.051208496094 969.683227539062 964.717346191406 972.573608398438 972.854614257812 980.095336914062 977.332702636719 976.625793457031 974.751159667969 976.698364257812 979.139343261719 970.914978027344 977.476318359375 966.731567382812 975.089538574219 973.400024414062 971.793334960938 964.444152832031 959.881652832031 961.077514648438 963.521362304688 971.639343261719 967.600524902344 975.556518554688 971.213439941406 971.59130859375 970.441589355469 969.654602050781 971.627380371094 963.549499511719 971.353698730469 980.734619140625 973.453247070312 971.961608886719 975.452392578125 975.433166503906 975.480773925781 985.510009765625 984.758544921875 980.245483398438 968.716613769531 975.256042480469 978.542358398438 971.640930175781 971.815002441406 969.052612304688 967.023071289062 967.123168945312 967.418212890625 971.824096679688 975.826293945312 974.351806640625 979.133666992188 970.541442871094 969.696044921875 961.753479003906 974.576599121094 973.984313964844 970.428588867188 966.723876953125 966.927490234375 963.552490234375 974.93310546875 970.99267578125 973.157470703125 962.875305175781 984.776428222656 984.582946777344 987.018249511719 984.418029785156 980.019165039062 982.844421386719 972.539855957031 961.93701171875 975.707580566406 978.447998046875 981.973449707031 979.286682128906 985.674011230469 995.512756347656 999.213012695312 991.417907714844 991.652282714844 998.088500976562 1001.66174316406 999.127258300781 994.9130859375 995.770263671875 998.965637207031 1007.1162109375 1012.33056640625 1004.90374755859 1012.67327880859 1014.13031005859 1018.22149658203 1005.71826171875 1013.49578857422 1021.57720947266 1018.05871582031 1024.81591796875 1029.16186523438 1036.66979980469 1041.828125 1053.32446289062 1049.45422363281 1056.73486328125 1060.49194335938 1063.00500488281 1060.32641601562 1072.908203125 1075.63562011719 1087.14514160156 1084.81921386719 1091.68505859375 1100.10412597656 1099.16320800781 1110.16613769531 1117.45239257812 1119.57751464844 1127.07543945312 1138.78344726562 1151.7021484375 1163.96704101562 1174.53845214844 1182.64294433594
950.910034179688 953.404357910156 958.924194335938 953.701904296875 947.959533691406 957.670532226562 959.798034667969 963.348022460938 967.719787597656 965.379211425781 966.522216796875 958.441711425781 960.313232421875 952.849304199219 949.51904296875 964.839904785156 983.504333496094 966.746459960938 962.813781738281 970.517578125 975.856079101562 976.371154785156 965.8505859375 967.856262207031 966.628662109375 964.325500488281 973.182495117188 965.849548339844 964.754760742188 969.943115234375 976.06201171875 971.865539550781 970.105712890625 976.361145019531 972.14697265625 973.884216308594 967.742492675781 963.642578125 969.15771484375 980.087097167969 973.688049316406 970.012451171875 955.080505371094 958.521057128906 966.651123046875 951.255187988281 965.474365234375 971.058959960938 970.032470703125 965.262573242188 967.9365234375 969.437194824219 971.423278808594 972.004577636719 967.210388183594 973.218200683594 982.624084472656 978.379089355469 974.387451171875 969.337036132812 978.048645019531 973.947082519531 970.669494628906 974.724487304688 978.230773925781 975.197082519531 975.444519042969 974.885070800781 973.857727050781 970.268737792969 964.949157714844 961.721313476562 966.666931152344 967.006225585938 972.703857421875 976.696838378906 979.711059570312 970.282165527344 969.895141601562 970.862182617188 965.752685546875 981.652099609375 973.666748046875 964.914001464844 955.638916015625 958.471130371094 965.163391113281 973.862609863281 979.7041015625 976.85205078125 973.714233398438 984.359558105469 981.486450195312 983.528137207031 972.464782714844 971.973754882812 974.206848144531 970.096435546875 965.998596191406 980.007690429688 978.665649414062 992.279846191406 996.985107421875 996.620849609375 1001.69738769531 994.530578613281 996.204406738281 997.032043457031 1001.54333496094 1002.43286132812 1001.08123779297 996.541381835938 1005.21356201172 999.149536132812 1004.24237060547 1008.91668701172 1005.06768798828 1007.78820800781 1017.15441894531 1017.26458740234 1017.34997558594 1020.91375732422 1026.55065917969 1029.74194335938 1037.79626464844 1038.2431640625 1042.81958007812 1056.58984375 1052.93469238281 1055.02453613281 1057.95568847656 1062.38305664062 1064.5615234375 1068.37963867188 1073.84594726562 1083.55346679688 1085.43627929688 1087.12414550781 1089.51647949219 1097.72204589844 1104.81042480469 1113.54736328125 1120.11157226562 1116.73303222656 1125.69494628906 1143.48681640625 1148.31408691406 1154.90637207031 1158.79809570312 1169.21301269531
959.729248046875 958.089050292969 952.293823242188 956.21044921875 952.942077636719 958.331176757812 971.483215332031 962.866394042969 962.63916015625 963.474060058594 966.794555664062 963.002807617188 960.355407714844 959.879028320312 949.918334960938 963.455810546875 968.095336914062 966.695983886719 963.451904296875 975.562072753906 973.97119140625 971.699951171875 964.786743164062 967.642211914062 964.033386230469 966.052612304688 975.10400390625 979.603271484375 971.258850097656 975.597473144531 976.062927246094 972.717590332031 972.226135253906 983.540710449219 980.545288085938 974.030639648438 975.810852050781 972.843139648438 964.821166992188 980.811462402344 975.304565429688 969.514038085938 961.5888671875 960.761901855469 962.480712890625 959.137878417969 974.651306152344 969.718444824219 965.386413574219 969.529235839844 973.811950683594 975.903747558594 980.213623046875 974.674560546875 971.354858398438 969.491088867188 978.057189941406 976.65869140625 970.485412597656 977.737731933594 974.910217285156 968.745239257812 968.924560546875 961.460632324219 968.159973144531 978.060852050781 977.063659667969 966.917053222656 975.883361816406 968.897827148438 962.205383300781 961.450622558594 964.372985839844 970.985778808594 970.140991210938 974.460083007812 969.360595703125 966.562316894531 971.532653808594 964.756713867188 965.136962890625 977.206970214844 974.702026367188 963.05615234375 962.423278808594 964.873352050781 972.262939453125 973.767333984375 970.391052246094 976.7177734375 975.082702636719 981.077392578125 980.861694335938 981.214965820312 975.83447265625 969.444152832031 968.215026855469 976.026123046875 969.016784667969 973.466918945312 978.897827148438 982.542419433594 991.09716796875 994.992614746094 1005.12420654297 991.884033203125 989.178283691406 991.83349609375 1002.99572753906 999.742614746094 1002.24542236328 1011.75531005859 1017.60931396484 1011.15155029297 1005.53863525391 1011.25463867188 1009.55322265625 1012.39428710938 1008.16845703125 1015.72021484375 1011.6337890625 1023.25378417969 1024.24365234375 1033.63708496094 1041.30517578125 1045.42150878906 1050.44006347656 1059.37512207031 1054.27282714844 1048.52575683594 1058.16162109375 1061.83532714844 1069.47583007812 1070.76220703125 1073.35998535156 1085.97033691406 1084.36437988281 1079.00146484375 1089.25219726562 1100.95910644531 1099.42590332031 1110.04943847656 1116.38171386719 1114.26208496094 1124.26770019531 1135.76123046875 1143.18115234375 1154.908203125 1156.08129882812 1156.97546386719
953.590576171875 963.38232421875 959.696655273438 961.059448242188 952.306274414062 964.605346679688 977.560485839844 964.715087890625 967.450378417969 969.665405273438 965.91455078125 960.000183105469 958.926147460938 961.993957519531 967.512878417969 970.144714355469 981.934875488281 975.869506835938 970.64697265625 975.271301269531 971.678771972656 973.170654296875 969.1494140625 964.711669921875 960.448669433594 965.0205078125 972.416259765625 967.297546386719 973.185607910156 976.7890625 971.697204589844 970.859069824219 961.925964355469 973.658874511719 973.740966796875 973.221740722656 972.623352050781 974.25146484375 965.26953125 972.327270507812 970.91015625 961.337646484375 963.499633789062 963.010314941406 962.072692871094 962.448974609375 965.721801757812 970.628479003906 966.442443847656 971.535949707031 974.51416015625 983.842468261719 975.18017578125 972.519958496094 973.090942382812 975.834228515625 967.526977539062 974.50048828125 968.839538574219 957.912231445312 964.778747558594 961.93896484375 961.5458984375 971.557556152344 970.624694824219 969.292419433594 975.843444824219 972.807373046875 970.412170410156 976.134033203125 968.963562011719 961.570373535156 960.268676757812 962.408020019531 963.311340332031 959.357543945312 967.306335449219 975.371520996094 970.794494628906 965.955017089844 973.286865234375 971.898681640625 964.180603027344 964.481384277344 966.602355957031 971.940307617188 980.873168945312 964.295715332031 962.791870117188 976.6376953125 978.096374511719 978.575439453125 983.762084960938 978.998718261719 983.188110351562 982.030517578125 977.196594238281 978.200439453125 975.762329101562 976.883117675781 980.839904785156 978.303588867188 988.054992675781 990.99853515625 984.42724609375 990.658020019531 990.424560546875 995.29443359375 997.047119140625 999.301513671875 997.512756347656 1003.31726074219 1013.56494140625 1014.41082763672 1009.84326171875 1011.09765625 1010.84716796875 1012.48107910156 1003.39147949219 1002.20404052734 1005.59790039062 1018.53686523438 1021.21899414062 1033.19140625 1044.76635742188 1054.09912109375 1061.04797363281 1058.576171875 1054.41271972656 1049.99499511719 1053.8916015625 1061.61108398438 1068.53576660156 1069.68908691406 1071.34655761719 1082.19543457031 1086.18530273438 1090.49353027344 1092.28430175781 1092.47692871094 1099.50415039062 1113.42956542969 1115.51440429688 1111.07495117188 1110.78039550781 1121.88073730469 1134.853515625 1138.15637207031 1145.08605957031 1152.55444335938
952.257080078125 959.339599609375 954.631408691406 955.033996582031 953.84326171875 968.421081542969 974.002014160156 972.377868652344 977.847473144531 973.159606933594 970.772827148438 960.079650878906 955.497375488281 961.948181152344 966.246276855469 977.594421386719 980.107971191406 982.935485839844 972.247192382812 975.313232421875 982.470947265625 977.735595703125 964.91064453125 960.525085449219 962.354614257812 964.517517089844 973.082824707031 969.19873046875 982.276794433594 981.528381347656 976.2568359375 969.09912109375 963.367492675781 968.4228515625 975.226623535156 974.94970703125 976.977783203125 974.80126953125 961.792053222656 962.940124511719 960.280517578125 962.577880859375 962.079345703125 959.441528320312 964.579284667969 965.036437988281 967.89306640625 960.699157714844 965.327880859375 973.572570800781 973.998962402344 974.310119628906 964.213500976562 969.750305175781 964.173156738281 961.7666015625 961.1962890625 964.991027832031 975.084777832031 959.839477539062 952.751037597656 953.339233398438 956.025390625 968.565795898438 962.85791015625 970.7548828125 976.313842773438 975.448669433594 968.160339355469 965.81103515625 965.672180175781 961.669616699219 951.918579101562 965.139099121094 961.149963378906 958.926452636719 978.940673828125 981.566589355469 971.74951171875 974.285217285156 968.5107421875 971.696105957031 964.259094238281 970.1015625 972.261779785156 970.291198730469 974.018615722656 969.679077148438 966.992126464844 970.067810058594 977.972900390625 982.552429199219 983.255004882812 982.381652832031 984.914855957031 986.241760253906 985.626586914062 975.890991210938 972.873779296875 978.630065917969 980.8623046875 980.194702148438 982.238403320312 977.026550292969 981.934265136719 976.693359375 995.735168457031 1000.19372558594 1003.34246826172 998.980224609375 997.601013183594 999.098327636719 1000.64654541016 1005.75207519531 1006.72418212891 1005.69488525391 1004.20831298828 1009.8359375 1003.92706298828 1009.18933105469 1010.66174316406 1012.55261230469 1019.56909179688 1029.15759277344 1043.5322265625 1051.47375488281 1057.95104980469 1061.27868652344 1050.10400390625 1052.27893066406 1055.38793945312 1063.35168457031 1077.07470703125 1074.5576171875 1072.27844238281 1074.43542480469 1082.6396484375 1094.23510742188 1099.08374023438 1094.63366699219 1101.3486328125 1108.408203125 1104.19848632812 1103.12976074219 1108.41967773438 1108.65063476562 1114.65991210938 1123.57995605469 1131.29382324219 1133.12231445312
955.977661132812 956.040893554688 959.781677246094 950.788024902344 952.945251464844 963.827392578125 970.875915527344 971.1767578125 972.221435546875 975.70947265625 978.892211914062 971.824157714844 970.276733398438 968.730773925781 982.549133300781 981.074768066406 987.387878417969 981.160461425781 975.180053710938 972.335388183594 969.399658203125 961.203247070312 959.697143554688 954.974853515625 961.277770996094 961.536499023438 965.335754394531 965.625732421875 977.236206054688 980.364685058594 968.807189941406 960.654663085938 965.749267578125 973.174926757812 977.165283203125 980.827758789062 973.252075195312 972.537414550781 960.838806152344 953.560241699219 951.947631835938 954.674194335938 957.556640625 959.78564453125 953.755065917969 961.135986328125 968.96826171875 964.112976074219 968.608825683594 966.956176757812 962.380004882812 964.313354492188 966.958251953125 955.7275390625 961.835510253906 957.474365234375 956.332275390625 955.240905761719 956.725280761719 950.029602050781 949.505187988281 947.206604003906 954.028015136719 958.755798339844 965.521667480469 969.454650878906 969.512268066406 967.783447265625 964.611694335938 961.231262207031 962.882934570312 969.568908691406 965.413513183594 958.861389160156 962.920288085938 971.459228515625 968.191467285156 983.649169921875 980.358642578125 982.246704101562 983.866394042969 977.41845703125 968.881042480469 970.098449707031 975.570678710938 971.343872070312 968.093688964844 968.422485351562 971.603393554688 966.751770019531 965.935119628906 971.657531738281 981.329040527344 977.535583496094 977.251281738281 983.691040039062 978.054443359375 980.360717773438 972.222106933594 974.123474121094 986.093811035156 979.608520507812 977.789001464844 979.536743164062 988.1435546875 982.370361328125 978.196838378906 985.823608398438 998.251770019531 996.111511230469 991.174377441406 993.070251464844 988.795593261719 997.870727539062 991.889221191406 998.839721679688 999.24951171875 998.802490234375 1008.99829101562 1008.21038818359 1008.24468994141 1015.24487304688 1027.54943847656 1030.60412597656 1039.54602050781 1051.78845214844 1056.42749023438 1052.08801269531 1043.48681640625 1043.53002929688 1055.09655761719 1059.64343261719 1064.06372070312 1071.2861328125 1074.02783203125 1071.76306152344 1079.09399414062 1089.35778808594 1102.17041015625 1103.0029296875 1102.70092773438 1103.3544921875 1104.39477539062 1098.63891601562 1101.50756835938 1103.82556152344 1101.95202636719 1118.95581054688 1125.93969726562 1128.7626953125
