NCOLS 150
NROWS 37
XLLCORNER 7394249
YLLCORNER 4843769
CELLSIZE 30
NODATA_VALUE -9999
1002.10247802734 1005.09429931641 1006.51873779297 1004.72662353516 998.071838378906 1004.74249267578 1002.65057373047 1005.91931152344 1007.84509277344 1012.88525390625 1012.54266357422 997.825805664062 1007.31817626953 1000.39202880859 1011.95184326172 1011.81506347656 1013.36669921875 1023.57141113281 1023.02203369141 1027.44421386719 1031.72143554688 1038.18908691406 1048.61743164062 1035.11083984375 1026.37072753906 1030.95922851562 1028.20458984375 1020.05249023438 1012.20513916016 1016.02502441406 1026.51708984375 1027.97778320312 1027.02954101562 1031.89392089844 1020.08978271484 1014.97985839844 1007.4443359375 1012.90447998047 1005.29077148438 1005.97430419922 1009.6298828125 1006.99719238281 990.216064453125 989.93115234375 989.722412109375 989.772338867188 982.515991210938 985.706176757812 972.296752929688 977.330078125 967.718933105469 961.773559570312 960.38818359375 950.430358886719 951.252258300781 963.723693847656 962.940063476562 967.661071777344 965.585632324219 956.78466796875 950.758422851562 944.208312988281 956.841674804688 960.608947753906 954.38330078125 946.540283203125 944.695190429688 940.603332519531 931.325866699219 929.673522949219 941.477111816406 940.244934082031 946.671569824219 957.466186523438 969.811767578125 983.323120117188 993.001647949219 999.803955078125 1001.24145507812 1000.70135498047 1004.86651611328 1011.27325439453 1009.25317382812 995.709411621094 986.932067871094 970.991577148438 960.563903808594 946.053894042969 950.239318847656 949.662536621094 944.966796875 937.239013671875 929.132873535156 921.363464355469 910.974060058594 904.134582519531 897.220275878906 899.102294921875 882.564270019531 879.474243164062 876.048889160156 884.252746582031 886.735778808594 881.622131347656 873.644470214844 886.997009277344 882.0869140625 878.079467773438 871.623657226562 869.919677734375 866.90478515625 874.166931152344 879.296142578125 893.962280273438 904.745361328125 909.871948242188 917.827758789062 922.872253417969 915.978088378906 928.198974609375 923.772644042969 935.573059082031 943.549072265625 956.203735351562 949.659606933594 948.552124023438 956.479614257812 970.270874023438 987.297058105469 990.6982421875 994.079895019531 1005.16345214844 1015.61798095703 1027.62658691406 1039.95812988281 1047.2470703125 1052.16320800781 1071.84533691406 1080.57604980469 1092.18115234375 1106.70666503906 1107.55297851562 1110.62768554688 1117.75671386719 1110.20764160156 1103.00671386719 1090.51928710938 1083.02172851562 1071.04272460938 1060.87451171875
994.188720703125 1002.29943847656 1001.09362792969 997.180847167969 994.332580566406 995.390808105469 1007.96020507812 1006.76489257812 1006.72125244141 1004.65753173828 1002.92340087891 998.545532226562 994.595458984375 1002.64495849609 1010.81781005859 1017.46081542969 1015.07794189453 1022.62054443359 1019.72717285156 1027.87084960938 1029.60717773438 1038.4755859375 1040.30017089844 1028.2021484375 1020.58178710938 1023.00189208984 1027.53588867188 1021.43389892578 1017.61950683594 1023.90563964844 1018.91888427734 1023.353515625 1025.99133300781 1030.78454589844 1023.15093994141 1015.20043945312 1006.41296386719 1006.09057617188 1007.71057128906 1007.77563476562 1014.77301025391 1002.4501953125 998.179931640625 992.878173828125 986.320861816406 986.325134277344 987.258605957031 985.899597167969 980.948791503906 978.301513671875 969.516479492188 956.4794921875 954.921691894531 962.601623535156 965.318298339844 965.035034179688 967.789794921875 974.072692871094 972.548950195312 971.830078125 971.980712890625 963.598876953125 962.097900390625 967.06396484375 968.489318847656 970.315002441406 964.287658691406 945.539306640625 941.622863769531 949.089965820312 947.08984375 944.356567382812 955.301574707031 962.229187011719 973.765747070312 984.678649902344 996.963928222656 996.011413574219 1001.9599609375 1006.00622558594 1005.12457275391 1013.25189208984 1012.67138671875 1003.73913574219 994.079223632812 974.166625976562 963.964660644531 951.833923339844 949.548889160156 946.59228515625 946.958618164062 932.826782226562 927.071228027344 929.676574707031 918.39892578125 915.652587890625 902.566650390625 894.78662109375 886.387756347656 880.979309082031 880.594421386719 877.685729980469 880.264892578125 873.85107421875 874.57080078125 885.455505371094 890.962524414062 889.259033203125 875.256896972656 879.584533691406 875.032897949219 871.813232421875 876.052795410156 889.067443847656 900.230163574219 904.219604492188 909.001770019531 912.953125 919.763732910156 931.720764160156 938.575012207031 943.291381835938 953.172241210938 960.279174804688 944.005432128906 943.989990234375 951.476196289062 965.669860839844 978.762634277344 993.025695800781 1007.68872070312 1009.46551513672 1006.29125976562 1028.59216308594 1038.16931152344 1047.04235839844 1063.69787597656 1067.33972167969 1078.55883789062 1088.74377441406 1107.353515625 1111.4462890625 1111.71984863281 1121.89416503906 1130.16259765625 1104.59387207031 1106.62634277344 1088.6982421875 1086.12976074219 1075.32055664062
994.688049316406 995.6435546875 998.249816894531 1002.12884521484 1005.55157470703 1005.71215820312 1006.04278564453 1003.88494873047 1002.48950195312 1000.54602050781 1005.67565917969 1004.01257324219 999.932006835938 1002.82092285156 1006.99682617188 1015.97473144531 1014.00952148438 1018.09289550781 1022.47998046875 1031.57385253906 1035.93029785156 1029.44396972656 1028.84558105469 1024.2607421875 1012.43286132812 1013.89825439453 1020.46423339844 1013.85137939453 1012.75830078125 1008.28076171875 1015.29565429688 1017.11981201172 1017.02624511719 1021.44714355469 1015.89880371094 1019.94372558594 1018.09844970703 1012.22131347656 1005.94604492188 1003.28723144531 1004.13989257812 999.35498046875 990.730102539062 992.829162597656 982.433837890625 990.238708496094 989.696899414062 991.529602050781 979.023315429688 983.102111816406 973.110168457031 967.26416015625 969.834533691406 979.544372558594 978.458801269531 971.553894042969 973.9306640625 980.800964355469 988.75048828125 982.767517089844 978.714172363281 973.865905761719 977.013305664062 978.830139160156 978.103088378906 973.587585449219 962.319458007812 947.039184570312 955.100463867188 961.407165527344 954.007629394531 947.284484863281 956.526733398438 966.669860839844 977.90185546875 985.110473632812 1003.90338134766 1005.71472167969 1006.82989501953 1009.71624755859 1008.51379394531 1022.4482421875 1019.74230957031 1018.98614501953 1004.83227539062 985.741333007812 966.67138671875 950.604309082031 949.983032226562 946.169677734375 936.63232421875 931.239685058594 930.480224609375 932.995422363281 922.500061035156 909.242919921875 909.409423828125 902.106506347656 883.454406738281 883.024841308594 883.001586914062 884.620910644531 887.1376953125 876.828552246094 878.291320800781 891.476135253906 894.725646972656 894.986877441406 886.060546875 885.34423828125 883.152526855469 884.146728515625 879.101806640625 880.600952148438 899.196166992188 897.885803222656 899.323547363281 908.645202636719 917.748168945312 929.744323730469 936.428405761719 942.284118652344 940.778564453125 953.242309570312 950.458984375 946.87744140625 958.22802734375 969.185302734375 984.745056152344 997.3955078125 1005.05725097656 1003.89752197266 1004.46850585938 1022.86181640625 1029.09521484375 1044.56396484375 1065.12756347656 1072.11669921875 1079.66613769531 1103.43627929688 1114.08374023438 1117.15075683594 1121.52380371094 1129.171875 1134.31396484375 1126.83703613281 1107.08459472656 1094.9755859375 1102.69421386719 1092.35766601562
991.496948242188 1002.40850830078 994.922119140625 995.961242675781 996.9228515625 999.199340820312 1008.87170410156 1009.12707519531 1006.373046875 1004.81524658203 1005.68615722656 1001.11785888672 990.828247070312 999.324829101562 1007.02819824219 1007.28442382812 1015.84460449219 1014.68218994141 1019.51397705078 1017.6318359375 1026.73815917969 1024.19580078125 1025.55493164062 1019.08721923828 1012.16778564453 1004.45703125 1006.01715087891 1014.23156738281 998.354797363281 997.571472167969 1009.60754394531 1020.14190673828 1023.72210693359 1017.95068359375 1013.50476074219 1017.71533203125 1012.59326171875 1010.53540039062 1005.52478027344 999.670959472656 996.178161621094 1000.57580566406 997.69091796875 993.616577148438 994.866149902344 992.366882324219 998.054870605469 993.435363769531 986.190002441406 985.241943359375 982.764282226562 982.736389160156 986.73193359375 990.008911132812 996.719665527344 993.215454101562 988.639282226562 987.289428710938 987.459045410156 994.825561523438 997.755554199219 986.961364746094 990.288635253906 984.81884765625 985.182800292969 985.379089355469 972.513366699219 966.726318359375 958.784973144531 964.144897460938 959.426147460938 963.048095703125 965.001708984375 969.107299804688 972.397705078125 984.185485839844 997.072998046875 1009.70166015625 1011.18676757812 1018.47674560547 1016.15472412109 1023.30505371094 1019.48962402344 1021.3603515625 1010.37036132812 987.240600585938 969.65771484375 953.665588378906 941.138061523438 943.3603515625 936.572204589844 937.29296875 932.559143066406 927.458129882812 929.661926269531 918.240600585938 912.7001953125 905.704223632812 894.822814941406 886.666625976562 882.157836914062 889.584838867188 887.256286621094 881.60009765625 884.823608398438 893.8076171875 896.658447265625 892.743530273438 889.672607421875 881.463500976562 881.530151367188 885.514404296875 888.836547851562 890.836791992188 893.1591796875 890.1337890625 902.317321777344 900.281921386719 911.612121582031 926.638000488281 938.835388183594 940.707885742188 944.74072265625 942.901062011719 952.925048828125 948.033203125 959.378356933594 977.132141113281 981.166076660156 991.968688964844 992.036437988281 999.632202148438 999.755798339844 1017.38671875 1026.90344238281 1049.84680175781 1065.0830078125 1071.93151855469 1083.12683105469 1107.10144042969 1135.60192871094 1139.83825683594 1135.5703125 1137.57775878906 1142.10144042969 1129.634765625 1120.87438964844 1118.99157714844 1111.82238769531 1105.33666992188
983.157287597656 989.716491699219 991.008361816406 990.903076171875 995.448425292969 1004.39611816406 1007.10540771484 1004.24584960938 999.615478515625 1006.80535888672 1001.34234619141 992.412170410156 988.984375 995.974365234375 1008.76617431641 1014.19573974609 1014.17980957031 1015.61517333984 1018.90466308594 1020.28509521484 1016.47509765625 1006.7353515625 1012.73504638672 1004.56903076172 1005.21520996094 1001.44812011719 1003.36010742188 1006.9521484375 1004.98089599609 1000.06262207031 1007.62799072266 1018.93927001953 1027.56884765625 1022.787109375 1013.21185302734 1008.52954101562 1010.97058105469 1015.93646240234 1010.71185302734 1005.79748535156 998.372985839844 1000.90972900391 1000.28637695312 992.922302246094 1001.15838623047 998.919067382812 1008.20947265625 998.446044921875 994.208984375 987.360534667969 986.915893554688 999.657409667969 993.263977050781 1005.20080566406 1004.97814941406 998.173583984375 998.9765625 1010.60345458984 1006.79235839844 999.41015625 1013.77685546875 1004.05725097656 996.464782714844 990.97509765625 986.536743164062 985.796569824219 983.070007324219 977.910095214844 972.505615234375 976.967834472656 984.353759765625 973.860900878906 970.237365722656 976.192565917969 972.9609375 988.396118164062 1001.23107910156 1020.18914794922 1025.86596679688 1022.94415283203 1028.47045898438 1021.63897705078 1016.31811523438 1007.98083496094 1000.68927001953 985.64892578125 970.319946289062 950.8994140625 939.950073242188 934.509216308594 931.985595703125 929.494934082031 941.524658203125 929.764953613281 923.095825195312 924.06201171875 915.202697753906 910.897583007812 896.568359375 895.193969726562 896.216979980469 890.562072753906 885.244506835938 886.830688476562 893.802673339844 906.708740234375 908.998962402344 895.579772949219 891.072143554688 886.175476074219 882.750061035156 893.7978515625 899.870727539062 897.871459960938 899.112182617188 893.069213867188 903.256286621094 904.093200683594 911.194152832031 921.364074707031 932.970153808594 944.442138671875 939.151977539062 942.214111328125 954.242248535156 955.949645996094 960.134338378906 982.276123046875 981.593383789062 979.049438476562 991.493408203125 993.223388671875 1007.71911621094 1018.43225097656 1043.91796875 1057.69592285156 1066.75402832031 1082.50866699219 1090.94311523438 1106.63305664062 1129.94982910156 1144.79077148438 1144.25598144531 1141.36596679688 1131.923828125 1137.38818359375 1132.13610839844 1133.82116699219 1122.41882324219 1114.10485839844
980.030700683594 986.371826171875 990.854370117188 998.891357421875 1004.54241943359 1008.50219726562 1009.31488037109 1003.19970703125 1011.16143798828 1006.27258300781 1001.93737792969 991.761779785156 990.77099609375 995.67138671875 1001.71704101562 1004.07495117188 1004.93487548828 1009.08642578125 1007.05816650391 1015.93774414062 1009.86328125 1002.90399169922 1010.94323730469 996.059020996094 1000.93719482422 998.873229980469 1007.24645996094 1005.31182861328 1000.65380859375 1007.31817626953 1010.09387207031 1013.146484375 1013.90899658203 1016.79681396484 1010.6259765625 1003.67987060547 1002.30584716797 1011.12744140625 1010.4638671875 1008.6044921875 1013.96661376953 1010.00421142578 994.642456054688 997.605224609375 1003.20654296875 1008.27746582031 1006.13061523438 1005.20208740234 1004.53546142578 997.982849121094 990.846740722656 1000.12176513672 1003.31048583984 1004.57708740234 1011.72839355469 1008.546875 1002.69854736328 1007.44512939453 1014.70745849609 1010.75952148438 1009.46496582031 1009.30944824219 1007.935546875 999.263305664062 996.842834472656 993.0400390625 990.485107421875 988.797668457031 992.897644042969 998.170654296875 996.673034667969 983.251342773438 979.2001953125 978.260131835938 982.321838378906 994.356018066406 1011.505859375 1021.75280761719 1024.52233886719 1031.05163574219 1031.07373046875 1024.04626464844 1011.24737548828 1014.22552490234 1005.51776123047 987.761535644531 971.883056640625 961.246520996094 940.718994140625 934.613647460938 940.092468261719 932.203491210938 940.997497558594 938.604858398438 929.69970703125 926.723022460938 923.1455078125 905.956726074219 917.294250488281 913.9697265625 906.110290527344 900.030822753906 899.88134765625 901.430786132812 901.697875976562 912.278015136719 916.455688476562 909.544067382812 905.565307617188 902.467651367188 886.810913085938 891.111633300781 905.225402832031 907.106994628906 899.534484863281 900.708679199219 904.516540527344 902.840087890625 908.527954101562 922.684020996094 924.956665039062 929.695861816406 935.485290527344 946.158752441406 959.192810058594 970.185119628906 969.425048828125 980.618896484375 989.189208984375 983.00341796875 995.669006347656 1002.732421875 1016.35943603516 1030.93273925781 1047.62744140625 1064.37927246094 1080.12768554688 1094.54626464844 1105.79248046875 1108.79895019531 1124.45422363281 1130.37414550781 1139.26696777344 1137.48754882812 1129.08264160156 1135.80419921875 1141.72387695312 1133.55590820312 1133.09851074219 1126.48779296875
982.533813476562 977.418518066406 985.47021484375 1002.05493164062 994.197143554688 1000.74761962891 1003.32141113281 999.102661132812 1005.75653076172 1002.26611328125 995.178161621094 987.307434082031 994.387573242188 988.644653320312 993.595336914062 998.290588378906 1000.71118164062 1006.22601318359 1003.65319824219 1011.71179199219 999.667663574219 1003.10577392578 995.264892578125 992.289123535156 997.591125488281 991.888549804688 992.480407714844 995.4287109375 997.967834472656 1011.05151367188 1002.46575927734 1019.18927001953 1023.22442626953 1019.06994628906 1013.16796875 1018.26556396484 1009.92370605469 1014.40533447266 1005.03454589844 1003.41430664062 1010.74145507812 1005.33819580078 1000.89343261719 1007.25128173828 1008.17266845703 1010.98010253906 1012.57446289062 1004.95471191406 1007.28833007812 1006.29644775391 1009.78283691406 1007.58587646484 1006.14367675781 1010.13269042969 1019.14813232422 1017.25463867188 1007.3095703125 1013.24438476562 1015.77044677734 1021.72302246094 1018.04937744141 1012.82086181641 1008.48992919922 1007.16345214844 1001.00378417969 996.895263671875 997.359985351562 991.593139648438 1002.32214355469 1016.40441894531 1003.00750732422 994.996765136719 987.932067871094 987.704956054688 993.692443847656 998.354431152344 1012.87066650391 1019.79858398438 1025.55383300781 1026.72351074219 1023.20550537109 1023.06909179688 1015.38549804688 1017.71850585938 1013.07604980469 998.397216796875 982.526611328125 967.974304199219 958.953186035156 950.707580566406 933.539123535156 945.472290039062 942.550170898438 941.400512695312 932.242492675781 926.695190429688 921.542114257812 919.783996582031 926.587768554688 925.397094726562 911.569213867188 911.789123535156 910.865112304688 910.997680664062 919.353942871094 928.674926757812 925.041687011719 918.533874511719 916.715209960938 916.515258789062 913.0283203125 907.473754882812 916.897766113281 917.158508300781 907.939697265625 905.133972167969 906.074523925781 905.089660644531 914.463928222656 922.416381835938 927.474487304688 929.203308105469 933.437805175781 948.385803222656 968.1962890625 977.979248046875 982.265563964844 987.39501953125 988.15185546875 994.699157714844 1007.50579833984 1018.806640625 1030.51123046875 1041.80236816406 1053.37829589844 1075.14697265625 1085.69165039062 1104.40258789062 1107.94775390625 1110.22155761719 1120.25805664062 1123.85485839844 1126.52404785156 1135.59216308594 1134.59326171875 1141.56799316406 1135.12866210938 1131.11657714844 1124.32470703125 1124.07495117188
975.827880859375 977.947509765625 984.010314941406 990.04150390625 998.407470703125 999.011779785156 995.856323242188 993.384460449219 992.83984375 992.62353515625 984.07958984375 979.106201171875 988.547607421875 982.97705078125 983.738586425781 998.8212890625 995.550354003906 1000.4599609375 996.746215820312 999.072937011719 996.690368652344 997.515441894531 1000.83337402344 990.49755859375 986.906677246094 981.75390625 984.374450683594 983.691528320312 998.490905761719 1002.96228027344 1012.37689208984 1022.94158935547 1029.67651367188 1020.22802734375 1023.81591796875 1024.63403320312 1025.85656738281 1014.96343994141 1015.64190673828 1009.68695068359 1013.49725341797 1016.38580322266 1002.82568359375 1006.85180664062 1011.81243896484 1010.86676025391 1010.41900634766 1009.79638671875 1010.36376953125 1017.12188720703 1015.88916015625 1010.12744140625 1009.91253662109 1019.25030517578 1013.67059326172 1014.36401367188 1018.65502929688 1024.52490234375 1021.71795654297 1017.56335449219 1012.83331298828 1011.54223632812 1004.01043701172 995.81396484375 1001.70001220703 995.032470703125 997.2802734375 1002.95526123047 1009.95843505859 1017.21472167969 1010.45068359375 1005.64154052734 992.830505371094 997.09765625 1001.73083496094 1009.51678466797 1025.64758300781 1029.17761230469 1027.66955566406 1024.37963867188 1022.89276123047 1019.01605224609 1026.10778808594 1022.86853027344 1020.06329345703 1005.62744140625 991.666381835938 988.094482421875 965.12939453125 954.379760742188 943.311889648438 942.19921875 936.963195800781 945.487548828125 934.959350585938 933.236022949219 931.236328125 925.228210449219 927.637756347656 931.904418945312 931.211120605469 915.353210449219 925.351440429688 930.026306152344 931.951416015625 939.503662109375 940.956359863281 943.436950683594 928.503540039062 931.317443847656 933.812561035156 929.778015136719 938.783508300781 928.116455078125 916.969909667969 909.628479003906 907.30517578125 901.339111328125 916.426940917969 922.655578613281 925.994506835938 936.473266601562 947.885620117188 962.399597167969 979.566223144531 993.454833984375 996.951110839844 1006.62194824219 1003.14910888672 1009.81140136719 1018.93371582031 1025.86791992188 1031.85375976562 1045.45092773438 1052.63269042969 1075.18334960938 1087.79382324219 1100.85009765625 1110.99291992188 1126.94299316406 1124.70886230469 1130.6015625 1133.20617675781 1135.89013671875 1138.57922363281 1139.22094726562 1126.38330078125 1126.912109375 1124.95593261719 1126.9638671875
983.370910644531 980.422180175781 985.3486328125 983.99365234375 981.225280761719 989.096984863281 990.665466308594 988.374206542969 985.257751464844 979.474487304688 979.156982421875 978.735717773438 989.494140625 985.510314941406 990.527709960938 988.473510742188 992.947387695312 984.609741210938 999.114624023438 999.947326660156 997.77685546875 997.698120117188 987.357421875 994.491760253906 984.696350097656 972.020751953125 980.579772949219 987.905883789062 1004.93048095703 1013.8349609375 1018.03173828125 1015.58282470703 1032.44665527344 1025.68688964844 1030.56469726562 1021.19641113281 1023.32202148438 1025.45422363281 1017.81787109375 1016.55120849609 1022.40435791016 1011.53021240234 1011.26800537109 1011.78198242188 1009.89270019531 1009.66058349609 1013.30645751953 1007.90045166016 1010.19921875 1009.76519775391 1017.44738769531 1012.98107910156 1004.79187011719 1006.32360839844 1009.60565185547 1006.86199951172 1016.50347900391 1018.81640625 1022.81982421875 1028.40087890625 1022.65557861328 1009.98162841797 1007.25805664062 1006.15386962891 1000.24853515625 1000.78039550781 1004.17712402344 1006.79132080078 1008.13842773438 1010.71624755859 1003.74304199219 1000.55377197266 999.563903808594 1001.25842285156 1005.39294433594 1019.90216064453 1018.66857910156 1030.93908691406 1030.3251953125 1025.31079101562 1024.42053222656 1019.93133544922 1022.76458740234 1025.3330078125 1026.12451171875 1005.74139404297 991.280090332031 984.186950683594 971.375793457031 956.414123535156 947.167785644531 939.793151855469 943.954956054688 947.708862304688 941.304626464844 944.118713378906 944.180908203125 930.483642578125 932.707580566406 930.69677734375 928.5849609375 937.168579101562 933.056762695312 940.685363769531 948.392944335938 948.177551269531 950.687622070312 951.925476074219 943.349426269531 948.534790039062 950.248779296875 938.38427734375 936.553466796875 940.821716308594 927.50927734375 914.873657226562 910.765563964844 916.642333984375 930.060913085938 924.22998046875 929.462036132812 940.925598144531 955.502197265625 974.644226074219 992.283020019531 997.98779296875 997.864807128906 1007.30517578125 1013.90295410156 1017.80346679688 1027.15173339844 1038.84631347656 1041.93408203125 1041.72436523438 1066.33020019531 1078.81750488281 1090.12072753906 1090.41687011719 1112.70129394531 1124.54833984375 1126.82482910156 1135.70251464844 1136.10620117188 1134.61242675781 1120.26721191406 1122.32775878906 1124.25085449219 1120.78308105469 1123.29174804688 1114.01501464844
984.209106445312 989.778747558594 981.349060058594 987.476440429688 985.714050292969 982.095031738281 991.319213867188 991.555725097656 985.772705078125 979.683044433594 981.257263183594 983.929992675781 985.785095214844 987.22265625 991.09130859375 993.464660644531 998.984558105469 996.363159179688 993.765808105469 987.641540527344 991.537292480469 990.221008300781 989.004455566406 995.9150390625 985.542053222656 987.915466308594 988.036743164062 994.336547851562 998.221557617188 1009.85577392578 1019.619140625 1015.33117675781 1036.29467773438 1031.50549316406 1027.1376953125 1025.00756835938 1034.80456542969 1029.01135253906 1030.26232910156 1024.8056640625 1026.72399902344 1014.95367431641 1014.91821289062 1014.61676025391 1013.78662109375 1016.54913330078 1017.15185546875 1015.85174560547 1009.46752929688 1014.53985595703 1013.97515869141 1013.13177490234 1005.88415527344 1008.00555419922 1008.63922119141 1010.00793457031 1015.80102539062 1023.79522705078 1016.02520751953 1021.07830810547 1021.07666015625 1011.58355712891 1015.38269042969 1006.78973388672 1002.82684326172 1007.27307128906 999.384887695312 1010.45550537109 1007.66821289062 1007.22192382812 999.4208984375 1005.95050048828 996.813171386719 1007.42858886719 1015.57708740234 1020.06231689453 1030.31103515625 1037.52526855469 1036.36633300781 1027.1826171875 1023.56671142578 1023.83447265625 1026.4990234375 1024.24621582031 1012.16394042969 1005.44128417969 991.851196289062 976.157165527344 967.768310546875 958.757141113281 944.735046386719 945.159851074219 944.543395996094 946.022766113281 943.6083984375 938.598449707031 943.618896484375 940.440368652344 940.380432128906 945.678344726562 934.28564453125 941.737426757812 944.223876953125 954.688293457031 957.40625 958.723815917969 954.39404296875 959.003967285156 967.243835449219 955.533508300781 965.743713378906 952.418518066406 948.096740722656 937.530456542969 928.479187011719 921.232177734375 913.611206054688 923.614685058594 925.651916503906 930.738891601562 931.845886230469 950.01611328125 962.073669433594 973.970764160156 1001.14349365234 994.935791015625 1000.16351318359 1009.47650146484 1016.248046875 1018.74212646484 1031.04467773438 1043.33349609375 1045.62585449219 1040.28015136719 1058.95349121094 1081.61340332031 1089.52209472656 1101.83947753906 1116.99365234375 1116.2392578125 1130.88293457031 1123.19067382812 1120.12878417969 1111.20654296875 1109.51049804688 1112.10034179688 1107.49914550781 1112.41979980469 1116.35668945312 1116.23583984375
982.957214355469 987.674072265625 983.348815917969 979.030029296875 987.63037109375 985.050537109375 990.551696777344 994.014282226562 990.454040527344 984.406677246094 989.928527832031 976.898315429688 983.577209472656 985.095642089844 986.4462890625 989.654663085938 999.378967285156 1000.84033203125 991.220764160156 984.027160644531 979.69921875 980.075927734375 989.16064453125 990.022521972656 993.547302246094 997.244995117188 997.830932617188 999.260620117188 998.963439941406 999.711547851562 1019.82061767578 1028.18310546875 1039.37145996094 1044.48107910156 1036.80163574219 1029.90954589844 1037.10339355469 1035.94445800781 1034.48120117188 1041.66821289062 1034.1357421875 1029.7158203125 1024.11291503906 1025.53771972656 1017.95532226562 1020.21484375 1027.08190917969 1023.13031005859 1015.78125 1015.57666015625 1014.91925048828 1007.93701171875 1004.11090087891 1008.03973388672 1010.16473388672 1015.53143310547 1013.14099121094 1014.96228027344 1020.96484375 1018.95159912109 1019.171875 1019.42413330078 1018.21893310547 1014.64569091797 1010.24975585938 1004.671875 1010.21496582031 1011.49633789062 1000.91070556641 992.056213378906 993.795776367188 1000.63537597656 1002.09289550781 1018.06134033203 1027.80688476562 1031.28344726562 1044.8623046875 1046.46166992188 1038.87548828125 1039.53955078125 1041.41857910156 1032.54260253906 1033.50012207031 1022.84899902344 1013.20135498047 1000.46234130859 992.199401855469 980.521362304688 963.254821777344 961.352905273438 946.691589355469 942.246215820312 944.747497558594 947.6357421875 943.295043945312 944.226135253906 942.476623535156 950.551330566406 943.355834960938 949.676025390625 950.429931640625 951.874267578125 953.359497070312 964.223449707031 963.223876953125 971.286987304688 958.929626464844 967.814819335938 967.537231445312 972.889282226562 962.340881347656 957.943603515625 951.464599609375 937.231872558594 931.083984375 914.43896484375 917.892333984375 920.133117675781 927.128051757812 926.625549316406 939.598266601562 955.792114257812 968.563110351562 978.7275390625 1000.81011962891 1010.41998291016 1006.40997314453 1017.52996826172 1020.47784423828 1024.53564453125 1029.09143066406 1034.08117675781 1046.18432617188 1051.97326660156 1068.22827148438 1076.46728515625 1086.64978027344 1103.88195800781 1112.36486816406 1107.10571289062 1112.46997070312 1107.72680664062 1105.26965332031 1111.82739257812 1101.33020019531 1101.49084472656 1105.42333984375 1111.68530273438 1114.81726074219 1107.54663085938
977.874084472656 986.511535644531 986.279296875 984.553894042969 988.759216308594 984.73681640625 980.872131347656 989.577697753906 995.006164550781 981.822448730469 989.257690429688 973.004821777344 976.522094726562 977.602844238281 979.987060546875 983.775695800781 993.513305664062 997.054748535156 989.463745117188 985.947204589844 977.27392578125 983.079895019531 990.22607421875 995.878662109375 991.908569335938 995.245727539062 998.26953125 994.336730957031 993.334716796875 998.489868164062 1014.79278564453 1038.77673339844 1040.57873535156 1041.34790039062 1035.97045898438 1029.63317871094 1025.80029296875 1037.46228027344 1038.26013183594 1040.58666992188 1034.82873535156 1038.30749511719 1030.11547851562 1022.7353515625 1022.22509765625 1030.94641113281 1026.09533691406 1024.43347167969 1007.94055175781 1006.43383789062 1002.41424560547 1001.06524658203 1000.50268554688 1005.38940429688 1006.8505859375 1011.15905761719 1006.11822509766 1019.92645263672 1019.61395263672 1011.35308837891 1021.32580566406 1014.11688232422 1011.67785644531 1021.08673095703 1016.70574951172 1013.59161376953 1017.98052978516 1017.74987792969 1010.0107421875 1001.1298828125 996.133850097656 1004.35430908203 1012.05401611328 1019.08306884766 1027.21240234375 1030.50317382812 1034.65844726562 1038.72875976562 1032.47448730469 1038.39807128906 1043.66784667969 1035.986328125 1030.20971679688 1034.63793945312 1019.98986816406 994.526977539062 993.94677734375 976.3671875 968.622863769531 966.439331054688 938.724792480469 941.357849121094 945.410888671875 944.427917480469 938.120544433594 944.487121582031 960.234619140625 958.815368652344 963.862243652344 962.985290527344 960.711181640625 962.467590332031 963.49169921875 972.163024902344 973.236389160156 960.987976074219 964.787231445312 975.735046386719 975.057373046875 971.069030761719 967.909973144531 968.094421386719 957.218933105469 943.896423339844 925.068359375 920.727111816406 925.725341796875 927.459594726562 931.425415039062 932.489440917969 946.591186523438 964.296020507812 978.379943847656 995.163818359375 1008.07135009766 1008.07434082031 1010.25854492188 1025.64294433594 1025.34582519531 1034.81884765625 1041.03015136719 1044.63415527344 1052.83911132812 1059.033203125 1074.19653320312 1077.2607421875 1078.95227050781 1094.826171875 1096.1611328125 1089.96423339844 1096.80895996094 1107.3857421875 1093.53869628906 1101.12182617188 1102.69372558594 1096.61987304688 1095.15124511719 1105.19812011719 1104.60034179688 1102.84899902344
980.755065917969 994.020385742188 983.682983398438 991.247436523438 984.837707519531 972.418151855469 985.654541015625 984.340515136719 986.615234375 989.478942871094 977.205444335938 979.570861816406 972.7529296875 975.447814941406 972.040710449219 975.672546386719 980.40869140625 987.841430664062 987.439086914062 984.829895019531 970.057434082031 976.526794433594 988.6298828125 992.698547363281 985.85302734375 995.924011230469 997.295227050781 995.765258789062 998.363952636719 991.027282714844 1006.71044921875 1031.16186523438 1038.80017089844 1037.26062011719 1032.87170410156 1039.7724609375 1032.34143066406 1037.48901367188 1042.27478027344 1037.07885742188 1041.98840332031 1043.49169921875 1047.30688476562 1030.97216796875 1033.91857910156 1034.0908203125 1027.26477050781 1020.51336669922 1006.24945068359 999.075805664062 997.764587402344 1003.9130859375 1011.07562255859 1009.78070068359 1011.77764892578 1014.73449707031 1009.38635253906 1015.07781982422 1013.91448974609 1014.04473876953 1015.49047851562 1015.79626464844 1031.82019042969 1031.25378417969 1032.39038085938 1025.72937011719 1022.71472167969 1019.66540527344 1021.71124267578 1007.55639648438 1002.41241455078 998.574279785156 1013.60101318359 1024.52099609375 1032.61596679688 1027.19958496094 1026.48828125 1033.205078125 1038.75964355469 1028.81677246094 1041.16918945312 1038.66125488281 1029.87634277344 1025.90502929688 1021.41375732422 1007.67114257812 984.957946777344 972.642639160156 968.699829101562 961.297729492188 951.079956054688 953.446228027344 957.737060546875 958.696716308594 958.619873046875 962.406433105469 962.486328125 963.869995117188 969.928344726562 973.570007324219 963.957702636719 968.1279296875 965.099853515625 974.245788574219 977.596435546875 965.4228515625 980.154541015625 979.85107421875 979.754150390625 981.99755859375 973.754943847656 967.918701171875 948.565002441406 936.972595214844 919.635070800781 921.196838378906 930.505249023438 930.254943847656 931.38037109375 939.9130859375 947.7001953125 965.998596191406 973.994323730469 993.593933105469 1013.79235839844 1015.72503662109 1022.76727294922 1018.55328369141 1034.59948730469 1036.91552734375 1045.6845703125 1047.08581542969 1059.29736328125 1061.3515625 1067.14990234375 1073.75122070312 1082.85803222656 1088.06005859375 1083.50988769531 1081.45520019531 1090.45080566406 1100.86950683594 1102.34069824219 1096.20935058594 1090.61926269531 1093.5322265625 1097.64233398438 1089.48474121094 1097.20581054688 1104.35595703125
974.835083007812 982.798706054688 978.470275878906 977.057922363281 973.1552734375 979.433532714844 978.391479492188 981.965148925781 990.941772460938 984.537536621094 985.668395996094 981.785095214844 976.999572753906 974.465942382812 966.030883789062 974.422424316406 977.545532226562 975.999450683594 978.744445800781 977.976440429688 966.761962890625 972.147277832031 983.228637695312 987.323547363281 992.583190917969 992.896179199219 993.247436523438 1001.63635253906 999.348388671875 1000.19305419922 1006.35803222656 1032.01391601562 1032.16613769531 1029.40026855469 1032.61865234375 1027.68981933594 1024.25659179688 1031.78161621094 1040.6728515625 1037.06567382812 1041.41552734375 1045.43029785156 1047.95141601562 1034.39294433594 1030.11901855469 1031.95983886719 1023.97802734375 1017.13629150391 1013.13061523438 1007.82348632812 1004.24505615234 1002.86419677734 1002.29443359375 1005.97180175781 1012.37634277344 1009.53289794922 1005.87341308594 1009.92926025391 1005.54443359375 1009.95172119141 1022.87872314453 1021.71557617188 1032.77819824219 1025.79187011719 1030.16345214844 1025.80993652344 1027.61096191406 1026.80773925781 1025.59167480469 1018.21246337891 1008.48602294922 1007.07434082031 1017.76947021484 1024.31958007812 1021.67047119141 1018.12634277344 1026.34545898438 1033.2734375 1036.56103515625 1033.2802734375 1039.78869628906 1037.73950195312 1036.82739257812 1022.79034423828 1021.99084472656 1011.82672119141 992.10107421875 984.490600585938 981.49951171875 976.625366210938 972.044494628906 968.075866699219 973.931091308594 963.200439453125 971.274108886719 975.865905761719 981.330261230469 973.951965332031 978.684509277344 981.658874511719 975.141845703125 975.117553710938 974.218994140625 977.605224609375 978.679809570312 983.388854980469 981.90625 988.147644042969 981.393615722656 976.493103027344 974.495666503906 961.428771972656 946.960205078125 932.836608886719 931.626525878906 928.650817871094 927.077270507812 925.466735839844 919.657287597656 934.768005371094 948.34033203125 967.064086914062 978.0517578125 990.153686523438 994.977355957031 1008.34265136719 1021.54595947266 1026.68920898438 1029.95629882812 1040.36083984375 1039.85656738281 1045.20361328125 1046.92663574219 1061.32019042969 1065.43994140625 1076.93237304688 1080.54309082031 1090.31860351562 1087.40161132812 1084.91442871094 1085.30871582031 1098.57055664062 1101.66296386719 1099.16967773438 1097.84521484375 1089.12805175781 1090.55212402344 1092.32080078125 1098.81982421875 1107.7685546875
973.95361328125 977.643859863281 970.454895019531 966.856506347656 960.10693359375 961.906066894531 977.333190917969 982.676940917969 983.238037109375 987.529846191406 985.172790527344 985.531982421875 974.5087890625 972.140014648438 966.558288574219 960.974060058594 975.303161621094 979.252319335938 975.327392578125 977.222717285156 974.996948242188 979.160766601562 984.040466308594 983.879638671875 989.5888671875 996.92626953125 996.139831542969 1002.04437255859 1008.45953369141 1006.41485595703 1012.01696777344 1019.1025390625 1023.99493408203 1024.98400878906 1024.28039550781 1021.79150390625 1022.71661376953 1029.54565429688 1041.88989257812 1038.25183105469 1040.97692871094 1044.31994628906 1039.20092773438 1043.93005371094 1028.58728027344 1032.14880371094 1023.5166015625 1016.78961181641 1008.45324707031 1002.63671875 996.225524902344 999.442749023438 995.633850097656 997.130859375 1011.783203125 1004.09753417969 999.835327148438 1001.703125 1012.00329589844 1017.37097167969 1020.88873291016 1023.8544921875 1020.51440429688 1022.14324951172 1028.53491210938 1026.13146972656 1025.64807128906 1027.94396972656 1024.03942871094 1020.02117919922 1023.21832275391 1023.25891113281 1027.67431640625 1028.62451171875 1031.87927246094 1024.28125 1027.16064453125 1025.98913574219 1025.77600097656 1027.29650878906 1032.17712402344 1037.24743652344 1027.27722167969 1021.66058349609 1020.02984619141 1002.61572265625 996.77001953125 996.468383789062 993.962707519531 992.916442871094 983.072937011719 983.021728515625 976.704711914062 986.620361328125 995.536376953125 986.809020996094 996.816284179688 997.177429199219 996.734436035156 992.829528808594 983.23095703125 981.060424804688 987.193664550781 986.463195800781 993.199401855469 989.417724609375 994.228515625 996.075561523438 977.697875976562 970.828796386719 972.383056640625 961.398681640625 944.126281738281 941.347961425781 931.581420898438 932.697631835938 934.639099121094 929.286560058594 924.557922363281 938.143920898438 950.632934570312 965.627014160156 975.494812011719 988.357238769531 991.346984863281 998.375671386719 1016.29779052734 1026.63623046875 1033.8037109375 1047.03820800781 1042.58129882812 1045.33923339844 1050.81396484375 1061.98034667969 1057.78259277344 1070.28479003906 1074.55407714844 1083.87377929688 1083.48303222656 1077.83837890625 1091.42700195312 1084.49914550781 1098.09045410156 1100.21252441406 1093.98315429688 1098.82080078125 1096.66491699219 1096.53991699219 1095.33276367188 1103.97961425781
969.207458496094 965.168579101562 959.148559570312 962.032165527344 959.795471191406 963.570678710938 971.766174316406 983.588745117188 982.625305175781 972.492309570312 974.791320800781 966.760009765625 970.505920410156 958.278747558594 961.616516113281 962.638854980469 972.515625 978.400390625 969.012756347656 970.813842773438 972.794677734375 974.938720703125 984.736206054688 984.31298828125 986.370178222656 1001.50646972656 1005.72424316406 999.641418457031 1008.78546142578 1007.12005615234 1013.44317626953 1009.35949707031 1025.90551757812 1026.36413574219 1023.82238769531 1024.71923828125 1017.94787597656 1024.56909179688 1032.02453613281 1039.96459960938 1038.84094238281 1037.6953125 1044.8359375 1034.00842285156 1034.97387695312 1025.24523925781 1028.80639648438 1014.85815429688 1005.57104492188 1003.81311035156 1002.19512939453 1003.81860351562 1003.78479003906 998.698120117188 1006.81085205078 1002.63714599609 1000.24450683594 999.716064453125 1007.00201416016 1014.21563720703 1024.54992675781 1029.94567871094 1025.53527832031 1024.33898925781 1022.83612060547 1031.95129394531 1024.958984375 1025.70532226562 1032.21435546875 1017.91552734375 1025.51928710938 1023.28814697266 1019.68597412109 1025.16320800781 1029.56787109375 1027.33032226562 1015.16229248047 1016.83190917969 1017.90490722656 1026.53735351562 1030.50732421875 1033.74182128906 1029.8623046875 1024.75927734375 1013.10479736328 1014.55993652344 1011.86761474609 1008.48773193359 1003.28662109375 997.030822753906 994.200927734375 989.175720214844 991.034851074219 994.218200683594 1002.92736816406 1003.24151611328 1006.57733154297 1015.00891113281 1004.36572265625 997.694702148438 992.388305664062 996.115478515625 993.76123046875 989.605712890625 995.006042480469 992.339172363281 987.565368652344 992.103637695312 980.286437988281 970.56396484375 972.201843261719 966.008239746094 953.577575683594 941.753601074219 928.81884765625 930.292419433594 932.431823730469 929.028503417969 938.587585449219 937.76123046875 958.7138671875 969.973327636719 979.118896484375 992.976928710938 997.690856933594 1013.07312011719 1017.75427246094 1019.18127441406 1030.07189941406 1041.84094238281 1051.8828125 1056.83447265625 1055.3837890625 1055.99475097656 1058.56225585938 1062.85888671875 1064.30810546875 1080.17016601562 1079.00830078125 1075.97338867188 1080.40649414062 1084.1083984375 1091.33032226562 1091.23400878906 1090.39611816406 1095.85412597656 1104.10583496094 1104.19592285156 1101.13806152344 1106.85913085938
948.974182128906 948.902221679688 950.0869140625 954.932678222656 954.995910644531 953.198913574219 960.3271484375 967.177307128906 968.207580566406 975.784118652344 967.75537109375 961.462951660156 962.934875488281 964.151306152344 963.508117675781 965.255920410156 963.033996582031 973.277282714844 960.957275390625 966.462951660156 964.840087890625 970.392822265625 981.043273925781 978.128356933594 988.983459472656 995.370849609375 999.555725097656 998.882202148438 1006.69750976562 1013.94195556641 1014.67834472656 1011.99609375 1023.67596435547 1027.3798828125 1020.72113037109 1021.33190917969 1017.84228515625 1014.01782226562 1024.89636230469 1029.98376464844 1034.05590820312 1038.04907226562 1034.38891601562 1036.60083007812 1026.91162109375 1027.77783203125 1022.66778564453 1013.49176025391 1006.02258300781 999.862243652344 1005.22119140625 1001.40368652344 997.041015625 998.33251953125 993.551879882812 1002.14154052734 1007.5859375 1005.30462646484 1009.38946533203 1009.39184570312 1026.26867675781 1024.41296386719 1016.63671875 1018.87365722656 1022.23889160156 1033.35595703125 1028.98937988281 1034.42333984375 1031.04675292969 1025.70690917969 1026.61340332031 1027.48486328125 1023.08770751953 1025.88989257812 1023.97253417969 1018.16442871094 1010.93060302734 1015.2626953125 1021.92474365234 1023.40216064453 1031.51306152344 1027.37768554688 1025.67138671875 1017.03332519531 1019.01739501953 1018.52673339844 1012.39935302734 1022.69354248047 1010.21179199219 1005.78558349609 1008.72985839844 1003.57446289062 1000.04296875 1003.24505615234 1010.10681152344 1017.1357421875 1014.55212402344 1013.69573974609 1006.06701660156 1000.27886962891 1001.50274658203 1003.62030029297 1001.56829833984 997.316345214844 994.447509765625 991.752075195312 991.475891113281 997.807434082031 985.098083496094 972.251953125 962.472351074219 959.929260253906 951.936950683594 949.721374511719 944.116271972656 935.233154296875 931.043395996094 937.980773925781 939.815246582031 942.568725585938 957.129760742188 964.975524902344 983.141906738281 999.174865722656 1004.45855712891 1005.05108642578 1010.24951171875 1023.42785644531 1030.00146484375 1036.37365722656 1048.42016601562 1051.24194335938 1047.57788085938 1051.61962890625 1059.75805664062 1059.55224609375 1063.64392089844 1058.82104492188 1065.51013183594 1073.09191894531 1078.56164550781 1083.70349121094 1088.26733398438 1086.70361328125 1085.92761230469 1092.90258789062 1104.32751464844 1104.99035644531 1108.06298828125 1106.79467773438
949.409973144531 948.243347167969 950.644348144531 954.961547851562 952.653747558594 946.567199707031 947.745056152344 952.900634765625 964.606872558594 963.436096191406 966.818786621094 953.943176269531 957.287170410156 954.577819824219 951.184020996094 955.357177734375 957.532287597656 953.715637207031 960.354125976562 957.178771972656 961.531372070312 967.833374023438 972.173583984375 981.265747070312 989.311584472656 995.503356933594 1004.71319580078 1007.32446289062 1012.14221191406 1015.8994140625 1018.03784179688 1017.7109375 1013.64910888672 1014.90783691406 1016.72613525391 1017.61157226562 1019.4951171875 1019.69567871094 1017.87524414062 1027.82177734375 1029.33935546875 1027.55725097656 1035.62902832031 1034.22253417969 1022.80871582031 1025.68872070312 1021.90783691406 1012.08172607422 1006.33697509766 1006.34826660156 1004.65655517578 997.647766113281 999.30224609375 996.984436035156 990.167114257812 1004.21240234375 1005.72375488281 1005.30828857422 1014.83581542969 1013.37475585938 1016.12854003906 1018.87567138672 1017.71740722656 1026.00244140625 1022.7021484375 1027.78393554688 1025.54772949219 1030.4814453125 1028.6962890625 1026.25732421875 1020.71673583984 1017.69201660156 1018.49328613281 1026.43615722656 1021.72631835938 1011.36352539062 1014.1669921875 1010.30053710938 1022.001953125 1013.89270019531 1027.81616210938 1023.30401611328 1024.33947753906 1020.74340820312 1021.88665771484 1021.814453125 1021.64672851562 1018.61694335938 1012.84796142578 1010.75592041016 1006.03332519531 1011.10522460938 1009.58972167969 1008.32641601562 1021.63726806641 1019.79187011719 1016.28704833984 1018.6669921875 1014.6328125 999.852294921875 1004.22094726562 1008.26190185547 1003.27233886719 1003.65844726562 999.819519042969 998.493713378906 1000.76434326172 994.591613769531 987.307678222656 971.674743652344 963.905151367188 955.655517578125 953.746948242188 947.570983886719 949.076904296875 938.812744140625 942.179077148438 946.210021972656 953.189575195312 957.005920410156 953.991577148438 967.029235839844 973.192565917969 993.246887207031 1005.58544921875 1008.46600341797 1018.79937744141 1029.42590332031 1032.56408691406 1043.06103515625 1050.54614257812 1053.06481933594 1051.77172851562 1048.08776855469 1055.1298828125 1054.97338867188 1057.70727539062 1058.65795898438 1062.04028320312 1071.2138671875 1082.90930175781 1084.86328125 1078.70715332031 1071.00183105469 1087.13171386719 1094.75952148438 1114.87097167969 1115.51684570312 1115.18395996094 1106.13525390625
943.689758300781 947.866516113281 949.715148925781 947.954650878906 941.679626464844 951.398315429688 950.823669433594 949.545959472656 957.103881835938 956.372619628906 960.494506835938 949.293334960938 950.501281738281 946.093200683594 947.259643554688 949.428161621094 951.19384765625 947.025024414062 949.018859863281 952.260192871094 964.947204589844 963.92529296875 964.4931640625 971.788818359375 985.682922363281 992.64111328125 1000.87475585938 1018.46234130859 1016.75836181641 1013.81524658203 1011.66552734375 1011.70379638672 1015.22924804688 1009.42388916016 1015.26062011719 1016.41149902344 1017.77435302734 1017.57922363281 1014.55212402344 1024.09143066406 1031.13366699219 1031.99182128906 1029.2138671875 1027.22424316406 1023.6884765625 1019.43579101562 1015.55621337891 1001.01208496094 998.278198242188 992.142700195312 998.554870605469 996.421142578125 992.084777832031 991.982360839844 993.566040039062 999.098205566406 1002.29626464844 1007.89892578125 1006.71728515625 1006.1826171875 1012.72540283203 1017.68432617188 1019.75073242188 1017.58319091797 1026.24230957031 1021.43627929688 1020.87896728516 1026.67895507812 1040.01062011719 1019.57940673828 1022.38452148438 1023.24884033203 1011.56219482422 1015.99255371094 1013.57977294922 1009.57263183594 1012.61138916016 1010.24884033203 1012.80047607422 1016.54223632812 1016.28967285156 1016.88586425781 1009.85119628906 1012.86474609375 1007.11090087891 1020.54595947266 1024.27648925781 1018.85064697266 1013.02655029297 1011.44781494141 1008.7626953125 1002.86962890625 1016.28540039062 1011.09155273438 1025.03283691406 1022.25329589844 1024.79919433594 1022.84387207031 1018.28588867188 1007.52563476562 1013.42718505859 1015.86193847656 1011.88916015625 1009.70239257812 1016.98944091797 1009.45812988281 1004.74334716797 996.993347167969 985.5654296875 977.433288574219 969.996704101562 965.670043945312 954.915222167969 954.157531738281 946.279846191406 945.155517578125 949.341552734375 949.743225097656 964.808715820312 962.704956054688 966.845092773438 967.699768066406 977.83740234375 994.5185546875 1006.18481445312 1012.07604980469 1023.83416748047 1031.97583007812 1031.74084472656 1050.24304199219 1049.03100585938 1049.19372558594 1045.2890625 1048.74536132812 1054.55932617188 1054.44860839844 1053.86633300781 1061.96704101562 1068.39770507812 1069.27038574219 1073.11975097656 1081.2841796875 1081.80114746094 1080.55139160156 1086.45263671875 1087.47265625 1106.18041992188 1104.37939453125 1112.57885742188 1111.87561035156
946.470581054688 943.658569335938 942.230224609375 947.875549316406 953.633911132812 950.552978515625 951.01025390625 950.4306640625 949.155822753906 956.475524902344 958.38037109375 956.802062988281 953.434387207031 944.826416015625 949.719055175781 956.149841308594 949.526184082031 953.260864257812 955.811950683594 953.730041503906 963.620483398438 961.289672851562 961.435424804688 981.147338867188 985.04541015625 993.914733886719 994.918518066406 1003.14495849609 1003.73205566406 996.023132324219 1004.52001953125 1002.73413085938 1003.91558837891 1008.03674316406 1005.96984863281 1010.85717773438 1014.87780761719 1018.14337158203 1017.50469970703 1022.29144287109 1022.30035400391 1020.68054199219 1019.04736328125 1016.61932373047 1017.95556640625 1018.36859130859 1015.08734130859 1004.12622070312 1004.00219726562 1003.88989257812 1001.45574951172 997.975036621094 999.999389648438 998.777221679688 991.945251464844 998.804931640625 1002.24566650391 998.527770996094 999.545837402344 1004.73468017578 1004.72265625 1014.43328857422 1019.82501220703 1012.79040527344 1014.43634033203 1014.93548583984 1019.18377685547 1025.75817871094 1022.16137695312 1025.6904296875 1021.94763183594 1015.37512207031 1009.1650390625 1010.67523193359 1006.75311279297 1016.78942871094 1016.81787109375 1004.72644042969 1002.31256103516 1008.99621582031 1009.19403076172 1013.63323974609 1015.68658447266 1012.53967285156 1010.68298339844 1016.85339355469 1009.49597167969 1011.67114257812 1007.15588378906 1007.78289794922 1011.58636474609 1015.81976318359 1018.76263427734 1026.99865722656 1025.82507324219 1020.79858398438 1027.14135742188 1026.22912597656 1016.64251708984 1011.21881103516 1011.60833740234 1012.52557373047 1021.98388671875 1024.23742675781 1017.99859619141 1012.82135009766 1008.54064941406 999.213195800781 995.292846679688 983.723754882812 977.09423828125 968.542419433594 959.951416015625 960.150085449219 953.269653320312 949.88427734375 950.125793457031 968.318420410156 974.829833984375 980.215454101562 977.57861328125 982.693603515625 982.624572753906 987.769226074219 994.613403320312 1014.39093017578 1026.72204589844 1027.87390136719 1040.30871582031 1042.49633789062 1042.50549316406 1044.5517578125 1044.39697265625 1056.46313476562 1054.19958496094 1051.31958007812 1053.39331054688 1060.83276367188 1063.85192871094 1073.24487304688 1075.45861816406 1073.39855957031 1075.19812011719 1083.17822265625 1090.76684570312 1095.13452148438 1099.14282226562 1105.6181640625 1118.9892578125 1124.80737304688
937.21435546875 946.739013671875 940.28564453125 950.88427734375 954.853759765625 956.835266113281 960.578002929688 955.313720703125 950.766418457031 953.87890625 960.777160644531 954.464416503906 949.9404296875 952.561828613281 953.519409179688 950.728271484375 952.26513671875 942.821044921875 943.880004882812 963.933898925781 961.261901855469 963.86572265625 968.560546875 969.220458984375 988.316223144531 993.814758300781 991.612121582031 994.81787109375 999.585327148438 992.861083984375 1002.98382568359 1002.02880859375 989.343933105469 998.832885742188 995.813781738281 1001.33093261719 1013.80194091797 1011.11889648438 1009.31518554688 1015.60998535156 1016.72473144531 1025.55651855469 1017.85168457031 1014.98809814453 1009.76434326172 1016.95404052734 1013.85400390625 1001.61450195312 995.43603515625 999.639282226562 996.767639160156 1000.31268310547 993.498413085938 986.626525878906 986.78515625 986.809143066406 988.641052246094 993.055541992188 988.503723144531 1002.7880859375 1001.60925292969 998.296875 1007.24487304688 1005.67297363281 1005.80493164062 1004.50384521484 1022.04119873047 1019.65380859375 1029.49816894531 1020.06872558594 1017.64916992188 1010.44439697266 1003.71936035156 1002.72113037109 1008.18005371094 1007.42907714844 1011.36010742188 1006.61853027344 1005.99047851562 999.017028808594 1001.5712890625 1006.48431396484 1015.01806640625 1012.1396484375 1007.80102539062 1008.86346435547 1007.27349853516 1016.09674072266 1016.20709228516 1019.53424072266 1017.41748046875 1025.07592773438 1031.50720214844 1035.86328125 1027.39685058594 1020.17425537109 1020.28851318359 1009.28088378906 1007.25671386719 1009.26940917969 1013.50665283203 1011.80627441406 1011.75183105469 1021.03527832031 1015.30859375 1015.90521240234 1011.98425292969 998.390197753906 990.161682128906 986.714477539062 973.988403320312 964.839050292969 964.504577636719 951.703735351562 943.271301269531 954.000671386719 946.726257324219 972.587219238281 986.317810058594 995.854125976562 998.046752929688 994.140075683594 993.625183105469 1001.52514648438 1007.94140625 1017.31774902344 1027.74890136719 1033.16760253906 1038.04443359375 1049.36328125 1042.4794921875 1055.75122070312 1051.68273925781 1058.23596191406 1050.31921386719 1053.26977539062 1050.53381347656 1059.32238769531 1067.80200195312 1076.29345703125 1076.08776855469 1078.72924804688 1085.97961425781 1086.91943359375 1090.49780273438 1097.90942382812 1101.63525390625 1109.21875 1116.93798828125 1120.45446777344
945.87158203125 946.915771484375 942.472595214844 952.25146484375 959.062683105469 970.469604492188 967.204284667969 961.189880371094 964.89306640625 956.338195800781 956.441772460938 963.789672851562 966.913635253906 954.263305664062 954.767944335938 957.106201171875 961.849060058594 957.498779296875 956.127075195312 964.629516601562 960.404113769531 967.538879394531 979.891418457031 979.702087402344 986.189392089844 984.001586914062 994.640930175781 1000.6337890625 995.010681152344 995.433227539062 997.237854003906 994.623168945312 992.460083007812 994.275085449219 995.37548828125 1007.73645019531 1006.28118896484 1011.43054199219 1010.81329345703 1012.51416015625 1012.89825439453 1016.14202880859 1018.9150390625 1018.57141113281 1018.61682128906 1009.84710693359 1005.12121582031 993.3720703125 989.486145019531 996.856628417969 998.744384765625 998.895935058594 991.701354980469 989.232666015625 993.988098144531 988.94970703125 991.894714355469 1002.96466064453 1004.5927734375 999.941589355469 1005.14916992188 998.892150878906 992.88427734375 995.932556152344 990.249816894531 1001.22985839844 1016.26940917969 1016.1552734375 1022.38092041016 1020.85711669922 1017.51141357422 1023.05279541016 1018.32000732422 1015.85418701172 1018.06372070312 1011.77697753906 999.696899414062 1006.50244140625 1008.33459472656 1004.12878417969 1004.92919921875 1003.89862060547 1006.39935302734 1003.48028564453 1003.85345458984 1006.93853759766 1015.37805175781 1013.32904052734 1010.85845947266 1018.20196533203 1026.09338378906 1026.03784179688 1033.48815917969 1029.29357910156 1030.47375488281 1029.056640625 1025.78259277344 1013.17858886719 1015.98614501953 1009.62127685547 1015.87554931641 1004.95520019531 1005.56372070312 1011.67889404297 1004.91357421875 1003.26922607422 1005.70959472656 995.875061035156 983.163818359375 980.236450195312 973.421508789062 961.358093261719 960.258666992188 948.612487792969 947.5390625 949.966918945312 959.937072753906 969.584228515625 993.289489746094 996.2197265625 1001.38500976562 1008.74517822266 1011.81353759766 1015.97485351562 1018.52032470703 1023.48968505859 1029.9921875 1034.27490234375 1037.47241210938 1045.74609375 1043.85668945312 1048.94177246094 1051.71545410156 1050.07995605469 1054.21667480469 1059.44836425781 1060.59326171875 1059.52600097656 1067.44079589844 1071.36694335938 1071.34094238281 1075.64514160156 1080.8671875 1077.79968261719 1087.96667480469 1096.39868164062 1101.35498046875 1110.40795898438 1117.14526367188 1112.4384765625
954.841247558594 956.517883300781 960.824096679688 960.832275390625 952.233154296875 963.100952148438 966.591735839844 961.108947753906 961.307434082031 967.272033691406 956.742065429688 960.3642578125 966.88720703125 956.686279296875 968.655456542969 969.158630371094 958.939025878906 968.469970703125 970.455688476562 969.42138671875 969.699951171875 976.131713867188 981.228271484375 987.93212890625 993.264587402344 993.687622070312 998.122863769531 993.403564453125 991.176940917969 990.334289550781 993.649780273438 993.005187988281 992.053833007812 996.450805664062 993.775207519531 1001.09991455078 1005.59875488281 1009.64337158203 1008.75238037109 1007.47497558594 1014.24255371094 1015.75939941406 1018.62158203125 1013.888671875 1005.79083251953 1007.45111083984 997.041137695312 990.509216308594 980.883117675781 988.434753417969 992.378234863281 982.314636230469 983.544799804688 987.008850097656 993.629272460938 996.198669433594 997.690124511719 1004.28350830078 1001.29846191406 998.854370117188 995.654602050781 994.282043457031 995.923522949219 986.616394042969 997.224548339844 998.988830566406 1001.46502685547 1015.44000244141 1013.49688720703 1018.36639404297 1011.38049316406 1016.09521484375 1017.5126953125 1012.72698974609 1010.24066162109 1005.02502441406 1003.49096679688 1004.52667236328 1008.66455078125 1006.15460205078 998.329162597656 998.003112792969 1000.7158203125 998.117858886719 1006.95031738281 1010.56964111328 1008.96771240234 1009.28686523438 1020.06298828125 1025.70739746094 1028.37622070312 1025.90893554688 1030.24389648438 1029.04553222656 1026.08044433594 1030.31884765625 1024.44189453125 1025.59948730469 1021.48175048828 1010.62121582031 1008.12182617188 998.622436523438 1000.50665283203 990.194091796875 1005.85833740234 1008.78387451172 1004.56018066406 996.719421386719 985.682800292969 977.213073730469 975.975524902344 966.501770019531 959.899658203125 953.691467285156 948.920593261719 956.665222167969 961.809509277344 970.047485351562 987.008056640625 994.794006347656 1004.67639160156 1007.10900878906 1018.20098876953 1014.96697998047 1011.59167480469 1025.69311523438 1028.38427734375 1037.99475097656 1035.82214355469 1039.20129394531 1040.94250488281 1044.97644042969 1049.95458984375 1060.03308105469 1053.90576171875 1059.51721191406 1057.53210449219 1062.07958984375 1067.82946777344 1064.82775878906 1063.64562988281 1068.5673828125 1077.56652832031 1079.23278808594 1094.01831054688 1097.26525878906 1103.95593261719 1103.05969238281 1115.80749511719 1111.744140625
962.014465332031 955.299865722656 962.018310546875 963.548645019531 961.959411621094 957.992614746094 960.269348144531 958.320861816406 959.208068847656 966.781921386719 966.819396972656 968.234313964844 974.623596191406 973.637023925781 966.94677734375 966.985595703125 973.18017578125 977.640319824219 979.211853027344 974.782653808594 979.411010742188 983.016052246094 985.560668945312 981.7548828125 991.45703125 988.678466796875 985.720458984375 991.729125976562 996.69091796875 993.425048828125 989.23583984375 988.4013671875 989.938659667969 994.222839355469 991.2333984375 1001.27801513672 1000.77233886719 1001.38446044922 995.713623046875 999.965759277344 1003.62823486328 1005.34289550781 1011.76782226562 1009.38879394531 1005.87896728516 1005.42913818359 993.805480957031 985.477600097656 977.562438964844 982.298889160156 979.324829101562 981.518859863281 974.393798828125 987.299011230469 986.233093261719 994.283935546875 993.7861328125 1007.14807128906 1003.46527099609 1000.12683105469 998.046691894531 993.380676269531 988.788513183594 987.210754394531 999.11328125 999.16259765625 1004.21014404297 1012.73516845703 1006.2421875 1012.34533691406 1006.46856689453 1007.25299072266 1014.10400390625 1007.96551513672 999.981262207031 998.925415039062 997.564880371094 1006.89215087891 1000.681640625 1007.31274414062 992.546081542969 993.878967285156 998.382202148438 1000.26641845703 1002.5185546875 1010.91754150391 1005.04266357422 1007.27685546875 1012.41229248047 1026.48950195312 1027.62292480469 1025.0673828125 1031.31176757812 1028.85620117188 1023.42504882812 1023.32354736328 1025.98205566406 1032.21752929688 1022.80950927734 1018.65380859375 1002.48980712891 1008.51379394531 1002.36743164062 1001.69921875 1011.01550292969 1010.42584228516 1008.69287109375 999.788330078125 990.587158203125 977.893249511719 976.884338378906 959.861755371094 958.919738769531 959.087890625 954.484130859375 955.166076660156 963.926513671875 964.395202636719 979.738403320312 996.624389648438 991.315673828125 1007.87939453125 1017.87023925781 1027.88293457031 1018.87786865234 1023.22418212891 1031.53369140625 1028.4384765625 1039.38525390625 1031.2099609375 1026.13610839844 1048.59753417969 1046.91687011719 1055.34008789062 1049.89013671875 1057.13098144531 1059.57739257812 1060.63269042969 1064.55529785156 1062.43762207031 1058.64208984375 1059.54895019531 1067.22583007812 1078.30627441406 1087.56311035156 1094.13842773438 1101.37268066406 1098.13317871094 1103.70397949219 1107.884765625
955.485229492188 961.518737792969 955.644836425781 957.278625488281 961.202880859375 965.111755371094 962.950073242188 964.292846679688 965.721435546875 979.107971191406 974.311218261719 978.834533691406 981.297302246094 979.999328613281 971.043029785156 964.697326660156 975.669494628906 983.910217285156 972.137268066406 974.603942871094 983.461547851562 994.220336914062 987.407775878906 987.053527832031 987.444519042969 981.307189941406 985.692993164062 989.098754882812 987.294555664062 991.5634765625 986.534301757812 993.139099121094 983.800720214844 987.444396972656 989.044555664062 1000.06048583984 999.762817382812 995.056518554688 997.409362792969 991.93115234375 996.269348144531 1010.15911865234 1011.39904785156 1004.42181396484 998.444396972656 995.989868164062 992.363891601562 988.426330566406 980.925109863281 982.620849609375 981.861694335938 984.699584960938 987.071838378906 985.611022949219 988.337646484375 989.904357910156 996.60009765625 998.270385742188 1003.98004150391 997.295227050781 995.943176269531 990.351135253906 987.822204589844 987.742736816406 997.619934082031 1009.65618896484 1007.24298095703 1010.67626953125 1006.14508056641 1002.06652832031 1001.46966552734 1006.62512207031 1006.69787597656 1003.85540771484 995.653015136719 993.636535644531 993.991516113281 999.915893554688 1002.59088134766 996.010131835938 1001.42108154297 995.613830566406 993.810791015625 1003.33843994141 1003.04638671875 996.307250976562 994.93359375 1004.87182617188 1019.46795654297 1022.61614990234 1033.82934570312 1029.38122558594 1029.56652832031 1026.55114746094 1031.06811523438 1027.65698242188 1031.23645019531 1028.46533203125 1026.46325683594 1016.96691894531 1002.58367919922 1004.9384765625 1002.27105712891 1003.01312255859 1009.38336181641 1006.07025146484 1000.48645019531 990.335815429688 989.773742675781 979.251953125 972.421569824219 969.420288085938 965.42578125 946.986145019531 953.409851074219 951.210144042969 955.955505371094 961.311279296875 975.099609375 1000.95104980469 1001.06195068359 1016.16558837891 1026.85119628906 1028.96704101562 1030.63732910156 1034.541015625 1040.18127441406 1030.22314453125 1030.12194824219 1028.78942871094 1035.54736328125 1047.09448242188 1043.57763671875 1048.43530273438 1040.90600585938 1043.63452148438 1050.47546386719 1051.06286621094 1055.46630859375 1046.45324707031 1052.478515625 1054.84802246094 1063.41149902344 1073.54553222656 1084.61938476562 1086.82507324219 1093.54040527344 1105.44750976562 1111.11645507812 1112.79211425781
955.026672363281 953.056579589844 954.664123535156 963.579467773438 962.59375 962.157592773438 959.299133300781 956.798034667969 962.741760253906 971.991088867188 973.776611328125 985.947387695312 980.755798339844 971.853820800781 968.372741699219 970.12353515625 978.795532226562 984.532653808594 975.479919433594 986.98291015625 993.596618652344 993.574951171875 998.15087890625 993.304321289062 989.803283691406 989.867797851562 982.119750976562 984.895812988281 985.367065429688 985.412231445312 982.275634765625 990.853820800781 991.498413085938 988.157836914062 990.825073242188 994.24755859375 988.245727539062 990.644348144531 983.847412109375 990.075805664062 989.818359375 998.988586425781 1002.07263183594 996.397033691406 999.401062011719 996.834533691406 991.627685546875 986.894897460938 982.96630859375 981.18017578125 980.090576171875 981.142761230469 978.55419921875 988.119445800781 993.296875 987.768127441406 987.662841796875 999.2509765625 1000.17395019531 995.01025390625 995.511657714844 991.466430664062 997.957458496094 990.447448730469 998.573303222656 1012.47033691406 1010.08312988281 1010.09698486328 1005.08197021484 1009.45263671875 1011.45532226562 1011.25592041016 1009.31488037109 999.408508300781 989.583312988281 985.022583007812 991.163879394531 994.336303710938 986.693054199219 984.827331542969 994.979614257812 988.956970214844 993.461669921875 1002.06958007812 998.447509765625 990.031188964844 1001.10705566406 1017.77691650391 1021.37445068359 1032.4443359375 1032.82861328125 1034.34191894531 1031.15185546875 1034.27490234375 1035.46179199219 1037.18542480469 1031.77209472656 1037.06237792969 1020.07788085938 1013.50451660156 1008.74890136719 1009.58831787109 1008.96118164062 1001.18719482422 1000.68255615234 1000.62164306641 1001.19213867188 1002.68206787109 990.094604492188 980.580139160156 970.309020996094 969.263366699219 962.991638183594 944.979614257812 939.834594726562 942.794738769531 962.467224121094 962.208068847656 972.812805175781 996.576477050781 1003.37060546875 1009.26275634766 1017.93798828125 1027.04455566406 1027.90966796875 1028.4169921875 1034.97888183594 1032.18481445312 1024.98291015625 1037.21569824219 1034.53271484375 1034.80834960938 1038.86730957031 1028.84655761719 1031.53601074219 1037.88159179688 1042.48754882812 1049.44738769531 1048.28015136719 1048.005859375 1050.65222167969 1056.36389160156 1063.94104003906 1067.61328125 1070.84509277344 1078.87268066406 1095.88073730469 1106.51342773438 1104.27893066406 1116.56237792969
962.095886230469 957.108520507812 960.102478027344 960.4765625 969.554748535156 962.908447265625 958.682373046875 958.430541992188 967.110229492188 971.317077636719 974.348327636719 982.475952148438 980.435546875 970.920471191406 979.881103515625 973.082641601562 975.698913574219 982.05419921875 979.326232910156 990.453918457031 993.700744628906 992.55029296875 989.204223632812 993.007385253906 993.473571777344 982.485046386719 975.448669433594 984.674438476562 980.658020019531 987.5810546875 986.72607421875 990.611511230469 991.95263671875 998.343200683594 992.40673828125 989.334289550781 990.019348144531 985.544006347656 980.109436035156 986.471984863281 989.268493652344 991.621887207031 988.247009277344 990.924682617188 1002.52166748047 1000.24719238281 997.959838867188 989.856994628906 991.500854492188 981.799865722656 986.376892089844 977.879760742188 981.319580078125 984.787841796875 990.946472167969 985.997253417969 986.643920898438 991.249145507812 997.986450195312 997.623107910156 995.329406738281 998.722595214844 1005.5986328125 997.713623046875 1001.01928710938 1002.95013427734 999.153198242188 1003.994140625 1001.63500976562 1001.45837402344 998.282836914062 992.304992675781 992.716857910156 992.830627441406 1000.65161132812 995.006958007812 988.617553710938 987.137390136719 982.7666015625 987.04638671875 990.432373046875 993.670959472656 983.654174804688 992.742858886719 985.325988769531 992.665222167969 1000.13275146484 1014.18670654297 1027.89782714844 1031.21691894531 1028.86779785156 1030.1474609375 1027.20361328125 1018.79028320312 1016.02447509766 1022.90014648438 1033.00341796875 1028.91088867188 1016.92852783203 1014.00250244141 1012.05993652344 1001.30059814453 1000.66540527344 1001.14416503906 995.815979003906 993.935424804688 1004.77947998047 1001.21765136719 988.705810546875 978.0361328125 963.529418945312 956.264343261719 952.562866210938 947.93212890625 939.278747558594 946.287170410156 956.224914550781 973.111267089844 974.31640625 986.913940429688 997.078125 1010.02630615234 1020.30639648438 1026.41235351562 1019.90698242188 1021.21893310547 1019.48327636719 1025.66357421875 1022.70275878906 1024.98132324219 1032.84313964844 1033.28833007812 1030.43115234375 1025.16870117188 1033.8818359375 1026.20849609375 1034.83044433594 1036.60314941406 1032.64636230469 1045.56237792969 1053.08483886719 1057.07104492188 1066.43286132812 1073.72119140625 1079.369140625 1089.63720703125 1097.48779296875 1106.54382324219 1109.05944824219 1110.63122558594
960.826782226562 965.239379882812 961.945373535156 963.793029785156 969.558532714844 971.054321289062 958.818237304688 964.015319824219 970.615783691406 972.591247558594 983.024230957031 980.316711425781 977.026062011719 975.687072753906 977.485534667969 977.104431152344 976.529663085938 983.735168457031 987.620239257812 982.362976074219 990.641540527344 986.22705078125 987.252380371094 992.325073242188 991.091613769531 982.784790039062 978.044006347656 979.809326171875 987.249755859375 981.17822265625 988.136169433594 992.772094726562 1008.05096435547 994.813842773438 992.09033203125 990.296813964844 990.240905761719 977.9013671875 978.658203125 982.822631835938 995.511840820312 988.123229980469 993.575439453125 985.383117675781 992.533935546875 988.205139160156 985.110900878906 978.987243652344 985.298400878906 980.075256347656 993.145141601562 980.783508300781 976.699462890625 981.650207519531 988.338928222656 979.014221191406 982.547302246094 986.091552734375 993.648132324219 991.689575195312 987.393798828125 992.658935546875 1000.04510498047 994.475341796875 999.150573730469 998.546936035156 993.837829589844 990.117492675781 997.403259277344 997.664855957031 993.578002929688 994.936889648438 995.919311523438 1006.18377685547 1007.62573242188 1002.37908935547 989.407348632812 985.903442382812 985.972412109375 993.656066894531 999.257873535156 994.338745117188 986.8056640625 990.137023925781 988.545532226562 990.221374511719 1000.02752685547 1001.12658691406 1013.36981201172 1019.30157470703 1018.14965820312 1023.92785644531 1016.13641357422 1016.93658447266 1018.97595214844 1018.52020263672 1017.00286865234 1031.296875 1024.89392089844 1028.79919433594 1015.8994140625 1000.693359375 989.152282714844 997.419067382812 988.580932617188 986.695556640625 997.731384277344 997.671813964844 984.828125 972.793395996094 971.106384277344 962.475036621094 949.406860351562 945.865173339844 937.78564453125 949.195007324219 961.514892578125 968.680053710938 971.506713867188 975.668334960938 1001.91314697266 1012.49169921875 1018.21075439453 1019.00640869141 1021.26513671875 1026.9990234375 1022.61383056641 1015.50329589844 1020.2109375 1032.67004394531 1033.37365722656 1027.14562988281 1021.97760009766 1020.13439941406 1019.17053222656 1026.19250488281 1026.53759765625 1019.98724365234 1028.64831542969 1042.03308105469 1061.84484863281 1066.11389160156 1069.17749023438 1074.37670898438 1080.68212890625 1095.92248535156 1097.8037109375 1094.88659667969 1114.93298339844 1114.41906738281
961.249389648438 966.208984375 970.358947753906 969.79931640625 970.240661621094 962.237365722656 964.603942871094 972.206359863281 964.757568359375 976.8154296875 975.751342773438 978.198486328125 981.912780761719 973.913452148438 969.863037109375 970.881958007812 977.065673828125 975.978698730469 985.398376464844 981.230346679688 976.348937988281 988.382080078125 989.554931640625 990.234191894531 984.302001953125 987.9267578125 981.166381835938 981.4736328125 982.494079589844 981.020690917969 993.435546875 998.233032226562 994.324401855469 994.189208984375 992.280212402344 987.003845214844 982.182067871094 978.88720703125 982.066101074219 986.7099609375 984.205688476562 984.550537109375 994.717529296875 995.66259765625 993.400451660156 984.138427734375 975.98046875 982.449035644531 982.60498046875 979.950561523438 972.710021972656 975.977966308594 981.418823242188 987.800415039062 978.888854980469 979.726745605469 970.411926269531 976.912170410156 987.422546386719 993.038635253906 988.97216796875 992.015014648438 997.210998535156 994.075561523438 1000.36065673828 993.670959472656 995.227844238281 992.854919433594 991.536437988281 995.509643554688 991.919067382812 1000.88226318359 998.42529296875 1002.32000732422 1000.3603515625 1001.25988769531 990.743713378906 983.598571777344 974.629333496094 981.169860839844 995.410583496094 1000.60888671875 997.326904296875 991.291137695312 999.026123046875 1000.87756347656 999.647277832031 994.867004394531 1010.89508056641 1013.27160644531 1017.55603027344 1020.43743896484 1014.73333740234 1011.88220214844 1007.42657470703 1010.12396240234 1013.69909667969 1018.41491699219 1014.05755615234 1008.80987548828 1009.68872070312 1003.41436767578 1000.92364501953 991.690002441406 987.748779296875 986.709045410156 1001.84521484375 997.543701171875 985.999877929688 973.463256835938 983.393127441406 966.180908203125 958.202880859375 951.978820800781 948.309326171875 954.115844726562 966.104248046875 984.815185546875 980.311096191406 988.387145996094 995.856750488281 1006.73956298828 1022.43817138672 1023.333984375 1028.43957519531 1028.16259765625 1025.93603515625 1017.78521728516 1023.03216552734 1027.31970214844 1027.48388671875 1022.52044677734 1018.25598144531 1019.11004638672 1023.08392333984 1025.47705078125 1018.37396240234 1026.41589355469 1026.09289550781 1034.52429199219 1055.25891113281 1075.06457519531 1073.12292480469 1074.212890625 1087.79650878906 1098.15661621094 1101.46984863281 1097.1865234375 1107.25842285156 1115.11950683594
954.862487792969 961.287231445312 963.283325195312 968.700073242188 969.316345214844 975.593872070312 973.760498046875 974.599792480469 974.344421386719 975.53076171875 981.453369140625 970.331298828125 974.374206542969 976.005737304688 978.150939941406 969.776916503906 976.300537109375 975.319458007812 987.640808105469 985.154541015625 981.364318847656 987.832641601562 987.514038085938 987.954956054688 989.433349609375 985.022338867188 982.18994140625 982.323181152344 978.018615722656 981.556579589844 979.758483886719 989.7685546875 987.968505859375 999.851745605469 988.135131835938 987.944946289062 984.781005859375 979.589904785156 984.750183105469 981.336730957031 983.176696777344 982.201293945312 990.894897460938 996.027404785156 986.325561523438 983.5146484375 979.374938964844 978.0048828125 979.299255371094 981.565185546875 971.945190429688 977.084655761719 984.665832519531 978.971862792969 981.75341796875 969.830444335938 970.452331542969 978.355773925781 986.287170410156 990.225036621094 991.605651855469 986.064697265625 997.240478515625 991.582336425781 986.208740234375 991.7099609375 994.596984863281 998.955749511719 991.140930175781 990.660095214844 990.23291015625 991.805114746094 991.101684570312 1001.10394287109 1000.60662841797 999.742431640625 990.31494140625 985.262084960938 980.998718261719 983.111022949219 990.000183105469 994.497924804688 995.460876464844 996.752990722656 1003.15625 1004.92730712891 1005.14788818359 999.755798339844 1009.99145507812 1014.66558837891 1022.82385253906 1026.25085449219 1013.42572021484 1011.79650878906 1010.17602539062 1006.26593017578 1013.58392333984 1008.32373046875 1010.42517089844 1006.12762451172 1005.79095458984 993.001281738281 999.450500488281 998.261779785156 999.066772460938 984.172607421875 1004.11358642578 991.793151855469 980.332702636719 976.335021972656 984.705627441406 979.71240234375 971.1494140625 965.160278320312 965.971374511719 962.947692871094 968.61376953125 982.971374511719 992.658813476562 994.986938476562 1006.02770996094 1009.90191650391 1023.09606933594 1023.49523925781 1024.38903808594 1027.15100097656 1022.07946777344 1022.06805419922 1016.50695800781 1017.80609130859 1029.33142089844 1018.16003417969 1015.18688964844 1018.30554199219 1017.04333496094 1018.07818603516 1021.17785644531 1028.82531738281 1033.34045410156 1035.12939453125 1055.73266601562 1069.21423339844 1070.96313476562 1083.4462890625 1094.48205566406 1102.50891113281 1110.19140625 1100.03393554688 1114.22033691406 1116.03295898438
948.136596679688 951.449584960938 961.937744140625 968.022827148438 963.074951171875 977.876770019531 965.244750976562 976.751037597656 979.152099609375 977.17236328125 976.083374023438 977.945983886719 980.02001953125 974.903747558594 978.106750488281 972.04833984375 979.236999511719 981.930480957031 976.827392578125 994.253967285156 985.210388183594 991.518981933594 988.867614746094 981.289184570312 981.943969726562 983.146057128906 973.868408203125 982.776062011719 978.325012207031 980.678771972656 991.390930175781 982.358947753906 991.343627929688 992.332092285156 986.788513183594 985.179443359375 975.460571289062 988.353454589844 982.102600097656 979.490112304688 981.520751953125 993.714050292969 993.513854980469 993.591613769531 985.032287597656 978.392333984375 971.240234375 970.327331542969 977.899536132812 981.098510742188 981.282836914062 979.62158203125 983.490112304688 981.5927734375 974.4248046875 967.207275390625 972.932373046875 978.633666992188 979.362670898438 980.461181640625 988.6279296875 998.847595214844 993.373229980469 985.433654785156 985.872619628906 987.618286132812 990.445434570312 984.557189941406 989.49951171875 987.503662109375 991.373107910156 990.702270507812 994.598022460938 995.85595703125 1004.1826171875 1000.44445800781 998.306213378906 986.247009277344 983.457946777344 989.215515136719 999.79931640625 998.457824707031 995.395935058594 997.593627929688 1006.30383300781 1014.69384765625 1008.61499023438 1002.67297363281 1001.06951904297 1006.72674560547 1013.01440429688 1018.78289794922 1015.71508789062 1016.83062744141 1005.3056640625 1000.185546875 1010.80456542969 1004.05090332031 1001.865234375 1002.84576416016 1001.80749511719 995.028198242188 994.786254882812 998.69482421875 1006.09381103516 995.656005859375 997.518127441406 996.119567871094 992.847045898438 991.270385742188 988.220031738281 988.235412597656 974.419494628906 968.066467285156 972.675048828125 971.350524902344 971.021301269531 986.960815429688 996.026062011719 1003.1025390625 1012.43774414062 1021.55169677734 1024.79284667969 1016.34771728516 1020.79345703125 1022.29852294922 1017.20227050781 1019.64123535156 1017.44403076172 1017.51019287109 1024.4384765625 1021.55914306641 1017.34051513672 1020.50799560547 1015.17272949219 1019.96331787109 1022.64581298828 1036.39514160156 1042.3486328125 1054.65576171875 1050.87463378906 1058.09814453125 1070.05505371094 1085.58239746094 1106.10412597656 1105.75146484375 1108.015625 1107.5908203125 1120.400390625 1133.0205078125
944.752807617188 951.591247558594 965.898010253906 959.474243164062 959.350769042969 968.961364746094 968.15576171875 975.124938964844 970.308227539062 971.316650390625 984.632202148438 977.732543945312 975.134887695312 979.856018066406 980.041748046875 984.327514648438 970.440246582031 961.600769042969 973.763305664062 984.403991699219 983.7099609375 982.586242675781 982.149658203125 981.835693359375 978.182983398438 981.972717285156 975.085327148438 977.24365234375 973.804748535156 983.119873046875 983.776428222656 977.298156738281 974.399108886719 982.273620605469 974.908752441406 975.498413085938 986.376708984375 978.180358886719 981.087280273438 973.943481445312 973.963195800781 986.465026855469 985.13037109375 989.940612792969 982.584899902344 973.163940429688 979.745361328125 981.065734863281 973.865905761719 978.462829589844 980.731750488281 982.9619140625 977.095764160156 977.918151855469 970.0830078125 965.99462890625 973.425842285156 982.356506347656 983.88720703125 975.663513183594 972.4169921875 976.3701171875 980.886535644531 981.320739746094 981.744750976562 991.395263671875 987.600952148438 982.897827148438 976.79248046875 972.25830078125 981.535827636719 985.015197753906 991.127502441406 1001.04809570312 994.187866210938 1001.05316162109 998.6484375 991.989868164062 993.477905273438 987.154174804688 998.876037597656 1001.46331787109 999.827514648438 1001.18988037109 999.509399414062 1004.0615234375 1009.45306396484 1002.86462402344 999.889343261719 1003.97863769531 1004.91735839844 1016.71795654297 1014.09692382812 1011.05511474609 1005.95599365234 1002.58520507812 1005.50665283203 999.130493164062 999.3193359375 997.360290527344 997.7978515625 996.876647949219 991.615966796875 994.251770019531 992.519958496094 993.40869140625 991.680419921875 991.626708984375 997.836853027344 996.500671386719 986.640625 985.726989746094 990.736511230469 987.374572753906 982.482788085938 983.94482421875 975.869201660156 988.235473632812 992.719360351562 1001.62841796875 1017.62634277344 1026.06091308594 1024.36096191406 1020.15777587891 1018.0390625 1008.60748291016 1015.91247558594 1015.52471923828 1015.20629882812 1008.55279541016 1018.35949707031 1022.56677246094 1014.50402832031 1013.60083007812 1019.30456542969 1023.94769287109 1024.58276367188 1027.22973632812 1040.81494140625 1056.51440429688 1048.16772460938 1061.26220703125 1070.81799316406 1085.12585449219 1097.05529785156 1104.21313476562 1115.13525390625 1114.39685058594 1136.18737792969 1135.82983398438
947.145263671875 961.632934570312 961.0498046875 962.31884765625 965.52685546875 967.557434082031 964.347412109375 976.027587890625 970.444763183594 961.193786621094 973.504028320312 972.488403320312 971.501953125 969.830932617188 974.330139160156 976.131958007812 971.897155761719 962.804077148438 968.244506835938 980.83447265625 987.838562011719 978.860107421875 980.439575195312 983.876770019531 984.103271484375 986.111511230469 985.854248046875 981.27197265625 981.059204101562 981.539367675781 987.660400390625 976.455261230469 974.451049804688 981.974670410156 981.815307617188 976.182556152344 974.406982421875 971.837951660156 974.16943359375 975.874633789062 975.78759765625 973.704467773438 981.10693359375 975.565246582031 972.08447265625 967.568054199219 970.998352050781 968.599609375 974.96533203125 980.98974609375 984.53369140625 985.1025390625 983.754150390625 980.892028808594 967.2255859375 970.84130859375 970.837463378906 973.492248535156 976.235900878906 974.212036132812 979.482849121094 978.330200195312 982.28662109375 981.016723632812 985.889038085938 981.651489257812 979.93701171875 975.784423828125 978.93115234375 975.197998046875 978.213500976562 978.16796875 977.785522460938 980.786010742188 993.698303222656 991.7744140625 991.016784667969 992.259094238281 996.696411132812 999.97412109375 992.991333007812 994.940002441406 1003.07250976562 1001.49829101562 1003.89569091797 1005.93811035156 1007.77496337891 1007.03930664062 999.806640625 996.933288574219 1002.03344726562 1008.80462646484 1010.97045898438 1003.12414550781 996.17333984375 1001.44512939453 999.8330078125 993.764831542969 996.978637695312 983.676147460938 990.522155761719 992.772888183594 983.543579101562 994.493591308594 993.104736328125 997.913696289062 997.306823730469 997.713623046875 993.073059082031 989.573425292969 983.216064453125 987.760681152344 996.071472167969 997.218017578125 993.500549316406 981.104858398438 987.260070800781 987.723510742188 987.363159179688 1008.63201904297 1018.41101074219 1021.14044189453 1028.23071289062 1009.08221435547 1009.05725097656 1009.431640625 1015.85095214844 1016.88372802734 1012.72283935547 999.461853027344 1014.00457763672 1021.71350097656 1023.44055175781 1018.45562744141 1018.01873779297 1020.09954833984 1025.19897460938 1033.28186035156 1044.23193359375 1049.89147949219 1063.69323730469 1066.44763183594 1074.26989746094 1082.5 1090.79736328125 1097.09436035156 1116.49743652344 1126.35400390625 1127.79614257812 1135.60131835938
959.655151367188 968.555297851562 968.573669433594 972.384582519531 969.303955078125 968.767272949219 966.249389648438 971.477478027344 955.041625976562 951.959411621094 964.279663085938 960.974975585938 965.530517578125 962.543334960938 968.524475097656 973.72998046875 974.98095703125 967.381530761719 975.8212890625 978.647033691406 977.108032226562 983.164916992188 980.867492675781 979.399230957031 983.169860839844 980.807189941406 979.802673339844 974.449401855469 980.251098632812 976.378784179688 983.625183105469 980.725952148438 971.898864746094 969.474182128906 976.103454589844 984.613159179688 984.56982421875 977.14306640625 977.546875 974.477722167969 976.084411621094 975.2080078125 975.42431640625 973.6640625 968.089233398438 964.060791015625 957.403686523438 968.5205078125 969.918640136719 976.519653320312 982.670776367188 978.542114257812 983.855102539062 977.734680175781 976.891723632812 972.621520996094 970.200622558594 976.332275390625 982.575317382812 984.818115234375 982.044555664062 978.018859863281 980.589538574219 975.642395019531 976.830017089844 980.362976074219 982.931030273438 984.544006347656 980.28369140625 974.905334472656 969.6982421875 975.279602050781 976.227844238281 979.291625976562 985.412170410156 996.789367675781 997.601501464844 999.625610351562 998.346435546875 996.327453613281 999.616882324219 1001.87506103516 1006.93286132812 1004.62359619141 1002.13354492188 1007.24255371094 1004.89904785156 1001.86370849609 992.924133300781 988.919189453125 992.169006347656 1003.45989990234 1009.09106445312 1001.37927246094 999.044067382812 995.812683105469 991.287353515625 991.659362792969 989.443542480469 985.98046875 985.720886230469 990.067138671875 986.281677246094 990.19921875 990.938659667969 993.221984863281 996.831604003906 993.912658691406 992.09326171875 990.328247070312 987.123107910156 994.730834960938 1001.27746582031 996.126586914062 987.560791015625 991.357543945312 995.318176269531 988.192321777344 999.053100585938 1008.54998779297 1014.44519042969 1009.14953613281 1021.93035888672 1010.29638671875 1006.98150634766 1003.29907226562 1000.77947998047 1012.96862792969 1012.17590332031 1007.33703613281 1012.71746826172 1014.98553466797 1019.37872314453 1012.47180175781 1020.50360107422 1021.63568115234 1024.34289550781 1031.86682128906 1056.23107910156 1067.08093261719 1072.37243652344 1073.28381347656 1074.86157226562 1085.40637207031 1098.41979980469 1108.36828613281 1121.85827636719 1128.60192871094 1133.38073730469 1137.0185546875
960.596862792969 975.243713378906 964.060485839844 972.351196289062 976.956176757812 970.93408203125 970.537902832031 963.4296875 957.735473632812 957.448425292969 962.027770996094 971.126342773438 968.721008300781 967.372985839844 967.726257324219 970.632141113281 968.323425292969 973.818176269531 974.822326660156 982.805236816406 971.857299804688 978.361145019531 975.215454101562 976.713806152344 975.755859375 967.804382324219 968.177612304688 975.412963867188 981.221008300781 977.800109863281 978.895324707031 978.513427734375 971.126037597656 975.703979492188 983.06494140625 986.780212402344 987.75 977.509704589844 980.840698242188 977.386108398438 967.095886230469 967.567626953125 971.0087890625 979.256286621094 975.265625 966.799438476562 962.718872070312 964.773620605469 976.898986816406 976.087585449219 983.270080566406 980.8134765625 976.416564941406 984.036499023438 983.856079101562 975.245727539062 982.555908203125 969.636596679688 975.362426757812 990.410339355469 982.580871582031 980.317260742188 976.603515625 974.97802734375 979.3701171875 974.641906738281 976.880798339844 977.341064453125 975.729187011719 975.509399414062 971.640808105469 972.746398925781 978.339050292969 981.639953613281 983.10888671875 986.525024414062 988.435852050781 998.209594726562 988.6337890625 1001.58422851562 1005.0556640625 1001.99163818359 998.108520507812 1014.41705322266 1008.70562744141 1007.82843017578 999.583129882812 997.52783203125 988.490478515625 985.83349609375 988.879699707031 991.635803222656 987.649597167969 993.3427734375 997.90380859375 986.365661621094 985.534057617188 989.634521484375 990.8564453125 983.504638671875 978.506896972656 984.116882324219 994.168640136719 999.097961425781 992.967041015625 994.285766601562 994.786193847656 993.598815917969 992.7666015625 996.911376953125 992.329528808594 997.196655273438 1006.97943115234 1002.7294921875 1001.67639160156 1004.90173339844 997.155639648438 997.395874023438 1001.86206054688 1004.98486328125 1007.05377197266 1016.46307373047 1024.49157714844 1013.80230712891 1004.36700439453 1004.16967773438 1004.47888183594 1007.57012939453 1006.61553955078 1006.89135742188 1013.53326416016 1019.76263427734 1023.84710693359 1021.61199951172 1022.72247314453 1024.27758789062 1025.19689941406 1037.90893554688 1056.87719726562 1068.69995117188 1089.34790039062 1081.31213378906 1087.87475585938 1098.16552734375 1102.74145507812 1121.12341308594 1122.73474121094 1122.46435546875 1130.85131835938 1137.88354492188
964.568115234375 966.365112304688 962.279357910156 963.304626464844 969.230834960938 967.18798828125 964.427429199219 957.720153808594 963.044311523438 960.645629882812 962.656860351562 963.039306640625 975.365478515625 967.583801269531 969.6318359375 975.555786132812 972.403930664062 982.643249511719 978.310119628906 979.592529296875 979.326232910156 976.465515136719 966.034057617188 969.08251953125 954.433898925781 961.06396484375 966.133666992188 976.758239746094 975.717102050781 978.791870117188 981.805847167969 979.245361328125 980.4521484375 987.945068359375 983.673461914062 988.594482421875 983.641479492188 982.637634277344 984.236328125 980.491577148438 979.724914550781 979.65283203125 978.905700683594 983.075561523438 969.5439453125 969.799072265625 971.975891113281 971.902221679688 970.819641113281 978.927062988281 980.810363769531 977.613525390625 984.827514648438 980.922546386719 982.748046875 974.013244628906 966.521301269531 964.998229980469 967.345581054688 981.67724609375 977.859741210938 983.012023925781 984.809509277344 979.829528808594 977.876281738281 983.972412109375 987.867004394531 977.932739257812 978.542236328125 970.849487304688 974.611572265625 976.661071777344 976.662231445312 983.024230957031 981.301879882812 987.932556152344 989.937622070312 987.95458984375 994.507080078125 989.947509765625 999.325561523438 996.918273925781 994.175109863281 994.441711425781 995.325805664062 995.917907714844 997.792907714844 1000.26306152344 995.8603515625 983.58984375 988.036499023438 993.352783203125 997.561279296875 990.21630859375 992.300537109375 984.245849609375 987.173278808594 992.44482421875 989.711059570312 984.88525390625 988.555908203125 988.593017578125 995.278076171875 994.906860351562 995.707275390625 993.971435546875 991.335266113281 991.038635253906 985.560546875 989.25732421875 994.233154296875 994.717346191406 1003.31658935547 1005.62139892578 998.634826660156 995.570129394531 995.189758300781 988.993713378906 1001.46984863281 1008.14221191406 1013.48754882812 1015.14514160156 1021.51531982422 1004.11962890625 1002.67517089844 1011.14331054688 1007.32189941406 1008.81646728516 1022.6103515625 1020.83715820312 1024.30078125 1026.0029296875 1027.27526855469 1030.37365722656 1029.20043945312 1038.29016113281 1042.06079101562 1055.2314453125 1067.28735351562 1089.275390625 1085.21716308594 1085.20922851562 1087.22277832031 1104.20715332031 1121.36950683594 1133.3935546875 1133.95739746094 1126.74951171875 1130.56652832031 1148.01574707031
964.09228515625 956.480834960938 963.857116699219 963.414611816406 959.310607910156 962.2353515625 964.245666503906 971.342834472656 973.437072753906 964.016235351562 959.800964355469 963.757202148438 970.867431640625 972.904663085938 966.355773925781 976.518676757812 977.731567382812 979.83642578125 972.4169921875 970.474853515625 977.711975097656 975.925354003906 965.354614257812 961.497009277344 959.417053222656 960.670043945312 964.808776855469 973.335083007812 980.206787109375 978.213623046875 976.217224121094 981.298034667969 981.311584472656 990.886779785156 985.723266601562 988.620727539062 990.82421875 981.081970214844 979.665771484375 977.438232421875 975.40869140625 982.442565917969 983.788635253906 978.22119140625 972.601257324219 969.006469726562 978.400939941406 976.477966308594 967.405151367188 973.564697265625 978.588684082031 971.92724609375 967.631225585938 962.53857421875 978.44140625 972.72509765625 964.527526855469 966.90283203125 967.716369628906 977.748413085938 984.643737792969 990.2529296875 990.494323730469 983.224609375 982.846801757812 985.116027832031 983.531555175781 978.7607421875 975.758911132812 978.145446777344 972.171752929688 966.148254394531 975.051452636719 981.030395507812 977.740356445312 981.946228027344 982.091918945312 984.465637207031 987.495727539062 987.591918945312 994.946350097656 985.179626464844 989.576782226562 987.905822753906 982.908996582031 986.712036132812 991.889709472656 993.799133300781 990.702270507812 984.388732910156 988.521240234375 987.964538574219 993.140014648438 984.197814941406 992.819641113281 989.967895507812 986.991577148438 996.0888671875 992.023986816406 988.769287109375 986.700378417969 998.0654296875 991.662841796875 997.323364257812 996.955261230469 997.070495605469 991.468200683594 977.56005859375 973.662414550781 983.689758300781 986.834655761719 993.106750488281 999.977844238281 996.425476074219 992.93896484375 987.311279296875 996.749145507812 995.666259765625 1004.99255371094 1001.24163818359 1004.03674316406 1008.81994628906 1014.51147460938 1005.68927001953 999.908203125 1010.64739990234 1018.56658935547 1020.16534423828 1024.87756347656 1029.49682617188 1030.15673828125 1033.20617675781 1029.2373046875 1029.697265625 1040.6484375 1052.78088378906 1050.35607910156 1058.71240234375 1074.97668457031 1094.04406738281 1094.20642089844 1092.8212890625 1099.83264160156 1109.39587402344 1126.21630859375 1136.93896484375 1137.55236816406 1135.84558105469 1138.36181640625 1150.38684082031
