NCOLS 150
NROWS 37
XLLCORNER 7394249
YLLCORNER 4842929
CELLSIZE 30
NODATA_VALUE -9999
952.017333984375 951.888854980469 961.021179199219 960.1884765625 967.518798828125 965.0986328125 969.553833007812 970.903259277344 969.459533691406 972.307861328125 972.605529785156 972.598388671875 972.869873046875 977.892517089844 985.794067382812 984.369873046875 977.5341796875 979.082214355469 971.806396484375 977.896911621094 982.311828613281 987.02734375 987.55615234375 983.21728515625 989.055358886719 986.534301757812 986.862548828125 979.730346679688 976.501525878906 989.601684570312 997.826843261719 993.699401855469 983.192932128906 985.986328125 980.24853515625 979.211791992188 973.447875976562 971.576599121094 966.794921875 980.609436035156 973.267578125 984.434875488281 980.222351074219 980.87841796875 989.106811523438 987.294921875 982.284973144531 980.173889160156 983.655578613281 982.264038085938 973.221862792969 981.362426757812 979.546875 983.908020019531 980.711975097656 974.184875488281 968.757995605469 971.039672851562 974.498291015625 977.940795898438 976.7255859375 980.678771972656 980.891296386719 981.852294921875 987.955505371094 995.915588378906 991.11669921875 995.269470214844 996.662170410156 995.914855957031 993.622009277344 995.953857421875 981.339050292969 981.06298828125 982.214172363281 988.48876953125 987.8017578125 992.548278808594 1001.02410888672 999.657897949219 1014.98370361328 1015.20825195312 1017.99493408203 1008.56103515625 1012.48736572266 1010.99011230469 1004.34655761719 1001.13775634766 1009.68005371094 1013.57751464844 1007.04467773438 992.203674316406 1000.53479003906 1009.99066162109 1014.53967285156 1012.40307617188 1003.74816894531 1007.54180908203 1008.59661865234 1008.14050292969 1007.83728027344 1006.73974609375 1004.44274902344 1004.5947265625 1011.79473876953 1004.90704345703 997.085266113281 992.386169433594 987.588195800781 977.258422851562 970.193725585938 967.604431152344 962.780639648438 960.276306152344 954.468933105469 958.650939941406 970.331787109375 984.675048828125 989.951293945312 1002.15118408203 998.186462402344 1000.15905761719 1013.03930664062 1014.02722167969 1027.30151367188 1025.23962402344 1029.20886230469 1016.90936279297 1016.88275146484 1016.82354736328 1019.17980957031 1016.40759277344 1012.57342529297 1012.4453125 1017.11431884766 1021.51037597656 1021.72137451172 1032.13891601562 1040.91162109375 1057.31799316406 1058.75439453125 1076.64184570312 1074.65502929688 1083.38452148438 1087.80200195312 1107.33422851562 1114.150390625 1114.65600585938 1114.93579101562 1114.8896484375
949.243347167969 955.648193359375 958.770751953125 960.797912597656 972.060302734375 968.728576660156 969.148681640625 973.612121582031 983.227661132812 978.905212402344 972.702453613281 971.912780761719 984.092529296875 986.045959472656 985.136413574219 985.181335449219 987.798461914062 982.745300292969 971.045532226562 973.889953613281 978.279907226562 990.540832519531 992.735900878906 973.402587890625 980.007019042969 977.044799804688 980.936462402344 975.549865722656 976.856750488281 981.362548828125 988.035827636719 990.369140625 983.556640625 976.999572753906 971.124267578125 967.124389648438 970.496215820312 967.344848632812 964.211303710938 980.087463378906 978.674072265625 985.561279296875 983.883605957031 984.621520996094 992.51171875 988.412780761719 977.401184082031 980.046020507812 981.072387695312 975.930847167969 975.949584960938 983.953979492188 974.960876464844 980.881530761719 972.857971191406 976.607543945312 976.406555175781 978.07861328125 978.795043945312 976.768493652344 974.500854492188 974.809936523438 979.384765625 985.335693359375 988.809448242188 993.137573242188 990.120239257812 993.409362792969 990.709655761719 991.949829101562 989.152099609375 990.800964355469 980.613586425781 988.654052734375 985.453063964844 987.474182128906 986.408508300781 1000.93572998047 1005.48577880859 1002.10144042969 1014.71520996094 1012.48645019531 1010.33294677734 1010.18524169922 999.554931640625 1010.14190673828 1008.71264648438 1001.26336669922 1004.19055175781 993.824523925781 999.901123046875 992.337341308594 1004.4755859375 1015.08843994141 1015.15783691406 1013.09674072266 1010.01867675781 1005.12231445312 1006.91320800781 1002.10217285156 1002.98681640625 1002.28527832031 1011.77331542969 1003.96704101562 999.741821289062 993.253051757812 993.740051269531 993.025390625 991.716674804688 983.405639648438 977.158264160156 972.367309570312 968.111511230469 969.787231445312 970.039306640625 963.77587890625 970.049621582031 978.430969238281 993.799133300781 999.332214355469 1005.70666503906 1012.10192871094 1024.373046875 1023.98046875 1016.74633789062 1028.11657714844 1020.51214599609 1019.90496826172 1014.59039306641 1015.13110351562 1013.21118164062 1010.50592041016 1006.87890625 1004.87829589844 1011.64282226562 1019.97369384766 1022.3896484375 1037.27807617188 1049.02954101562 1063.53442382812 1073.05200195312 1069.93811035156 1077.39880371094 1087.49340820312 1093.01574707031 1101.58984375 1111.70666503906 1122.77185058594 1113.8037109375 1112.02160644531
956.5361328125 959.182434082031 959.8779296875 962.464904785156 961.464294433594 973.591735839844 967.205261230469 983.261535644531 984.779113769531 979.276611328125 965.084533691406 973.796081542969 971.44921875 981.937683105469 983.456298828125 978.702697753906 980.001525878906 974.2880859375 982.517333984375 980.643737792969 979.445861816406 986.206787109375 988.2255859375 989.224426269531 980.548889160156 986.634460449219 991.765197753906 983.298950195312 968.625549316406 979.791259765625 980.503662109375 982.642517089844 971.689025878906 971.547241210938 970.282470703125 967.115905761719 972.9697265625 971.875305175781 966.588806152344 975.837646484375 976.053039550781 984.0625 990.799865722656 987.427429199219 990.853637695312 981.464782714844 967.389709472656 965.943298339844 979.810119628906 980.175354003906 975.542114257812 981.745483398438 973.078796386719 971.546936035156 972.497802734375 975.159057617188 978.164001464844 978.616455078125 975.978210449219 973.674255371094 978.085205078125 986.733032226562 980.953491210938 981.221557617188 987.972351074219 990.724243164062 988.91748046875 982.745788574219 989.275756835938 995.573120117188 994.995361328125 994.017333984375 985.968139648438 983.488037109375 982.436950683594 989.287658691406 991.293151855469 1004.74774169922 1004.23187255859 1009.35888671875 1003.42913818359 1005.294921875 1013.14184570312 1007.68103027344 1000.19976806641 1009.66351318359 1001.72479248047 1000.55065917969 993.020446777344 984.603637695312 988.207580566406 994.500671386719 997.462707519531 1010.54815673828 1012.45556640625 1008.46905517578 1003.23205566406 1003.95379638672 1004.23309326172 997.636657714844 1003.60803222656 1003.14666748047 1003.48693847656 1003.14129638672 995.913879394531 996.327819824219 999.963500976562 1001.14752197266 994.806457519531 987.710327148438 972.577392578125 978.697204589844 980.473754882812 978.748413085938 982.039123535156 977.189697265625 984.048400878906 993.338012695312 996.160949707031 1009.88256835938 1004.85162353516 1021.42803955078 1021.26135253906 1014.67095947266 1012.76812744141 1016.82000732422 1020.11566162109 1017.36010742188 1012.69580078125 1015.81988525391 1011.80523681641 1011.61401367188 1000.49993896484 1011.31909179688 1017.21655273438 1025.08520507812 1032.46179199219 1043.75646972656 1056.048828125 1069.84533691406 1080.3486328125 1078.93762207031 1078.02294921875 1088.80786132812 1091.61743164062 1090.66870117188 1102.45227050781 1112.98901367188 1111.71655273438 1117.02746582031
956.053588867188 957.175537109375 958.760498046875 959.517272949219 968.645751953125 973.720153808594 965.070068359375 975.056274414062 973.663269042969 967.781860351562 970.419738769531 973.507385253906 981.936218261719 977.990417480469 978.67724609375 976.168640136719 977.771057128906 976.602478027344 974.072387695312 978.290161132812 973.9404296875 978.853271484375 981.258911132812 983.52978515625 981.751098632812 988.572021484375 987.109375 985.127136230469 972.626098632812 972.858703613281 973.272521972656 982.226013183594 975.030700683594 974.894653320312 972.339782714844 974.369873046875 983.834777832031 974.023132324219 968.603881835938 980.741333007812 974.601257324219 982.4169921875 983.814453125 984.459533691406 982.088073730469 969.913635253906 968.661499023438 971.710876464844 977.768798828125 980.05029296875 980.691589355469 982.887939453125 977.285095214844 976.045715332031 968.333801269531 974.921142578125 978.654418945312 974.643432617188 977.312622070312 972.60302734375 982.950256347656 988.627319335938 987.059448242188 980.510192871094 979.100341796875 985.712280273438 980.729431152344 983.326721191406 980.561645507812 990.53662109375 985.130187988281 993.508666992188 991.248901367188 976.132263183594 979.752685546875 984.025451660156 995.785095214844 1002.89892578125 1001.2744140625 1006.79901123047 1002.20544433594 1007.16278076172 1004.30389404297 1002.53460693359 995.1240234375 999.007995605469 991.124938964844 992.539184570312 990.661560058594 982.282958984375 981.609436035156 989.217346191406 990.805053710938 1006.66729736328 1010.44104003906 1005.29083251953 1000.95709228516 999.028198242188 1008.0205078125 1000.33178710938 998.583435058594 998.968872070312 996.542358398438 993.470764160156 987.928405761719 1002.00823974609 996.361145019531 994.295104980469 995.649597167969 986.927856445312 991.947570800781 983.806213378906 986.885437011719 988.55908203125 986.521301269531 977.564392089844 977.259704589844 990.193603515625 999.778381347656 996.333374023438 1001.45257568359 1009.46514892578 1015.09954833984 1015.42095947266 1013.64324951172 1012.23114013672 1014.37017822266 1016.25225830078 1010.67669677734 1010.49432373047 1012.8359375 1004.05328369141 1004.14117431641 1012.98004150391 1021.47698974609 1027.96142578125 1035.54858398438 1049.88952636719 1059.42041015625 1078.30395507812 1079.84106445312 1078.13146972656 1081.6904296875 1095.31225585938 1099.33801269531 1100.19885253906 1109.61938476562 1107.45458984375 1110.62683105469 1104.69995117188
951.27783203125 962.764587402344 962.507141113281 963.531433105469 965.693664550781 970.204162597656 969.671691894531 975.955200195312 969.038879394531 975.36865234375 977.469116210938 973.632751464844 969.652893066406 973.218933105469 982.455261230469 987.34716796875 989.036560058594 979.702941894531 984.01318359375 980.274963378906 981.684020996094 978.777160644531 973.450378417969 975.804504394531 986.778015136719 982.151672363281 989.475219726562 981.0341796875 976.725219726562 978.553161621094 972.603881835938 978.398254394531 976.047485351562 979.653564453125 979.67822265625 980.734558105469 977.414855957031 971.645263671875 966.238403320312 972.736083984375 981.112060546875 991.557556152344 986.760498046875 982.32373046875 977.211120605469 970.880432128906 965.457763671875 968.502014160156 974.347717285156 978.482055664062 983.46728515625 990.916687011719 986.227416992188 973.740356445312 982.328674316406 973.130737304688 978.662841796875 970.907531738281 964.209289550781 970.259338378906 975.981750488281 983.922119140625 980.155578613281 982.491943359375 978.494812011719 981.27197265625 977.201843261719 980.697814941406 978.5380859375 988.666931152344 983.55078125 984.174194335938 985.09375 975.712097167969 976.15478515625 992.66552734375 988.114196777344 996.792846679688 1004.65863037109 1006.57879638672 1004.48699951172 998.361511230469 1003.56732177734 995.742980957031 995.519470214844 993.150146484375 986.078247070312 989.442443847656 991.528564453125 983.936096191406 981.759216308594 989.181274414062 997.444213867188 1000.79113769531 1000.73071289062 1004.76525878906 1002.88067626953 1004.96911621094 1003.85565185547 1006.04107666016 1004.85650634766 1000.10021972656 999.771057128906 993.838256835938 993.4326171875 992.948425292969 992.613891601562 1001.26580810547 995.72021484375 998.435974121094 988.918273925781 991.001220703125 992.060852050781 991.421875 986.354064941406 984.692687988281 980.621948242188 991.809326171875 1002.49371337891 1002.11743164062 1003.81896972656 1003.98156738281 1001.12823486328 1013.76837158203 1016.30499267578 1003.45379638672 1015.46179199219 1014.14361572266 1014.29284667969 1006.66937255859 1007.67211914062 1008.67584228516 1008.71673583984 1020.81994628906 1023.84240722656 1037.37976074219 1037.60754394531 1055.09387207031 1066.65014648438 1074.7763671875 1085.60302734375 1086.39636230469 1093.20178222656 1099.27282714844 1107.935546875 1107.41003417969 1110.22631835938 1108.92358398438 1101.3876953125 1104.35034179688
961.811584472656 965.20751953125 964.354431152344 964.857604980469 967.521057128906 972.389892578125 962.627136230469 968.037536621094 972.53369140625 968.612915039062 970.153991699219 972.656494140625 963.743469238281 972.527404785156 985.104675292969 986.907836914062 984.612976074219 978.683288574219 981.185852050781 971.236267089844 979.188659667969 974.760314941406 971.418151855469 973.1787109375 978.024108886719 987.408874511719 990.437316894531 984.287536621094 978.182434082031 973.845092773438 973.635620117188 973.302856445312 981.671936035156 980.487731933594 980.487426757812 980.047485351562 975.035522460938 974.087158203125 971.946594238281 967.329284667969 974.932250976562 980.877075195312 978.424499511719 982.140380859375 969.711730957031 969.033569335938 965.618469238281 964.931213378906 976.472839355469 981.615295410156 984.678161621094 982.156433105469 982.813903808594 979.85693359375 987.603393554688 980.539916992188 975.636108398438 971.216796875 967.410522460938 972.869689941406 977.048461914062 982.952026367188 990.677551269531 991.054504394531 988.433044433594 985.146606445312 987.7333984375 981.576843261719 987.711181640625 984.67529296875 975.140441894531 979.280029296875 975.684509277344 971.590881347656 970.123291015625 984.018127441406 991.410583496094 990.969116210938 999.942443847656 1000.08898925781 995.105834960938 997.812744140625 999.1259765625 999.208923339844 999.042846679688 997.45166015625 988.057922363281 988.86376953125 987.426940917969 986.344970703125 980.429809570312 978.640197753906 995.365417480469 1000.20123291016 1000.39141845703 1001.5517578125 998.394104003906 995.138122558594 992.841003417969 986.191711425781 995.509338378906 999.834838867188 998.786926269531 995.45263671875 1001.76763916016 995.530822753906 994.495178222656 999.530639648438 996.506225585938 986.546447753906 991.290954589844 996.176818847656 997.332397460938 993.617370605469 992.039184570312 987.309509277344 977.37353515625 989.512573242188 999.034545898438 1005.28204345703 1003.35131835938 998.739990234375 999.849182128906 1005.13293457031 1001.87426757812 999.107299804688 1010.06475830078 1015.93896484375 1018.04022216797 1020.33160400391 1016.55352783203 1017.47448730469 1022.25982666016 1025.97521972656 1030.85546875 1037.60888671875 1049.02575683594 1066.71875 1073.81103515625 1080.94873046875 1091.32751464844 1089.25036621094 1097.15197753906 1101.296875 1105.61254882812 1118.74792480469 1121.03247070312 1125.85632324219 1123.744140625 1117.25109863281
966.326354980469 968.177429199219 963.156921386719 965.583190917969 972.202941894531 975.019897460938 968.003112792969 971.547180175781 967.986083984375 961.012878417969 967.487243652344 965.47265625 968.063659667969 970.260498046875 974.881958007812 973.582885742188 974.551452636719 979.499389648438 983.746398925781 971.260131835938 978.171264648438 977.813293457031 977.439270019531 974.2255859375 974.795593261719 983.181945800781 986.179565429688 976.838012695312 974.631591796875 982.348388671875 972.938049316406 975.857177734375 977.776611328125 979.068298339844 981.585510253906 981.962524414062 984.357116699219 975.658508300781 966.767028808594 971.567504882812 971.515991210938 965.145324707031 975.821655273438 989.065368652344 976.828735351562 969.39453125 969.878173828125 978.639770507812 971.013793945312 981.427856445312 980.283203125 975.418151855469 970.225646972656 973.099243164062 978.315368652344 983.026672363281 978.343444824219 971.52197265625 969.449096679688 975.279724121094 985.76123046875 988.338012695312 988.542602539062 989.816711425781 988.079223632812 993.89990234375 989.770080566406 976.225524902344 981.153259277344 983.258117675781 977.74560546875 971.915405273438 974.0205078125 970.405700683594 971.410034179688 980.795593261719 985.398010253906 987.008483886719 988.482849121094 992.621826171875 993.059631347656 997.093139648438 999.780212402344 1007.10736083984 1004.49981689453 1011.40997314453 996.390075683594 985.99609375 996.829895019531 994.067443847656 983.689819335938 987.834838867188 993.1201171875 1003.234375 996.7265625 999.352355957031 998.855041503906 990.736267089844 982.899108886719 989.244567871094 993.147583007812 994.710815429688 989.249816894531 996.818786621094 1001.81707763672 1002.82666015625 1007.17053222656 1003.3388671875 997.125793457031 994.802429199219 992.008178710938 992.550598144531 999.424072265625 998.162658691406 1000.01220703125 991.367431640625 988.610290527344 988.778442382812 998.785339355469 999.056213378906 1000.31384277344 988.68115234375 993.790832519531 1000.39514160156 993.621398925781 999.950744628906 1006.4765625 1013.73797607422 1014.50732421875 1024.87365722656 1027.27233886719 1028.66735839844 1019.30413818359 1020.27746582031 1032.30883789062 1037.32080078125 1045.607421875 1065.31982421875 1069.15612792969 1084.29150390625 1100.20434570312 1102.55883789062 1099.00378417969 1104.61096191406 1105.37194824219 1118.40393066406 1118.32092285156 1127.41162109375 1127.31103515625 1135.31726074219
954.125061035156 956.691711425781 952.360229492188 956.703308105469 965.56103515625 971.823059082031 965.234191894531 964.891967773438 973.25927734375 966.933288574219 963.692260742188 972.100891113281 971.308044433594 979.872497558594 977.104736328125 969.089111328125 979.234985351562 971.429992675781 976.642761230469 974.285217285156 981.280822753906 988.642517089844 982.311706542969 977.060729980469 972.116149902344 976.004699707031 973.881713867188 969.35205078125 972.691650390625 978.00341796875 980.759460449219 980.972778320312 982.2822265625 977.178894042969 980.729858398438 989.639038085938 991.611083984375 985.857543945312 975.512817382812 972.507080078125 972.5859375 973.581970214844 976.901306152344 986.94677734375 978.290710449219 973.451599121094 976.141296386719 977.516967773438 979.4755859375 971.867065429688 979.697021484375 973.976684570312 967.144409179688 969.759704589844 972.615905761719 973.844299316406 978.150268554688 970.662170410156 965.680847167969 978.066772460938 981.553405761719 990.360107421875 983.38818359375 990.02587890625 989.856750488281 996.768432617188 982.924621582031 975.728271484375 983.212768554688 971.820861816406 974.636047363281 976.194946289062 977.781066894531 978.109069824219 971.170532226562 978.778991699219 984.375305175781 974.211303710938 979.615844726562 977.715270996094 982.775756835938 989.119018554688 1013.28778076172 1011.29986572266 1016.32000732422 1008.25189208984 994.657592773438 982.463623046875 992.150268554688 991.237670898438 989.775390625 987.639770507812 990.035461425781 996.302062988281 1000.42150878906 1007.35174560547 1001.10015869141 998.308166503906 982.518859863281 988.040222167969 982.949340820312 981.874633789062 985.854370117188 995.454772949219 993.233825683594 987.974243164062 1003.36547851562 1000.85095214844 991.59716796875 996.549560546875 996.400939941406 997.289245605469 1003.73681640625 1001.55120849609 1003.95068359375 996.985961914062 994.658630371094 993.020141601562 996.454345703125 994.126281738281 993.686889648438 995.881042480469 996.521789550781 1003.19805908203 1002.23364257812 1006.04986572266 1012.18536376953 1017.44213867188 1019.36358642578 1022.61975097656 1020.72088623047 1027.40588378906 1020.24334716797 1020.96026611328 1031.140625 1042.74401855469 1047.75805664062 1058.27685546875 1073.23620605469 1087.93957519531 1104.73352050781 1103.15356445312 1104.0419921875 1101.79455566406 1113.69934082031 1120.7861328125 1125.63513183594 1127.73583984375 1135.33142089844 1139.79992675781
945.742309570312 949.405639648438 952.373596191406 953.280700683594 949.415466308594 967.138061523438 957.388488769531 958.465454101562 957.973083496094 961.69287109375 961.269470214844 971.117065429688 972.462768554688 980.039672851562 980.487548828125 972.367370605469 975.30029296875 980.965881347656 980.961547851562 978.584716796875 979.56884765625 983.783935546875 979.484558105469 975.13330078125 969.535400390625 968.539123535156 970.179382324219 958.958801269531 965.125122070312 969.976135253906 976.606689453125 968.319213867188 979.529541015625 979.532958984375 977.741516113281 981.690124511719 986.078125 983.776794433594 981.254577636719 978.171508789062 974.607482910156 969.918151855469 973.129516601562 972.457397460938 972.237426757812 968.500610351562 968.546875 979.071228027344 984.466979980469 975.384948730469 971.696044921875 976.504455566406 967.182800292969 973.454467773438 972.166442871094 972.912414550781 975.200500488281 975.635864257812 977.640686035156 981.787780761719 993.163024902344 991.520263671875 991.413513183594 988.361633300781 991.653259277344 986.136962890625 982.406982421875 968.946838378906 977.41162109375 973.598754882812 971.2939453125 982.370971679688 975.869689941406 977.193725585938 976.841674804688 970.308227539062 967.24951171875 973.201843261719 977.794494628906 978.264282226562 980.574279785156 996.299438476562 1003.53723144531 1018.17431640625 1002.77239990234 1008.32525634766 995.453796386719 992.538818359375 989.835205078125 987.344543457031 990.614685058594 987.095886230469 990.31787109375 989.131042480469 994.144226074219 1010.51770019531 997.521362304688 995.31787109375 988.536987304688 984.033264160156 977.290161132812 977.852966308594 987.042053222656 984.252319335938 991.796081542969 993.608520507812 992.27587890625 994.376586914062 988.834838867188 989.046142578125 992.164123535156 988.68603515625 987.243103027344 987.139953613281 1001.40686035156 994.81298828125 997.422180175781 990.697387695312 990.148193359375 995.597473144531 1001.86633300781 1000.23864746094 998.04296875 999.443664550781 1008.67651367188 1010.76214599609 1013.17095947266 1020.74420166016 1014.75494384766 1022.97436523438 1019.46661376953 1025.06921386719 1028.67858886719 1023.44671630859 1046.54431152344 1046.94738769531 1048.36352539062 1054.56750488281 1072.7392578125 1093.35693359375 1101.10485839844 1096.02856445312 1107.43859863281 1119.46728515625 1126.84338378906 1126.30078125 1130.23266601562 1134.78540039062 1147.86987304688 1151.37072753906
941.834045410156 953.386108398438 945.225646972656 950.573608398438 947.949890136719 959.722351074219 956.777954101562 950.850280761719 950.510131835938 952.820678710938 960.329895019531 965.4716796875 970.734008789062 971.561950683594 969.500061035156 977.365356445312 974.309326171875 974.914489746094 972.591491699219 975.624450683594 984.312438964844 976.606079101562 980.993835449219 978.889221191406 967.35107421875 968.501037597656 966.402221679688 960.503112792969 963.659851074219 970.185791015625 975.483703613281 984.054382324219 981.53076171875 976.769165039062 981.615356445312 974.6396484375 982.237609863281 975.113708496094 973.07373046875 980.136779785156 975.440551757812 970.222473144531 967.475524902344 977.277587890625 965.054870605469 969.857666015625 966.726318359375 970.771240234375 974.385375976562 967.7578125 972.750244140625 976.812438964844 965.138000488281 964.118591308594 966.944763183594 971.94384765625 968.797485351562 972.53173828125 977.509887695312 981.514953613281 989.3662109375 990.53857421875 989.12744140625 987.573425292969 995.816467285156 983.909240722656 980.724792480469 974.219604492188 981.505859375 974.02294921875 984.835754394531 988.244873046875 972.667358398438 965.476501464844 969.125854492188 960.51708984375 968.006896972656 968.229370117188 970.241638183594 973.616088867188 982.641479492188 984.729248046875 1000.40106201172 1004.79852294922 994.925720214844 997.57421875 994.931396484375 983.16796875 993.157470703125 983.1552734375 985.778137207031 981.855285644531 982.960571289062 978.195007324219 984.597717285156 993.18408203125 991.288330078125 996.850463867188 990.858032226562 976.730407714844 977.413757324219 982.135375976562 982.240600585938 986.030883789062 988.244506835938 983.763488769531 983.61376953125 983.797912597656 986.687255859375 986.304626464844 992.125671386719 982.696411132812 991.266479492188 996.54443359375 993.233276367188 993.478515625 989.503967285156 990.847534179688 989.869384765625 995.428161621094 1005.34191894531 1005.17114257812 1002.34069824219 1002.04638671875 1008.90649414062 1015.82281494141 1020.69512939453 1025.94592285156 1025.67590332031 1018.25689697266 1017.75512695312 1027.982421875 1041.39270019531 1044.61193847656 1049.70080566406 1049.2626953125 1056.48376464844 1063.25598144531 1083.623046875 1092.01232910156 1097.46472167969 1104.76245117188 1113.32177734375 1135.10717773438 1134.73291015625 1138.27648925781 1136.23254394531 1151.01257324219 1153.87902832031 1157.82043457031
945.151245117188 936.904479980469 943.231018066406 944.904907226562 945.186096191406 952.834045410156 956.568237304688 956.515258789062 952.639282226562 955.689331054688 957.139587402344 965.050231933594 971.837097167969 974.818481445312 972.974060058594 977.298034667969 979.644287109375 974.494506835938 974.846069335938 974.248229980469 979.822021484375 979.913330078125 984.353271484375 976.972778320312 971.727233886719 969.669738769531 964.633056640625 963.78466796875 966.228454589844 973.0537109375 978.474426269531 985.956909179688 983.705322265625 977.464782714844 970.112976074219 971.588989257812 973.535095214844 974.154174804688 973.909301757812 974.186584472656 968.075561523438 968.706909179688 968.891235351562 970.49853515625 971.997192382812 971.415466308594 968.437561035156 967.591369628906 964.232727050781 961.713073730469 965.219787597656 960.47216796875 967.865112304688 965.715026855469 965.732849121094 965.870056152344 971.906677246094 974.204895019531 983.287780761719 979.351379394531 971.409301757812 981.58544921875 981.624877929688 985.464111328125 982.072631835938 985.598571777344 986.001647949219 977.264587402344 972.114318847656 983.169311523438 979.46533203125 972.453979492188 968.361450195312 966.716918945312 967.487243652344 965.951904296875 960.097045898438 977.411987304688 976.095947265625 970.078491210938 969.133239746094 978.976196289062 988.334655761719 993.833374023438 996.009094238281 999.826904296875 992.36767578125 985.486877441406 990.518127441406 991.948913574219 983.494323730469 988.0888671875 992.485961914062 984.359985351562 985.912353515625 986.596130371094 984.51953125 990.303039550781 984.092956542969 976.78515625 985.142456054688 978.071350097656 980.279113769531 988.755859375 984.241638183594 979.016967773438 982.3623046875 979.838684082031 989.849975585938 986.138427734375 984.506958007812 986.070251464844 980.529846191406 990.667846679688 987.098510742188 995.376342773438 992.439514160156 987.796630859375 994.058959960938 987.91845703125 995.262634277344 995.382629394531 998.470764160156 998.883361816406 1012.29150390625 1019.28521728516 1026.82568359375 1027.47839355469 1027.07824707031 1018.93676757812 1022.39202880859 1035.51586914062 1039.04248046875 1043.21813964844 1051.20983886719 1055.82922363281 1051.99438476562 1062.9853515625 1075.72082519531 1090.79736328125 1100.04272460938 1112.45617675781 1126.63366699219 1140.28759765625 1146.74926757812 1142.74401855469 1153.16284179688 1159.21203613281 1159.39135742188 1157.76623535156
942.81787109375 942.23779296875 939.071655273438 946.815002441406 947.228332519531 953.611877441406 952.881042480469 952.682250976562 959.492431640625 957.963195800781 960.328918457031 960.527160644531 971.310302734375 974.59375 969.045043945312 971.19482421875 972.127868652344 975.159423828125 971.334106445312 976.395324707031 977.961364746094 977.740600585938 978.493408203125 975.446044921875 969.527160644531 970.297790527344 964.536376953125 964.987182617188 962.189392089844 968.95068359375 981.314880371094 977.472412109375 978.584228515625 965.93115234375 960.353332519531 968.974731445312 972.58447265625 973.642883300781 977.544189453125 975.315612792969 971.618469238281 962.000305175781 964.077392578125 960.053771972656 977.253112792969 970.300964355469 976.050537109375 967.935791015625 955.4306640625 948.074768066406 958.1025390625 962.3818359375 963.641906738281 969.410400390625 971.727783203125 963.261779785156 960.622985839844 970.172546386719 976.378662109375 973.840698242188 979.281677246094 988.063049316406 979.169921875 977.81689453125 981.127990722656 980.602722167969 978.131164550781 975.241760253906 976.528625488281 975.947631835938 976.545959472656 981.3701171875 968.56201171875 963.485717773438 967.822021484375 970.545532226562 966.072204589844 974.115600585938 976.383911132812 982.332824707031 972.984619140625 974.598327636719 981.665344238281 974.565368652344 989.193298339844 998.79296875 992.306213378906 989.160034179688 989.231567382812 993.686889648438 983.965026855469 990.129638671875 993.500366210938 989.529602050781 984.816467285156 981.629821777344 982.547241210938 988.157836914062 987.903564453125 985.512145996094 981.037719726562 980.211120605469 978.075317382812 986.688537597656 986.234497070312 986.024353027344 980.003051757812 980.651733398438 985.859130859375 993.496520996094 986.67041015625 984.177368164062 983.481628417969 989.470153808594 990.383361816406 984.344299316406 990.2626953125 993.722717285156 994.726684570312 993.037414550781 992.375366210938 991.139404296875 995.387084960938 1001.49847412109 1010.24084472656 1023.62976074219 1032.22351074219 1030.98583984375 1030.15173339844 1025.1826171875 1027.7734375 1032.96899414062 1041.78515625 1056.02941894531 1057.75341796875 1056.53759765625 1058.46069335938 1068.91967773438 1079.85437011719 1092.44140625 1100.57690429688 1123.17993164062 1130.912109375 1142.9736328125 1148.08129882812 1143.60754394531 1152.76782226562 1157.73876953125 1161.13757324219 1168.99816894531
952.498352050781 950.750793457031 945.392578125 945.290222167969 953.877502441406 951.950012207031 955.99853515625 964.026245117188 967.669799804688 962.040771484375 962.624450683594 969.701293945312 966.062805175781 970.397521972656 970.238159179688 961.247436523438 972.817443847656 977.077697753906 971.151062011719 979.421569824219 976.639404296875 985.660278320312 980.228759765625 981.856262207031 974.195068359375 972.033569335938 978.758544921875 975.254333496094 971.668579101562 974.374877929688 982.245849609375 970.520141601562 968.664245605469 975.03759765625 975.827941894531 973.439514160156 967.814331054688 974.500305175781 970.696960449219 974.9453125 971.520446777344 969.570251464844 961.48828125 966.385192871094 975.277404785156 972.257629394531 971.899719238281 975.36328125 968.127197265625 962.714538574219 958.838928222656 973.311767578125 974.191284179688 966.932739257812 965.171264648438 967.658569335938 963.974975585938 974.613830566406 972.897155761719 971.197692871094 978.42578125 971.745483398438 969.0029296875 976.242248535156 970.245666503906 976.025573730469 976.595031738281 977.472900390625 979.10693359375 986.424072265625 983.686645507812 977.400939941406 968.470703125 959.235961914062 974.380676269531 970.858947753906 966.601013183594 970.316223144531 970.481506347656 976.209533691406 976.362243652344 974.50439453125 969.500549316406 969.095520019531 977.176513671875 992.984924316406 997.475891113281 984.532409667969 978.1083984375 977.499267578125 975.52783203125 976.575378417969 980.421142578125 989.759765625 984.744384765625 980.926513671875 975.990051269531 976.353759765625 984.857666015625 989.188598632812 979.20068359375 980.597900390625 975.908203125 981.41796875 986.930114746094 980.456848144531 980.680297851562 977.635986328125 985.329345703125 990.720764160156 993.54736328125 989.2890625 984.218566894531 996.063232421875 993.165710449219 987.62939453125 993.304321289062 998.178955078125 996.040283203125 998.659606933594 1002.51196289062 996.338012695312 1000.47644042969 997.546691894531 1009.87475585938 1019.07678222656 1029.77087402344 1030.74938964844 1030.556640625 1031.61218261719 1033.07373046875 1044.60424804688 1055.44580078125 1059.70617675781 1067.17834472656 1068.85888671875 1070.09497070312 1079.24951171875 1096.00317382812 1104.62329101562 1110.43688964844 1113.22009277344 1127.19445800781 1137.43139648438 1143.50231933594 1144.91418457031 1165.03405761719 1169.95275878906 1175.62658691406 1165.52734375
949.991333007812 952.759765625 945.12744140625 942.039916992188 951.063049316406 960.484619140625 963.972778320312 968.324401855469 969.589660644531 963.687683105469 970.319458007812 976.463562011719 973.24072265625 962.951782226562 976.207824707031 972.996154785156 976.570373535156 976.6787109375 970.046936035156 972.051696777344 979.332214355469 982.083923339844 982.78955078125 968.952392578125 961.514831542969 966.741088867188 980.38525390625 979.548767089844 974.787414550781 979.375427246094 980.276000976562 969.605224609375 980.110168457031 974.253051757812 970.728515625 968.902954101562 966.01611328125 968.354370117188 966.084899902344 970.20361328125 968.702697753906 978.730346679688 967.348266601562 966.101806640625 975.568603515625 971.442138671875 969.137878417969 971.463928222656 976.367980957031 974.259033203125 966.073852539062 971.426940917969 965.751342773438 968.411010742188 970.357116699219 974.432861328125 967.994079589844 973.493835449219 974.935607910156 971.1044921875 974.459655761719 970.328063964844 965.859191894531 966.748718261719 966.368286132812 973.245300292969 973.602111816406 974.947204589844 985.874328613281 992.265625 986.08154296875 980.020751953125 969.201416015625 961.073669433594 968.939086914062 976.797119140625 976.917724609375 975.535583496094 964.862976074219 961.120788574219 968.774169921875 968.99755859375 975.941772460938 968.361328125 968.852416992188 984.429504394531 987.752685546875 980.819274902344 979.232238769531 972.5947265625 979.230163574219 976.439147949219 976.659973144531 989.147644042969 977.069641113281 973.528259277344 974.72265625 973.936462402344 982.74853515625 976.383422851562 983.411804199219 977.619506835938 980.781677246094 976.58056640625 990.422729492188 988.344787597656 980.447814941406 980.498962402344 983.654296875 999.180725097656 994.450134277344 994.996154785156 990.156616210938 996.215515136719 1000.55432128906 997.543395996094 998.590209960938 1003.25439453125 1006.00439453125 1005.14398193359 996.084350585938 996.366394042969 993.5673828125 1005.13311767578 1010.77679443359 1014.47912597656 1031.07946777344 1026.2138671875 1026.63488769531 1037.93762207031 1038.09753417969 1047.99645996094 1058.49780273438 1054.82983398438 1067.23181152344 1069.67590332031 1080.05505371094 1084.66577148438 1093.92541503906 1105.36975097656 1104.71350097656 1118.2314453125 1129.89233398438 1133.42138671875 1146.10913085938 1155.17468261719 1165.17846679688 1173.15270996094 1168.79187011719 1165.05871582031
952.476013183594 948.616577148438 948.230590820312 952.956604003906 955.592834472656 960.992553710938 962.888793945312 963.052612304688 971.118225097656 962.017944335938 974.019470214844 975.802856445312 969.857238769531 966.488891601562 970.672302246094 973.918518066406 980.99951171875 969.489562988281 957.382019042969 964.911315917969 967.871154785156 973.342163085938 972.120361328125 970.129516601562 967.405456542969 964.326843261719 969.376708984375 975.564880371094 971.290344238281 973.2041015625 978.360595703125 974.052001953125 968.662658691406 971.73388671875 973.487854003906 965.843139648438 967.253112792969 971.858154296875 970.294494628906 963.502319335938 965.837036132812 967.436828613281 966.039428710938 974.034423828125 970.879150390625 967.357421875 975.588500976562 973.151916503906 974.122863769531 977.966064453125 969.07421875 974.064331054688 968.432067871094 969.687072753906 973.40771484375 969.391357421875 973.791320800781 965.366271972656 976.022766113281 972.461730957031 972.546936035156 976.652526855469 971.5390625 968.750549316406 963.298461914062 968.367248535156 967.321838378906 982.437438964844 982.077026367188 980.214172363281 978.728881835938 971.843872070312 968.804565429688 965.485412597656 971.006469726562 973.450622558594 973.547424316406 976.305236816406 973.388977050781 968.459838867188 961.367248535156 961.35595703125 967.827758789062 972.192260742188 963.315673828125 975.216125488281 980.472778320312 983.401184082031 980.181823730469 977.070678710938 982.139709472656 977.123901367188 975.8759765625 990.184387207031 980.757934570312 979.018737792969 980.480773925781 975.129028320312 979.443725585938 975.7890625 976.396240234375 979.2900390625 982.314575195312 982.725158691406 980.958435058594 994.65625 987.198669433594 996.289611816406 994.327575683594 998.407592773438 1002.93029785156 1001.96435546875 1002.74359130859 1006.72180175781 1006.70281982422 1009.55456542969 1009.34381103516 1005.28350830078 1009.33752441406 1015.67053222656 1001.49139404297 1000.97808837891 1001.51068115234 1014.19543457031 1013.23101806641 1017.40386962891 1020.52484130859 1026.43640136719 1035.29064941406 1036.26672363281 1039.91284179688 1045.8583984375 1052.70385742188 1061.47131347656 1073.84191894531 1074.58813476562 1085.53845214844 1092.01037597656 1097.34375 1106.64233398438 1107.29028320312 1120.31457519531 1128.3896484375 1136.1064453125 1151.19030761719 1151.92907714844 1161.10778808594 1168.92211914062 1164.59594726562 1158.56860351562
953.468505859375 958.169189453125 956.423034667969 945.530639648438 954.814819335938 962.282958984375 952.76416015625 962.703430175781 966.4208984375 972.961120605469 975.551879882812 964.526916503906 962.695190429688 978.31298828125 967.812133789062 976.833190917969 975.058471679688 970.096069335938 965.772827148438 972.053039550781 968.95068359375 965.692810058594 960.168212890625 965.237548828125 962.930969238281 969.977600097656 965.490600585938 976.439208984375 974.945251464844 974.397033691406 971.102111816406 977.196655273438 969.812927246094 978.203186035156 974.407836914062 972.073120117188 972.338134765625 971.957763671875 977.671875 961.855651855469 972.11767578125 971.729125976562 965.951049804688 966.556518554688 963.721801757812 963.210571289062 965.129211425781 966.698425292969 965.796264648438 965.368530273438 973.083740234375 972.62255859375 968.621337890625 970.474182128906 972.765197753906 970.28955078125 971.047546386719 974.094787597656 969.121765136719 970.996337890625 972.613647460938 977.921997070312 969.856994628906 968.353515625 973.183044433594 973.763366699219 981.0751953125 980.154296875 989.189392089844 977.25830078125 973.170959472656 961.827697753906 966.388488769531 967.565185546875 971.608947753906 967.897521972656 966.799560546875 970.219909667969 970.047607421875 975.068969726562 967.626586914062 975.311645507812 968.181213378906 967.215881347656 975.734313964844 970.835388183594 976.132263183594 971.015991210938 983.667236328125 973.178527832031 971.914306640625 972.411804199219 971.267578125 985.270690917969 991.214904785156 979.064270019531 979.405151367188 975.0224609375 965.143249511719 963.950988769531 973.795227050781 984.349304199219 987.332946777344 986.578247070312 999.412841796875 995.942321777344 991.696350097656 994.701293945312 999.5400390625 1006.23614501953 1006.50360107422 1003.32373046875 1009.26995849609 1009.11090087891 1016.28564453125 1016.49444580078 1019.38946533203 1018.29156494141 1009.26055908203 1008.61645507812 1002.92150878906 1010.6123046875 1016.68658447266 1022.14489746094 1023.31036376953 1022.93994140625 1029.91674804688 1030.74719238281 1028.22680664062 1036.6494140625 1051.67138671875 1052.90002441406 1049.44091796875 1066.69580078125 1067.75512695312 1073.31225585938 1086.53771972656 1094.814453125 1101.36645507812 1108.66735839844 1113.59716796875 1117.04675292969 1122.24560546875 1130.0859375 1147.11315917969 1142.00451660156 1155.42907714844 1161.22570800781 1157.591796875 1143.93188476562
952.782836914062 960.965087890625 959.842651367188 948.692993164062 951.688110351562 956.378356933594 954.085144042969 966.558288574219 969.760314941406 977.638854980469 979.007690429688 960.615356445312 961.194946289062 973.160888671875 971.31787109375 972.275024414062 974.153869628906 978.592346191406 974.204650878906 965.745178222656 969.460693359375 963.623107910156 966.895385742188 964.099792480469 966.537780761719 970.022644042969 963.984558105469 959.107360839844 960.797424316406 966.966857910156 970.249206542969 976.789306640625 971.02880859375 968.6796875 974.633728027344 968.468200683594 972.653259277344 971.018920898438 969.527526855469 963.250793457031 959.758972167969 953.957275390625 966.928649902344 959.754211425781 954.028503417969 949.322448730469 953.065795898438 958.266723632812 964.498291015625 961.671081542969 967.892639160156 964.817016601562 969.087097167969 968.575073242188 971.392761230469 966.82177734375 972.764038085938 975.366516113281 982.405456542969 973.189270019531 974.246643066406 979.320922851562 977.571166992188 979.254577636719 976.438415527344 980.665954589844 977.242858886719 976.094848632812 979.484313964844 975.715881347656 965.483764648438 968.550842285156 965.342834472656 960.782104492188 972.230102539062 970.76318359375 963.316772460938 972.365356445312 971.430480957031 966.920593261719 969.1435546875 969.062133789062 968.135559082031 969.964050292969 978.479309082031 964.70703125 968.286804199219 966.016845703125 980.871826171875 972.621887207031 971.786254882812 971.705810546875 970.421020507812 975.680786132812 973.034851074219 973.949768066406 983.882080078125 977.174072265625 973.735107421875 967.056762695312 972.472778320312 984.351501464844 988.709289550781 991.186462402344 998.872741699219 1003.26892089844 986.180419921875 997.834899902344 1007.66864013672 1017.65777587891 1016.29583740234 1019.34997558594 1015.95434570312 1012.73577880859 1020.91137695312 1023.59924316406 1018.85015869141 1021.90808105469 1009.87530517578 1012.39007568359 1004.62438964844 1010.29931640625 1019.45910644531 1028.01892089844 1032.84228515625 1028.62756347656 1032.14599609375 1039.67834472656 1033.66687011719 1037.30554199219 1050.6943359375 1050.22888183594 1057.18493652344 1073.32800292969 1085.37292480469 1080.17041015625 1086.98449707031 1096.06726074219 1104.53479003906 1115.01196289062 1113.763671875 1121.26025390625 1120.02111816406 1127.23266601562 1139.69714355469 1140.26013183594 1136.63330078125 1136.00463867188 1148.583984375 1137.96130371094
951.734008789062 954.45703125 958.466552734375 959.139831542969 953.379333496094 953.642211914062 961.728088378906 964.325134277344 972.010498046875 972.623413085938 972.498168945312 966.732543945312 973.760925292969 983.831787109375 979.581420898438 971.57373046875 976.509887695312 973.583984375 972.512878417969 975.191833496094 964.38623046875 963.642150878906 964.744873046875 965.782958984375 965.549560546875 963.112060546875 960.444458007812 956.332946777344 966.10498046875 969.376586914062 975.783752441406 985.108642578125 974.991149902344 971.506164550781 962.681945800781 973.929382324219 973.548522949219 973.370483398438 961.813293457031 959.583374023438 947.452941894531 942.938110351562 954.035400390625 961.261596679688 952.0283203125 951.335205078125 956.281188964844 950.967529296875 961.128295898438 976.098999023438 969.684875488281 963.855407714844 961.572570800781 966.383850097656 965.219482421875 966.714599609375 967.797424316406 962.325073242188 975.482666015625 974.066955566406 971.335571289062 973.400756835938 981.250793457031 980.983581542969 980.269653320312 976.596069335938 971.011962890625 961.16552734375 967.285339355469 967.984436035156 967.546264648438 963.945434570312 966.524475097656 973.73486328125 973.926879882812 968.806518554688 964.618957519531 960.696960449219 965.978942871094 970.194152832031 970.190307617188 975.151794433594 973.157836914062 971.02490234375 967.364501953125 977.009887695312 961.230102539062 964.733032226562 966.163818359375 972.319519042969 973.211059570312 969.22705078125 974.292114257812 968.712097167969 961.848083496094 971.576843261719 981.660278320312 983.501892089844 982.078063964844 981.151489257812 976.61962890625 981.5498046875 982.189819335938 987.722778320312 994.058898925781 992.225402832031 990.919860839844 1003.68267822266 1006.45178222656 1015.08654785156 1011.61755371094 1008.87542724609 1017.56268310547 1014.68823242188 1010.93572998047 1015.0576171875 1026.09460449219 1017.03173828125 1010.56481933594 1017.26422119141 1015.64202880859 1018.28277587891 1021.09234619141 1032.150390625 1033.52600097656 1033.5732421875 1034.41357421875 1037.92138671875 1046.3505859375 1044.23425292969 1045.05041503906 1055.1865234375 1061.97131347656 1076.64685058594 1086.21740722656 1091.48779296875 1093.46044921875 1092.82177734375 1098.57165527344 1106.8544921875 1114.748046875 1113.76232910156 1119.46960449219 1120.03247070312 1114.7705078125 1126.05712890625 1126.03491210938 1128.27282714844 1136.20617675781 1135.28479003906
948.550476074219 955.491760253906 963.188049316406 963.789001464844 952.499389648438 946.103637695312 957.22509765625 970.180969238281 975.4619140625 975.604248046875 980.493469238281 975.993225097656 972.560424804688 984.438293457031 983.747192382812 970.467956542969 974.216491699219 973.730712890625 979.373474121094 976.972717285156 964.080261230469 966.938171386719 961.010314941406 964.955200195312 960.192626953125 956.766723632812 963.873352050781 959.415588378906 969.763000488281 970.685302734375 970.309875488281 984.680603027344 977.548828125 972.366149902344 965.468994140625 966.149475097656 973.243774414062 971.03125 967.803527832031 962.4599609375 956.78759765625 958.764709472656 956.869506835938 963.030700683594 959.97216796875 959.425048828125 951.80322265625 959.517822265625 969.428955078125 969.358337402344 966.038208007812 961.529296875 963.577880859375 961.080932617188 966.927551269531 963.706420898438 956.026306152344 957.494750976562 965.688659667969 975.024719238281 968.31982421875 965.942199707031 962.657104492188 972.12841796875 974.496154785156 974.869445800781 966.072021484375 967.217041015625 974.425598144531 973.329956054688 968.706481933594 975.0068359375 967.872375488281 967.758483886719 969.045532226562 973.108459472656 961.892333984375 961.689758300781 961.734802246094 967.223022460938 965.607238769531 978.471984863281 967.900085449219 966.781005859375 972.290161132812 977.530456542969 969.333679199219 962.248413085938 969.321533203125 969.397644042969 978.060485839844 972.119140625 977.201721191406 974.220825195312 979.047180175781 980.093505859375 986.952026367188 985.028625488281 983.382873535156 984.837585449219 979.34521484375 968.505432128906 974.799255371094 987.420593261719 984.988403320312 984.161254882812 992.533081054688 1001.42108154297 1009.75958251953 1009.90826416016 1000.61053466797 994.323669433594 1007.07781982422 1017.38256835938 1015.75909423828 1014.28729248047 1012.08990478516 1016.07781982422 1009.11791992188 1017.2548828125 1016.76239013672 1018.74749755859 1023.38403320312 1028.63854980469 1032.50439453125 1032.47546386719 1033.59045410156 1033.81616210938 1036.69750976562 1033.49853515625 1041.43444824219 1058.04431152344 1054.15783691406 1068.94213867188 1082.13525390625 1089.13427734375 1088.25402832031 1090.3759765625 1090.61413574219 1100.81860351562 1108.70886230469 1104.22790527344 1106.27880859375 1114.51806640625 1118.51696777344 1122.88403320312 1121.76147460938 1117.84899902344 1119.04370117188 1112.70520019531
955.340515136719 954.630981445312 954.753479003906 961.483947753906 961.815490722656 956.77734375 961.748718261719 975.18212890625 983.612182617188 977.078430175781 979.80859375 980.121215820312 979.525024414062 979.592712402344 977.014892578125 972.621459960938 975.128723144531 971.7431640625 974.67919921875 979.229675292969 972.171997070312 972.079345703125 968.906311035156 962.229553222656 963.379760742188 961.522888183594 954.105224609375 954.555725097656 961.91064453125 962.438171386719 965.076293945312 974.251586914062 972.292419433594 976.341552734375 971.178039550781 967.543701171875 962.402648925781 965.605224609375 967.389343261719 959.498107910156 958.792602539062 963.063415527344 956.861694335938 963.229858398438 965.659912109375 969.668029785156 961.972595214844 963.961364746094 964.701171875 963.638366699219 962.274353027344 962.764709472656 955.949645996094 959.658203125 966.133911132812 965.931823730469 959.252868652344 959.295288085938 964.325744628906 961.572265625 958.879699707031 956.817504882812 957.348022460938 960.319458007812 962.458129882812 973.19140625 964.676391601562 964.219421386719 969.2587890625 969.330322265625 965.124389648438 969.396057128906 970.938842773438 970.105773925781 974.563659667969 971.975708007812 973.325561523438 965.188354492188 962.611206054688 969.492858886719 969.845336914062 972.107421875 973.274475097656 970.942016601562 966.309692382812 968.889892578125 967.038208007812 962.929321289062 966.539855957031 977.307922363281 966.516296386719 967.430419921875 973.898620605469 975.958679199219 976.925048828125 976.524108886719 984.933959960938 979.612365722656 979.794616699219 983.299194335938 975.452392578125 980.219360351562 976.191162109375 983.415649414062 982.10498046875 986.304565429688 992.326354980469 1000.17095947266 998.015563964844 1003.49206542969 993.419616699219 991.574157714844 1001.79937744141 1005.69049072266 1009.85266113281 1018.34466552734 1015.64959716797 1013.62298583984 1014.26568603516 1025.06311035156 1011.7734375 1019.01440429688 1021.16564941406 1031.81872558594 1030.87866210938 1022.89538574219 1027.52124023438 1031.52416992188 1031.90319824219 1032.64758300781 1045.95690917969 1053.90258789062 1063.1474609375 1069.09704589844 1072.46752929688 1080.3701171875 1076.953125 1086.40551757812 1099.87890625 1095.44848632812 1097.73193359375 1094.52233886719 1092.82446289062 1101.12048339844 1110.24853515625 1115.03698730469 1109.22717285156 1110.02307128906 1107.67834472656 1105.48864746094
956.610107421875 964.45849609375 962.668334960938 965.624938964844 963.555480957031 965.288879394531 976.888671875 978.690368652344 978.074890136719 979.839294433594 974.52001953125 977.559143066406 971.513427734375 975.920349121094 977.720703125 971.559875488281 967.886535644531 966.815124511719 976.335083007812 971.858825683594 975.836608886719 976.131958007812 969.003723144531 968.224792480469 960.941589355469 962.82421875 959.95263671875 965.386474609375 960.246520996094 971.084167480469 969.089721679688 965.9267578125 971.044372558594 977.784973144531 969.5537109375 961.208923339844 971.017639160156 973.8798828125 968.037780761719 962.8203125 963.874206542969 959.210876464844 969.939208984375 968.329711914062 965.928771972656 961.65185546875 969.296569824219 959.678894042969 957.488525390625 956.471801757812 957.731201171875 951.992004394531 958.163146972656 957.032897949219 956.040588378906 961.70556640625 959.297119140625 960.710998535156 955.740905761719 963.149536132812 953.145690917969 948.988586425781 954.340698242188 959.25927734375 954.552001953125 964.80615234375 962.09765625 971.019165039062 964.055908203125 972.531127929688 961.944030761719 966.550048828125 971.954833984375 963.526184082031 957.293762207031 966.515319824219 966.585754394531 969.998596191406 969.257385253906 977.355773925781 968.355102539062 972.839477539062 970.480834960938 969.818603515625 964.816772460938 960.390319824219 967.564331054688 962.387390136719 970.814758300781 972.348754882812 965.61181640625 965.12890625 967.57568359375 970.70556640625 970.488403320312 971.958435058594 979.978210449219 968.7802734375 973.230041503906 978.219482421875 975.749877929688 982.667724609375 980.102233886719 979.042114257812 980.550537109375 982.15673828125 986.971984863281 994.214294433594 993.476013183594 1000.43591308594 986.388244628906 993.706665039062 997.006164550781 988.789794921875 994.80322265625 1006.03851318359 1003.26245117188 1006.40911865234 1013.11926269531 1016.18157958984 1011.03454589844 1016.48699951172 1021.30688476562 1025.02478027344 1032.84777832031 1026.10791015625 1033.79797363281 1032.70385742188 1035.68676757812 1037.99975585938 1042.47473144531 1050.29235839844 1064.23937988281 1069.45446777344 1072.71350097656 1076.32800292969 1079.66979980469 1096.27990722656 1094.70068359375 1094.90612792969 1094.41284179688 1091.22692871094 1087.14770507812 1093.72973632812 1099.38623046875 1111.29187011719 1100.82482910156 1098.79528808594 1099.37573242188 1102.17102050781
957.946044921875 960.576171875 967.131591796875 968.925903320312 973.017456054688 970.617492675781 980.041381835938 981.82470703125 977.293090820312 974.22021484375 984.240356445312 978.588134765625 976.229675292969 982.049499511719 977.475341796875 970.243713378906 966.795349121094 964.872619628906 971.50390625 970.528686523438 983.384216308594 975.234008789062 964.704650878906 967.234130859375 961.253234863281 962.964477539062 956.53759765625 961.237609863281 963.064636230469 960.244506835938 967.867370605469 958.492004394531 966.589782714844 973.341979980469 962.994689941406 968.616333007812 963.425048828125 973.6845703125 971.608825683594 969.465026855469 967.072570800781 959.266845703125 970.260314941406 964.741577148438 960.888977050781 962.831115722656 966.504638671875 964.570373535156 956.384582519531 952.713073730469 947.107360839844 942.884948730469 947.498962402344 951.449340820312 954.850158691406 948.609741210938 964.2412109375 961.467590332031 959.619384765625 963.162780761719 955.826049804688 953.942687988281 956.919067382812 954.914245605469 951.958801269531 959.015075683594 962.581726074219 956.885070800781 952.542785644531 964.90478515625 965.077331542969 962.077758789062 962.052307128906 962.512268066406 961.930114746094 960.219543457031 964.639892578125 957.017517089844 957.971557617188 953.427673339844 963.049865722656 955.229858398438 965.572387695312 968.305480957031 970.320983886719 957.572204589844 962.758056640625 968.942016601562 957.873596191406 971.551879882812 970.326904296875 968.900512695312 959.799194335938 963.620910644531 958.9423828125 970.446533203125 971.870544433594 977.008239746094 967.804382324219 977.519226074219 983.691040039062 987.830139160156 984.060974121094 982.101257324219 978.212707519531 977.23095703125 981.301391601562 992.248291015625 991.521179199219 987.981994628906 982.686767578125 989.663879394531 997.115783691406 983.809875488281 990.535461425781 996.591613769531 992.160339355469 1002.63562011719 1012.19073486328 1008.11145019531 1009.22387695312 1018.90405273438 1018.29913330078 1025.82177734375 1035.14428710938 1030.94775390625 1033.13989257812 1036.89013671875 1039.26428222656 1042.06713867188 1051.79760742188 1060.02807617188 1065.58142089844 1061.28784179688 1070.07250976562 1078.68225097656 1092.15747070312 1091.36181640625 1094.12145996094 1093.39306640625 1093.86340332031 1088.05065917969 1081.53601074219 1078.02075195312 1094.57080078125 1099.83862304688 1099.49768066406 1101.69592285156 1094.14343261719 1098.84143066406
963.644775390625 962.37109375 969.406311035156 968.4091796875 972.376831054688 978.613342285156 974.44384765625 973.526428222656 974.47509765625 976.178833007812 978.357971191406 972.878295898438 976.123229980469 976.115905761719 975.099914550781 970.128967285156 976.576416015625 976.605224609375 970.084106445312 968.443115234375 974.195007324219 963.490966796875 961.661804199219 965.999145507812 964.615844726562 960.722839355469 961.741271972656 960.74267578125 958.6650390625 961.851135253906 966.364685058594 964.335693359375 963.232971191406 965.751831054688 970.156494140625 966.661254882812 966.415466308594 969.834533691406 971.623657226562 961.198120117188 959.383178710938 958.854187011719 959.356018066406 966.643249511719 959.016357421875 955.208251953125 959.70654296875 959.042358398438 950.880859375 952.288879394531 950.42333984375 952.276489257812 949.235900878906 950.070190429688 962.103454589844 961.307922363281 962.294494628906 956.744934082031 957.890380859375 958.054565429688 964.394714355469 955.945251464844 960.152465820312 953.603881835938 962.559936523438 956.060791015625 954.624938964844 957.211547851562 956.272033691406 972.812805175781 960.937133789062 957.832092285156 963.194091796875 959.746276855469 957.145080566406 962.891418457031 965.603637695312 964.897521972656 958.650695800781 944.953796386719 952.246643066406 963.739318847656 963.824340820312 974.559448242188 973.390808105469 959.689453125 956.933837890625 962.479370117188 965.899658203125 969.5947265625 963.840759277344 969.269104003906 970.164855957031 957.237609863281 963.678771972656 973.037170410156 979.347229003906 972.648132324219 976.446716308594 977.542114257812 975.779418945312 978.151245117188 977.892272949219 973.703186035156 976.779418945312 974.754028320312 979.916442871094 990.972412109375 981.844909667969 979.600402832031 988.533935546875 992.923461914062 992.030883789062 992.188537597656 991.844909667969 998.012573242188 994.056335449219 998.08837890625 1012.74200439453 1012.83612060547 1017.1728515625 1020.73913574219 1024.15075683594 1020.12762451172 1024.59851074219 1033.18920898438 1029.99987792969 1032.85583496094 1032.61279296875 1044.52746582031 1050.22436523438 1062.68041992188 1057.29406738281 1061.51208496094 1065.29565429688 1077.13635253906 1093.58850097656 1090.98596191406 1092.06262207031 1091.19885253906 1089.56591796875 1082.06176757812 1084.345703125 1079.28393554688 1097.90026855469 1093.17321777344 1093.58251953125 1093.39233398438 1094.78735351562 1092.95385742188
956.183898925781 965.523681640625 966.808471679688 980.891540527344 974.053039550781 971.243041992188 971.547058105469 974.601135253906 967.810241699219 972.367126464844 976.632934570312 976.852111816406 967.515502929688 972.619812011719 976.682189941406 973.599243164062 975.240600585938 970.987060546875 975.65625 973.63916015625 979.230712890625 973.20458984375 959.663024902344 961.771118164062 956.217224121094 958.331359863281 957.425170898438 949.531433105469 953.279724121094 956.627685546875 963.125427246094 959.9345703125 956.177795410156 963.714477539062 951.020690917969 959.736694335938 962.734741210938 964.197021484375 963.559753417969 954.56591796875 961.092590332031 956.342956542969 960.985656738281 965.003601074219 959.060119628906 951.269836425781 952.802673339844 946.561401367188 947.28271484375 946.812194824219 952.761901855469 951.117797851562 949.14599609375 959.338989257812 952.709289550781 959.94677734375 963.866577148438 964.971801757812 959.668640136719 959.99462890625 960.850158691406 958.659851074219 959.819946289062 961.899353027344 964.550170898438 961.584716796875 952.962219238281 952.871887207031 965.866638183594 962.912536621094 957.618103027344 959.566772460938 963.578369140625 954.505432128906 950.657470703125 958.040588378906 962.485229492188 952.157409667969 952.436828613281 956.120727539062 951.905944824219 967.173767089844 964.824890136719 971.985473632812 970.684509277344 969.177307128906 963.543273925781 963.000671386719 964.695983886719 969.982849121094 967.034790039062 967.201904296875 967.602294921875 969.654663085938 969.255249023438 966.116760253906 979.915161132812 980.754150390625 979.803344726562 972.150085449219 976.119995117188 975.015930175781 965.386840820312 967.84521484375 974.726989746094 972.006164550781 976.990539550781 979.904052734375 983.878112792969 982.8193359375 987.756958007812 998.4013671875 998.307189941406 994.09423828125 994.142028808594 995.909729003906 994.830200195312 995.814086914062 1003.84686279297 1019.12664794922 1016.64343261719 1013.82635498047 1022.16790771484 1024.47497558594 1024.60388183594 1024.4853515625 1025.65100097656 1024.46801757812 1035.38244628906 1050.00915527344 1051.7021484375 1068.8896484375 1060.36352539062 1059.9833984375 1067.53479003906 1075.72973632812 1080.00073242188 1087.50305175781 1095.62768554688 1088.04736328125 1084.59155273438 1081.72290039062 1081.73095703125 1086.16760253906 1089.26696777344 1085.16638183594 1094.45275878906 1092.88037109375 1089.19091796875 1082.48669433594
956.008544921875 963.903076171875 974.133605957031 976.088073730469 971.382385253906 975.999145507812 967.682250976562 978.689208984375 974.412109375 968.234191894531 970.417358398438 975.736083984375 967.186157226562 970.254333496094 971.443725585938 981.967895507812 976.032836914062 975.651306152344 976.198547363281 965.382385253906 973.398132324219 971.546691894531 966.906616210938 960.563293457031 963.729675292969 958.889709472656 957.206237792969 956.082336425781 961.307495117188 962.875183105469 962.133850097656 960.823059082031 957.077209472656 961.222045898438 958.996887207031 957.885559082031 947.256408691406 950.955200195312 958.36376953125 957.603576660156 961.210510253906 952.601867675781 958.6767578125 958.541625976562 952.854370117188 949.48486328125 950.948974609375 946.393127441406 943.474365234375 944.259216308594 948.640808105469 950.878051757812 958.11962890625 956.352600097656 949.197143554688 958.112976074219 962.108825683594 960.666137695312 964.94775390625 953.750244140625 956.154357910156 954.453369140625 960.979370117188 964.022277832031 963.671081542969 958.340576171875 954.167785644531 955.2294921875 962.784545898438 952.20458984375 959.404235839844 955.716613769531 964.929504394531 957.056274414062 951.471740722656 956.433349609375 954.319274902344 958.686828613281 959.054931640625 961.247436523438 962.886779785156 965.8115234375 969.357666015625 967.12890625 971.11865234375 972.453979492188 968.314758300781 964.241394042969 967.704284667969 965.265625 967.155639648438 967.241149902344 966.214416503906 974.737060546875 969.445251464844 977.675170898438 983.688232421875 984.58447265625 978.164672851562 983.594543457031 985.615905761719 982.012878417969 975.2197265625 974.975769042969 976.080810546875 977.767456054688 981.310546875 980.258239746094 981.703063964844 982.294677734375 990.044006347656 995.262756347656 1002.79663085938 988.636779785156 998.867614746094 996.822814941406 998.063537597656 988.967407226562 1003.32763671875 1007.01336669922 1019.82659912109 1019.16546630859 1013.98095703125 1017.75128173828 1024.23693847656 1023.51324462891 1030.400390625 1024.29223632812 1025.61108398438 1036.31420898438 1058.181640625 1054.06762695312 1062.26342773438 1068.11694335938 1070.72473144531 1092.88000488281 1077.95825195312 1087.56359863281 1081.521484375 1080.45446777344 1078.49597167969 1086.56481933594 1076.55749511719 1075.724609375 1087.45471191406 1072.70361328125 1081.74963378906 1089.38720703125 1080.82263183594 1069.63745117188
955.116577148438 961.722290039062 964.512878417969 970.794921875 968.347839355469 972.561645507812 975.861877441406 966.659729003906 963.173889160156 968.722473144531 972.005859375 975.663330078125 971.820983886719 972.26708984375 972.101745605469 973.859191894531 976.677368164062 981.191345214844 971.484008789062 967.687316894531 967.878662109375 970.257263183594 969.87255859375 965.828430175781 965.774108886719 958.5712890625 953.102966308594 949.456726074219 952.179626464844 951.7041015625 953.3017578125 962.941589355469 955.423889160156 952.740478515625 958.888793945312 958.367431640625 956.961669921875 962.204223632812 959.6796875 954.375732421875 950.390319824219 954.134094238281 959.118835449219 958.163146972656 963.441467285156 957.078979492188 944.952514648438 941.343200683594 948.001586914062 948.294921875 946.692260742188 950.071533203125 948.756652832031 948.356323242188 949.960083007812 952.24365234375 953.540771484375 956.478088378906 952.512573242188 955.175537109375 947.672058105469 950.497375488281 950.592590332031 956.236022949219 956.991577148438 952.871643066406 954.332885742188 962.134704589844 956.006469726562 953.933227539062 956.328491210938 954.834045410156 964.910522460938 958.825317382812 955.977783203125 953.771240234375 951.804382324219 962.077331542969 958.393310546875 955.893432617188 969.451354980469 966.508972167969 963.808532714844 972.961730957031 968.82373046875 964.236511230469 965.671936035156 965.765930175781 968.983032226562 960.645202636719 959.188598632812 967.267456054688 961.66748046875 966.913879394531 973.106811523438 982.362731933594 977.85595703125 979.494750976562 984.056762695312 972.384399414062 979.931884765625 982.669677734375 970.390686035156 969.277038574219 977.864501953125 982.682800292969 988.162170410156 986.311218261719 986.295837402344 989.557434082031 992.007873535156 992.163208007812 993.279846191406 992.870910644531 989.175598144531 993.761901855469 992.982666015625 990.669799804688 996.605590820312 1012.11010742188 1019.03967285156 1021.65032958984 1027.21801757812 1016.19738769531 1018.12963867188 1023.14477539062 1020.03308105469 1020.02972412109 1028.21984863281 1044.3857421875 1060.97534179688 1062.57421875 1060.14294433594 1063.77331542969 1071.37426757812 1077.79174804688 1083.01708984375 1072.57775878906 1069.13256835938 1074.23779296875 1072.35607910156 1067.54846191406 1065.28076171875 1067.44482421875 1080.76586914062 1080.54296875 1071.87292480469 1078.48852539062 1077.03527832031 1072.61865234375
957.678100585938 955.603820800781 955.684997558594 963.477661132812 968.503295898438 976.63427734375 971.687255859375 975.550048828125 969.41015625 968.674438476562 975.433715820312 967.683837890625 971.685485839844 961.619567871094 957.905517578125 962.705749511719 974.838439941406 972.787353515625 967.879943847656 964.848937988281 967.247924804688 984.039733886719 969.590576171875 962.756225585938 964.72509765625 958.945373535156 953.271606445312 949.230712890625 941.727294921875 948.202453613281 960.809020996094 960.899475097656 957.394470214844 951.046752929688 955.855590820312 953.335571289062 948.391540527344 950.052917480469 950.00927734375 942.008117675781 949.759399414062 954.867736816406 950.804321289062 957.920532226562 955.521057128906 954.82080078125 952.562866210938 955.045532226562 955.411987304688 956.393798828125 955.268737792969 949.543029785156 942.227478027344 947.1884765625 950.504760742188 958.818115234375 954.4765625 958.524658203125 956.21240234375 955.651062011719 956.442321777344 958.337646484375 955.711303710938 953.622985839844 945.458435058594 959.474548339844 959.013122558594 958.549926757812 957.197387695312 963.401550292969 960.900268554688 957.586486816406 956.138427734375 956.890686035156 952.361267089844 951.819946289062 954.676940917969 966.669250488281 966.261840820312 962.696716308594 961.17236328125 956.103088378906 961.155639648438 969.214599609375 973.206909179688 965.92138671875 968.024536132812 967.192932128906 964.102172851562 960.396789550781 960.8408203125 968.667419433594 964.955810546875 965.93359375 974.2109375 980.440673828125 986.829162597656 988.127502441406 979.033447265625 979.71240234375 987.862609863281 977.738647460938 975.613586425781 978.9189453125 984.356079101562 982.218566894531 989.952331542969 981.334716796875 992.23779296875 996.907775878906 987.270446777344 984.482482910156 991.726135253906 993.715148925781 994.066040039062 994.571105957031 995.812805175781 998.255615234375 1000.26586914062 1005.91363525391 1013.9287109375 1014.52734375 1021.53015136719 1008.86950683594 1008.82843017578 1014.6298828125 1016.99578857422 1016.87902832031 1026.50036621094 1045.86474609375 1040.68823242188 1043.29919433594 1049.43347167969 1051.39489746094 1062.68518066406 1062.060546875 1057.62097167969 1059.31579589844 1059.17663574219 1062.00354003906 1064.50915527344 1059.16259765625 1058.78979492188 1063.87097167969 1078.94519042969 1068.13708496094 1067.13342285156 1065.13427734375 1070.7373046875 1071.82458496094
959.013854980469 952.941162109375 948.82763671875 957.265319824219 965.863342285156 967.69921875 970.853576660156 969.024108886719 972.888916015625 973.432312011719 964.705993652344 963.4794921875 965.0771484375 963.394653320312 964.158203125 964.461486816406 959.504943847656 969.306396484375 970.427368164062 958.464965820312 961.951782226562 969.349426269531 963.497863769531 952.379577636719 950.296691894531 952.061584472656 950.464782714844 949.492736816406 947.016357421875 947.984802246094 955.591125488281 961.672546386719 968.809936523438 960.130249023438 947.108459472656 946.098205566406 949.261413574219 952.265747070312 946.985717773438 945.452941894531 950.468017578125 957.406188964844 958.610473632812 951.378356933594 958.703491210938 955.151794433594 947.8974609375 956.643981933594 952.796936035156 960.61572265625 957.636413574219 954.954284667969 947.188659667969 950.249267578125 954.934448242188 965.652954101562 960.010437011719 968.033020019531 964.27294921875 956.958190917969 964.721130371094 964.443237304688 964.889831542969 962.62060546875 952.111999511719 957.008117675781 960.127868652344 953.46337890625 962.683349609375 965.022338867188 961.908264160156 960.265563964844 960.192138671875 962.674133300781 958.242736816406 960.612365722656 960.92431640625 965.576782226562 966.718627929688 960.412841796875 969.540161132812 956.321166992188 959.438598632812 960.535034179688 963.278381347656 969.45849609375 961.802856445312 967.893249511719 968.877990722656 961.572326660156 961.58740234375 959.607666015625 959.390319824219 971.695068359375 972.586975097656 971.637756347656 978.982543945312 983.253967285156 968.543823242188 984.760192871094 981.706970214844 975.000915527344 977.501586914062 981.163879394531 967.693908691406 978.198486328125 987.578979492188 994.847106933594 995.604797363281 995.449951171875 992.133544921875 991.842712402344 994.533264160156 998.011047363281 1000.39660644531 1004.63269042969 1005.84381103516 1013.04888916016 1014.02038574219 1002.82037353516 1000.232421875 1008.92687988281 1016.17108154297 1003.77459716797 1008.04907226562 1012.01281738281 1008.31530761719 1021.28057861328 1021.52490234375 1032.61669921875 1028.49755859375 1039.43835449219 1043.40979003906 1048.59814453125 1055.12622070312 1049.4228515625 1049.45080566406 1052.72863769531 1053.83435058594 1049.99084472656 1059.65576171875 1043.90197753906 1043.39489746094 1043.63610839844 1051.76110839844 1052.79187011719 1054.26123046875 1057.78015136719 1065.59948730469 1059.11853027344
964.45849609375 957.134155273438 947.236511230469 952.866149902344 967.270812988281 974.277221679688 970.468017578125 968.891418457031 977.786682128906 966.906372070312 955.183288574219 955.329467773438 962.448547363281 965.163757324219 962.703369140625 958.231262207031 958.979309082031 971.168518066406 973.233154296875 962.241027832031 960.003112792969 963.976501464844 957.775451660156 958.059753417969 948.301025390625 948.427673339844 943.532958984375 947.364501953125 938.436340332031 945.170043945312 953.794494628906 957.846374511719 961.575500488281 952.097839355469 948.662536621094 946.074340820312 949.703857421875 954.930114746094 952.359497070312 952.544189453125 947.737976074219 956.787963867188 955.368347167969 953.5888671875 956.683288574219 947.373901367188 949.18017578125 950.839782714844 966.247436523438 956.398132324219 956.154724121094 956.882019042969 950.753112792969 951.061340332031 946.650817871094 956.865173339844 959.078002929688 964.016723632812 960.877197265625 960.033386230469 961.612060546875 964.62890625 964.529541015625 968.471862792969 959.715759277344 958.857482910156 960.25439453125 968.716064453125 963.797607421875 961.697937011719 960.800720214844 962.919616699219 961.873657226562 966.290344238281 970.228942871094 966.188354492188 970.712097167969 968.013732910156 970.163513183594 954.323059082031 956.466125488281 960.163696289062 971.761596679688 962.307922363281 968.722045898438 974.27978515625 972.542114257812 977.967224121094 974.705078125 965.325439453125 952.371032714844 949.542907714844 958.327209472656 976.057983398438 976.945190429688 980.004333496094 976.202087402344 976.663330078125 979.2470703125 987.152526855469 986.113647460938 982.938659667969 981.641235351562 980.5263671875 981.458923339844 979.043090820312 980.672302246094 988.93701171875 997.696960449219 999.098754882812 992.666809082031 995.826538085938 998.325622558594 1003.32342529297 1002.86041259766 1010.56848144531 1007.92724609375 1020.14880371094 1024.77844238281 1009.3349609375 999.347351074219 1003.80938720703 1019.52716064453 1006.98968505859 1004.92211914062 1012.67889404297 1018.82220458984 1021.38653564453 1028.69665527344 1024.08020019531 1032.74353027344 1030.52941894531 1036.32482910156 1036.52868652344 1043.52905273438 1041.36730957031 1041.66845703125 1042.71325683594 1041.33471679688 1038.07934570312 1043.52453613281 1030.03869628906 1030.68994140625 1025.14050292969 1037.04675292969 1038.56188964844 1044.240234375 1050.08312988281 1057.98583984375 1055.09350585938
964.11865234375 949.631591796875 950.756408691406 957.394897460938 969.29541015625 972.393737792969 976.631652832031 974.777893066406 968.422546386719 958.20849609375 949.695739746094 947.766479492188 957.413024902344 965.211181640625 953.878967285156 960.361938476562 968.806396484375 964.403259277344 964.974609375 965.45068359375 959.285949707031 967.513854980469 961.135925292969 962.169494628906 957.994506835938 950.640380859375 948.082702636719 938.909362792969 948.446838378906 961.444763183594 958.732360839844 941.625183105469 952.869384765625 949.120483398438 947.258056640625 948.879699707031 953.863403320312 951.710754394531 957.039916992188 958.978759765625 943.747131347656 948.770080566406 954.672119140625 950.234619140625 953.302551269531 951.465759277344 946.471008300781 952.151977539062 954.84619140625 956.564880371094 948.589111328125 960.164001464844 961.122436523438 960.494445800781 953.077026367188 952.1083984375 968.998718261719 970.062622070312 969.062744140625 961.007934570312 960.952331542969 954.211853027344 955.811340332031 961.488464355469 957.548217773438 952.304260253906 975.932983398438 979.581970214844 967.001281738281 972.732360839844 956.762268066406 958.307495117188 969.556091308594 967.735534667969 973.844787597656 974.01318359375 959.007629394531 964.039306640625 969.218444824219 958.638122558594 962.995300292969 972.236694335938 971.916137695312 976.062194824219 973.498596191406 969.3681640625 975.505004882812 977.923583984375 978.200744628906 973.476989746094 967.642578125 962.693786621094 969.269226074219 969.125915527344 980.412963867188 984.98193359375 968.368713378906 975.08251953125 987.784545898438 991.545837402344 983.728515625 985.990356445312 984.632202148438 989.311645507812 993.619934082031 985.065612792969 987.125305175781 989.234680175781 994.526611328125 1001.75793457031 995.634582519531 995.190673828125 1007.82995605469 1014.13879394531 1016.26287841797 1019.73809814453 1020.01770019531 1028.48657226562 1021.42156982422 1013.44970703125 1008.10192871094 1003.4384765625 1016.65032958984 1020.37634277344 1020.00830078125 1022.68310546875 1017.72784423828 1026.40441894531 1032.85620117188 1035.73657226562 1034.75549316406 1035.34521484375 1033.93957519531 1037.89904785156 1036.44152832031 1030.98425292969 1038.01318359375 1041.19055175781 1029.07189941406 1031.37585449219 1033.03979492188 1024.77453613281 1026.72961425781 1026.38488769531 1029.77319335938 1036.96911621094 1036.56799316406 1035.24194335938 1037.36474609375 1039.220703125
947.51611328125 947.972534179688 954.019409179688 959.229553222656 971.660034179688 971.593566894531 968.091125488281 974.758544921875 966.809387207031 961.852294921875 957.794921875 943.446044921875 949.220031738281 949.906311035156 956.485717773438 959.749267578125 958.212768554688 953.672973632812 955.201293945312 967.28173828125 961.732788085938 962.490051269531 962.28564453125 962.263488769531 950.927062988281 949.463073730469 948.474609375 944.345336914062 959.525329589844 948.349243164062 952.912231445312 949.977478027344 950.001525878906 943.973022460938 942.222106933594 945.951110839844 949.988647460938 951.419006347656 948.011962890625 947.536254882812 945.523193359375 942.209350585938 949.840087890625 958.8701171875 968.92138671875 962.992614746094 955.304138183594 954.289733886719 952.835083007812 962.370178222656 968.342651367188 971.79541015625 963.985473632812 962.51708984375 953.902709960938 965.504516601562 970.771667480469 979.848083496094 973.837646484375 969.951965332031 955.93408203125 954.752319335938 957.7138671875 960.012817382812 959.023559570312 965.627746582031 972.417236328125 965.210632324219 968.187561035156 978.047912597656 962.18994140625 961.113586425781 970.943054199219 974.448913574219 963.106750488281 956.361328125 961.107421875 963.510498046875 963.363647460938 971.602111816406 972.717407226562 970.363098144531 982.614013671875 984.596252441406 975.411682128906 975.392211914062 975.409118652344 977.080017089844 975.827331542969 977.096008300781 972.682922363281 974.537414550781 972.275512695312 969.267395019531 975.168151855469 981.744995117188 985.588195800781 986.594787597656 985.574340820312 990.166015625 984.380859375 985.273864746094 987.66650390625 989.656372070312 987.413024902344 992.463928222656 989.273803710938 990.130798339844 1004.17175292969 1003.68865966797 997.576232910156 1002.26226806641 1010.77545166016 1021.52661132812 1019.05572509766 1028.44201660156 1022.41400146484 1024.93579101562 1012.40673828125 1015.81201171875 1008.83190917969 1004.22094726562 1009.36224365234 1015.19427490234 1012.36962890625 1004.0546875 1016.61706542969 1021.65747070312 1036.18237304688 1034.62841796875 1036.45251464844 1041.27661132812 1039.21301269531 1041.23352050781 1033.47143554688 1034.94104003906 1036.49914550781 1035.92016601562 1036.86755371094 1034.28186035156 1026.41589355469 1021.29937744141 1025.49987792969 1028.02978515625 1029.65930175781 1036.951171875 1040.3046875 1036.7568359375 1029.3046875 1038.15808105469
952.114990234375 947.486389160156 955.426208496094 954.767517089844 961.608520507812 970.191650390625 963.472717285156 971.528930664062 968.911071777344 958.657653808594 954.861206054688 948.283020019531 939.467224121094 933.59765625 949.186706542969 947.423583984375 956.170593261719 948.38330078125 945.514709472656 960.612609863281 953.855834960938 961.839782714844 957.686462402344 957.482543945312 950.173950195312 944.483154296875 949.540161132812 955.110961914062 958.720092773438 943.886962890625 936.4833984375 943.511169433594 949.453247070312 935.7568359375 943.640563964844 948.899841308594 960.478637695312 951.220031738281 949.436340332031 945.668701171875 945.63134765625 950.111145019531 954.617736816406 961.053405761719 969.12451171875 967.004760742188 969.813110351562 955.848266601562 966.222595214844 974.700622558594 974.58642578125 965.525939941406 963.531616210938 966.410766601562 970.098266601562 969.380432128906 969.929321289062 976.133483886719 972.083679199219 972.423889160156 971.83740234375 965.313049316406 969.3125 966.815002441406 959.792419433594 968.168640136719 973.031494140625 968.161682128906 970.659362792969 969.898986816406 962.271484375 969.303100585938 975.240173339844 966.306213378906 962.907531738281 962.470153808594 956.730407714844 961.562561035156 966.198974609375 965.310363769531 973.71875 973.224975585938 977.740173339844 984.455261230469 972.059631347656 976.376342773438 980.572814941406 984.846557617188 980.140258789062 978.0283203125 974.894836425781 967.592956542969 973.501281738281 975.7861328125 977.372985839844 983.997009277344 983.349548339844 987.178100585938 988.141967773438 993.515380859375 984.405944824219 982.7744140625 985.229309082031 988.025634765625 991.606384277344 986.747436523438 994.642211914062 997.181213378906 1000.52667236328 1010.32415771484 1005.62316894531 1009.45306396484 1014.29187011719 1021.18859863281 1021.54302978516 1021.79992675781 1017.67913818359 1016.92395019531 1016.20550537109 1015.81939697266 1019.17639160156 1019.18377685547 1020.44036865234 1016.44128417969 1012.34796142578 1009.05426025391 1015.64916992188 1024.96496582031 1037.48706054688 1038.50952148438 1037.87719726562 1040.42004394531 1043.71594238281 1033.78503417969 1033.11096191406 1032.43176269531 1040.3720703125 1039.32629394531 1032.42138671875 1027.97705078125 1028.7880859375 1016.56158447266 1017.67095947266 1028.73840332031 1031.74194335938 1031.33947753906 1033.74487304688 1028.73681640625 1023.19940185547 1025.36108398438
951.968200683594 952.760925292969 954.132141113281 956.496276855469 955.125549316406 958.09814453125 963.954467773438 966.505859375 961.070007324219 963.398254394531 952.7666015625 955.7021484375 941.774658203125 941.346069335938 947.804870605469 946.811584472656 941.620422363281 941.481079101562 942.234375 957.406921386719 954.781127929688 956.333679199219 947.776306152344 955.710144042969 946.036437988281 942.390869140625 944.215026855469 948.151977539062 944.943237304688 947.50439453125 937.536071777344 937.261352539062 937.303527832031 949.425720214844 946.0185546875 951.246215820312 961.327392578125 956.83251953125 951.126525878906 955.154357910156 951.464477539062 954.836486816406 956.286376953125 957.776489257812 974.725341796875 972.971008300781 974.545349121094 974.923034667969 980.404113769531 981.133850097656 978.607788085938 973.748962402344 973.154357910156 968.010131835938 968.365905761719 965.411865234375 972.607238769531 976.656372070312 969.622802734375 973.855895996094 973.998657226562 965.301391601562 965.016296386719 958.048400878906 966.009155273438 971.946716308594 968.437377929688 963.848754882812 968.746398925781 970.620971679688 967.711608886719 969.699829101562 967.872009277344 966.04248046875 960.610107421875 954.115966796875 961.357421875 966.768676757812 973.192077636719 972.393432617188 977.361572265625 977.300048828125 978.739624023438 981.190124511719 980.741516113281 981.843811035156 984.888122558594 987.902099609375 978.218688964844 984.963623046875 977.403442382812 975.507446289062 965.861328125 974.711303710938 966.553833007812 975.101257324219 980.726928710938 986.604370117188 994.3974609375 995.871887207031 993.309020996094 979.787719726562 983.43603515625 990.625244140625 992.187683105469 990.729858398438 1001.26696777344 1001.88513183594 1003.16516113281 1007.38977050781 1005.78167724609 1015.21984863281 1018.72192382812 1023.0068359375 1029.59008789062 1021.87744140625 1018.17626953125 1012.20056152344 1010.15441894531 1014.72357177734 1023.0810546875 1024.85009765625 1032.67370605469 1026.65454101562 1025.21044921875 1017.50909423828 1025.51782226562 1031.37805175781 1050.44372558594 1043.69311523438 1042.93518066406 1036.51611328125 1035.34008789062 1034.32043457031 1032.23498535156 1034.04833984375 1033.08386230469 1034.97058105469 1034.75732421875 1030.39697265625 1032.08630371094 1034.005859375 1026.6904296875 1025.76892089844 1021.53460693359 1021.99481201172 1019.41302490234 1014.17932128906 1015.36120605469 1022.35144042969
951.086791992188 950.483825683594 955.900268554688 961.386596679688 962.30908203125 952.068786621094 958.894714355469 964.32275390625 953.94921875 961.218688964844 956.8330078125 960.013671875 949.016174316406 941.259216308594 946.878295898438 945.643249511719 941.772155761719 941.507568359375 938.322204589844 945.571472167969 949.271789550781 948.603515625 948.059387207031 940.8173828125 940.601928710938 942.954162597656 932.817138671875 943.79052734375 936.551696777344 940.514770507812 945.255615234375 944.788696289062 948.108581542969 954.170227050781 961.9326171875 948.966796875 949.356323242188 955.673156738281 958.63623046875 952.916870117188 952.110900878906 961.605590820312 958.434814453125 966.455322265625 976.505310058594 975.678100585938 980.753173828125 973.608520507812 983.9365234375 981.893371582031 984.160339355469 974.696655273438 974.824157714844 966.785522460938 969.884643554688 967.266784667969 972.762084960938 973.562561035156 965.948059082031 972.2822265625 977.914245605469 976.209838867188 973.606994628906 959.980407714844 968.47119140625 976.549011230469 970.867919921875 971.036865234375 968.596923828125 973.027526855469 971.265686035156 969.841430664062 970.847961425781 971.310852050781 971.070556640625 967.443359375 976.483276367188 978.943603515625 979.018859863281 978.856079101562 979.339538574219 979.847839355469 972.437561035156 974.481567382812 977.991638183594 986.857055664062 985.364440917969 979.744812011719 983.008850097656 991.931518554688 977.951904296875 976.618041992188 974.876098632812 974.609313964844 976.059143066406 976.953552246094 984.592346191406 988.697998046875 995.634765625 998.319030761719 994.815612792969 987.031127929688 985.769592285156 1003.04309082031 994.386352539062 997.896118164062 998.968933105469 1003.96136474609 1009.66394042969 1015.38079833984 1023.09497070312 1025.31689453125 1026.978515625 1021.83569335938 1025.17517089844 1033.31982421875 1031.52587890625 1017.85009765625 1024.62451171875 1022.81970214844 1022.64251708984 1030.64282226562 1028.26867675781 1025.93383789062 1023.18908691406 1019.89587402344 1026.94030761719 1043.58569335938 1047.02807617188 1043.43078613281 1038.275390625 1037.32434082031 1041.78405761719 1041.58276367188 1036.76916503906 1035.84509277344 1043.81921386719 1040.56433105469 1030.61962890625 1028.90380859375 1027.44604492188 1028.37902832031 1029.31372070312 1024.62023925781 1016.68768310547 1010.94665527344 1009.38568115234 1005.55297851562 1008.82476806641 1003.43109130859
948.362121582031 952.811401367188 965.461059570312 960.284851074219 964.737670898438 957.802551269531 960.415649414062 956.313659667969 950.00244140625 954.899108886719 961.099609375 958.338317871094 955.229309082031 941.867980957031 938.332092285156 936.754028320312 939.871887207031 944.565612792969 939.931335449219 941.781127929688 952.155822753906 955.683959960938 948.959350585938 945.441467285156 945.077026367188 946.716247558594 943.955383300781 949.145446777344 953.342468261719 951.672058105469 951.701904296875 947.415161132812 951.790710449219 954.277648925781 954.998352050781 959.839965820312 947.654724121094 946.112060546875 951.503540039062 950.969665527344 948.030639648438 959.9052734375 959.97607421875 971.794067382812 983.340881347656 984.06005859375 979.519653320312 982.636535644531 983.174621582031 990.884399414062 992.546508789062 984.236877441406 979.516357421875 974.762756347656 970.639953613281 960.736206054688 967.633422851562 973.802673339844 974.479675292969 980.742248535156 978.534484863281 978.163452148438 978.289245605469 970.259643554688 970.50146484375 971.8876953125 979.984008789062 967.162414550781 979.717651367188 969.00830078125 979.757385253906 976.16845703125 975.228576660156 978.191833496094 976.540222167969 977.307556152344 977.669860839844 989.162048339844 990.127319335938 982.28466796875 974.32421875 980.189331054688 981.618103027344 970.192077636719 984.465881347656 982.494018554688 981.070983886719 979.910034179688 973.204528808594 983.2890625 976.634765625 974.98779296875 984.354125976562 971.001098632812 977.960876464844 976.271240234375 987.062377929688 999.832763671875 998.705139160156 996.340698242188 995.947509765625 988.642944335938 983.965270996094 995.26025390625 992.9921875 998.816650390625 994.224548339844 998.901733398438 1004.20568847656 1011.92218017578 1028.82885742188 1033.15673828125 1024.63818359375 1024.34936523438 1030.05419921875 1047.36743164062 1040.11791992188 1030.64636230469 1034.47155761719 1036.23852539062 1034.35827636719 1025.38525390625 1025.75500488281 1035.2509765625 1027.23742675781 1027.20483398438 1028.24645996094 1031.9423828125 1041.71899414062 1049.98168945312 1035.90551757812 1050.55944824219 1055.33081054688 1051.4189453125 1042.92724609375 1041.08813476562 1043.41442871094 1041.65173339844 1034.14514160156 1022.53198242188 1018.02398681641 1021.888671875 1023.09643554688 1018.71148681641 1007.68817138672 1006.072265625 1002.60650634766 1006.4697265625 1000.48870849609 1007.53839111328
963.140380859375 960.54345703125 960.464416503906 960.98388671875 954.037841796875 956.855834960938 954.851623535156 955.463989257812 950.558837890625 942.045104980469 947.7529296875 951.855651855469 952.751220703125 943.226989746094 942.88134765625 937.044616699219 946.727966308594 950.321044921875 942.864196777344 947.340393066406 950.390686035156 953.634460449219 949.258972167969 953.946411132812 950.404602050781 953.681335449219 947.913024902344 952.983703613281 956.702087402344 956.817077636719 962.942993164062 962.280090332031 960.854370117188 940.445190429688 952.526916503906 956.013122558594 960.511108398438 961.972534179688 956.289367675781 945.543212890625 945.893432617188 958.181030273438 967.690002441406 971.292785644531 977.9130859375 978.635314941406 971.525085449219 983.073608398438 980.860717773438 984.990478515625 983.575439453125 985.417724609375 987.444091796875 971.660278320312 961.635131835938 963.004333496094 967.794616699219 961.858032226562 972.352355957031 968.985534667969 978.133544921875 978.985046386719 974.032470703125 963.043029785156 963.377197265625 968.047485351562 972.114990234375 969.623413085938 973.723083496094 970.80224609375 976.581909179688 981.951232910156 973.397399902344 979.791137695312 983.210205078125 984.016967773438 984.56689453125 983.351806640625 978.316772460938 985.539611816406 975.888122558594 975.7431640625 988.865905761719 985.808471679688 989.123596191406 987.948364257812 989.954711914062 988.837280273438 982.827453613281 977.988098144531 984.625183105469 978.246154785156 976.356384277344 974.154724121094 977.341491699219 976.835144042969 985.36083984375 997.271362304688 1003.24774169922 997.615844726562 992.205322265625 990.966369628906 996.963684082031 996.52880859375 999.94921875 987.790283203125 998.259582519531 1000.13659667969 1003.21429443359 1020.15869140625 1030.21862792969 1037.72790527344 1034.47644042969 1034.55493164062 1035.43835449219 1045.81811523438 1042.4765625 1043.32055664062 1043.69519042969 1046.2490234375 1037.56530761719 1032.51171875 1035.31384277344 1041.20483398438 1033.70629882812 1023.54760742188 1021.83648681641 1031.77368164062 1034.79125976562 1045.70483398438 1048.30187988281 1050.0009765625 1053.8056640625 1051.34155273438 1049.23645019531 1043.20361328125 1042.7333984375 1037.16418457031 1032.67224121094 1025.60876464844 1017.89019775391 1015.95123291016 1016.91430664062 1016.45257568359 1013.73132324219 1005.50592041016 997.031494140625 1003.54718017578 1001.12951660156 1004.59381103516
960.708374023438 958.942077636719 960.471862792969 950.695007324219 957.826599121094 946.746520996094 950.633972167969 945.745971679688 943.619201660156 943.589660644531 944.567443847656 945.943176269531 943.662963867188 948.202819824219 943.901000976562 952.521667480469 955.384704589844 955.206848144531 958.138732910156 955.068054199219 948.511901855469 963.069641113281 962.909057617188 967.390197753906 972.751892089844 962.3134765625 959.217712402344 954.845581054688 955.065979003906 963.599426269531 969.561645507812 972.205749511719 956.485412597656 949.727111816406 958.110290527344 955.054504394531 955.182678222656 953.254211425781 956.135375976562 949.858337402344 948.940612792969 955.379211425781 963.228515625 972.257080078125 977.94873046875 976.437927246094 968.9169921875 983.257385253906 982.031494140625 975.1171875 979.730590820312 981.159790039062 978.278625488281 974.721740722656 977.867797851562 975.128479003906 969.011047363281 972.498229980469 964.428527832031 967.973266601562 977.055480957031 965.427490234375 970.800476074219 957.1689453125 955.897766113281 961.308654785156 969.934814453125 971.245666503906 975.39306640625 982.74951171875 991.698608398438 983.785522460938 981.738098144531 981.461364746094 980.906005859375 982.014221191406 985.816345214844 986.479064941406 975.332336425781 976.788146972656 968.729858398438 980.664184570312 989.434997558594 985.150695800781 982.736083984375 989.913269042969 993.669067382812 985.650817871094 987.577880859375 980.243713378906 980.806457519531 978.607055664062 973.893005371094 979.5859375 985.653991699219 986.597900390625 990.103759765625 996.574096679688 1005.20684814453 1005.29699707031 1002.73724365234 999.210998535156 1001.02886962891 996.737365722656 995.009643554688 1000.53326416016 1005.1201171875 1005.55694580078 1008.35052490234 1014.95629882812 1024.35180664062 1031.5087890625 1038.74987792969 1044.15417480469 1043.36938476562 1050.02612304688 1046.92749023438 1044.36254882812 1045.05187988281 1051.03247070312 1047.10083007812 1044.865234375 1041.46508789062 1041.09729003906 1028.82043457031 1024.84313964844 1013.08386230469 1019.04846191406 1030.98547363281 1045.44006347656 1042.15234375 1044.90625 1047.90307617188 1049.87512207031 1052.06481933594 1043.28881835938 1038.32116699219 1034.55859375 1026.9814453125 1023.82507324219 1014.89971923828 1016.01556396484 1012.52435302734 1017.41369628906 1013.59899902344 1002.41522216797 1000.77319335938 1002.51611328125 1001.39672851562 1004.65228271484
