NCOLS 150
NROWS 37
XLLCORNER 7394249
YLLCORNER 4842749
CELLSIZE 30
NODATA_VALUE -9999
948.396179199219 955.108337402344 960.481201171875 964.73583984375 974.104858398438 976.765197753906 975.702697753906 975.083679199219 973.502563476562 973.900573730469 972.921203613281 974.550476074219 966.718811035156 969.659606933594 969.240173339844 965.021240234375 966.271362304688 969.799255371094 977.482421875 980.669921875 983.100402832031 982.895812988281 970.86083984375 977.62255859375 977.319274902344 982.401611328125 977.2685546875 971.24755859375 976.14208984375 981.312072753906 981.086669921875 979.444030761719 984.493041992188 980.563720703125 979.415100097656 978.63818359375 974.421508789062 977.671081542969 975.224792480469 974.283325195312 971.050170898438 977.567443847656 970.003295898438 971.152709960938 973.754272460938 979.995849609375 971.590698242188 965.154907226562 975.986572265625 981.887634277344 976.201477050781 968.103393554688 976.332946777344 978.856384277344 971.398376464844 969.738586425781 974.560791015625 978.170471191406 978.359802246094 974.223449707031 987.188110351562 978.4599609375 977.682800292969 975.364807128906 967.34765625 954.775207519531 951.11865234375 970.476501464844 969.051696777344 969.001708984375 966.194641113281 972.345153808594 979.338073730469 991.581420898438 992.886779785156 986.782287597656 982.534851074219 985.476684570312 984.472229003906 985.556030273438 990.547973632812 996.134155273438 1005.09197998047 1003.04779052734 1002.84844970703 1005.82659912109 995.59619140625 993.958618164062 1002.29302978516 1001.04663085938 1002.78277587891 1002.44195556641 1000.89453125 1005.37274169922 999.079040527344 1004.39227294922 999.198608398438 999.69384765625 990.819213867188 982.286254882812 991.154113769531 992.98388671875 990.127746582031 989.624267578125 981.373718261719 985.275390625 972.163024902344 979.431640625 983.1171875 993.062316894531 992.783447265625 994.983154296875 1003.24438476562 1002.14276123047 997.120666503906 993.317565917969 989.933288574219 996.247009277344 1003.90551757812 997.911499023438 998.238891601562 1004.17254638672 1009.36871337891 1007.0625 1005.75012207031 1005.10150146484 1003.08514404297 1007.90606689453 1010.45355224609 1006.42620849609 1014.95092773438 1022.39019775391 1026.21545410156 1027.15222167969 1033.60546875 1039.1806640625 1038.19555664062 1049.66577148438 1055.96496582031 1068.34399414062 1065.22399902344 1077.87976074219 1089.51037597656 1098.80004882812 1107.16674804688 1112.63391113281 1103.07861328125 1107.52783203125 1102.09509277344 1112.69482421875
961.292297363281 959.164428710938 958.963256835938 964.735595703125 965.397399902344 969.943054199219 965.565979003906 969.057006835938 961.163452148438 959.120239257812 964.870727539062 965.549621582031 975.107116699219 971.604736328125 967.560791015625 973.839538574219 974.894714355469 979.449951171875 978.999816894531 979.343017578125 982.225402832031 978.420776367188 973.278198242188 971.504211425781 967.059143066406 971.79736328125 983.180725097656 974.533813476562 974.52197265625 980.84423828125 977.235168457031 976.868469238281 975.299682617188 976.626342773438 976.254272460938 971.165161132812 984.356567382812 978.337707519531 979.482727050781 971.325561523438 980.901062011719 975.3408203125 978.166809082031 976.531982421875 978.565673828125 980.794555664062 975.927856445312 970.119445800781 979.327392578125 982.665344238281 979.3974609375 976.864868164062 976.755676269531 976.819763183594 975.022094726562 962.981079101562 963.367248535156 975.151306152344 975.859130859375 976.506225585938 972.946533203125 972.904296875 972.262390136719 970.729187011719 970.362609863281 960.197021484375 961.2568359375 963.125793457031 960.063537597656 965.561828613281 965.220825195312 963.510192871094 966.714599609375 980.881896972656 990.304931640625 987.504028320312 985.152465820312 985.385131835938 991.002258300781 990.44580078125 992.639404296875 997.241333007812 998.827392578125 996.057067871094 998.193603515625 995.716430664062 999.75390625 996.959533691406 991.919799804688 993.310180664062 999.599731445312 990.848266601562 994.031311035156 994.430725097656 1001.99407958984 1001.96838378906 1000.77496337891 990.449157714844 976.641357421875 974.459655761719 987.253173828125 996.746459960938 989.491455078125 982.493469238281 980.75439453125 989.455444335938 982.20068359375 986.963012695312 984.758911132812 988.700805664062 997.98583984375 1001.56213378906 995.887084960938 1002.60797119141 1000.62573242188 993.655578613281 992.69287109375 1001.06799316406 1000.8056640625 1003.66491699219 995.430541992188 1005.49719238281 1001.45031738281 1009.39105224609 1003.0537109375 1002.83117675781 1005.16741943359 1015.91625976562 1013.87951660156 1016.68109130859 1017.58721923828 1027.89306640625 1035.55749511719 1027.57836914062 1031.48217773438 1046.13037109375 1048.48388671875 1056.60314941406 1065.82678222656 1067.21240234375 1064.82055664062 1079.50732421875 1094.17041015625 1104.60815429688 1112.97619628906 1115.54833984375 1104.74340820312 1107.92321777344 1110.32702636719 1116.32897949219
961.661926269531 964.734008789062 963.338989257812 963.003234863281 964.043395996094 958.903503417969 950.758239746094 953.504516601562 959.701293945312 960.558044433594 962.71923828125 968.355834960938 972.435302734375 970.52685546875 974.335266113281 976.999328613281 973.95654296875 979.408569335938 973.080871582031 976.301818847656 980.269592285156 974.327941894531 975.541625976562 967.824096679688 973.272644042969 965.499145507812 979.475463867188 978.758483886719 969.89697265625 973.812072753906 970.171875 976.600158691406 973.296081542969 981.731994628906 980.376220703125 976.245727539062 977.768188476562 978.838562011719 976.079772949219 981.389282226562 981.955200195312 973.608825683594 978.150146484375 982.198974609375 978.414489746094 982.074157714844 976.796569824219 970.561584472656 978.378540039062 979.815673828125 981.030578613281 979.752563476562 979.46630859375 973.681335449219 968.954345703125 966.94091796875 962.548461914062 981.11962890625 977.707580566406 970.445983886719 973.702575683594 975.285339355469 972.974060058594 967.626586914062 971.719543457031 967.513854980469 964.655517578125 966.494689941406 965.141052246094 962.833068847656 963.536865234375 967.739379882812 967.292297363281 977.656494140625 983.799499511719 979.523376464844 986.207946777344 977.926208496094 985.627868652344 990.833557128906 986.470336914062 987.902709960938 980.84423828125 985.054321289062 997.622375488281 992.285827636719 995.28955078125 997.928955078125 993.678588867188 985.077453613281 999.292724609375 991.16259765625 995.03564453125 1000.29284667969 994.232482910156 995.652526855469 990.888610839844 982.5302734375 969.452941894531 972.895935058594 978.472473144531 992.839965820312 985.091125488281 981.729675292969 988.904541015625 995.193237304688 991.572265625 990.462585449219 986.4609375 991.411804199219 1001.84387207031 995.768676757812 996.297790527344 992.483459472656 992.590087890625 1001.12762451172 993.937622070312 1000.67956542969 1007.80291748047 995.546142578125 987.683349609375 998.322509765625 993.840881347656 1005.03094482422 1007.45416259766 1007.5546875 1020.58343505859 1021.93731689453 1016.68048095703 1020.01574707031 1024.93322753906 1037.40246582031 1028.67614746094 1031.01525878906 1037.91149902344 1034.69934082031 1052.98876953125 1061.91918945312 1066.74755859375 1071.98718261719 1072.44787597656 1086.37744140625 1099.35876464844 1100.00109863281 1106.28381347656 1120.8662109375 1113.35107421875 1108.67565917969 1113.05200195312 1118.44213867188
963.119201660156 959.403686523438 964.287536621094 962.606811523438 954.601867675781 951.098571777344 948.974426269531 949.067993164062 954.498413085938 964.313598632812 963.321594238281 961.880065917969 976.269409179688 973.228149414062 983.078796386719 994.894714355469 983.316589355469 988.421447753906 966.626647949219 964.552978515625 974.138000488281 977.361755371094 972.04541015625 968.949096679688 964.199157714844 975.445861816406 976.525207519531 976.19091796875 981.799560546875 977.608337402344 978.531799316406 974.178100585938 968.577941894531 971.077819824219 984.448059082031 977.725524902344 968.208679199219 978.071838378906 979.693115234375 981.383117675781 972.950927734375 960.917358398438 970.30810546875 978.722229003906 977.042541503906 981.260375976562 979.16943359375 983.179443359375 978.550720214844 978.670471191406 978.199462890625 972.647277832031 970.310424804688 966.083435058594 969.884765625 969.833129882812 973.323364257812 980.917419433594 978.783081054688 971.625 970.398376464844 974.972290039062 979.557495117188 972.898498535156 967.659240722656 970.2861328125 971.457153320312 971.306091308594 972.219909667969 964.546142578125 966.631896972656 970.095764160156 967.839599609375 973.212341308594 981.194213867188 987.224731445312 980.211608886719 981.888854980469 978.282287597656 983.124450683594 978.022155761719 975.167602539062 976.012451171875 974.219482421875 983.7568359375 991.958190917969 992.259094238281 993.328796386719 992.573669433594 990.009643554688 989.791625976562 997.614196777344 997.240234375 995.803955078125 986.47802734375 990.67041015625 988.672668457031 980.305541992188 976.226501464844 969.624328613281 974.705932617188 978.068237304688 978.143493652344 982.239135742188 979.040222167969 988.56884765625 986.783630371094 988.156921386719 991.679016113281 996.932861328125 1005.35321044922 994.805480957031 991.188171386719 989.043090820312 991.243896484375 996.464599609375 991.561645507812 997.548889160156 1002.73736572266 993.856750488281 992.804504394531 994.020935058594 993.724548339844 1000.18121337891 1007.30603027344 1006.26617431641 1016.39337158203 1016.09332275391 1019.3564453125 1017.99731445312 1027.48937988281 1028.83020019531 1035.09448242188 1039.25915527344 1043.56799316406 1043.97619628906 1053.44482421875 1062.49194335938 1065.15246582031 1076.23620605469 1075.16760253906 1094.12829589844 1101.66540527344 1111.3623046875 1111.21130371094 1127.43359375 1124.890625 1113.99731445312 1117.97668457031 1127.009765625
953.209106445312 955.251342773438 965.492553710938 958.273803710938 951.169067382812 947.979736328125 951.178100585938 947.923156738281 952.330383300781 964.578369140625 967.349975585938 969.793151855469 972.21044921875 983.119201660156 986.650268554688 993.632446289062 995.47509765625 981.059143066406 977.078735351562 970.844787597656 970.021118164062 968.316589355469 962.562133789062 963.985107421875 967.117980957031 972.268371582031 971.751770019531 976.436401367188 982.976318359375 975.585815429688 979.615478515625 987.763061523438 978.762023925781 971.493041992188 978.834167480469 972.946411132812 968.984130859375 972.843566894531 983.845947265625 974.566040039062 979.0927734375 965.738220214844 964.323181152344 972.279602050781 980.16015625 972.931030273438 970.291931152344 972.908325195312 978.677795410156 976.122619628906 976.26318359375 974.191833496094 965.416320800781 966.733154296875 963.583801269531 970.166870117188 969.596984863281 973.719787597656 974.966064453125 967.338256835938 977.580139160156 982.299987792969 974.476379394531 977.276916503906 972.660766601562 977.024841308594 972.587219238281 974.306335449219 969.217041015625 966.615905761719 966.335327148438 957.004211425781 965.4384765625 973.111328125 974.079162597656 979.893493652344 972.690979003906 979.917053222656 973.061645507812 978.524230957031 978.466613769531 973.428039550781 973.208618164062 978.343322753906 977.157958984375 984.461059570312 988.254333496094 989.79541015625 987.596252441406 981.604858398438 985.855712890625 986.955505371094 981.624633789062 979.369506835938 983.548095703125 990.118041992188 991.815673828125 987.640014648438 981.910766601562 974.1240234375 968.427185058594 970.44482421875 971.046142578125 979.045227050781 976.074096679688 989.527954101562 989.240417480469 984.015808105469 988.784790039062 990.814208984375 991.771362304688 988.752380371094 983.063720703125 989.377624511719 990.138244628906 992.826538085938 995.650146484375 998.360900878906 994.686828613281 990.970458984375 993.882141113281 999.324951171875 998.222290039062 999.777221679688 1005.23986816406 1002.64123535156 1015.59405517578 1015.73980712891 1026.75451660156 1023.12286376953 1019.31219482422 1025.56982421875 1030.76330566406 1037.9990234375 1048.57373046875 1053.76379394531 1053.91723632812 1059.67272949219 1079.29772949219 1081.3740234375 1089.80102539062 1097.53076171875 1105.49243164062 1122.27282714844 1120.17932128906 1123.68469238281 1135.39282226562 1137.39367675781 1134.92456054688 1136.57690429688
943.843139648438 947.830993652344 955.031005859375 954.412231445312 949.008911132812 950.685424804688 958.417907714844 954.320373535156 955.769470214844 964.330993652344 968.620361328125 971.796691894531 980.641235351562 979.675842285156 988.24560546875 996.12890625 990.653869628906 979.821716308594 980.205261230469 970.552490234375 969.628845214844 964.801940917969 966.056213378906 964.462524414062 976.249755859375 971.917785644531 981.351379394531 979.448120117188 974.747375488281 978.065551757812 974.800109863281 982.628723144531 988.179016113281 987.465942382812 979.538391113281 969.146057128906 957.943176269531 964.749633789062 979.468627929688 977.806579589844 973.245727539062 972.423461914062 971.483459472656 972.261657714844 971.202697753906 973.645446777344 965.865783691406 969.907043457031 974.059936523438 976.845703125 972.162841796875 961.897827148438 965.7490234375 970.640808105469 966.71240234375 967.786254882812 970.096313476562 976.189575195312 978.176147460938 978.945373535156 977.6201171875 972.558044433594 972.915161132812 973.931945800781 976.809509277344 977.096862792969 984.005310058594 972.295654296875 969.621643066406 972.72998046875 962.663513183594 957.791381835938 962.107604980469 966.94677734375 971.296997070312 968.497375488281 962.737609863281 974.18994140625 982.36181640625 980.779235839844 979.453125 971.505859375 974.616638183594 981.585998535156 983.110412597656 982.786743164062 984.762756347656 988.779296875 984.258239746094 981.310852050781 980.448608398438 978.6015625 979.706176757812 989.154052734375 987.850463867188 990.83544921875 988.243225097656 983.027038574219 981.635314941406 980.964050292969 970.654296875 967.250671386719 971.704040527344 981.745422363281 976.818725585938 982.430908203125 977.529968261719 976.757202148438 983.433288574219 982.882873535156 987.232116699219 989.565856933594 995.9990234375 999.472412109375 1002.25103759766 998.47265625 1002.18713378906 999.563659667969 991.087951660156 988.728332519531 995.966918945312 996.746276855469 1007.08996582031 1009.46215820312 1011.00360107422 1015.35424804688 1022.88317871094 1032.71716308594 1030.18176269531 1029.76159667969 1027.27819824219 1024.17919921875 1042.6484375 1040.36657714844 1059.77722167969 1056.24096679688 1060.14477539062 1071.32543945312 1081.36145019531 1092.87048339844 1098.06115722656 1101.74853515625 1115.63488769531 1120.93835449219 1130.45971679688 1138.32116699219 1150.17578125 1150.85144042969 1147.43542480469 1147.125
942.987487792969 943.082946777344 948.193176269531 962.264526367188 954.840454101562 952.787536621094 957.205505371094 955.535095214844 968.639099121094 968.901550292969 968.665344238281 968.779602050781 967.468078613281 976.767272949219 990.835998535156 987.151062011719 977.119812011719 969.202697753906 969.265686035156 972.294555664062 971.079467773438 965.946472167969 965.796997070312 970.461669921875 965.925964355469 966.8544921875 975.897277832031 977.754638671875 979.196899414062 983.584838867188 978.677307128906 977.641906738281 977.927856445312 984.731323242188 968.905883789062 969.060852050781 968.820251464844 967.512145996094 968.731811523438 977.470581054688 976.414123535156 973.478698730469 960.998962402344 957.887512207031 961.558776855469 959.481750488281 961.023010253906 970.235229492188 974.131286621094 971.408203125 970.404418945312 967.438171386719 960.033264160156 967.903076171875 972.634399414062 972.406860351562 970.163146972656 968.116577148438 972.905090332031 983.099548339844 982.337158203125 971.727783203125 967.731689453125 975.556396484375 972.158447265625 971.972961425781 978.76171875 972.898620605469 972.386108398438 972.588928222656 965.449279785156 956.6171875 954.131164550781 964.544738769531 968.102478027344 976.380249023438 970.01318359375 977.455810546875 978.271301269531 980.991394042969 970.457092285156 977.816284179688 982.883056640625 979.156494140625 979.444458007812 984.727661132812 981.671203613281 977.371826171875 979.610534667969 979.884521484375 979.036743164062 971.270324707031 976.849304199219 986.312683105469 981.139526367188 989.624145507812 992.86669921875 976.953918457031 981.871887207031 978.124572753906 973.082580566406 954.569274902344 972.828125 973.849487304688 978.008850097656 977.151672363281 986.65625 979.793762207031 982.315246582031 988.481506347656 993.832336425781 995.032897949219 998.943908691406 1004.02069091797 999.372436523438 1005.79711914062 1004.31311035156 1003.42944335938 1002.40856933594 990.230529785156 998.321716308594 1012.88323974609 1010.97528076172 1014.47100830078 1017.44140625 1021.03985595703 1026.37426757812 1034.09204101562 1034.23559570312 1027.26293945312 1025.67651367188 1028.28063964844 1038.60107421875 1047.31896972656 1053.89135742188 1062.22998046875 1060.64807128906 1071.9248046875 1091.81066894531 1099.90881347656 1108.05505371094 1110.09460449219 1116.84338378906 1128.47277832031 1138.85754394531 1151.10510253906 1159.24560546875 1161.24780273438 1148.84057617188 1155.06335449219
948.971557617188 946.714782714844 950.847473144531 957.432922363281 956.605224609375 965.508911132812 960.364135742188 966.49755859375 965.136413574219 971.681884765625 965.643005371094 962.277893066406 958.947814941406 972.348815917969 989.363403320312 980.472778320312 975.987365722656 970.169128417969 969.456176757812 969.711059570312 961.693908691406 966.67919921875 963.533447265625 961.853271484375 969.114013671875 971.619506835938 975.280883789062 975.77099609375 971.902526855469 976.477478027344 969.376892089844 972.321105957031 977.824768066406 973.705261230469 972.004089355469 968.345336914062 967.960205078125 966.751281738281 974.706359863281 970.84375 969.121887207031 959.819519042969 955.037658691406 950.474487304688 953.849853515625 955.939086914062 966.104797363281 973.969360351562 971.09228515625 969.341857910156 972.256164550781 963.00439453125 966.308410644531 961.504516601562 972.336120605469 975.0751953125 963.551635742188 959.698669433594 979.248840332031 984.950256347656 985.067565917969 978.525634765625 980.704895019531 982.900695800781 969.00537109375 971.765441894531 973.609375 974.807861328125 975.691040039062 968.219299316406 968.306030273438 957.587646484375 957.127319335938 967.585693359375 967.945556640625 967.318664550781 969.792602539062 972.19482421875 973.812194824219 977.186279296875 976.13134765625 969.821166992188 972.8837890625 977.624328613281 979.405639648438 980.338134765625 977.856628417969 979.812377929688 978.744079589844 980.574157714844 979.012390136719 984.101257324219 977.685485839844 973.01611328125 979.327087402344 985.879272460938 984.448059082031 981.100708007812 976.542358398438 969.666931152344 974.935974121094 973.780883789062 975.164855957031 970.624328613281 974.636779785156 980.234252929688 989.40673828125 985.11865234375 1000.39013671875 992.248901367188 1001.11773681641 997.727600097656 996.686706542969 999.730529785156 1002.30914306641 998.341857910156 1001.41333007812 1008.65637207031 1005.50860595703 1002.01318359375 1005.71002197266 1010.29913330078 1012.31451416016 1010.92034912109 1017.95648193359 1024.83959960938 1030.51892089844 1034.57653808594 1032.23400878906 1028.56945800781 1034.34753417969 1042.74670410156 1041.51513671875 1048.12109375 1052.58532714844 1063.56372070312 1073.67053222656 1078.9697265625 1092.66027832031 1104.46948242188 1104.68090820312 1119.87292480469 1114.43225097656 1131.0244140625 1150.89562988281 1158.05065917969 1163.05737304688 1170.59252929688 1168.51770019531 1161.10437011719
939.948303222656 950.731140136719 956.02490234375 961.775451660156 958.345458984375 969.059631347656 970.172058105469 969.676513671875 960.099243164062 970.415405273438 963.230285644531 968.941528320312 967.122985839844 968.562683105469 983.699157714844 981.014587402344 981.567810058594 971.978820800781 967.385803222656 965.313293457031 963.332641601562 963.005187988281 951.618469238281 953.147033691406 961.928161621094 972.034484863281 979.25244140625 976.7109375 975.595642089844 975.416809082031 975.0341796875 967.147766113281 977.338562011719 975.812561035156 971.435546875 973.394592285156 966.494812011719 964.59326171875 971.381103515625 969.594665527344 968.04345703125 959.1669921875 953.462890625 954.96923828125 955.164001464844 956.653381347656 966.596801757812 969.864685058594 972.8232421875 978.802429199219 973.407470703125 971.033142089844 968.137023925781 956.026794433594 959.794311523438 975.066528320312 966.179748535156 967.133850097656 973.628051757812 977.259826660156 972.18212890625 977.218688964844 969.836791992188 978.120849609375 973.393371582031 965.690124511719 966.552673339844 974.871459960938 980.776550292969 973.93701171875 963.986328125 961.980651855469 961.316955566406 961.113342285156 960.658569335938 971.118103027344 973.570739746094 974.989135742188 967.671447753906 967.023559570312 970.600036621094 965.326843261719 976.477966308594 970.82080078125 967.611999511719 967.774475097656 970.5478515625 982.164428710938 983.256164550781 983.257629394531 978.881958007812 985.598510742188 981.127624511719 973.8369140625 981.098815917969 982.458801269531 975.314819335938 975.637878417969 971.466064453125 968.479187011719 971.084411621094 968.982055664062 976.506774902344 971.557739257812 986.039245605469 984.341369628906 995.000671386719 991.76513671875 984.4482421875 983.954895019531 992.39111328125 994.993835449219 1002.64099121094 999.281311035156 1009.27844238281 1010.80444335938 1010.31481933594 1008.0517578125 1011.01983642578 1015.10070800781 1009.74493408203 1009.84771728516 1015.47479248047 1017.84545898438 1029.65112304688 1030.63061523438 1032.86694335938 1033.89831542969 1032.92150878906 1027.04052734375 1035.74462890625 1041.6611328125 1047.18310546875 1056.10278320312 1059.91979980469 1074.84594726562 1082.86254882812 1084.68530273438 1097.37463378906 1110.30017089844 1113.33752441406 1124.765625 1119.39978027344 1136.5751953125 1148.7490234375 1159.05578613281 1165.24572753906 1164.38525390625 1172.75280761719 1166.65856933594
941.609985351562 945.774780273438 952.885498046875 956.158264160156 964.602355957031 964.690185546875 970.5498046875 969.552917480469 971.463439941406 976.208679199219 973.964538574219 974.548828125 971.541076660156 982.181030273438 984.164245605469 982.382995605469 983.246948242188 977.348999023438 972.213806152344 970.981628417969 969.15673828125 968.638305664062 950.903076171875 951.131286621094 959.853332519531 971.642395019531 975.887145996094 982.122985839844 980.598693847656 975.898376464844 971.862609863281 974.492736816406 971.655151367188 966.466003417969 976.402587890625 983.305236816406 972.776428222656 962.163696289062 960.459106445312 966.310180664062 972.011291503906 969.063354492188 966.109802246094 958.021484375 953.935729980469 958.394958496094 967.5439453125 969.344482421875 971.745727539062 973.737731933594 969.035522460938 974.407409667969 967.428588867188 963.56591796875 963.442932128906 961.72900390625 973.713195800781 966.251647949219 971.666259765625 983.283386230469 977.438110351562 983.32421875 967.74169921875 971.133850097656 976.068237304688 965.129028320312 965.742797851562 977.86865234375 981.01171875 976.311157226562 968.598510742188 965.039916992188 965.725463867188 966.430236816406 970.174072265625 970.289367675781 968.413940429688 975.246459960938 972.296813964844 968.730407714844 965.812683105469 973.18408203125 976.284484863281 976.755981445312 980.031555175781 975.084838867188 970.199462890625 983.151977539062 994.080078125 974.595581054688 972.484130859375 978.982543945312 978.357543945312 973.94482421875 977.917785644531 978.184509277344 983.936767578125 978.754089355469 973.240661621094 970.121337890625 978.161010742188 973.818481445312 981.001708984375 983.091796875 989.063110351562 986.763793945312 989.918518066406 986.757385253906 989.305358886719 987.530395507812 996.001647949219 997.616516113281 1002.59930419922 1002.12463378906 1005.3955078125 1003.06091308594 1007.16656494141 1007.56610107422 1015.63049316406 1010.44012451172 1008.77044677734 1009.69134521484 1021.2119140625 1023.14282226562 1029.47863769531 1023.59027099609 1038.11877441406 1037.93347167969 1038.09143066406 1042.32421875 1047.56945800781 1045.12902832031 1051.439453125 1059.8935546875 1075.99597167969 1085.54602050781 1090.37060546875 1096.07739257812 1109.25988769531 1114.86950683594 1115.55725097656 1120.74877929688 1123.90417480469 1145.71423339844 1149.99353027344 1148.2353515625 1152.25964355469 1160.55822753906 1166.12915039062 1157.2099609375
948.686401367188 950.070251464844 951.486511230469 959.117919921875 960.807922363281 968.757263183594 966.122863769531 969.039306640625 965.736450195312 975.411315917969 979.044311523438 980.571533203125 976.58203125 977.2578125 981.508666992188 972.740051269531 976.94580078125 974.2998046875 975.245422363281 968.802307128906 973.402404785156 969.519348144531 954.896484375 953.626647949219 950.69677734375 964.763366699219 968.15771484375 970.775939941406 970.741333007812 972.716064453125 967.357482910156 970.563842773438 966.071472167969 976.039001464844 970.893188476562 970.790588378906 961.503723144531 957.053833007812 962.952270507812 966.63427734375 971.395202636719 968.168823242188 961.02490234375 959.295959472656 962.374572753906 963.1796875 974.21484375 968.648132324219 969.988952636719 976.25341796875 974.22119140625 980.432434082031 971.678955078125 968.89111328125 963.389465332031 963.8505859375 970.175842285156 972.709777832031 974.872741699219 985.7978515625 977.194030761719 977.524230957031 966.213317871094 973.011962890625 966.11865234375 963.430725097656 963.314331054688 971.857788085938 967.815673828125 971.164306640625 966.634094238281 965.365966796875 967.594055175781 974.202392578125 978.037475585938 980.125244140625 973.523132324219 971.4091796875 969.258422851562 968.628479003906 966.215209960938 967.978759765625 965.942199707031 975.487976074219 975.955749511719 979.287475585938 964.596374511719 985.894104003906 983.768981933594 972.937805175781 972.76025390625 976.845153808594 972.812744140625 976.998229980469 976.577026367188 978.792907714844 980.410583496094 978.893676757812 981.564392089844 979.095764160156 977.523742675781 974.623962402344 978.802062988281 988.372741699219 996.959899902344 997.673217773438 994.455627441406 992.159729003906 993.519592285156 990.157348632812 995.996765136719 1003.33612060547 1001.73883056641 998.584106445312 1004.68084716797 1003.19677734375 1005.80725097656 1010.13494873047 1012.04864501953 1011.68023681641 1000.04895019531 1015.74505615234 1017.43475341797 1028.92614746094 1030.19177246094 1038.18212890625 1039.04467773438 1037.8466796875 1037.19641113281 1043.30651855469 1041.55200195312 1045.34216308594 1049.25744628906 1067.78881835938 1076.41430664062 1086.89453125 1094.646484375 1095.78259277344 1101.97265625 1113.8515625 1117.28063964844 1124.12231445312 1117.94189453125 1126.37170410156 1138.93334960938 1143.35168457031 1148.28503417969 1152.57312011719 1152.21801757812 1152.12951660156
954.479797363281 944.295349121094 946.604919433594 952.648620605469 952.319091796875 964.314697265625 971.684692382812 973.352844238281 966.553649902344 978.619812011719 969.466247558594 979.053283691406 981.348815917969 981.227722167969 973.06982421875 973.46630859375 973.547241210938 973.189392089844 965.561279296875 973.554382324219 974.451477050781 971.701538085938 965.841979980469 961.031311035156 946.501342773438 949.572326660156 954.826232910156 968.233703613281 973.406555175781 971.130615234375 968.73583984375 968.208618164062 969.055053710938 969.264587402344 973.259704589844 969.698608398438 957.204528808594 953.359802246094 963.053466796875 963.937622070312 964.190246582031 955.025146484375 956.851684570312 958.735900878906 964.443359375 959.091857910156 969.718627929688 971.389831542969 971.124206542969 970.58203125 967.089477539062 972.234985351562 973.293640136719 963.418762207031 958.384643554688 956.017761230469 970.25732421875 968.165893554688 965.969299316406 970.485656738281 980.4921875 965.355346679688 963.732849121094 956.515319824219 954.818664550781 963.952575683594 969.983825683594 957.808227539062 955.679870605469 964.181030273438 963.925354003906 966.223449707031 971.178466796875 968.171264648438 971.459045410156 977.913513183594 970.60107421875 971.568115234375 970.018615722656 968.360168457031 969.476257324219 961.990966796875 965.361633300781 969.884826660156 983.18505859375 972.228576660156 963.916625976562 964.700805664062 971.315185546875 968.283081054688 972.202453613281 974.126525878906 972.141052246094 973.214965820312 978.107482910156 974.567504882812 975.45458984375 975.539489746094 975.226440429688 973.884582519531 971.842956542969 967.110290527344 973.270324707031 984.603332519531 987.93701171875 997.931213378906 999.342468261719 1000.75140380859 997.980834960938 988.051147460938 987.387268066406 991.305541992188 995.442504882812 994.045837402344 996.213745117188 1000.32940673828 1005.96246337891 1017.70452880859 1011.89428710938 1005.53179931641 1021.01452636719 1023.1318359375 1025.37939453125 1026.86499023438 1034.06323242188 1039.72814941406 1044.0107421875 1042.66796875 1049.23474121094 1053.08666992188 1042.97045898438 1057.55114746094 1056.64221191406 1070.60913085938 1086.15307617188 1085.55151367188 1092.0810546875 1090.63989257812 1099.1201171875 1112.96899414062 1116.9150390625 1125.46594238281 1124.91625976562 1115.63562011719 1121.79541015625 1122.54797363281 1135.73864746094 1144.64819335938 1144.349609375 1140.39099121094
954.876953125 943.302551269531 947.15673828125 949.715515136719 960.674865722656 965.975402832031 979.164184570312 977.010620117188 969.433837890625 978.950317382812 976.165405273438 972.381164550781 980.526000976562 989.642395019531 976.840270996094 968.821899414062 967.547973632812 974.875671386719 974.45654296875 963.736083984375 968.950500488281 970.546752929688 969.521606445312 963.343383789062 956.232116699219 952.802551269531 954.988159179688 962.417175292969 966.69140625 972.857116699219 971.727661132812 975.560119628906 961.892272949219 965.360534667969 963.809265136719 964.861022949219 964.550903320312 960.82275390625 958.055969238281 959.016296386719 960.845886230469 959.655700683594 951.928833007812 957.113342285156 965.108520507812 969.847778320312 979.961303710938 971.045837402344 961.707702636719 968.829895019531 968.942260742188 964.342163085938 959.473815917969 959.008239746094 961.039367675781 963.191528320312 972.39013671875 972.620056152344 974.658264160156 970.509460449219 964.920043945312 957.981872558594 957.506591796875 959.793701171875 958.268249511719 962.317810058594 955.2744140625 952.37353515625 954.655578613281 957.325622558594 962.606079101562 969.868225097656 967.695007324219 967.956970214844 974.178161621094 966.409973144531 961.216430664062 967.405639648438 962.485412597656 967.087036132812 964.901306152344 967.597412109375 966.208801269531 969.590576171875 974.062377929688 972.105224609375 968.434509277344 969.080505371094 970.036865234375 970.679504394531 968.370666503906 965.053039550781 982.114685058594 974.263977050781 972.794677734375 969.963439941406 972.76953125 974.351135253906 983.120910644531 974.749816894531 973.008850097656 971.859985351562 981.561645507812 992.725524902344 981.64697265625 994.6103515625 997.5888671875 1003.10107421875 995.340454101562 993.144836425781 986.042785644531 986.540588378906 994.260559082031 1000.97631835938 1002.41986083984 1002.36157226562 1002.92016601562 1017.15576171875 1011.00720214844 1014.07904052734 1024.20544433594 1025.85986328125 1032.70458984375 1029.99890136719 1040.59509277344 1029.15283203125 1027.5283203125 1042.46765136719 1044.58935546875 1042.49560546875 1045.96350097656 1054.97912597656 1063.23010253906 1075.47595214844 1081.48962402344 1091.39599609375 1092.5439453125 1093.66198730469 1092.07873535156 1101.27551269531 1109.39599609375 1118.8671875 1117.96728515625 1107.06494140625 1113.02392578125 1116.642578125 1125.13830566406 1134.40405273438 1132.83435058594 1133.92053222656
959.328735351562 954.81787109375 961.548095703125 963.308288574219 969.883361816406 970.3232421875 970.548828125 978.312194824219 977.159484863281 986.843322753906 975.447570800781 973.39697265625 979.589233398438 975.458740234375 976.456298828125 971.485717773438 962.562805175781 958.332458496094 971.818725585938 967.511352539062 965.001708984375 969.285949707031 965.691223144531 963.292846679688 962.151916503906 958.789245605469 959.766967773438 968.284057617188 965.0908203125 975.554077148438 971.63525390625 973.544494628906 968.117370605469 965.027099609375 965.674011230469 961.275024414062 964.939514160156 960.327331542969 958.812622070312 954.7578125 962.0263671875 966.043518066406 960.414489746094 960.669677734375 959.622619628906 962.364196777344 966.294738769531 957.389770507812 956.205444335938 956.819396972656 965.455322265625 968.332885742188 958.740295410156 964.794494628906 963.145812988281 967.265563964844 971.414428710938 970.014770507812 970.280334472656 966.633361816406 968.555541992188 960.266723632812 948.44384765625 953.155090332031 954.802368164062 961.029479980469 960.435546875 951.627807617188 957.836181640625 960.409301757812 965.033630371094 963.515380859375 965.740844726562 967.841247558594 968.066162109375 960.364013671875 961.346374511719 957.668640136719 953.005249023438 963.00439453125 959.410705566406 965.800231933594 963.2998046875 971.332824707031 976.107116699219 976.807250976562 978.286560058594 975.998657226562 973.058044433594 966.550659179688 976.129516601562 976.470947265625 976.847900390625 978.224365234375 977.614318847656 985.590209960938 975.339538574219 963.205932617188 970.613342285156 977.365539550781 973.887084960938 972.125366210938 973.218444824219 977.650390625 972.243041992188 986.107116699219 992.947692871094 993.7724609375 990.196228027344 991.959289550781 993.772094726562 995.347595214844 1000.12036132812 997.048400878906 996.13134765625 1001.90441894531 1009.54418945312 1014.62536621094 1022.38232421875 1023.39233398438 1032.474609375 1039.552734375 1035.21875 1036.97521972656 1027.61901855469 1031.14416503906 1029.69860839844 1043.95361328125 1044.70166015625 1045.83959960938 1052.69763183594 1059.99755859375 1066.84716796875 1072.37255859375 1088.06188964844 1096.00122070312 1090.43688964844 1091.3466796875 1096.41418457031 1099.34936523438 1108.45495605469 1116.78234863281 1116.30883789062 1114.17492675781 1101.71472167969 1103.53564453125 1122.93725585938 1123.96838378906 1123.48461914062 1133.65637207031
954.414794921875 966.093444824219 971.037658691406 974.415283203125 969.827026367188 968.240539550781 970.602966308594 972.273254394531 980.57421875 977.636901855469 978.906860351562 973.534729003906 975.1025390625 968.921813964844 970.443908691406 964.9345703125 965.158264160156 961.974487304688 966.819274902344 967.83056640625 961.987121582031 965.153747558594 959.518005371094 964.642700195312 962.915100097656 960.015563964844 959.607727050781 966.075439453125 966.739562988281 975.051452636719 968.713989257812 969.812255859375 964.5693359375 960.006408691406 963.322692871094 967.681335449219 964.6572265625 958.138549804688 960.978332519531 959.668212890625 958.529479980469 965.116149902344 964.322265625 955.829284667969 957.189453125 959.048400878906 955.484252929688 949.47900390625 947.092651367188 960.670349121094 968.804504394531 969.344482421875 960.957763671875 960.218078613281 965.964782714844 965.215698242188 971.245788574219 967.231811523438 966.452880859375 962.471313476562 966.257629394531 963.326599121094 954.007568359375 946.929809570312 945.436584472656 952.422241210938 965.406799316406 965.376892089844 961.126831054688 962.25244140625 964.028930664062 969.227294921875 968.040893554688 973.430358886719 969.513000488281 964.135375976562 962.713256835938 958.1923828125 956.062377929688 960.138427734375 965.648254394531 958.374694824219 959.194396972656 962.760559082031 971.231262207031 972.1171875 972.040344238281 970.834899902344 970.046203613281 969.656982421875 976.282531738281 978.370483398438 976.169616699219 979.415649414062 977.808898925781 977.620727539062 973.964050292969 975.228576660156 972.8779296875 973.760620117188 975.218505859375 977.906372070312 973.48828125 971.992065429688 978.10595703125 986.252990722656 983.437866210938 982.529296875 987.631713867188 985.978393554688 990.618225097656 997.02587890625 994.755065917969 992.992614746094 988.609741210938 1005.60205078125 1005.99328613281 1010.69842529297 1017.79943847656 1026.63562011719 1030.64367675781 1036.29260253906 1027.09594726562 1029.64123535156 1030.74682617188 1029.27612304688 1031.39758300781 1034.85974121094 1040.47705078125 1048.67370605469 1053.38854980469 1048.67358398438 1064.13342285156 1072.60217285156 1077.28308105469 1085.54711914062 1090.49963378906 1097.57275390625 1098.90478515625 1097.77209472656 1097.69384765625 1106.60668945312 1110.58337402344 1109.55200195312 1108.67358398438 1102.82873535156 1101.21875 1110.76977539062 1111.45910644531 1124.87414550781
957.837158203125 964.498901367188 972.603759765625 971.641296386719 979.618103027344 975.284362792969 967.975524902344 969.482788085938 980.3564453125 971.906188964844 976.138366699219 974.338012695312 970.88427734375 973.454467773438 971.925720214844 967.295166015625 966.998779296875 967.797546386719 970.882995605469 965.443115234375 962.919921875 962.714599609375 965.96728515625 958.438293457031 965.213806152344 958.996154785156 963.439514160156 961.330749511719 967.073791503906 973.951965332031 972.640380859375 965.020324707031 966.890930175781 962.172973632812 966.046630859375 965.607604980469 960.021911621094 960.802551269531 954.911071777344 954.842163085938 957.60302734375 960.235473632812 961.766784667969 959.042419433594 954.095336914062 961.719543457031 953.0908203125 951.974060058594 945.514892578125 951.882934570312 957.340942382812 953.899963378906 960.9072265625 967.582275390625 961.12109375 964.881469726562 962.218444824219 973.160400390625 970.730712890625 960.828308105469 961.216064453125 958.31494140625 954.408752441406 952.066772460938 956.814575195312 952.309326171875 960.047607421875 960.021545410156 957.924438476562 957.231201171875 964.651733398438 961.842529296875 965.363098144531 972.4482421875 970.4130859375 966.143371582031 966.448425292969 961.742614746094 962.182006835938 954.059631347656 955.291625976562 950.868286132812 955.177062988281 962.891052246094 967.895690917969 974.078125 969.877624511719 967.933288574219 963.770568847656 965.508178710938 972.460693359375 976.868896484375 988.529663085938 979.585083007812 972.988891601562 970.108764648438 971.902038574219 964.57666015625 968.026916503906 971.893127441406 975.147094726562 977.882446289062 977.721496582031 974.801330566406 979.062316894531 988.670104980469 970.428100585938 972.948974609375 981.849792480469 983.402709960938 980.969116210938 984.795837402344 984.555358886719 983.446716308594 986.869750976562 994.835388183594 999.055358886719 1004.43389892578 1004.25915527344 1014.81689453125 1019.28497314453 1019.16735839844 1028.33764648438 1024.23828125 1022.23785400391 1014.8017578125 1025.87390136719 1028.68872070312 1039.04846191406 1047.97692871094 1053.49182128906 1056.44262695312 1062.7255859375 1076.22253417969 1080.5224609375 1089.01159667969 1091.09887695312 1096.72888183594 1100.04382324219 1091.796875 1089.400390625 1086.34582519531 1093.48974609375 1096.90832519531 1100.02893066406 1094.69775390625 1096.91821289062 1095.43310546875 1105.15869140625 1106.59069824219
966.761047363281 964.094482421875 970.869873046875 970.6201171875 976.710205078125 976.396850585938 981.8828125 980.593505859375 978.767456054688 972.183837890625 972.21630859375 973.598571777344 970.428588867188 970.060302734375 978.261291503906 973.575744628906 977.337463378906 974.614196777344 974.313293457031 969.931762695312 957.350341796875 958.751037597656 956.741394042969 958.166625976562 959.26513671875 953.438720703125 961.118103027344 963.507995605469 961.7255859375 970.583923339844 969.493408203125 965.510375976562 962.353088378906 954.499572753906 960.952453613281 955.080200195312 969.449279785156 969.802734375 959.458923339844 959.103088378906 959.652160644531 957.369262695312 950.012329101562 959.706787109375 957.996765136719 965.642883300781 954.035827636719 945.097229003906 944.895263671875 946.704528808594 947.469421386719 944.664978027344 956.299011230469 965.673034667969 969.881286621094 966.177490234375 963.782043457031 977.790588378906 965.66748046875 959.72265625 955.412902832031 958.104309082031 946.909301757812 954.018493652344 959.899658203125 957.352600097656 957.441345214844 953.326232910156 957.68994140625 957.851196289062 959.450439453125 965.630859375 966.102294921875 964.881774902344 962.226379394531 965.994873046875 963.858032226562 963.950134277344 959.3408203125 953.084167480469 950.530639648438 954.624450683594 962.347961425781 964.223449707031 968.068725585938 969.232177734375 967.791015625 962.994934082031 960.661376953125 963.748107910156 972.347534179688 981.604736328125 981.8447265625 981.713684082031 971.903747558594 968.353393554688 971.052490234375 964.979309082031 966.84619140625 976.187866210938 975.36328125 970.180236816406 971.812866210938 975.509643554688 979.408752441406 978.878356933594 979.72607421875 981.508178710938 985.730834960938 978.464233398438 979.367858886719 980.376342773438 981.241088867188 985.911254882812 989.733459472656 998.493469238281 1001.48474121094 1008.62658691406 1007.86706542969 1013.18054199219 1014.66735839844 1012.34826660156 1017.97314453125 1018.34875488281 1012.369140625 1016.19006347656 1015.71661376953 1019.32000732422 1029.14489746094 1037.88122558594 1049.37939453125 1056.07263183594 1067.53234863281 1075.95886230469 1093.02880859375 1084.44580078125 1091.31262207031 1095.42663574219 1094.68200683594 1088.60974121094 1083.95129394531 1084.28247070312 1081.6328125 1079.36303710938 1086.02917480469 1077.98962402344 1083.08752441406 1076.11743164062 1081.59313964844 1081.7080078125
962.575317382812 966.018676757812 973.978332519531 977.765319824219 977.852172851562 983.166198730469 979.682556152344 981.459838867188 974.783264160156 971.409484863281 965.555236816406 967.535278320312 971.085205078125 979.139465332031 978.733947753906 978.071838378906 982.184143066406 971.72705078125 968.693664550781 963.676208496094 962.939697265625 958.665222167969 954.66357421875 960.402587890625 958.324462890625 958.665161132812 960.431457519531 963.26318359375 964.117919921875 959.768005371094 960.957397460938 963.564575195312 961.287109375 961.6533203125 955.550109863281 959.277282714844 959.731201171875 958.775451660156 962.953186035156 960.838134765625 962.60009765625 953.204528808594 951.249938964844 955.196838378906 963.089050292969 966.11474609375 954.96826171875 937.292602539062 938.989135742188 941.170593261719 949.011901855469 942.853210449219 947.711242675781 958.356506347656 961.858825683594 947.960510253906 954.320190429688 966.1962890625 967.117858886719 955.393005371094 956.489196777344 952.592529296875 944.882507324219 952.456237792969 958.95361328125 957.890991210938 949.752746582031 958.053405761719 961.605346679688 955.814086914062 952.43359375 960.268249511719 969.192626953125 964.853637695312 964.904052734375 958.072998046875 969.292663574219 962.289672851562 970.660339355469 959.883117675781 963.033447265625 967.131103515625 970.998901367188 972.935424804688 974.371337890625 966.820922851562 966.031127929688 967.495422363281 966.118225097656 969.092712402344 967.153503417969 968.086303710938 975.908630371094 972.070495605469 967.218383789062 969.992797851562 971.187194824219 964.914978027344 977.817932128906 980.973815917969 971.483459472656 967.315185546875 969.661926269531 975.263671875 969.333740234375 973.953186035156 973.378173828125 978.03759765625 976.121398925781 982.220520019531 978.878784179688 986.296752929688 970.10595703125 985.965148925781 988.493774414062 985.620300292969 994.923583984375 1010.40631103516 1016.72491455078 1021.45349121094 1015.57769775391 1011.80853271484 1022.93640136719 1024.40576171875 1011.86535644531 1024.04797363281 1018.81530761719 1021.7392578125 1029.70788574219 1036.50598144531 1042.35595703125 1056.08093261719 1063.82568359375 1079.17822265625 1081.5322265625 1083.23864746094 1088.45239257812 1091.24182128906 1089.89379882812 1091.22509765625 1085.76953125 1080.13208007812 1070.91296386719 1076.572265625 1074.89294433594 1075.19323730469 1068.66906738281 1067.00231933594 1066.29968261719 1073.63244628906
954.508239746094 958.682922363281 971.462036132812 975.345031738281 970.101501464844 984.919494628906 978.083251953125 970.626770019531 971.124084472656 966.151123046875 956.198364257812 962.264770507812 966.878479003906 967.02880859375 971.673400878906 977.288757324219 976.730651855469 978.043029785156 971.728515625 965.262145996094 962.766662597656 960.47119140625 955.603759765625 950.255310058594 954.262023925781 962.001159667969 954.5419921875 949.250244140625 953.057983398438 958.512451171875 963.365173339844 968.847229003906 963.655639648438 967.822631835938 958.753051757812 965.873718261719 962.85986328125 960.696594238281 963.840026855469 964.457458496094 957.271606445312 959.040100097656 949.29638671875 960.445190429688 961.275573730469 962.224670410156 956.726684570312 955.60693359375 943.143249511719 939.362060546875 943.649841308594 945.690185546875 946.597290039062 952.074951171875 947.608276367188 948.72509765625 949.550964355469 959.956909179688 954.217407226562 956.562438964844 954.9990234375 951.07568359375 951.418518066406 945.591735839844 951.475219726562 958.27734375 955.837036132812 951.22021484375 955.151062011719 947.919921875 950.203979492188 961.534912109375 965.818481445312 957.085083007812 959.396362304688 959.196594238281 962.420349121094 963.261657714844 967.78857421875 961.219909667969 962.860778808594 963.744079589844 966.635925292969 973.09375 977.478271484375 970.951538085938 958.901550292969 956.061157226562 968.562133789062 969.396423339844 972.051330566406 971.35693359375 967.633911132812 968.149536132812 967.426940917969 970.493835449219 967.898681640625 976.670471191406 980.653930664062 983.017639160156 971.766357421875 971.946105957031 968.298461914062 972.823059082031 972.475280761719 972.948913574219 975.656555175781 976.070983886719 980.8564453125 981.954467773438 981.992431640625 990.15771484375 982.343994140625 991.530822753906 985.050231933594 982.163818359375 997.460266113281 1003.59600830078 1019.84411621094 1013.28063964844 1017.10101318359 1014.44403076172 1018.28576660156 1018.65350341797 1017.25030517578 1021.06390380859 1025.68286132812 1029.83703613281 1028.470703125 1030.49060058594 1046.41735839844 1059.62683105469 1065.27465820312 1064.41967773438 1080.65808105469 1084.66589355469 1085.73974609375 1083.83020019531 1086.13977050781 1074.05493164062 1073.56555175781 1078.06665039062 1076.89868164062 1070.09228515625 1070.25512695312 1059.88305664062 1060.86242675781 1059.12878417969 1060.28881835938 1066.43688964844
953.205261230469 958.595092773438 970.982421875 970.667053222656 976.773010253906 978.648620605469 972.741271972656 973.275939941406 974.838562011719 964.827575683594 955.022094726562 955.993713378906 959.251342773438 963.885009765625 975.819091796875 978.91455078125 977.194030761719 972.238037109375 963.347229003906 958.366455078125 955.905456542969 957.16357421875 954.826538085938 942.875183105469 945.359741210938 950.164367675781 956.361633300781 952.866821289062 959.946960449219 957.001647949219 956.426452636719 966.58349609375 954.689880371094 950.949340820312 966.2978515625 964.783386230469 965.991516113281 955.247924804688 954.036560058594 954.511596679688 961.188232421875 951.577087402344 959.036804199219 966.350952148438 958.289245605469 959.087219238281 958.658630371094 953.033630371094 951.373474121094 943.914978027344 938.822875976562 942.093139648438 941.933349609375 946.278564453125 948.598022460938 958.842163085938 951.881958007812 949.575012207031 949.957092285156 962.176208496094 959.032165527344 950.364379882812 955.736572265625 959.321838378906 957.378601074219 949.231811523438 945.777038574219 947.228088378906 950.238159179688 954.777954101562 959.917175292969 964.725524902344 959.5771484375 964.083435058594 961.202270507812 961.348937988281 962.072387695312 963.130981445312 965.867553710938 957.04736328125 959.664855957031 966.285583496094 958.708068847656 965.804992675781 968.33251953125 971.5322265625 969.240539550781 963.362121582031 958.265869140625 970.699584960938 966.588134765625 961.479614257812 958.455200195312 956.556884765625 962.101318359375 971.666320800781 978.470947265625 980.598083496094 982.009094238281 974.178466796875 971.57861328125 964.238342285156 975.245849609375 979.486694335938 977.766723632812 979.827331542969 983.944152832031 965.916442871094 976.537048339844 980.866333007812 984.315246582031 989.66455078125 994.915466308594 995.111328125 995.884704589844 994.529235839844 1000.79547119141 1004.11700439453 1015.73229980469 1013.63464355469 1019.99114990234 1018.2529296875 1012.95721435547 1009.98101806641 1014.48815917969 1025.99536132812 1031.951171875 1031.48217773438 1027.05297851562 1039.97155761719 1049.525390625 1058.14111328125 1061.63903808594 1063.22180175781 1081.50793457031 1085.93420410156 1088.99291992188 1074.34594726562 1077.02661132812 1067.330078125 1066.92517089844 1061.74523925781 1065.5986328125 1064.3466796875 1059.00598144531 1063.49047851562 1063.91320800781 1057.82055664062 1060.34887695312 1062.35290527344
956.25341796875 958.707275390625 966.772155761719 970.093078613281 975.603088378906 975.351867675781 973.49658203125 968.849914550781 967.664428710938 964.033264160156 967.78857421875 954.927185058594 960.693359375 966.388427734375 962.595520019531 983.015014648438 976.930053710938 975.760925292969 963.439086914062 964.886779785156 960.589782714844 960.033813476562 950.143249511719 948.786926269531 945.750427246094 948.778137207031 960.299011230469 955.858215332031 956.543823242188 958.316833496094 947.625915527344 954.616577148438 959.16845703125 960.102661132812 958.989440917969 963.128540039062 954.885559082031 960.022277832031 955.773498535156 956.864562988281 957.602966308594 959.128662109375 959.101623535156 955.810302734375 956.181701660156 953.951965332031 950.659301757812 947.052612304688 949.641357421875 953.889282226562 947.926452636719 945.948303222656 938.9267578125 945.738159179688 950.485473632812 953.338134765625 956.251342773438 957.250427246094 964.059326171875 964.800415039062 959.751098632812 960.830017089844 954.522888183594 957.136413574219 957.048522949219 951.164672851562 949.351318359375 952.518676757812 953.320495605469 960.870239257812 961.32666015625 962.6728515625 966.567077636719 961.330932617188 954.90625 965.555358886719 964.69189453125 963.459167480469 961.437377929688 964.244384765625 966.698547363281 964.590087890625 959.270263671875 959.718200683594 969.317932128906 971.11181640625 966.516174316406 971.465270996094 966.472229003906 965.456726074219 963.052001953125 969.734130859375 963.521484375 972.763610839844 973.307373046875 979.753662109375 974.681213378906 983.377563476562 975.679443359375 979.473388671875 973.895446777344 971.136535644531 975.063659667969 975.053039550781 973.2841796875 980.640747070312 984.17724609375 971.986694335938 981.642211914062 992.977111816406 992.844787597656 997.543151855469 991.380126953125 993.656860351562 995.774780273438 992.385375976562 1003.17504882812 1007.41247558594 1014.65032958984 1018.80139160156 1015.70928955078 1017.67095947266 1015.40051269531 1013.75 1016.71514892578 1022.00628662109 1031.30749511719 1025.85876464844 1036.12683105469 1038.17761230469 1048.92602539062 1048.10974121094 1053.93371582031 1056.82763671875 1065.85778808594 1081.50805664062 1078.31225585938 1074.63562011719 1070.994140625 1066.56091308594 1048.54553222656 1046.66809082031 1049.88903808594 1049.974609375 1045.533203125 1061.42590332031 1049.39208984375 1055.75769042969 1054.94030761719 1063.04223632812
961.079772949219 957.776550292969 966.88525390625 973.233581542969 980.658020019531 970.793823242188 968.470825195312 966.061706542969 961.337768554688 963.220458984375 963.896728515625 958.589477539062 961.710205078125 955.21240234375 960.176696777344 960.801452636719 966.085266113281 971.205139160156 968.879638671875 961.14892578125 952.942260742188 955.671752929688 956.220703125 949.693420410156 957.890380859375 959.839660644531 965.223205566406 955.420227050781 942.10302734375 943.396545410156 947.385925292969 959.998657226562 958.653076171875 956.304992675781 955.718566894531 948.458312988281 950.106994628906 951.55615234375 946.4072265625 953.488098144531 950.661315917969 956.965026855469 955.471618652344 962.097473144531 956.688232421875 947.790832519531 946.369384765625 944.400329589844 951.881652832031 954.975708007812 958.445983886719 955.213928222656 947.096984863281 953.518371582031 947.713806152344 953.850524902344 958.295715332031 965.594116210938 957.315856933594 963.271545410156 957.763061523438 956.311157226562 959.151916503906 958.571228027344 955.863220214844 949.753356933594 955.969909667969 965.780029296875 961.885375976562 959.247680664062 960.515075683594 961.780334472656 961.3759765625 957.189636230469 959.834350585938 962.115417480469 969.7646484375 969.683227539062 969.772277832031 967.867858886719 967.221740722656 971.006103515625 970.782348632812 971.382507324219 971.506469726562 968.762451171875 971.954956054688 965.538757324219 963.356994628906 958.095153808594 962.869445800781 966.279296875 963.728149414062 976.8759765625 982.120544433594 978.449462890625 980.199462890625 978.726135253906 975.031982421875 975.818420410156 974.945556640625 978.40478515625 975.768615722656 972.463806152344 972.21630859375 975.914672851562 980.289123535156 975.37451171875 981.346130371094 989.492980957031 996.076232910156 1004.81884765625 1003.17797851562 992.751586914062 995.067749023438 1002.14422607422 1000.51782226562 1007.61676025391 1003.87701416016 1013.67413330078 1011.52355957031 1001.17083740234 1020.05609130859 1013.50299072266 1017.85729980469 1023.25543212891 1028.02319335938 1030.58874511719 1034.45751953125 1042.87658691406 1051.56506347656 1052.96948242188 1060.06994628906 1062.20727539062 1071.14733886719 1077.50537109375 1068.30676269531 1068.16394042969 1062.61499023438 1057.1357421875 1047.67456054688 1043.75695800781 1043.17199707031 1038.6962890625 1041.29272460938 1042.3046875 1053.25732421875 1053.88305664062 1048.86804199219 1051.61975097656
951.668151855469 963.108032226562 966.607604980469 967.989990234375 964.976928710938 968.934204101562 968.723388671875 961.408264160156 962.064819335938 963.055786132812 961.837219238281 959.977233886719 964.194702148438 963.989624023438 956.248779296875 964.082153320312 960.919677734375 964.377136230469 961.614135742188 956.198181152344 955.641967773438 952.473388671875 952.570739746094 950.450988769531 957.892517089844 960.806884765625 955.358276367188 951.309936523438 945.461059570312 945.456848144531 948.46484375 961.15478515625 957.414245605469 953.20849609375 952.7734375 942.354064941406 947.920104980469 950.542053222656 946.83544921875 951.055480957031 962.436401367188 964.264587402344 958.133483886719 958.547912597656 964.0751953125 955.293823242188 947.815490722656 946.228393554688 944.511413574219 952.998779296875 950.729431152344 941.374328613281 952.935668945312 956.245544433594 958.353149414062 957.284973144531 954.233581542969 962.016723632812 960.033569335938 955.215087890625 957.057250976562 963.428100585938 963.444274902344 958.639526367188 954.060607910156 955.375366210938 962.901489257812 961.440734863281 955.68798828125 956.192443847656 959.774230957031 965.613037109375 965.973754882812 965.682861328125 960.748657226562 957.166015625 964.237243652344 967.721130371094 963.628540039062 962.069702148438 970.100158691406 969.916381835938 971.2666015625 968.580993652344 973.046447753906 977.782043457031 975.119995117188 964.702514648438 964.426330566406 964.359924316406 968.658447265625 968.966857910156 970.711853027344 972.121337890625 978.741394042969 975.732116699219 974.130676269531 973.186218261719 979.706970214844 970.448547363281 975.903686523438 979.850463867188 980.973876953125 971.927124023438 968.904174804688 979.802001953125 969.830932617188 974.044250488281 985.6640625 990.20751953125 1001.03930664062 1003.76898193359 1003.95874023438 1002.08770751953 1000.90319824219 994.279418945312 999.071655273438 998.437133789062 1003.53704833984 1011.59582519531 1007.50903320312 1003.54577636719 1010.90405273438 1018.10717773438 1020.15850830078 1023.75067138672 1024.39953613281 1030.02954101562 1035.59741210938 1053.21630859375 1053.10375976562 1053.31384277344 1065.79504394531 1065.46887207031 1063.94689941406 1063.70654296875 1068.86987304688 1064.34240722656 1051.98034667969 1050.15612792969 1043.79467773438 1042.16711425781 1025.98852539062 1029.48828125 1032.14575195312 1029.85034179688 1042.77856445312 1048.58386230469 1042.82336425781 1041.62622070312
968.965087890625 967.901306152344 966.31640625 968.419677734375 958.047912597656 967.254821777344 971.495483398438 965.77001953125 964.299255371094 961.955993652344 961.591979980469 958.257751464844 961.060119628906 954.00244140625 952.308044433594 951.316528320312 950.835998535156 952.703674316406 955.539855957031 958.826416015625 954.158752441406 952.224243164062 959.035034179688 953.153686523438 950.557983398438 954.461547851562 956.636657714844 950.922973632812 953.711975097656 952.323608398438 940.861450195312 953.308471679688 954.322998046875 952.728698730469 947.019104003906 948.686828613281 936.951538085938 951.488708496094 950.57421875 958.953186035156 953.929260253906 959.931823730469 962.297119140625 959.933776855469 952.656127929688 944.338256835938 951.567749023438 951.744812011719 961.06103515625 959.554748535156 949.603759765625 951.787048339844 952.579162597656 958.020141601562 961.571899414062 958.595825195312 958.751708984375 969.327758789062 971.102294921875 960.302185058594 969.082946777344 961.020568847656 955.701171875 951.680358886719 949.826904296875 961.950256347656 956.922668457031 953.566345214844 957.296264648438 963.943725585938 960.157409667969 958.000244140625 959.418579101562 961.786071777344 958.351196289062 959.794372558594 960.590637207031 955.828369140625 961.92041015625 961.307189941406 966.08935546875 975.459716796875 967.331787109375 970.157653808594 975.327392578125 970.281677246094 976.379943847656 966.982055664062 967.868408203125 967.266723632812 969.996704101562 972.854858398438 973.689697265625 973.236083984375 969.647521972656 981.051696777344 974.603942871094 978.481201171875 980.904602050781 972.229553222656 983.313781738281 981.04443359375 980.29541015625 969.507385253906 970.142211914062 980.162841796875 981.144226074219 971.269714355469 978.395812988281 993.646728515625 1003.04608154297 998.388427734375 1003.95007324219 1002.81024169922 992.566955566406 996.13623046875 1004.27294921875 1001.16217041016 1000.38061523438 999.034423828125 1001.33459472656 998.031555175781 998.457153320312 1007.63787841797 1015.96380615234 1017.87628173828 1026.60534667969 1037.38208007812 1038.57153320312 1041.97778320312 1040.8984375 1049.34143066406 1056.36474609375 1054.27294921875 1057.9697265625 1064.19250488281 1070.5556640625 1067.22790527344 1050.82897949219 1050.4541015625 1036.94775390625 1037.01586914062 1031.29443359375 1029.91357421875 1021.58972167969 1030.30895996094 1035.07836914062 1037.34057617188 1046.93151855469 1055.70874023438
956.250915527344 962.132751464844 958.458435058594 959.859924316406 953.59033203125 961.961059570312 961.149780273438 963.816772460938 957.545166015625 962.991516113281 956.2666015625 964.031982421875 949.216735839844 950.432434082031 948.302673339844 947.191223144531 945.554504394531 953.968505859375 955.211181640625 954.004028320312 955.91552734375 942.758239746094 943.98095703125 953.573486328125 952.083801269531 951.946472167969 948.355834960938 947.915405273438 952.463806152344 951.063842773438 947.064819335938 953.936279296875 950.969970703125 945.647033691406 948.927795410156 938.239318847656 935.038513183594 944.949523925781 964.443542480469 968.97900390625 957.077819824219 952.746704101562 948.052856445312 947.623352050781 949.41015625 955.209777832031 951.77490234375 956.661865234375 964.217590332031 960.168029785156 952.983215332031 956.0556640625 955.318298339844 954.899353027344 961.033569335938 965.986083984375 964.763549804688 967.0166015625 971.857116699219 966.319091796875 961.940551757812 952.270324707031 954.312744140625 947.653930664062 958.068176269531 966.578796386719 959.380554199219 951.247131347656 963.498474121094 965.078857421875 966.285888671875 954.409545898438 966.487487792969 966.516174316406 968.325439453125 959.245483398438 948.837219238281 968.652893066406 968.222961425781 973.896423339844 964.203125 968.616760253906 974.529052734375 968.122253417969 979.544677734375 978.789855957031 980.113403320312 978.720397949219 978.132202148438 976.728149414062 970.1552734375 967.370422363281 974.244140625 970.589172363281 964.449279785156 970.292541503906 975.911804199219 979.748352050781 980.188110351562 978.003967285156 978.327819824219 983.4970703125 982.37646484375 974.186645507812 972.186279296875 977.926086425781 979.910461425781 984.236572265625 990.462768554688 1002.18560791016 993.627868652344 984.482238769531 992.548400878906 995.615295410156 985.751708984375 996.61376953125 998.588439941406 1006.33319091797 1002.21551513672 998.725158691406 992.917541503906 989.24169921875 995.236755371094 1000.37463378906 1003.99774169922 1011.69647216797 1027.49255371094 1031.31823730469 1040.22570800781 1045.95446777344 1047.33996582031 1054.04858398438 1050.41015625 1046.96704101562 1053.40368652344 1061.6015625 1058.25598144531 1048.81909179688 1055.65979003906 1048.61840820312 1039.78942871094 1037.74816894531 1033.72387695312 1032.607421875 1015.28656005859 1018.19500732422 1021.84838867188 1022.80603027344 1036.63989257812 1045.26928710938
957.870544433594 950.916381835938 950.197326660156 952.410217285156 961.757019042969 961.716552734375 954.979248046875 959.126708984375 962.7099609375 955.23681640625 957.224426269531 961.480651855469 947.085021972656 942.359985351562 942.584594726562 949.550231933594 946.518127441406 948.016174316406 947.157836914062 951.126831054688 948.410888671875 943.136962890625 941.011779785156 953.828430175781 954.051391601562 944.225463867188 949.856384277344 949.504211425781 945.653686523438 948.747497558594 950.31982421875 959.549011230469 959.482177734375 955.721313476562 943.962890625 946.340087890625 946.605285644531 947.216857910156 965.205810546875 965.562194824219 965.439331054688 954.051574707031 955.561706542969 956.176147460938 951.305969238281 958.244506835938 958.393005371094 965.123107910156 966.52587890625 961.630493164062 961.611083984375 953.055969238281 955.246643066406 958.846618652344 967.578918457031 970.224792480469 964.635864257812 970.859497070312 971.911010742188 961.114196777344 962.253723144531 957.882385253906 951.41748046875 951.468505859375 951.787475585938 964.505004882812 963.205810546875 966.554382324219 960.770263671875 971.8603515625 964.785949707031 961.53125 967.418762207031 968.172546386719 970.555908203125 965.579040527344 962.146301269531 967.136047363281 965.298828125 968.372802734375 966.158630371094 964.745849609375 970.895141601562 969.05908203125 981.600524902344 980.527038574219 980.71728515625 978.812561035156 979.149963378906 973.997863769531 966.311279296875 974.638916015625 973.328735351562 956.083129882812 960.255187988281 964.961853027344 971.33447265625 983.136596679688 984.006408691406 986.62548828125 985.362121582031 989.811462402344 987.633666992188 982.847412109375 983.197509765625 982.115234375 990.050048828125 990.352172851562 985.59814453125 989.346862792969 994.984252929688 990.903747558594 994.077026367188 991.163696289062 990.543273925781 991.492370605469 1003.16082763672 1001.17401123047 1001.99560546875 1000.62567138672 997.6142578125 996.671142578125 1004.48529052734 1002.55871582031 1005.50616455078 1018.46331787109 1024.60559082031 1034.40002441406 1033.85681152344 1042.73583984375 1043.65600585938 1050.27026367188 1047.2578125 1049.44567871094 1048.30407714844 1049.84655761719 1045.97277832031 1051.77673339844 1047.30773925781 1047.45129394531 1035.90893554688 1037.01953125 1039.25866699219 1020.67944335938 1015.36804199219 1021.35974121094 1020.48400878906 1024.72338867188 1023.94097900391 1039.4892578125
963.984741210938 958.76220703125 951.835693359375 955.363830566406 956.627563476562 953.484130859375 936.950378417969 944.720703125 954.851440429688 951.975036621094 956.280334472656 953.992065429688 944.589416503906 946.844177246094 950.732055664062 952.551940917969 947.90380859375 947.225891113281 940.982727050781 950.179809570312 938.948059082031 941.990051269531 946.877380371094 947.183898925781 945.393371582031 950.071411132812 945.254028320312 950.923034667969 944.928405761719 949.8203125 947.444946289062 951.102600097656 957.988586425781 949.4248046875 950.535339355469 945.2607421875 948.236572265625 946.023803710938 962.3876953125 967.530700683594 964.039916992188 957.853881835938 949.705749511719 953.885559082031 953.245483398438 960.572998046875 958.925903320312 970.343505859375 966.206848144531 963.105102539062 958.355041503906 961.424133300781 960.016235351562 960.429809570312 968.802124023438 972.565307617188 976.166442871094 969.032897949219 968.284790039062 964.987548828125 960.765563964844 950.361145019531 959.988952636719 954.800231933594 952.690002441406 961.909545898438 967.417785644531 964.431457519531 963.762573242188 963.103881835938 961.238891601562 975.475036621094 974.766540527344 970.314025878906 974.050170898438 972.239196777344 959.95654296875 968.180969238281 964.818176269531 966.306274414062 963.016479492188 969.973449707031 979.870849609375 979.127807617188 977.944458007812 979.661926269531 981.024169921875 976.725708007812 979.105285644531 971.768249511719 971.218627929688 971.566040039062 971.471069335938 978.614013671875 975.446105957031 973.845031738281 981.984985351562 988.962707519531 991.455444335938 992.719055175781 990.775634765625 982.987365722656 987.883544921875 984.528137207031 991.35986328125 990.3876953125 986.619445800781 996.575988769531 994.322021484375 988.847900390625 986.751403808594 987.377990722656 989.645629882812 992.007873535156 989.166198730469 997.830383300781 1002.12390136719 1003.80914306641 1002.01000976562 1001.79339599609 1001.95550537109 996.329406738281 1005.99530029297 1013.92864990234 1020.49652099609 1017.94665527344 1021.27008056641 1023.29156494141 1033.43359375 1037.43469238281 1043.41491699219 1047.67993164062 1050.92199707031 1046.60766601562 1044.24108886719 1051.61877441406 1040.43908691406 1048.74304199219 1049.17578125 1039.20068359375 1032.94396972656 1032.31982421875 1033.94763183594 1024.63305664062 1025.61047363281 1018.32098388672 1020.97583007812 1028.16906738281 1019.66217041016 1020.1875
961.356506347656 957.5595703125 956.078552246094 963.499816894531 960.899719238281 958.708923339844 943.521667480469 947.807495117188 945.645385742188 946.32568359375 947.859985351562 940.983459472656 939.5751953125 946.77880859375 951.252075195312 943.772521972656 936.378173828125 939.97216796875 944.961669921875 943.047302246094 940.134948730469 946.007507324219 940.148986816406 941.967712402344 943.966369628906 939.51025390625 945.990905761719 955.529174804688 941.769470214844 945.739929199219 954.0947265625 959.026184082031 949.902160644531 950.383178710938 947.797424316406 961.242431640625 951.147216796875 955.823852539062 960.507141113281 961.491027832031 964.476013183594 959.455810546875 958.859375 962.754333496094 965.149047851562 971.160339355469 963.943359375 971.982055664062 962.462219238281 962.983947753906 964.825439453125 965.818115234375 965.364379882812 967.645202636719 973.301147460938 980.640502929688 972.508422851562 973.672790527344 968.389221191406 962.646911621094 958.120910644531 952.656066894531 954.894287109375 956.263793945312 962.219543457031 957.070678710938 956.9912109375 963.284484863281 961.4736328125 961.52099609375 967.447265625 975.239807128906 984.947204589844 986.60009765625 977.49755859375 972.499633789062 969.794799804688 968.810974121094 964.651733398438 973.005493164062 974.766357421875 975.886901855469 979.094665527344 969.367797851562 978.135864257812 985.660949707031 984.310180664062 978.473571777344 980.158325195312 981.010314941406 975.365173339844 971.346252441406 971.568359375 971.989440917969 977.282348632812 975.928283691406 984.298767089844 987.161254882812 1000.61083984375 998.137023925781 995.549987792969 985.685668945312 986.649841308594 992.970947265625 1000.63818359375 994.593078613281 998.664978027344 1000.59259033203 997.681213378906 988.421813964844 980.758605957031 981.585021972656 984.726745605469 992.275695800781 1003.35369873047 1010.01397705078 1015.20263671875 1025.72717285156 1021.02795410156 1010.84020996094 1015.86108398438 1008.61926269531 1009.86950683594 1007.453125 1015.78540039062 1018.35260009766 1029.11853027344 1026.95007324219 1034.32104492188 1038.34997558594 1041.89318847656 1035.47778320312 1049.33850097656 1043.91845703125 1035.9736328125 1039.00341796875 1047.63793945312 1047.31872558594 1044.52099609375 1029.75634765625 1038.23266601562 1033.58972167969 1022.03967285156 1034.06665039062 1028.04296875 1025.81848144531 1027.95043945312 1021.81494140625 1016.99432373047 1025.23828125
954.453308105469 948.425598144531 950.825012207031 956.119079589844 957.522521972656 954.914428710938 941.322937011719 936.958740234375 937.1650390625 942.999816894531 930.98193359375 938.725769042969 939.169677734375 942.683288574219 939.753479003906 945.784362792969 941.680725097656 941.786315917969 937.051818847656 941.1025390625 940.5771484375 956.416259765625 948.197082519531 943.409484863281 932.509460449219 934.010986328125 951.268737792969 959.422424316406 949.839599609375 946.484008789062 955.309875488281 967.806579589844 959.281066894531 958.164672851562 951.386901855469 949.723999023438 952.414367675781 956.604187011719 958.663635253906 951.906982421875 955.015747070312 968.739868164062 968.123596191406 975.060791015625 969.307678222656 971.936279296875 972.652282714844 977.599182128906 975.858093261719 966.297668457031 962.986694335938 967.101379394531 971.728210449219 976.534545898438 977.531860351562 973.8447265625 972.230041503906 970.525390625 972.130065917969 962.864318847656 962.627563476562 964.560546875 961.940551757812 957.493957519531 965.350891113281 969.052185058594 968.31494140625 962.709716796875 958.929138183594 965.082946777344 979.349548339844 983.371398925781 980.909362792969 988.362731933594 980.557556152344 977.056030273438 972.095520019531 965.1455078125 969.210693359375 970.255615234375 978.438903808594 986.103210449219 985.422485351562 981.947692871094 983.21826171875 984.726257324219 986.519958496094 980.690246582031 980.637451171875 976.24755859375 975.36474609375 974.219665527344 974.084411621094 972.716552734375 972.021301269531 973.567626953125 988.083557128906 987.816833496094 999.374755859375 1003.51751708984 999.184875488281 997.868469238281 1002.02691650391 996.927612304688 992.095703125 1006.83599853516 1009.83203125 1003.58752441406 1009.46936035156 996.280700683594 997.987182617188 993.087585449219 999.451477050781 996.037963867188 1011.08752441406 1022.318359375 1023.85583496094 1042.22863769531 1031.48547363281 1033.29650878906 1031.06872558594 1024.55456542969 1018.07135009766 1009.89794921875 1011.81219482422 1019.39916992188 1024.62268066406 1032.0556640625 1036.64440917969 1028.47680664062 1030.29724121094 1042.76293945312 1047.13049316406 1039.00659179688 1042.15783691406 1036.39916992188 1037.37915039062 1039.1865234375 1037.01696777344 1026.328125 1039.05114746094 1026.68225097656 1019.12176513672 1015.83227539062 1020.83142089844 1023.21960449219 1024.92077636719 1018.85107421875 1012.51873779297 1009.72766113281
958.452209472656 950.780456542969 944.621826171875 950.064819335938 957.242065429688 944.997314453125 942.736694335938 934.196594238281 939.478942871094 940.714050292969 940.3427734375 940.590698242188 948.815673828125 945.311584472656 937.4296875 943.439392089844 943.196716308594 952.447509765625 951.565979003906 944.363708496094 948.828674316406 947.289428710938 942.789916992188 940.200805664062 935.099426269531 938.799987792969 950.206115722656 953.267517089844 952.435913085938 958.685913085938 952.728942871094 962.325988769531 948.155151367188 953.399841308594 950.842224121094 948.674560546875 947.802490234375 956.425109863281 954.77978515625 949.028564453125 953.795288085938 961.746337890625 963.338012695312 977.506286621094 979.053100585938 982.125244140625 977.023986816406 981.862976074219 977.627746582031 973.720153808594 973.095275878906 970.827575683594 980.7451171875 976.890075683594 974.256591796875 975.68212890625 973.700561523438 977.42431640625 971.759216308594 965.722778320312 969.160217285156 974.530395507812 969.607788085938 966.280456542969 965.557067871094 972.519958496094 970.6201171875 963.749328613281 969.925842285156 966.035522460938 977.0009765625 984.719970703125 978.043334960938 982.73681640625 980.679504394531 979.080871582031 979.307861328125 974.3818359375 973.523681640625 969.96337890625 980.176147460938 988.149658203125 981.882629394531 986.99462890625 983.466125488281 986.584167480469 983.263305664062 980.767639160156 973.557495117188 972.458435058594 966.098693847656 972.04736328125 975.498291015625 967.470581054688 975.88427734375 985.644348144531 984.919311523438 983.092163085938 1006.91442871094 1002.36883544922 1000.03546142578 1004.556640625 1007.20397949219 1001.74853515625 996.312316894531 998.029724121094 1010.73706054688 1011.3515625 1002.26458740234 1002.04022216797 1004.86499023438 1010.44573974609 1004.87377929688 1013.74096679688 1015.70672607422 1021.54559326172 1025.20544433594 1040.03137207031 1043.37292480469 1037.39270019531 1033.13757324219 1034.34460449219 1030.705078125 1027.68151855469 1022.5625 1033.248046875 1024.72937011719 1017.89544677734 1020.5322265625 1022.23077392578 1025.73388671875 1039.580078125 1037.71130371094 1028.57348632812 1030.50952148438 1030.66455078125 1032.35583496094 1029.12280273438 1034.19384765625 1027.94140625 1025.84875488281 1018.57678222656 1013.31951904297 1012.44982910156 1007.65026855469 1012.86981201172 1017.39770507812 1018.20593261719 1003.13232421875 998.104187011719
964.128173828125 958.781433105469 953.428161621094 949.672058105469 945.334899902344 937.201354980469 931.832580566406 937.6572265625 940.58349609375 936.61865234375 940.65869140625 939.84716796875 950.639221191406 948.172729492188 949.593078613281 953.003540039062 953.255798339844 953.046875 957.26806640625 949.414306640625 956.04931640625 939.734924316406 942.366760253906 938.80078125 942.687927246094 950.2734375 951.176330566406 959.100708007812 961.64697265625 961.454040527344 962.934814453125 960.845153808594 952.30712890625 949.273559570312 947.0419921875 953.115112304688 961.581481933594 968.56884765625 953.197204589844 955.36279296875 961.887268066406 959.547119140625 961.080810546875 972.516540527344 977.596374511719 983.786804199219 979.288330078125 979.228332519531 988.90380859375 974.548034667969 976.287658691406 983.733581542969 978.381713867188 979.882385253906 976.946655273438 984.297424316406 979.066467285156 978.604187011719 971.797546386719 972.200439453125 971.27490234375 974.178100585938 973.938171386719 967.788330078125 972.074401855469 979.196411132812 969.889831542969 976.209594726562 972.117065429688 973.83837890625 978.29736328125 980.815673828125 983.191284179688 971.675903320312 979.737670898438 979.5927734375 977.119567871094 980.745666503906 978.110717773438 981.0029296875 986.395385742188 983.328735351562 985.464782714844 987.496276855469 984.327453613281 983.049072265625 981.022155761719 986.392211914062 972.827026367188 965.234130859375 977.775390625 972.472534179688 972.002502441406 976.85498046875 979.340393066406 982.647338867188 990.198852539062 993.432434082031 997.791320800781 1008.39050292969 1002.59545898438 1000.52795410156 1010.17944335938 1004.79119873047 997.802917480469 1004.51831054688 1007.72955322266 1014.40350341797 1003.12994384766 1013.97869873047 1013.08996582031 1009.19287109375 1012.44390869141 1014.61627197266 1025.90161132812 1030.23498535156 1035.98767089844 1042.95581054688 1044.275390625 1046.189453125 1038.38439941406 1030.46118164062 1030.43811035156 1033.11010742188 1030.22302246094 1031.97009277344 1021.05645751953 1018.53375244141 1017.36175537109 1024.92993164062 1029.0400390625 1030.71728515625 1030.72082519531 1026.5732421875 1028.59936523438 1031.607421875 1033.60119628906 1030.67785644531 1034.7939453125 1032.15368652344 1013.20251464844 1015.93438720703 1013.48992919922 1006.76214599609 1004.18737792969 1005.64929199219 1006.90252685547 1006.28375244141 1010.09765625 1005.66857910156
959.191284179688 958.572326660156 951.96337890625 945.611022949219 939.571716308594 932.17919921875 936.029846191406 930.639587402344 943.368041992188 942.723327636719 943.891235351562 933.761779785156 945.138793945312 952.685241699219 950.26220703125 956.80517578125 962.389892578125 967.956115722656 963.287048339844 963.898559570312 953.969482421875 955.025756835938 956.865295410156 953.381164550781 954.454528808594 958.072082519531 966.072387695312 973.960510253906 966.442687988281 959.73388671875 957.117919921875 954.785888671875 961.605529785156 950.495910644531 956.98779296875 950.36279296875 957.696105957031 964.520568847656 964.276794433594 964.083557128906 973.460327148438 964.067810058594 965.447509765625 969.546569824219 969.250122070312 974.305358886719 970.223449707031 987.039794921875 978.246826171875 976.459594726562 974.424682617188 985.955017089844 991.589660644531 980.036315917969 971.847045898438 970.942687988281 980.889282226562 976.752014160156 967.735900878906 976.228759765625 967.318115234375 964.469665527344 970.554443359375 968.51904296875 969.595581054688 974.026123046875 973.529541015625 973.079284667969 975.174072265625 978.917541503906 983.87841796875 976.455993652344 978.214538574219 979.770629882812 974.787170410156 974.465454101562 979.465270996094 980.220458984375 979.085693359375 978.626586914062 981.197082519531 985.698608398438 989.140319824219 982.313598632812 981.228088378906 982.696411132812 989.82421875 985.035888671875 973.657043457031 971.632568359375 979.632141113281 989.292907714844 985.335876464844 986.178344726562 982.649291992188 984.811157226562 993.516357421875 995.003234863281 996.47412109375 997.514770507812 1004.31909179688 1007.28747558594 1009.16400146484 1007.73883056641 1000.03131103516 1008.39135742188 1003.24108886719 1024.67529296875 1012.5849609375 1024.30139160156 1022.23950195312 1019.00671386719 1023.49359130859 1027.55871582031 1033.84423828125 1035.46130371094 1033.94787597656 1043.64001464844 1047.10510253906 1050.10437011719 1045.70190429688 1032.32666015625 1029.74487304688 1029.50048828125 1035.05236816406 1038.23315429688 1023.77355957031 1015.41223144531 1011.99298095703 1004.12799072266 1020.11859130859 1026.35461425781 1023.13269042969 1024.41796875 1023.66571044922 1035.66333007812 1030.46081542969 1030.94213867188 1040.53723144531 1034.0693359375 1025.69116210938 1013.51232910156 1010.462890625 1014.61968994141 1007.84307861328 1003.26574707031 1010.45275878906 1003.90057373047 997.999450683594 1000.61175537109
953.9091796875 948.256225585938 952.140258789062 951.126159667969 940.968994140625 929.115844726562 934.2626953125 940.308532714844 943.198791503906 946.295288085938 946.457763671875 943.859619140625 942.651062011719 947.116760253906 951.67529296875 956.511474609375 964.089294433594 965.537109375 963.65478515625 964.527893066406 954.951965332031 958.602233886719 952.190795898438 957.739501953125 957.699523925781 957.587707519531 968.521240234375 967.231811523438 965.952453613281 963.540832519531 968.404663085938 964.759582519531 960.459838867188 954.623962402344 960.245178222656 957.80029296875 962.555725097656 972.546203613281 968.23876953125 966.0517578125 979.062316894531 973.176818847656 965.565124511719 963.517700195312 973.259521484375 975.578247070312 987.989135742188 988.901733398438 991.533569335938 986.784973144531 985.316162109375 977.184814453125 978.195739746094 977.614807128906 982.617858886719 971.477783203125 969.654724121094 982.588195800781 977.178955078125 969.55078125 969.603820800781 971.959167480469 974.611022949219 969.602355957031 969.358032226562 975.19677734375 971.198974609375 974.231201171875 984.595642089844 984.436706542969 982.026000976562 978.927368164062 980.127990722656 988.904418945312 976.049865722656 979.046142578125 974.44580078125 978.477111816406 980.997009277344 978.885864257812 971.377990722656 989.086853027344 983.471435546875 984.790832519531 982.718444824219 984.849609375 996.338256835938 986.054138183594 984.392578125 974.611755371094 981.864624023438 976.711486816406 979.649841308594 985.836853027344 987.336303710938 994.571472167969 998.143432617188 1000.10729980469 998.666687011719 996.115783691406 1007.86334228516 1010.40368652344 1012.02728271484 1011.90557861328 1005.82086181641 1007.28009033203 1012.76580810547 1018.68566894531 1016.5712890625 1020.23107910156 1019.56884765625 1022.91552734375 1028.88171386719 1030.49145507812 1030.82250976562 1029.38854980469 1033.18444824219 1050.45959472656 1044.28918457031 1036.21228027344 1048.28540039062 1043.80249023438 1038.63366699219 1035.28515625 1031.94519042969 1026.79724121094 1033.76403808594 1022.78070068359 1014.15979003906 1010.05194091797 1016.94525146484 1019.83856201172 1015.95928955078 1014.94616699219 1027.27270507812 1028.19543457031 1029.39099121094 1041.00964355469 1028.47912597656 1026.15344238281 1021.65936279297 1008.86694335938 1006.26348876953 997.990905761719 1000.21466064453 1013.38543701172 1006.07336425781 999.511047363281 999.150817871094 998.328369140625
945.59814453125 938.600158691406 941.059997558594 953.79736328125 941.137512207031 927.731140136719 932.360900878906 931.830017089844 945.391235351562 947.609924316406 953.398742675781 954.435791015625 959.238891601562 955.5029296875 952.218078613281 961.921630859375 968.569580078125 965.375061035156 975.113952636719 962.553283691406 960.08447265625 964.055969238281 955.052978515625 961.159423828125 962.265258789062 959.854309082031 970.759765625 968.141418457031 971.492309570312 975.283569335938 978.617248535156 966.863525390625 971.671569824219 973.698425292969 958.421020507812 965.713317871094 972.104736328125 969.994567871094 968.70751953125 964.575317382812 966.478881835938 965.954956054688 965.773864746094 969.369812011719 973.374694824219 982.23681640625 988.125549316406 987.426879882812 986.354125976562 986.739074707031 987.755432128906 982.816284179688 982.710205078125 973.281982421875 981.30517578125 976.781677246094 975.356262207031 977.579467773438 976.538757324219 980.73095703125 977.137329101562 967.562561035156 960.683227539062 971.554626464844 966.601806640625 970.584594726562 971.007751464844 972.070556640625 977.642822265625 972.969116210938 976.075317382812 980.414245605469 983.776611328125 986.359069824219 978.679382324219 981.3583984375 981.8505859375 984.905639648438 985.406066894531 981.2060546875 976.441833496094 983.806030273438 984.228210449219 995.230163574219 994.837768554688 990.084167480469 993.663391113281 985.475769042969 985.427978515625 989.623840332031 977.296508789062 974.023376464844 977.671752929688 987.245971679688 995.382141113281 994.68017578125 995.059875488281 992.492980957031 1004.09204101562 1007.49896240234 1009.81616210938 1008.34283447266 1009.56634521484 1011.77593994141 1020.18902587891 1011.59594726562 1015.30908203125 1019.78216552734 1025.95727539062 1033.87365722656 1024.65417480469 1030.43664550781 1041.08898925781 1045.47570800781 1035.79675292969 1027.58483886719 1033.81713867188 1044.06127929688 1043.54675292969 1042.96606445312 1038.66442871094 1045.61791992188 1047.88134765625 1034.00610351562 1030.29333496094 1031.09326171875 1026.04052734375 1013.54107666016 1010.22192382812 1017.72180175781 1016.04772949219 1011.70007324219 1012.67883300781 1015.94311523438 1024.25085449219 1023.26300048828 1021.31744384766 1034.8564453125 1027.38952636719 1020.77984619141 1015.77496337891 1005.29559326172 1002.57580566406 999.266662597656 1005.32946777344 1000.39642333984 1000.54577636719 991.936157226562 995.49267578125 993.488342285156
932.451843261719 930.876403808594 940.032897949219 953.616821289062 950.313842773438 941.494567871094 939.423767089844 929.758605957031 938.746276855469 946.731323242188 955.299011230469 958.6513671875 955.96533203125 956.431518554688 958.122192382812 967.461669921875 963.44482421875 970.907287597656 975.324584960938 969.841369628906 963.128845214844 965.571472167969 960.231811523438 963.994384765625 959.862060546875 959.471740722656 965.082458496094 968.318664550781 971.9150390625 977.236083984375 981.839172363281 976.837707519531 979.050231933594 975.7451171875 970.178161621094 969.344787597656 981.646911621094 973.345275878906 978.200866699219 973.055419921875 976.442260742188 975.9912109375 973.626037597656 976.992553710938 983.466979980469 992.820556640625 987.861267089844 991.8408203125 997.463500976562 983.131408691406 987.086242675781 987.685913085938 981.155212402344 979.201965332031 978.277099609375 977.369384765625 978.696716308594 981.388977050781 979.156311035156 978.512573242188 969.592163085938 963.325866699219 965.833435058594 971.873474121094 967.505493164062 968.2919921875 978.27294921875 980.793640136719 978.748657226562 971.041564941406 975.871826171875 982.172790527344 977.960144042969 983.780090332031 993.271728515625 989.643005371094 985.193176269531 987.673950195312 981.955017089844 985.132934570312 981.837829589844 984.2529296875 980.060363769531 988.712707519531 992.364990234375 996.408020019531 987.376098632812 980.468078613281 983.896728515625 980.661926269531 981.035766601562 984.575073242188 980.712585449219 983.732055664062 985.544189453125 988.56201171875 991.704711914062 1000.32684326172 1005.33728027344 1013.44635009766 1008.35296630859 1006.02697753906 1009.03839111328 1016.05041503906 1026.1337890625 1010.30975341797 1009.69647216797 1020.28393554688 1028.54650878906 1032.81872558594 1031.046875 1030.55627441406 1030.70300292969 1038.22521972656 1030.16479492188 1026.95141601562 1033.4072265625 1033.65344238281 1033.55456542969 1030.103515625 1033.20153808594 1041.75744628906 1035.54614257812 1040.84497070312 1041.29443359375 1029.30590820312 1029.64135742188 1018.35565185547 1011.05590820312 1017.2099609375 1014.62890625 1018.36151123047 1021.31945800781 1022.11608886719 1029.93200683594 1032.27160644531 1019.75085449219 1020.56195068359 1027.65612792969 1014.84826660156 1013.42236328125 1005.30676269531 1013.66448974609 1009.52355957031 1002.74237060547 998.302673339844 989.822998046875 991.491333007812 1000.18273925781 993.266296386719
933.201171875 939.117919921875 946.51904296875 946.649658203125 941.016540527344 938.539794921875 933.732299804688 937.973022460938 943.532409667969 947.282287597656 954.038879394531 958.727966308594 967.010375976562 971.954162597656 972.364440917969 967.195007324219 969.294799804688 966.05126953125 975.069152832031 974.199523925781 969.154724121094 966.340881347656 966.712951660156 963.662963867188 966.607971191406 964.070739746094 970.795715332031 975.766967773438 971.006408691406 979.868469238281 980.14453125 978.547302246094 978.434204101562 975.763732910156 973.75634765625 970.119445800781 974.723449707031 979.141174316406 976.761901855469 971.362854003906 965.858764648438 974.555114746094 989.216796875 985.153076171875 994.48876953125 1000.09710693359 991.031372070312 1001.23590087891 996.853942871094 999.769165039062 1002.82678222656 996.074462890625 987.628051757812 983.304992675781 990.884155273438 979.122863769531 978.053649902344 982.612182617188 976.446960449219 975.419189453125 977.257019042969 968.505615234375 968.401062011719 968.147033691406 970.462951660156 978.392395019531 977.167114257812 978.611083984375 985.986083984375 986.980041503906 990.53173828125 981.901977539062 979.84765625 984.559326171875 986.403930664062 997.381286621094 994.989868164062 988.447204589844 987.049499511719 989.253967285156 986.739562988281 978.719299316406 978.828552246094 985.546875 989.030944824219 989.021362304688 989.641357421875 980.515625 987.312744140625 980.928161621094 985.736083984375 989.513916015625 980.416687011719 983.478942871094 993.977722167969 996.803466796875 995.725219726562 1000.00738525391 1006.85675048828 1010.49267578125 1004.92071533203 1010.13330078125 1008.34283447266 1012.64410400391 1016.64801025391 1018.21759033203 1020.94201660156 1029.90161132812 1038.85852050781 1038.88208007812 1025.24645996094 1028.58325195312 1025.99157714844 1035.927734375 1033.13146972656 1029.36547851562 1030.83605957031 1028.22705078125 1034.4033203125 1027.25671386719 1026.58032226562 1027.22180175781 1037.7939453125 1035.6337890625 1029.82312011719 1022.18188476562 1022.02862548828 1016.64013671875 1021.30249023438 1011.29986572266 1016.24932861328 1022.24108886719 1030.90625 1027.42724609375 1026.81689453125 1017.51159667969 1015.12359619141 1012.62725830078 1016.81829833984 1005.45751953125 1010.41259765625 1004.52001953125 1012.57592773438 1004.08935546875 999.723266601562 1004.58636474609 1001.38647460938 986.466552734375 989.925048828125 997.467529296875
935.832763671875 939.402160644531 944.882568359375 936.214782714844 940.351928710938 936.724060058594 931.610595703125 938.885498046875 942.798767089844 955.216247558594 955.237548828125 963.676818847656 969.344421386719 974.31103515625 982.778747558594 979.591613769531 972.241882324219 982.058227539062 978.052978515625 976.035949707031 977.2275390625 973.239624023438 977.354248046875 977.465454101562 976.126770019531 969.110412597656 967.152893066406 964.443542480469 974.796691894531 972.801025390625 983.935607910156 985.507568359375 985.368469238281 980.028869628906 982.488891601562 974.477905273438 977.804321289062 981.30859375 977.607482910156 970.709899902344 969.073425292969 988.1689453125 992.93359375 996.512939453125 1001.58721923828 1007.85388183594 1012.36688232422 1009.65551757812 1003.82165527344 1009.37921142578 1007.30151367188 999.587951660156 990.695922851562 981.094665527344 980.354553222656 974.465270996094 977.423583984375 977.187805175781 972.753601074219 977.626220703125 974.672790527344 976.688842773438 970.641479492188 970.648254394531 977.320678710938 977.875854492188 985.352172851562 983.835083007812 989.272399902344 982.601745605469 988.321533203125 987.911743164062 989.537231445312 983.906372070312 986.783752441406 993.617614746094 997.584289550781 990.178588867188 992.795532226562 986.106628417969 988.624694824219 988.451721191406 978.037475585938 986.44091796875 993.841491699219 993.638854980469 988.432983398438 994.7900390625 987.690246582031 985.307373046875 985.135864257812 981.802185058594 992.909790039062 991.219909667969 991.503601074219 993.718078613281 997.468017578125 997.602966308594 998.795043945312 1010.65551757812 998.1123046875 1011.61267089844 1011.08673095703 1010.57165527344 1012.83093261719 1021.88366699219 1024.97546386719 1034.56921386719 1036.17724609375 1028.95239257812 1023.15203857422 1026.57458496094 1024.10717773438 1032.76586914062 1031.97473144531 1019.81335449219 1015.11651611328 1024.15747070312 1030.37841796875 1033.3935546875 1021.33020019531 1027.2578125 1026.94482421875 1030.05627441406 1027.3095703125 1019.32611083984 1020.87036132812 1016.55920410156 1012.44537353516 1011.07891845703 1009.56146240234 1017.41784667969 1021.97680664062 1026.34790039062 1019.98529052734 1015.25604248047 1023.89123535156 1007.46875 998.8193359375 1004.77844238281 996.261108398438 995.704406738281 1001.95306396484 1000.35443115234 995.982543945312 987.07275390625 982.202331542969 987.600036621094 993.991638183594 1003.11401367188
