NCOLS 150
NROWS 37
XLLCORNER 7394249
YLLCORNER 4842419
CELLSIZE 30
NODATA_VALUE -9999
946.283630371094 953.962219238281 961.083923339844 964.49169921875 959.676330566406 970.29541015625 968.665161132812 976.554565429688 974.347045898438 966.810363769531 968.903259277344 984.915649414062 975.317749023438 977.843078613281 978.189331054688 987.857666015625 977.757019042969 978.23779296875 977.148071289062 962.469970703125 966.844787597656 961.231689453125 958.174133300781 957.499938964844 965.221008300781 951.525939941406 961.434326171875 968.306945800781 972.862365722656 973.178894042969 974.239929199219 962.906372070312 961.797607421875 957.962280273438 971.361877441406 967.289367675781 965.053894042969 965.797607421875 964.494934082031 965.374816894531 961.876770019531 959.811706542969 957.522705078125 958.680297851562 956.334533691406 961.857482910156 967.227661132812 962.823913574219 962.381408691406 962.740539550781 962.488220214844 964.886596679688 965.931579589844 969.712036132812 964.594421386719 963.121704101562 962.8271484375 972.638000488281 964.244079589844 961.609008789062 962.930969238281 965.630920410156 954.330017089844 956.564208984375 966.665344238281 961.272521972656 970.890625 974.152893066406 980.912475585938 978.966613769531 969.515869140625 963.160095214844 971.876953125 976.996398925781 974.464599609375 979.449768066406 978.734802246094 970.002197265625 971.802062988281 974.272216796875 971.489074707031 975.424926757812 968.144409179688 959.461303710938 961.30126953125 964.69921875 975.369873046875 968.058410644531 973.267578125 975.188781738281 971.688232421875 979.971069335938 982.206115722656 979.439697265625 966.487915039062 966.906066894531 972.780822753906 983.523742675781 985.6953125 982.01611328125 988.873107910156 983.854675292969 987.390075683594 986.627990722656 994.165832519531 1001.353515625 993.683471679688 991.261535644531 1000.69586181641 995.249450683594 997.981079101562 995.333068847656 1003.95953369141 1003.29943847656 1005.91076660156 1007.83984375 1015.98443603516 1012.70190429688 1014.88171386719 1021.61248779297 1011.89923095703 1013.04553222656 1018.32476806641 1027.37414550781 1022.86022949219 1030.09606933594 1031.13195800781 1026.83654785156 1029.82568359375 1036.38024902344 1043.30151367188 1037.87963867188 1051.30920410156 1068.75402832031 1069.75598144531 1077.97790527344 1075.95886230469 1079.28100585938 1092.10791015625 1093.67407226562 1105.62744140625 1113.97534179688 1119.18359375 1134.88159179688 1143.18237304688 1142.50524902344 1148.71252441406 1158.43640136719 1162.22387695312 1152.57897949219
950.686706542969 953.934143066406 960.492309570312 962.133117675781 960.944091796875 961.540283203125 972.670227050781 975.976013183594 969.447387695312 970.274780273438 965.850280761719 972.765319824219 982.016967773438 974.273559570312 979.8779296875 989.484375 979.432678222656 985.989807128906 977.849243164062 972.860656738281 966.021667480469 969.983337402344 959.403503417969 955.89208984375 962.464294433594 964.442016601562 955.251159667969 965.591430664062 970.381042480469 977.716491699219 972.950866699219 964.584838867188 964.417419433594 959.181274414062 958.377685546875 961.426513671875 958.388427734375 962.786376953125 958.912841796875 967.811218261719 959.879943847656 960.399658203125 963.8076171875 952.984680175781 951.556457519531 957.041198730469 963.4794921875 972.519775390625 978.899291992188 970.104187011719 969.457275390625 958.885009765625 959.893493652344 967.395385742188 965.61181640625 957.738586425781 965.61865234375 966.350708007812 964.314697265625 958.208251953125 955.216552734375 969.205871582031 960.275756835938 960.599304199219 968.603454589844 970.761413574219 970.978576660156 976.090270996094 975.629577636719 969.595947265625 969.825134277344 963.6591796875 968.677856445312 971.234008789062 975.855346679688 979.895385742188 974.828979492188 967.927978515625 969.504455566406 971.796142578125 970.597412109375 971.183837890625 964.394409179688 967.832702636719 962.201782226562 966.810729980469 965.119567871094 971.571655273438 977.267211914062 965.908081054688 971.634460449219 972.546203613281 976.357543945312 974.520751953125 974.656982421875 971.457458496094 977.991455078125 982.081481933594 983.300354003906 984.606384277344 975.814453125 975.238708496094 971.292419433594 980.383544921875 986.781799316406 995.884033203125 985.795837402344 987.103820800781 989.260864257812 992.268371582031 994.988464355469 989.989929199219 997.098815917969 1004.59210205078 1011.22302246094 1014.74340820312 1015.17846679688 1004.49060058594 1008.47521972656 1013.82629394531 1012.71905517578 1017.77001953125 1026.62121582031 1021.35125732422 1019.87927246094 1029.49682617188 1028.384765625 1025.43322753906 1022.47412109375 1034.67468261719 1037.80407714844 1046.28771972656 1057.24926757812 1070.46435546875 1076.15991210938 1073.33679199219 1072.23132324219 1086.01989746094 1087.22143554688 1099.80920410156 1109.21203613281 1107.57836914062 1117.595703125 1124.59240722656 1139.84045410156 1147.51013183594 1146.37976074219 1144.82897949219 1155.50622558594 1155.12438964844
947.204406738281 944.727294921875 948.039489746094 959.34619140625 961.554809570312 964.338562011719 961.247619628906 973.153076171875 969.611938476562 974.661804199219 976.410278320312 969.391479492188 977.748779296875 977.512451171875 980.125732421875 973.096313476562 976.437561035156 980.614929199219 986.726318359375 973.69970703125 965.815979003906 971.9599609375 958.421325683594 957.927307128906 967.68017578125 961.316589355469 957.503845214844 965.023986816406 968 977.074645996094 967.310974121094 965.283386230469 966.50732421875 954.603332519531 950.274963378906 949.551147460938 959.207946777344 953.161743164062 958.0927734375 969.212524414062 955.86279296875 965.952209472656 959.928955078125 954.567932128906 956.029479980469 959.665832519531 963.876831054688 976.701477050781 987.021057128906 977.185485839844 978.2978515625 967.700256347656 963.750427246094 966.445495605469 967.883239746094 964.818115234375 964.843322753906 964.340515136719 965.352478027344 959.026428222656 967.025207519531 967.946533203125 967.235656738281 963.979064941406 965.344970703125 967.240051269531 962.1201171875 968.106018066406 963.053649902344 960.32080078125 962.387329101562 960.521179199219 965.235534667969 969.978271484375 970.840270996094 977.740966796875 966.547607421875 968.424560546875 970.118774414062 972.34130859375 967.704406738281 967.46142578125 969.370727539062 968.885498046875 965.04345703125 971.961181640625 967.5732421875 965.101501464844 967.686706542969 962.842956542969 973.294067382812 975.453247070312 970.634460449219 971.305480957031 971.291625976562 977.105773925781 977.661315917969 976.691101074219 979.915832519531 977.747375488281 971.883178710938 966.120544433594 970.553161621094 978.842529296875 985.300598144531 984.930541992188 982.186767578125 977.080871582031 987.545837402344 990.473510742188 990.85107421875 992.158935546875 1008.17895507812 1010.45642089844 1020.33343505859 1013.59924316406 1008.36987304688 1004.59869384766 1007.2275390625 1015.60107421875 1023.49377441406 1024.44458007812 1025.06958007812 1027.94018554688 1030.35168457031 1026.30444335938 1024.73522949219 1022.94488525391 1030.29125976562 1032.19836425781 1043.90783691406 1055.34289550781 1068.78942871094 1067.44177246094 1084.46398925781 1083.12023925781 1090.52612304688 1089.39404296875 1092.19177246094 1093.087890625 1103.88916015625 1105.69738769531 1117.60131835938 1121.22631835938 1134.09143066406 1137.11328125 1132.72216796875 1138.20373535156 1144.80529785156 1147.13671875
953.225402832031 952.921325683594 965.876159667969 963.444641113281 970.562255859375 968.812316894531 965.984985351562 971.908569335938 976.274169921875 966.025634765625 976.186706542969 978.076354980469 977.519775390625 979.026489257812 975.776550292969 975.366394042969 970.311401367188 980.273498535156 977.022644042969 972.161804199219 973.720520019531 973.703308105469 974.775634765625 964.387573242188 962.326477050781 963.197448730469 961.046447753906 962.621704101562 971.924682617188 978.552978515625 971.798583984375 963.472839355469 953.940002441406 961.786071777344 954.460021972656 959.648986816406 953.501281738281 959.4443359375 963.71630859375 962.735900878906 957.971008300781 970.306213378906 965.697265625 967.946472167969 966.677429199219 957.333190917969 960.670043945312 971.473693847656 975.934265136719 977.040222167969 972.134948730469 967.425170898438 963.488037109375 956.701721191406 951.274475097656 960.922180175781 971.18310546875 967.296447753906 965.465637207031 958.386535644531 972.991333007812 964.607788085938 954.943542480469 955.793273925781 960.052124023438 956.751525878906 957.30810546875 956.816650390625 964.8759765625 961.762268066406 956.724182128906 961.638427734375 968.975830078125 978.001281738281 970.658447265625 964.942932128906 959.2822265625 958.834350585938 967.290649414062 971.166564941406 965.976623535156 973.398864746094 965.544921875 968.35498046875 970.382690429688 972.173889160156 971.007873535156 972.145385742188 972.367431640625 964.156921386719 979.299865722656 972.115356445312 974.656188964844 974.311584472656 966.651245117188 977.104431152344 972.214294433594 975.701293945312 973.671936035156 975.549926757812 969.94287109375 962.026794433594 962.531555175781 970.071166992188 977.04833984375 975.406555175781 975.31591796875 982.543823242188 983.461364746094 984.894592285156 991.640075683594 998.068359375 1007.01531982422 1014.65447998047 1012.11511230469 1018.73077392578 1008.58447265625 1007.36145019531 1004.07403564453 1018.10382080078 1032.22326660156 1027.10974121094 1028.11022949219 1024.06677246094 1033.2373046875 1025.63232421875 1018.52178955078 1025.451171875 1030.38098144531 1041.287109375 1037.95458984375 1046.03735351562 1056.96142578125 1070.67980957031 1076.66528320312 1081.76428222656 1085.31079101562 1091.49548339844 1091.15075683594 1093.76696777344 1092.90734863281 1090.9794921875 1103.46105957031 1115.400390625 1128.35913085938 1131.7822265625 1128.96643066406 1133.34020996094 1138.51171875 1134.60961914062
956.454406738281 963.905639648438 959.077331542969 974.18115234375 973.308349609375 970.938171386719 966.500610351562 973.515502929688 969.442504882812 968.035705566406 971.080139160156 978.354248046875 984.833190917969 987.373046875 979.506103515625 970.822998046875 968.417846679688 965.607666015625 980.867065429688 978.927001953125 974.629516601562 969.050415039062 963.849243164062 961.839050292969 962.355712890625 965.676086425781 967.867614746094 966.422058105469 967.674560546875 965.50537109375 965.731872558594 965.007690429688 954.245544433594 953.613952636719 962.054443359375 961.827331542969 956.876525878906 961.631103515625 960.46337890625 959.336486816406 962.262451171875 968.284118652344 973.647033691406 970.55810546875 966.65576171875 968.807922363281 963.267883300781 960.409729003906 971.402526855469 972.463989257812 962.602966308594 956.752319335938 966.462890625 950.572509765625 958.69091796875 954.408142089844 952.671813964844 966.812255859375 960.935180664062 957.201965332031 955.469299316406 954.84765625 957.882141113281 954.030456542969 958.278503417969 955.447692871094 951.1640625 958.468994140625 955.248779296875 961.322875976562 963.301940917969 957.502807617188 970.651794433594 976.273864746094 969.518432617188 967.302490234375 967.050170898438 961.849243164062 961.8876953125 968.341186523438 970.92431640625 968.315063476562 966.587219238281 964.852661132812 964.467651367188 966.802978515625 970.791931152344 977.630920410156 975.644104003906 967.208435058594 967.293518066406 969.302917480469 966.248291015625 968.873962402344 966.042724609375 972.511047363281 972.256408691406 972.402587890625 972.953186035156 974.598449707031 975.992065429688 960.911804199219 971.731201171875 970.884887695312 969.530151367188 969.297119140625 978.677673339844 981.593566894531 976.313842773438 991.105285644531 998.032104492188 997.042236328125 996.137878417969 1005.30407714844 1011.82702636719 1017.84625244141 1007.45727539062 1005.51586914062 1009.6650390625 1025.02233886719 1031.138671875 1028.63842773438 1028.22326660156 1024.61413574219 1017.27288818359 1022.27648925781 1019.17895507812 1022.74517822266 1029.5458984375 1038.06469726562 1038.61108398438 1049.50451660156 1063.27026367188 1072.53186035156 1087.13464355469 1086.05322265625 1087.23107910156 1091.65466308594 1097.79821777344 1089.35546875 1086.60620117188 1082.80297851562 1088.04675292969 1103.98291015625 1106.43981933594 1115.3427734375 1118.88098144531 1116.03039550781 1121.11584472656 1127.49682617188
960.959228515625 965.727783203125 963.955749511719 971.586364746094 972.239501953125 970.752319335938 976.656921386719 979.949890136719 969.575439453125 968.056396484375 977.683410644531 979.730651855469 984.624816894531 987.057067871094 979.271057128906 968.458862304688 973.028198242188 972.019348144531 973.246887207031 975.448547363281 971.712280273438 974.174743652344 968.34130859375 964.988525390625 963.972351074219 966.107543945312 973.336975097656 971.702209472656 970.964538574219 964.883361816406 959.65283203125 960.479797363281 956.626586914062 958.697937011719 959.760986328125 963.970520019531 961.046325683594 961.344299316406 955.769226074219 955.992309570312 954.619384765625 969.29638671875 959.263305664062 970.699584960938 964.191101074219 951.874328613281 959.888732910156 958.999450683594 956.896606445312 962.825744628906 956.588439941406 962.439392089844 959.214050292969 947.632263183594 951.7529296875 950.982788085938 957.405090332031 959.919921875 955.233764648438 952.061889648438 951.619812011719 954.833312988281 955.510803222656 944.868835449219 949.466430664062 947.956665039062 950.294128417969 962.3212890625 959.697265625 961.826110839844 962.599426269531 965.231811523438 968.612976074219 971.704467773438 981.5732421875 971.458801269531 978.65673828125 968.961242675781 967.180480957031 968.13427734375 970.185791015625 964.913146972656 963.334106445312 967.388549804688 963.879943847656 971.757202148438 967.458740234375 981.587890625 980.862121582031 969.569274902344 968.251403808594 978.017272949219 969.102416992188 968.112182617188 966.4755859375 979.447631835938 982.934448242188 985.312744140625 978.47998046875 978.434692382812 970.831787109375 973.498474121094 976.260864257812 977.995666503906 975.709899902344 982.817443847656 978.418273925781 980.065856933594 980.911254882812 990.150634765625 998.462768554688 1002.79321289062 999.561706542969 999.35888671875 1004.71484375 1001.76751708984 1004.06048583984 1001.63360595703 1009.80151367188 1025.00427246094 1027.61547851562 1030.63244628906 1031.49072265625 1019.57434082031 1019.7060546875 1019.06469726562 1022.94158935547 1021.73455810547 1036.529296875 1033.0966796875 1039.82543945312 1055.99401855469 1066.26147460938 1073.3740234375 1077.20153808594 1088.673828125 1101.78515625 1094.6318359375 1088.29699707031 1081.45373535156 1077.18713378906 1078.7353515625 1080.3125 1093.30993652344 1096.53076171875 1105.53051757812 1107.50866699219 1105.9619140625 1110.32116699219 1109.8349609375
963.747619628906 967.233947753906 966.506164550781 964.382080078125 971.344055175781 975.134460449219 970.169189453125 974.339721679688 968.409545898438 969.19921875 974.608825683594 973.977111816406 976.495300292969 965.943054199219 968.997985839844 976.868103027344 972.572448730469 969.486877441406 961.709106445312 967.826171875 970.82275390625 965.216064453125 970.845275878906 968.2021484375 961.228698730469 967.528991699219 966.087219238281 962.61865234375 959.040161132812 955.888366699219 951.95849609375 952.064208984375 961.1376953125 960.736450195312 956.823120117188 955.366027832031 961.033020019531 961.41845703125 959.642395019531 955.352355957031 961.722534179688 960.590759277344 955.169372558594 962.701416015625 960.622802734375 950.782897949219 952.421997070312 955.507080078125 953.288330078125 954.575927734375 955.650451660156 954.023803710938 954.851867675781 947.573120117188 947.980590820312 947.848999023438 954.560302734375 959.479248046875 952.293090820312 952.155700683594 948.007995605469 954.101806640625 950.093933105469 952.59423828125 950.989501953125 951.522705078125 957.157287597656 962.471008300781 977.407653808594 967.507751464844 963.183288574219 965.16455078125 973.26171875 978.316101074219 973.716552734375 971.0517578125 975.763854980469 971.797790527344 977.230590820312 969.658813476562 968.815124511719 963.414916992188 960.785583496094 961.302490234375 970.085205078125 966.186584472656 968.498657226562 976.535278320312 969.816772460938 971.014038085938 964.260009765625 965.675231933594 975.731994628906 968.911804199219 968.950317382812 979.211486816406 984.4599609375 990.362487792969 989.789672851562 983.913452148438 983.485656738281 986.582702636719 976.229858398438 968.953308105469 976.747680664062 975.861999511719 984.635681152344 984.317687988281 980.814453125 983.749145507812 992.120849609375 999.096740722656 997.549926757812 998.484985351562 992.130310058594 983.4326171875 994.966491699219 1000.93188476562 1009.76519775391 1018.31353759766 1013.13568115234 1017.38714599609 1024.38220214844 1025.39880371094 1021.03851318359 1029.09680175781 1018.45086669922 1028.81127929688 1033.14611816406 1039.6552734375 1045.84838867188 1054.90307617188 1059.52990722656 1057.74291992188 1073.10803222656 1078.77258300781 1092.62487792969 1091.36291503906 1091.005859375 1076.67370605469 1072.18591308594 1069.75915527344 1074.18591308594 1080.01867675781 1085.23083496094 1098.61083984375 1089.34777832031 1098.74450683594 1099.71118164062 1100.90490722656
966.339172363281 958.338195800781 964.478942871094 967.548706054688 972.174499511719 969.926330566406 969.22412109375 981.12841796875 965.181945800781 962.667358398438 967.971984863281 972.613830566406 968.53662109375 969.117431640625 974.316528320312 975.988830566406 975.162414550781 969.507751464844 971.590576171875 963.442138671875 968.114685058594 968.81640625 968.765502929688 963.011535644531 958.059265136719 958.18310546875 963.2802734375 958.798583984375 952.786865234375 939.214416503906 936.278686523438 943.189270019531 958.92333984375 959.023254394531 960.317138671875 956.970520019531 963.567993164062 960.181945800781 957.870056152344 959.795227050781 967.251770019531 961.828430175781 965.163696289062 966.836608886719 954.313171386719 956.384887695312 954.228881835938 951.001770019531 954.377319335938 947.478881835938 945.383117675781 950.214477539062 944.1845703125 950.335083007812 945.440795898438 954.421936035156 954.340759277344 948.209350585938 944.010803222656 947.53564453125 955.872863769531 954.493225097656 952.357788085938 956.76708984375 959.110107421875 958.898559570312 951.4375 957.64697265625 970.687744140625 962.856079101562 956.656555175781 961.235961914062 965.881774902344 963.673950195312 966.655883789062 965.425415039062 969.689208984375 978.314086914062 977.320861816406 961.68798828125 964.539672851562 952.40771484375 958.273010253906 960.46728515625 961.80859375 967.909545898438 966.928833007812 967.475402832031 967.477111816406 967.672302246094 960.545532226562 961.13720703125 965.973754882812 968.550537109375 967.586181640625 976.58349609375 982.892272949219 986.117858886719 987.836669921875 984.113220214844 981.318298339844 984.009033203125 976.574951171875 969.167663574219 976.192687988281 974.291198730469 980.448120117188 981.955139160156 986.317504882812 994.333557128906 997.411071777344 998.786560058594 997.697265625 988.917846679688 985.012939453125 979.431457519531 995.532043457031 1000.53680419922 1008.50903320312 1009.20861816406 1014.73327636719 1022.59906005859 1024.43322753906 1026.15490722656 1020.23223876953 1014.43469238281 1023.92218017578 1030.18811035156 1037.00695800781 1037.70886230469 1042.45446777344 1046.79431152344 1053.51611328125 1065.04858398438 1077.30932617188 1080.6689453125 1086.76843261719 1084.06701660156 1088.14477539062 1076.51672363281 1076.76428222656 1070.69934082031 1066.46569824219 1066.64416503906 1079.18591308594 1077.69445800781 1078.06823730469 1085.31750488281 1088.40673828125 1093.39855957031
957.820983886719 956.025085449219 957.44970703125 965.570007324219 979.032836914062 973.978332519531 969.095886230469 978.020324707031 970.711608886719 973.091857910156 973.021606445312 969.30224609375 972.880249023438 973.867553710938 973.609008789062 979.154724121094 971.936218261719 971.128723144531 960.750854492188 961.322448730469 975.10546875 976.088928222656 966.555480957031 966.574035644531 963.506896972656 960.214782714844 964.356140136719 956.006896972656 953.753540039062 940.379272460938 948.302612304688 949.315490722656 955.7080078125 956.666564941406 950.453063964844 964.075012207031 959.005065917969 960.363098144531 958.445495605469 960.425476074219 965.3681640625 954.337829589844 955.416320800781 953.544006347656 951.256286621094 958.473815917969 962.901733398438 965.558776855469 956.327026367188 955.769775390625 943.218444824219 945.640319824219 950.355041503906 955.869140625 956.037414550781 959.676452636719 957.519348144531 954.818359375 954.187072753906 955.13671875 959.483581542969 958.276977539062 960.48876953125 966.713989257812 965.210083007812 963.990661621094 957.734313964844 962.918212890625 973.481689453125 963.810546875 961.668273925781 968.195861816406 963.06298828125 957.140380859375 958.1572265625 966.197631835938 967.262268066406 967.446472167969 969.842590332031 968.638671875 963.558166503906 952.834228515625 960.897277832031 964.498168945312 965.976623535156 967.332763671875 963.003112792969 964.442016601562 954.409729003906 965.474914550781 967.4453125 968.511901855469 964.103820800781 963.896057128906 970.431274414062 972.739624023438 977.246887207031 981.990295410156 976.450134277344 982.828674316406 985.168640136719 972.827514648438 979.180480957031 976.7626953125 967.845031738281 974.716247558594 984.173278808594 983.900268554688 991.294616699219 993.201721191406 995.86181640625 991.085510253906 987.139587402344 979.789306640625 980.228210449219 985.911743164062 998.30712890625 1000.55676269531 1001.89489746094 1008.830078125 1009.11364746094 1012.69927978516 1030.69714355469 1025.46154785156 1026.99731445312 1023.60595703125 1030.3662109375 1029.37023925781 1033.33081054688 1034.45458984375 1036.42309570312 1041.2646484375 1060.67346191406 1068.6259765625 1082.35522460938 1090.36157226562 1095.96350097656 1088.81848144531 1074.66552734375 1069.56164550781 1068.54992675781 1060.88037109375 1060.42395019531 1066.49792480469 1065.06518554688 1056.95715332031 1056.31091308594 1067.38586425781 1083.82507324219 1091.27514648438
956.978271484375 959.213684082031 963.524291992188 965.821044921875 981.114135742188 978.298828125 977.237060546875 972.50244140625 968.009521484375 967.761962890625 970.235229492188 969.404907226562 978.660095214844 978.627136230469 979.094360351562 977.709411621094 971.102111816406 969.389587402344 953.493530273438 966.00244140625 975.376037597656 970.654724121094 965.860656738281 960.016662597656 961.981079101562 958.229919433594 958.906372070312 954.641357421875 952.113464355469 948.992248535156 953.296936035156 954.276489257812 957.653076171875 960.681762695312 957.594848632812 963.115112304688 958.566772460938 957.894958496094 966.762878417969 955.576293945312 949.335021972656 950.096252441406 950.439331054688 948.679321289062 954.067321777344 951.680114746094 957.934204101562 963.423522949219 954.333374023438 961.031372070312 952.2197265625 942.712585449219 948.631530761719 955.696716308594 963.379333496094 956.768615722656 961.878173828125 960.686218261719 951.859130859375 961.781311035156 963.943542480469 962.072204589844 960.237060546875 964.723693847656 967.236938476562 961.878479003906 958.2109375 964.137451171875 970.432250976562 970.359130859375 964.849548339844 959.650512695312 965.546752929688 962.025207519531 963.740478515625 963.401916503906 971.87548828125 965.626342773438 968.702331542969 956.107299804688 956.246337890625 968.35498046875 960.873229980469 960.984558105469 964.661193847656 969.967407226562 964.96240234375 963.81396484375 970.702819824219 968.657165527344 971.3232421875 960.2236328125 966.053833007812 959.62841796875 974.377197265625 976.509643554688 976.4375 983.225402832031 978.463989257812 985.736938476562 988.531005859375 984.804077148438 980.254516601562 973.860656738281 978.912414550781 981.578308105469 984.561645507812 988.661071777344 986.64013671875 992.689636230469 995.679809570312 990.570556640625 982.810302734375 981.530944824219 982.400573730469 986.478454589844 989.880249023438 999.30517578125 999.280700683594 1010.24755859375 1005.53466796875 1013.89654541016 1011.86157226562 1015.28723144531 1014.49578857422 1011.94860839844 1012.84661865234 1027.58410644531 1031.94421386719 1035.40771484375 1035.14660644531 1042.31030273438 1050.0126953125 1067.08935546875 1076.37854003906 1082.65808105469 1090.38720703125 1074.28662109375 1069.66479492188 1062.71313476562 1060.34033203125 1056.49523925781 1054.77062988281 1048.72961425781 1061.21899414062 1054.91491699219 1054.46447753906 1061.53271484375 1073.46655273438 1081.95385742188
954.690673828125 963.848022460938 956.269958496094 962.134582519531 975.657043457031 977.730163574219 977.8720703125 973.657470703125 958.826293945312 964.244262695312 962.464904785156 955.052978515625 965.031555175781 971.954223632812 974.29736328125 972.784545898438 963.949279785156 960.233215332031 962.308166503906 971.898986816406 971.810424804688 962.711853027344 962.538330078125 958.721313476562 953.11865234375 955.849304199219 956.950927734375 955.275695800781 945.772827148438 949.954650878906 956.265319824219 951.028015136719 949.363037109375 955.015197753906 948.925476074219 961.015686035156 961.018615722656 947.388305664062 957.783630371094 950.837890625 955.456787109375 950.638305664062 958.781005859375 956.614562988281 944.959716796875 946.064514160156 953.27197265625 954.03857421875 950.721801757812 955.704284667969 944.230651855469 946.293762207031 951.657653808594 948.782409667969 953.587463378906 966.073303222656 965.013610839844 965.0087890625 960.386779785156 958.275268554688 960.152282714844 971.168884277344 966.587585449219 959.4267578125 964.034912109375 955.662475585938 962.640625 969.352294921875 970.036254882812 969.333374023438 957.711242675781 957.426513671875 961.306091308594 957.417053222656 962.184387207031 967.5986328125 965.609924316406 963.356018066406 957.517272949219 952.974975585938 958.290283203125 959.209899902344 970.638854980469 969.698303222656 974.413940429688 969.884094238281 970.711120605469 969.130493164062 974.363403320312 979.406860351562 969.973205566406 964.523864746094 954.155822753906 963.946350097656 969.209533691406 980.474243164062 974.340698242188 978.090148925781 980.995361328125 995.525146484375 991.591796875 984.324401855469 975.783752441406 976.069091796875 982.675964355469 991.143249511719 994.364929199219 995.40966796875 995.457458496094 993.889953613281 1000.36834716797 990.989807128906 996.488647460938 983.519958496094 989.887268066406 991.120483398438 996.255737304688 1000.62921142578 1005.11608886719 1000.33502197266 1004.05499267578 998.199462890625 1011.13500976562 1009.40734863281 1009.58508300781 1015.78991699219 1019.22607421875 1023.50872802734 1023.94714355469 1040.44287109375 1053.05749511719 1049.79772949219 1048.28796386719 1067.49658203125 1077.63696289062 1079.23559570312 1080.11853027344 1060.30285644531 1062.08508300781 1042.76904296875 1041.49462890625 1040.04919433594 1038.37683105469 1034.10046386719 1047.505859375 1047.93054199219 1056.59252929688 1056.4775390625 1054.90881347656 1071.64013671875
954.924072265625 961.614196777344 963.856994628906 961.489013671875 965.148498535156 968.967590332031 972.705322265625 965.761657714844 962.174743652344 955.262634277344 954.814086914062 959.478698730469 957.7451171875 961.136962890625 957.10107421875 959.203369140625 956.026123046875 950.392700195312 957.968078613281 966.529296875 961.798522949219 956.342956542969 953.901672363281 956.5693359375 958.441589355469 950.126892089844 950.018188476562 950.573547363281 949.548889160156 943.241088867188 946.927795410156 950.307556152344 953.203430175781 950.570251464844 946.690612792969 951.375305175781 953.064697265625 954.921875 954.213623046875 951.407958984375 953.350524902344 959.478332519531 960.276184082031 953.707336425781 944.482238769531 952.327575683594 956.365173339844 953.527160644531 959.268737792969 949.324340820312 953.571228027344 949.311462402344 946.918762207031 948.676879882812 955.120056152344 959.248901367188 962.920043945312 962.335388183594 959.283752441406 957.954040527344 964.660766601562 971.69140625 962.780334472656 956.908813476562 956.138977050781 953.3818359375 962.615051269531 966.011413574219 969.573425292969 967.188781738281 966.941772460938 966.710571289062 964.885681152344 962.293640136719 970.013366699219 963.445434570312 963.872436523438 964.474060058594 961.729248046875 954.396179199219 960.087829589844 963.874572753906 969.74853515625 972.586364746094 976.543701171875 970.408142089844 966.327941894531 962.404296875 972.164184570312 973.162048339844 978.4501953125 966.695922851562 967.067626953125 969.210876464844 976.409973144531 979.341979980469 978.308471679688 978.992736816406 981.926513671875 990.977478027344 987.317565917969 976.709045410156 980.077453613281 981.696044921875 991.643981933594 998.918762207031 999.60986328125 1003.00012207031 1006.39312744141 1007.35107421875 1006.09954833984 1006.49670410156 994.7177734375 989.666198730469 988.424011230469 1000.79522705078 996.333435058594 993.556762695312 1005.20513916016 995.956298828125 1003.12298583984 998.750305175781 1004.89007568359 1018.583984375 1012.43328857422 1017.90270996094 1014.2509765625 1025.76611328125 1030.52416992188 1049.28295898438 1044.38317871094 1049.51928710938 1059.59228515625 1060.46398925781 1065.65270996094 1064.19970703125 1073.9033203125 1057.71264648438 1056.80444335938 1046.64013671875 1030.03308105469 1029.45239257812 1027.19213867188 1027.27221679688 1031.01147460938 1041.72546386719 1045.33422851562 1051.43017578125 1050.94958496094 1055.17395019531
961.919311523438 961.211059570312 968.9599609375 971.858642578125 968.572570800781 974.417053222656 971.237731933594 969.083740234375 965.484680175781 958.33349609375 965.5830078125 957.000854492188 953.670715332031 959.186462402344 957.825378417969 962.256042480469 949.385314941406 943.613952636719 949.316772460938 958.352111816406 953.393127441406 950.041259765625 951.298461914062 950.887023925781 946.539245605469 949.135437011719 943.915405273438 943.081237792969 947.916931152344 945.934875488281 952.983581542969 951.797546386719 954.286926269531 952.82666015625 949.765075683594 954.292175292969 949.527770996094 952.760498046875 954.307983398438 952.950439453125 952.311584472656 953.796813964844 954.384704589844 954.927124023438 952.317749023438 951.4775390625 945.351379394531 954.551452636719 961.148864746094 955.998901367188 946.249694824219 947.259338378906 947.800964355469 957.933898925781 957.551086425781 959.565551757812 955.631652832031 961.836059570312 964.081481933594 960.107299804688 974.394348144531 970.22802734375 963.220031738281 953.911560058594 952.332763671875 961.998168945312 963.48876953125 966.342224121094 965.65380859375 974.781616210938 967.571228027344 973.278991699219 965.715393066406 964.7880859375 971.244506835938 970.9228515625 965.339233398438 956.024047851562 964.588439941406 966.360412597656 964.335021972656 977.453918457031 980.614807128906 978.273498535156 973.038940429688 970.186462402344 964.871826171875 966.29638671875 969.845703125 971.365905761719 968.505493164062 971.291687011719 964.125122070312 966.998046875 976.4619140625 980.948486328125 980.155151367188 987.046325683594 989.922180175781 987.580932617188 984.901611328125 984.863952636719 983.799438476562 990.969482421875 999.516784667969 995.367126464844 1005.57342529297 1008.89056396484 1010.57965087891 1009.60333251953 1006.51580810547 1007.72509765625 996.538818359375 993.179626464844 992.664123535156 1003.07995605469 998.809631347656 1002.75354003906 1002.39624023438 996.683227539062 1003.53637695312 1005.71087646484 1010.51409912109 1015.21343994141 1015.28894042969 1009.22332763672 1018.08996582031 1013.61364746094 1029.52600097656 1035.35632324219 1053.46044921875 1052.28442382812 1048.54077148438 1047.08740234375 1054.67407226562 1059.36535644531 1060.97888183594 1060.98828125 1063.77514648438 1047.32751464844 1028.49291992188 1021.33319091797 1014.11682128906 1016.86828613281 1027.73596191406 1032.11962890625 1039.74194335938 1042.15002441406 1039.34802246094 1041.46166992188
962.379699707031 962.28564453125 969.420593261719 969.63916015625 964.204711914062 970.899047851562 959.679931640625 956.953063964844 963.693664550781 965.975036621094 972.627807617188 961.678405761719 962.431579589844 964.364440917969 948.669067382812 954.112426757812 941.684936523438 944.2548828125 950.209289550781 957.52734375 951.134826660156 953.431823730469 948.130493164062 947.211364746094 947.377319335938 948.556823730469 949.084045410156 955.045043945312 938.28662109375 940.596862792969 936.45751953125 950.356262207031 951.719482421875 951.818542480469 946.917236328125 957.944641113281 950.164672851562 958.257751464844 956.245361328125 957.844116210938 956.995544433594 945.772155761719 951.87890625 942.118713378906 952.176452636719 952.374694824219 948.423522949219 942.608947753906 946.156188964844 947.478942871094 948.210266113281 954.686462402344 957.522521972656 959.010070800781 960.64794921875 966.368591308594 968.264282226562 967.551452636719 968.866760253906 974.088500976562 972.747192382812 969.515075683594 962.073181152344 952.794555664062 958.704467773438 963.056030273438 953.921325683594 957.992919921875 965.336364746094 971.745544433594 976.048400878906 970.256042480469 972.991027832031 963.4326171875 968.096008300781 962.044616699219 966.231384277344 955.778442382812 969.641357421875 968.482238769531 972.696655273438 981.660278320312 983.476379394531 980.594604492188 977.453491210938 973.35498046875 975.7451171875 973.578674316406 968.00732421875 971.353820800781 965.502319335938 971.353820800781 969.688842773438 968.73974609375 975.762084960938 981.525817871094 986.161437988281 994.280639648438 987.382568359375 982.674438476562 977.756225585938 982.2978515625 993.096008300781 998.532348632812 1003.11547851562 997.790283203125 1008.1142578125 1005.73779296875 1016.55364990234 1009.248046875 1001.17791748047 1011.17791748047 1006.93518066406 1005.09478759766 1000.33081054688 1002.54248046875 1011.69647216797 1003.35272216797 1002.07897949219 991.775512695312 996.343505859375 1004.32501220703 1009.04852294922 1015.45202636719 1014.34094238281 1013.31146240234 1014.57659912109 1019.02471923828 1023.79663085938 1034.00805664062 1045.60388183594 1050.857421875 1048.25561523438 1043.27966308594 1048.03356933594 1053.42785644531 1052.97216796875 1057.04626464844 1055.9775390625 1043.33190917969 1029.45324707031 1030.67102050781 1019.48999023438 1015.04730224609 1010.54833984375 1024.49243164062 1026.45654296875 1037.00988769531 1038.00537109375 1029.86743164062
957.095031738281 954.99072265625 958.615966796875 962.22998046875 961.773132324219 963.323852539062 956.178527832031 954.020446777344 961.179626464844 965.523986816406 964.801086425781 961.898254394531 956.049560546875 956.747985839844 955.25244140625 953.06103515625 950.643798828125 943.790161132812 941.941345214844 939.873901367188 939.399841308594 939.035400390625 937.378234863281 943.986022949219 947.1552734375 955.95361328125 950.057861328125 957.393005371094 941.443176269531 938.495666503906 935.188232421875 937.849975585938 945.351135253906 951.343139648438 946.306762695312 951.352172851562 954.715515136719 968.166198730469 969.320007324219 960.506896972656 951.367492675781 953.498474121094 949.420166015625 947.3115234375 955.243286132812 947.520629882812 943.110900878906 943.461791992188 948.983581542969 956.163940429688 952.736267089844 956.294860839844 955.721008300781 956.562744140625 964.116027832031 971.292358398438 965.317077636719 960.351013183594 966.657958984375 973.789428710938 964.503540039062 966.872314453125 958.485412597656 955.914733886719 958.786315917969 956.524475097656 959.101623535156 960.418151855469 967.773132324219 971.178161621094 974.091918945312 982.160766601562 970.412292480469 972.408813476562 973.541198730469 967.805419921875 965.25927734375 966.044006347656 963.288452148438 972.765441894531 972.612426757812 979.530883789062 976.704772949219 972.060363769531 976.542175292969 973.741333007812 978.308837890625 976.892333984375 971.444641113281 971.104431152344 960.56494140625 964.002990722656 970.375854492188 963.703674316406 975.168212890625 978.117248535156 984.804260253906 994.350830078125 983.379089355469 979.315673828125 977.742126464844 982.772338867188 981.386657714844 996.047607421875 997.027526855469 1004.51568603516 1006.95831298828 1014.79809570312 1013.50982666016 1008.51690673828 1004.36285400391 1006.18872070312 1008.64654541016 1001.54583740234 1012.41253662109 1010.94091796875 1015.59283447266 1025.08276367188 1014.67370605469 1005.99145507812 1002.20935058594 1011.16680908203 1013.13592529297 1018.17114257812 1013.65972900391 1016.98205566406 1007.33081054688 1018.65490722656 1021.54516601562 1025.31311035156 1033.40637207031 1043.02954101562 1044.25671386719 1038.36145019531 1048.373046875 1050.02819824219 1049.59399414062 1051.14245605469 1046.00769042969 1041.59997558594 1037.59191894531 1027.12744140625 1022.74108886719 1015.11291503906 1014.12457275391 1018.91784667969 1023.48913574219 1022.4326171875 1018.43530273438 1027.75402832031
957.085998535156 955.066040039062 959.363952636719 956.054565429688 964.397521972656 956.747924804688 958.5771484375 952.367797851562 961.189147949219 960.716125488281 967.27294921875 965.189208984375 957.203308105469 949.397399902344 946.095581054688 945.415588378906 948.026245117188 946.261108398438 940.741882324219 941.072937011719 946.049255371094 941.0732421875 933.841918945312 936.558410644531 940.282592773438 944.904235839844 952.846496582031 947.339050292969 943.770751953125 935.745544433594 930.827514648438 943.711059570312 942.812194824219 949.872863769531 953.903015136719 953.2919921875 951.554382324219 950.349060058594 957.759216308594 959.201293945312 955.652282714844 965.905456542969 961.959594726562 952.598022460938 954.040344238281 947.133239746094 947.537048339844 940.666748046875 952.289916992188 960.394104003906 964.063232421875 960.608642578125 959.489990234375 968.681884765625 972.960693359375 967.628295898438 967.667663574219 960.345642089844 963.54248046875 971.988220214844 970.893432617188 964.384399414062 954.845336914062 957.937866210938 960.402526855469 956.79443359375 950.613525390625 957.731811523438 962.390014648438 975.696472167969 985.474609375 985.819763183594 979.329772949219 974.170593261719 972.694641113281 964.140258789062 963.013549804688 967.119567871094 967.098815917969 969.904174804688 976.873229980469 976.600402832031 980.568115234375 982.61865234375 980.380920410156 974.308288574219 979.797302246094 976.337890625 973.065185546875 960.856689453125 961.747436523438 964.077331542969 957.3369140625 960.794128417969 967.706726074219 973.857116699219 988.071594238281 988.158264160156 981.735900878906 979.357238769531 982.734680175781 986.925598144531 984.503479003906 998.496887207031 996.900817871094 995.763305664062 1009.95526123047 1010.68017578125 1007.91943359375 1005.22637939453 1001.52087402344 998.651733398438 1002.07208251953 1001.37658691406 1010.0927734375 1019.16003417969 1022.42578125 1027.49609375 1021.34716796875 1016.083984375 1016.05212402344 1010.92657470703 1022.35565185547 1021.25640869141 1024.51293945312 1018.64666748047 1012.56127929688 1020.80364990234 1023.22094726562 1023.63427734375 1024.13635253906 1041.03137207031 1041.27819824219 1041.919921875 1039.39660644531 1045.63061523438 1044.56115722656 1043.55017089844 1040.884765625 1037.29711914062 1038.74694824219 1028.68640136719 1017.408203125 1019.52392578125 1011.77783203125 1013.62841796875 1017.7431640625 1013.86492919922 1015.81353759766 1027.97009277344
951.705261230469 950.078735351562 957.630554199219 951.489624023438 957.057556152344 951.801513671875 956.494689941406 960.094543457031 955.760620117188 948.022888183594 959.275390625 956.496704101562 950.128356933594 944.086303710938 945.195129394531 942.98828125 944.662231445312 943.627563476562 941.778198242188 945.262756347656 945.46875 948.899963378906 940.175537109375 943.040771484375 938.268859863281 943.967041015625 944.852294921875 945.526977539062 938.394775390625 937.533569335938 941.788879394531 944.011291503906 951.125671386719 955.093811035156 944.170349121094 949.219177246094 948.604614257812 946.632507324219 948.716003417969 948.806335449219 954.787170410156 964.993286132812 962.999816894531 968.285400390625 962.569946289062 958.984436035156 953.853942871094 950.746826171875 960.660034179688 965.502258300781 962.681579589844 972.206420898438 964.576171875 963.058227539062 966.641845703125 969.880676269531 972.444702148438 970.631591796875 980.169799804688 978.938049316406 966.162414550781 959.143737792969 965.393188476562 961.616394042969 959.842956542969 959.028259277344 963.611511230469 969.548828125 970.74267578125 982.100280761719 987.985656738281 980.20166015625 981.095458984375 970.245056152344 974.092163085938 970.175720214844 966.085510253906 976.765380859375 969.55322265625 972.614196777344 974.634826660156 969.848815917969 975.002746582031 982.349365234375 983.476928710938 980.546630859375 974.838500976562 971.773864746094 976.788635253906 978.454284667969 967.584411621094 967.932189941406 960.687438964844 959.869201660156 970.289184570312 972.631103515625 981.755126953125 979.813781738281 980.818237304688 976.912780761719 974.366943359375 982.186950683594 992.8017578125 988.317565917969 987.640625 991.538269042969 997.794067382812 1001.88922119141 997.53662109375 1007.73284912109 1005.224609375 1008.15942382812 1004.7021484375 1006.82098388672 1011.55438232422 1022.93701171875 1025.38549804688 1029.5390625 1032.42602539062 1029.21606445312 1029.25231933594 1022.87329101562 1017.42742919922 1024.25073242188 1022.25231933594 1015.89813232422 1005.08337402344 1016.87725830078 1023.03436279297 1029.68432617188 1024.21984863281 1032.71862792969 1043.78674316406 1039.7939453125 1038.04052734375 1041.21813964844 1038.72888183594 1030.48962402344 1031.85314941406 1036.66711425781 1031.64147949219 1035.01086425781 1018.65948486328 1030.79089355469 1023.43328857422 1020.77996826172 1010.55017089844 1011.03576660156 1022.45666503906 1031.32702636719
954.209228515625 952.726196289062 956.665161132812 952.885864257812 959.283264160156 956.60205078125 950.152648925781 947.251403808594 953.81494140625 949.149963378906 949.249389648438 947.320434570312 949.008117675781 941.244262695312 937.450317382812 945.014526367188 948.904052734375 935.920043945312 933.716552734375 936.867370605469 941.311706542969 947.679931640625 937.9228515625 942.864929199219 945.741760253906 945.782531738281 953.239624023438 952.361877441406 940.492858886719 938.704040527344 943.417297363281 939.966430664062 945.238525390625 956.250549316406 947.800598144531 948.972961425781 953.159423828125 946.329956054688 954.921081542969 958.904174804688 957.850524902344 954.375061035156 956.195373535156 956.518432617188 963.789001464844 965.892272949219 956.655029296875 962.218444824219 969.419677734375 974.290710449219 970.679992675781 978.736694335938 972.700805664062 972.974609375 970.924072265625 974.585571289062 972.075012207031 978.296936035156 965.584411621094 976.777038574219 966.94091796875 967.635681152344 960.773010253906 962.902709960938 959.003723144531 965.570556640625 963.823913574219 971.198669433594 973.048400878906 979.54638671875 986.406372070312 974.768615722656 985.4462890625 979.872619628906 978.255126953125 978.321594238281 972.447875976562 971.090270996094 973.350158691406 970.125244140625 970.72021484375 975.691589355469 983.387756347656 981.23828125 986.523376464844 975.603271484375 970.234985351562 971.342041015625 974.885559082031 976.493530273438 975.078735351562 970.8427734375 965.957214355469 968.978820800781 972.13134765625 974.422912597656 988.291442871094 985.335571289062 982.236022949219 979.58154296875 981.247741699219 986.497924804688 995.404052734375 997.467651367188 989.369445800781 993.4033203125 999.9326171875 1007.62866210938 1008.86437988281 1010.98223876953 1006.1015625 1012.23663330078 1009.92523193359 1008.76245117188 1013.71453857422 1031.08117675781 1027.11254882812 1035.26403808594 1036.34826660156 1035.146484375 1034.38598632812 1029.21203613281 1023.09844970703 1018.99304199219 1026.84973144531 1013.29327392578 1012.55871582031 1015.87463378906 1011.24432373047 1024.22619628906 1031.38195800781 1036.70861816406 1041.66613769531 1039.24523925781 1034.79907226562 1030.52478027344 1020.87817382812 1031.27844238281 1028.24609375 1031.58959960938 1037.59338378906 1033.41760253906 1026.60083007812 1024.40637207031 1020.58538818359 1021.41674804688 1013.95983886719 1016.52178955078 1024.86291503906 1028.03076171875
953.567443847656 959.242004394531 957.91943359375 953.889770507812 949.978210449219 952.991271972656 945.685180664062 948.171691894531 941.19677734375 946.402160644531 944.352966308594 942.093505859375 944.843322753906 937.387878417969 926.276672363281 937.184692382812 947.071105957031 942.97314453125 943.508117675781 947.640930175781 948.078125 948.324157714844 947.248291015625 946.650451660156 947.338317871094 948.179565429688 965.319580078125 951.471740722656 955.72314453125 948.083862304688 947.080749511719 946.279479980469 953.969604492188 957.442932128906 955.186889648438 959.611267089844 951.74072265625 944.741516113281 954.323852539062 953.642761230469 954.341125488281 962.924438476562 959.708557128906 960.483642578125 962.476013183594 956.328186035156 961.825866699219 965.9775390625 977.245849609375 966.987182617188 963.6298828125 975.681945800781 976.065734863281 972.072998046875 972.595153808594 973.976318359375 972.224304199219 973.565795898438 979.062255859375 979.047973632812 974.273010253906 968.446166992188 974.048156738281 967.066711425781 961.41943359375 968.294189453125 965.344421386719 968.995483398438 972.870727539062 983.432312011719 988.693542480469 983.987854003906 975.230102539062 982.497497558594 976.810424804688 982.233581542969 982.748107910156 975.434509277344 983.089904785156 974.552856445312 974.580017089844 978.629943847656 983.322875976562 983.479858398438 983.031982421875 984.479125976562 975.720642089844 977.095275878906 982.132751464844 982.9404296875 984.451171875 978.167114257812 971.954284667969 982.074829101562 984.948120117188 988.62890625 985.224914550781 995.480651855469 992.654479980469 989.300842285156 982.198120117188 989.859436035156 992.529418945312 992.655944824219 990.034729003906 1005.81097412109 1009.63891601562 1005.32775878906 1014.54699707031 1010.63116455078 1011.212890625 1004.12738037109 1011.52056884766 1018.18420410156 1023.55187988281 1031.1171875 1033.10705566406 1034.77868652344 1039.76892089844 1040.16796875 1033.76403808594 1040.06665039062 1035.70727539062 1034.62451171875 1033.91101074219 1027.50500488281 1017.57995605469 1011.75573730469 1022.01550292969 1017.87786865234 1023.66400146484 1024.23840332031 1031.99621582031 1032.96887207031 1030.7978515625 1020.18475341797 1019.19891357422 1021.39489746094 1023.68493652344 1028.052734375 1031.27685546875 1024.0126953125 1018.95758056641 1020.16357421875 1022.03839111328 1014.37005615234 1011.35107421875 1016.50872802734 1017.23724365234 1025.06884765625
963.143005371094 964.60400390625 951.01416015625 949.64013671875 945.752075195312 946.636901855469 945.421691894531 942.34375 939.553771972656 946.270935058594 949.062866210938 952.05615234375 938.138916015625 933.684326171875 935.340454101562 936.624084472656 952.398681640625 960.860412597656 952.8564453125 952.080383300781 954.313049316406 956.054443359375 952.807434082031 944.609497070312 951.587524414062 952.780395507812 962.107421875 969.865051269531 959.573669433594 958.662780761719 956.903686523438 955.352600097656 954.86572265625 960.512634277344 959.743896484375 958.250122070312 951.230102539062 956.035705566406 955.261840820312 955.240783691406 955.604248046875 953.5478515625 963.9638671875 963.236145019531 973.474853515625 971.977172851562 976.721923828125 978.963806152344 983.217163085938 977.839904785156 976.684020996094 978.813354492188 980.064270019531 978.304321289062 980.496032714844 978.296691894531 980.872436523438 978.385375976562 988.071716308594 974.986083984375 975.294860839844 968.455871582031 968.792358398438 971.953369140625 962.788879394531 966.609680175781 966.076110839844 968.409484863281 974.309997558594 984.234680175781 993.452209472656 988.230712890625 982.641784667969 977.515625 982.450927734375 978.786560058594 974.46630859375 985.381530761719 984.233093261719 986.4619140625 982.559753417969 977.924133300781 981.135681152344 990.136291503906 991.135131835938 988.525512695312 989.4951171875 987.721435546875 992.734375 980.037414550781 980.754638671875 979.365051269531 982.226928710938 987.120178222656 988.837463378906 988.68896484375 988.140991210938 990.927551269531 998.350341796875 993.395263671875 988.229614257812 986.107360839844 980.865966796875 985.783752441406 993.347473144531 1005.36450195312 1000.40991210938 1007.90588378906 1011.72387695312 1020.78155517578 1017.39440917969 1006.47131347656 1011.42681884766 1016.04260253906 1020.61938476562 1024.69995117188 1033.1513671875 1034.75695800781 1042.24548339844 1043.44836425781 1039.14343261719 1038.26977539062 1039.74304199219 1035.69799804688 1036.73571777344 1026.38439941406 1030.59912109375 1020.62054443359 1021.13171386719 1012.71014404297 1010.8359375 1017.56457519531 1027.84045410156 1036.12219238281 1027.55944824219 1027.65734863281 1024.22497558594 1025.29174804688 1019.58068847656 1030.35461425781 1019.36029052734 1015.25903320312 1015.26000976562 1007.29046630859 1015.94836425781 1009.32971191406 1004.50329589844 1008.17041015625 1013.35314941406 1018.58056640625
957.976501464844 960.398864746094 947.794006347656 946.405090332031 936.060668945312 938.454284667969 943.777709960938 946.831359863281 948.10986328125 947.984497070312 950.577270507812 943.119689941406 943.166198730469 942.697387695312 945.218872070312 942.701965332031 950.55810546875 964.007690429688 962.785888671875 964.283996582031 963.685546875 950.897583007812 955.359191894531 954.636901855469 959.306396484375 962.013793945312 956.980224609375 964.97216796875 963.516784667969 964.341064453125 962.112121582031 958.222839355469 960.422241210938 949.626708984375 956.195373535156 954.648986816406 955.1337890625 954.134948730469 958.742004394531 964.481323242188 966.219055175781 968.99560546875 971.306945800781 971.562683105469 986.080810546875 983.001647949219 985.149658203125 985.650024414062 978.501159667969 973.714294433594 977.146667480469 985.059143066406 981.259155273438 972.160583496094 981.455505371094 980.278198242188 982.683166503906 977.789733886719 974.608947753906 976.571716308594 975.177185058594 965.827026367188 974.149597167969 962.4970703125 974.933288574219 978.78369140625 969.651916503906 978.777160644531 980.063354492188 984.201904296875 981.274658203125 979.471740722656 979.234924316406 975.809692382812 985.686767578125 982.946472167969 981.928161621094 972.533569335938 988.999145507812 977.071960449219 985.097778320312 982.25830078125 986.054443359375 995.45849609375 989.568115234375 983.621948242188 984.206420898438 990.988891601562 990.332214355469 981.7421875 981.416564941406 982.528869628906 979.849731445312 980.228759765625 990.257751464844 988.218383789062 988.687744140625 993.018310546875 995.363342285156 996.634094238281 991.51123046875 988.072387695312 986.198364257812 991.197387695312 996.833374023438 998.47412109375 1007.55743408203 1011.36218261719 1008.26922607422 1016.77142333984 1015.52392578125 1011.04162597656 1016.84716796875 1030.44873046875 1015.43664550781 1031.47973632812 1044.80285644531 1044.646484375 1042.90393066406 1048.267578125 1047.2841796875 1040.32348632812 1046.62841796875 1041.84521484375 1031.81103515625 1040.14392089844 1023.91680908203 1019.64379882812 1023.34020996094 1005.95349121094 1007.80944824219 1015.52258300781 1027.57800292969 1025.77087402344 1024.666015625 1023.75958251953 1022.96569824219 1024.60534667969 1019.33605957031 1018.35345458984 1022.10083007812 1012.96887207031 1002.72937011719 1004.79321289062 1006.00549316406 1000.41204833984 993.634155273438 1002.95544433594 1004.29290771484 1006.41174316406
951.411926269531 953.923645019531 957.75 954.862487792969 945.192504882812 930.262756347656 938.011779785156 943.064208984375 940.679382324219 954.47412109375 948.251281738281 952.934997558594 952.234802246094 955.145812988281 958.167358398438 961.628723144531 956.864929199219 961.111083984375 963.589172363281 965.367736816406 962.25830078125 963.452087402344 956.155700683594 957.219360351562 953.434326171875 964.324829101562 966.181030273438 960.769470214844 967.268432617188 971.31005859375 961.953247070312 972.816833496094 973.702026367188 955.541076660156 957.847717285156 959.508239746094 960.300598144531 956.299194335938 962.599304199219 970.503112792969 971.121154785156 970.785400390625 978.410034179688 994.151428222656 998.154907226562 998.080749511719 990.498291015625 988.908630371094 983.805847167969 981.228454589844 985.188903808594 980.679016113281 983.848571777344 985.980529785156 984.517028808594 987.798461914062 981.60546875 977.085632324219 975.241455078125 982.711242675781 970.423950195312 964.44482421875 963.083435058594 967.646667480469 971.369445800781 979.447937011719 975.385681152344 970.665100097656 972.347595214844 966.814331054688 981.214111328125 983.545715332031 982.512756347656 983.666076660156 991.060363769531 984.784301757812 985.700500488281 995.549255371094 992.998352050781 982.949523925781 984.108032226562 984.931762695312 987.57470703125 990.261901855469 988.301147460938 987.058471679688 980.266357421875 980.313354492188 983.422607421875 985.511779785156 986.792419433594 983.030395507812 984.417419433594 990.32763671875 989.246643066406 986.430297851562 997.970153808594 991.720092773438 1000.13696289062 998.623352050781 997.618957519531 987.170043945312 981.429138183594 989.885009765625 1001.01788330078 1004.54034423828 1009.08477783203 1025.44287109375 1012.10021972656 1012.61431884766 1020.43975830078 1020.21801757812 1017.42309570312 1020.23870849609 1020.76318359375 1026.63745117188 1039.49377441406 1037.57434082031 1044.84411621094 1055.17639160156 1055.189453125 1041.61401367188 1046.31298828125 1031.84887695312 1033.92724609375 1036.1328125 1026.62072753906 1017.76507568359 1017.79144287109 1011.45324707031 1011.00201416016 1017.50756835938 1017.60015869141 1018.56231689453 1016.88598632812 1028.16882324219 1019.75006103516 1023.73577880859 1023.49536132812 1024.568359375 1015.2294921875 1004.3037109375 995.918395996094 1001.69543457031 993.817749023438 987.801391601562 1001.32788085938 993.481323242188 999.044616699219 998.957946777344
951.7724609375 947.9833984375 950.390075683594 950.284240722656 939.555419921875 931.706481933594 932.076904296875 940.422607421875 950.452880859375 953.538208007812 956.940063476562 952.150756835938 955.849975585938 963.518127441406 960.4169921875 964.799621582031 960.276489257812 971.0166015625 966.485229492188 965.262573242188 969.432006835938 970.416870117188 966.434265136719 969.614318847656 969.058166503906 977.147644042969 971.160888671875 967.210266113281 968.531494140625 966.942932128906 968.703674316406 961.456359863281 958.975280761719 957.696472167969 955.120910644531 956.63623046875 964.919616699219 972.623229980469 972.949462890625 972.875854492188 980.525939941406 980.834594726562 992.582336425781 1002.75177001953 1000.45935058594 997.296813964844 990.971923828125 986.59033203125 989.403503417969 986.524230957031 984.245849609375 988.774658203125 987.173828125 989.078002929688 993.218994140625 998.958129882812 992.180236816406 984.319580078125 976.094604492188 978.588806152344 974.013122558594 969.970642089844 953.379455566406 968.4775390625 971.540710449219 972.166015625 966.907043457031 971.646301269531 966.883666992188 969.717102050781 970.447937011719 984.859802246094 986.067932128906 982.257446289062 983.607421875 980.024169921875 984.057495117188 991.271179199219 986.5849609375 985.731201171875 991.84130859375 984.420715332031 989.075378417969 982.534729003906 980.697387695312 980.852111816406 980.109619140625 975.613830566406 979.793273925781 976.367919921875 979.498657226562 981.280944824219 981.545532226562 988.040832519531 995.302185058594 991.985900878906 995.9580078125 996.997009277344 996.282409667969 999.330322265625 994.406372070312 988.958190917969 986.283386230469 987.950561523438 1009.24768066406 1009.66955566406 1009.95556640625 1018.54833984375 1018.91510009766 1018.93475341797 1015.97528076172 1024.32702636719 1015.85748291016 1019.94897460938 1023.00836181641 1024.06909179688 1039.75939941406 1039.76440429688 1041.83251953125 1039.56970214844 1036.67126464844 1034.52734375 1042.79992675781 1038.68530273438 1038.107421875 1031.12133789062 1024.56872558594 1021.79254150391 1018.33074951172 1011.84246826172 1019.32843017578 1018.10791015625 1020.46911621094 1023.74700927734 1025.82531738281 1025.42041015625 1015.63629150391 1013.10498046875 1016.869140625 1009.12646484375 1008.45104980469 999.122924804688 1001.63195800781 1007.82824707031 1004.12817382812 983.237426757812 988.475280761719 1000.10815429688 1002.15380859375 1004.55523681641
946.153869628906 940.859130859375 938.426025390625 935.293151855469 932.569091796875 933.063232421875 928.213684082031 944.65966796875 946.909912109375 962.341064453125 960.827697753906 963.776489257812 969.63330078125 970.064636230469 969.334716796875 958.803771972656 963.130615234375 958.867736816406 967.078552246094 973.092529296875 975.015625 973.292419433594 977.358642578125 971.859619140625 980.471557617188 974.910461425781 973.597473144531 971.859313964844 970.309265136719 978.582092285156 974.35986328125 971.052124023438 965.872436523438 958.750793457031 957.896423339844 961.780578613281 970.890380859375 978.321411132812 976.42724609375 976.521545410156 981.798522949219 991.329284667969 1001.20050048828 1005.65472412109 1002.26635742188 990.521667480469 993.687377929688 992.773681640625 990.857238769531 993.151428222656 988.087707519531 991.199768066406 986.65234375 986.292907714844 998.882934570312 994.014953613281 990.305541992188 982.959289550781 983.239379882812 982.593811035156 970.600219726562 971.876586914062 964.711120605469 970.858764648438 975.594177246094 976.167785644531 979.344299316406 976.528686523438 971.762451171875 964.415649414062 976.653625488281 988.292663574219 983.656494140625 981.110168457031 980.132873535156 981.315002441406 983.654113769531 986.510803222656 985.050903320312 992.528137207031 992.2822265625 989.79052734375 978.0390625 973.248168945312 977.927490234375 975.884704589844 979.297302246094 972.447570800781 976.7607421875 988.335327148438 986.946533203125 988.124389648438 987.039428710938 983.731872558594 988.298706054688 991.120788574219 997.79345703125 1001.93756103516 1013.88568115234 1003.93664550781 993.387023925781 1002.2392578125 988.156921386719 989.780151367188 999.851318359375 1010.2470703125 1016.79211425781 1020.21368408203 1025.82287597656 1019.94519042969 1028.40063476562 1028.84899902344 1029.8037109375 1034.13928222656 1023.98876953125 1029.2802734375 1026.11181640625 1033.73486328125 1034.04772949219 1024.11437988281 1024.78344726562 1037.39270019531 1034.94885253906 1037.07934570312 1029.3115234375 1022.18200683594 1019.88946533203 1017.61956787109 1011.00805664062 1013.34295654297 1021.16284179688 1014.46942138672 1014.93695068359 1022.74072265625 1020.14849853516 1022.13043212891 1016.06201171875 1012.96667480469 1008.87036132812 1003.65490722656 1005.93170166016 1008.11181640625 998.028686523438 990.544738769531 998.880310058594 990.55859375 981.134765625 984.910461425781 1004.21368408203 995.353820800781
941.442260742188 938.294555664062 941.455627441406 931.486511230469 929.159057617188 931.184143066406 934.326171875 941.890930175781 948.006591796875 952.394287109375 956.087524414062 968.464111328125 967.439880371094 970.0927734375 970.719482421875 963.42333984375 965.357360839844 968.877380371094 978.917541503906 975.106323242188 982.045959472656 980.392028808594 979.877502441406 982.25830078125 982.613830566406 989.506408691406 982.300170898438 983.495239257812 973.877624511719 974.060729980469 972.443359375 967.343017578125 969.644836425781 963.591674804688 976.630310058594 979.9794921875 986.406372070312 988.427551269531 983.483276367188 979.866516113281 988.112548828125 1002.05615234375 1004.19281005859 1003.59674072266 1003.94799804688 998.194763183594 994.745666503906 996.254028320312 997.376220703125 994.638610839844 981.697448730469 983.360473632812 994.912170410156 992.894592285156 993.663024902344 984.350891113281 987.250366210938 986.377380371094 977.21826171875 975.878662109375 979.607727050781 976.880920410156 972.976501464844 980.752258300781 977.947509765625 979.434448242188 981.151306152344 986.77978515625 980.248901367188 972.854431152344 979.801208496094 982.592163085938 985.6669921875 982.896850585938 978.020812988281 974.0927734375 981.801330566406 982.12353515625 987.170532226562 987.319519042969 992.601440429688 983.827941894531 981.959777832031 981.420593261719 982.505432128906 980.560668945312 983.829956054688 980.227233886719 980.364318847656 983.784057617188 988.823486328125 988.190795898438 983.109619140625 980.139831542969 975.581970214844 995.625793457031 997.417419433594 1000.9033203125 1012.17767333984 1007.21716308594 996.97900390625 1002.47680664062 988.546203613281 993.236206054688 1002.82489013672 1012.37738037109 1031.18664550781 1027.41088867188 1028.87329101562 1019.21148681641 1023.52398681641 1033.765625 1030.86499023438 1033.10424804688 1026.80810546875 1021.90686035156 1022.76818847656 1031.28979492188 1032.30529785156 1025.09887695312 1027.81372070312 1028.34997558594 1026.99328613281 1029.02172851562 1023.74578857422 1012.32495117188 1010.91253662109 1010.35540771484 1010.25378417969 1002.15643310547 1013.56182861328 1021.82952880859 1017.927734375 1024.9765625 1015.93035888672 1017.25750732422 1023.53283691406 1018.43829345703 1008.06658935547 1001.55310058594 1000.92193603516 998.082946777344 997.357604980469 998.686401367188 999.456237792969 984.432067871094 977.630187988281 977.979431152344 993.411804199219 995.7744140625
942.259826660156 932.03857421875 933.334167480469 937.180725097656 939.369812011719 937.782653808594 933.878112792969 936.756103515625 941.228881835938 947.918518066406 951.007202148438 968.500427246094 978.429870605469 983.39501953125 977.952087402344 970.098388671875 974.482421875 976.932861328125 976.737121582031 974.785583496094 978.376953125 987.249633789062 980.409240722656 977.7919921875 988.961486816406 982.818054199219 992.329223632812 985.976013183594 976.781616210938 970.466796875 971.619018554688 964.6708984375 970.3720703125 979.5869140625 980.380432128906 992.667175292969 1012.04290771484 1001.60729980469 996.216491699219 1001.84185791016 1001.0390625 1004.423828125 1004.24890136719 1008.62927246094 1013.64575195312 996.786071777344 997.177124023438 994.534057617188 995.288391113281 1002.37902832031 998.657165527344 991.609130859375 998.90087890625 995.609741210938 998.931213378906 999.232604980469 996.961181640625 977.782409667969 980.71044921875 979.848999023438 982.67529296875 976.884216308594 973.59765625 985.391479492188 982.119567871094 984.836120605469 980.333984375 984.577758789062 983.284606933594 983.107177734375 988.527709960938 985.128295898438 982.049743652344 984.962951660156 984.512390136719 987.709594726562 986.608032226562 995.507873535156 996.766906738281 997.124084472656 995.948608398438 978.8017578125 986.630493164062 984.458984375 990.397827148438 986.011901855469 988.996154785156 994.083862304688 991.482604980469 985.098510742188 990.848815917969 985.007995605469 976.588256835938 979.422302246094 982.603820800781 995.362365722656 1009.77758789062 1007.00970458984 1005.89440917969 1009.10540771484 1003.83343505859 1003.56597900391 996.461669921875 995.915954589844 1004.59265136719 1015.81219482422 1019.54162597656 1021.57208251953 1017.92535400391 1027.45349121094 1028.109375 1033.84228515625 1032.56555175781 1029.88256835938 1022.71600341797 1019.30004882812 1016.68414306641 1022.51110839844 1028.26989746094 1023.75811767578 1022.52655029297 1019.60015869141 1024.54675292969 1027.0146484375 1026.21459960938 1023.51580810547 1010.20367431641 1007.11163330078 1005.55700683594 1005.55163574219 1013.17852783203 1014.16387939453 1012.45471191406 1019.78436279297 1016.45275878906 1019.20294189453 1010.625 1011.55377197266 1010.64135742188 1000.73175048828 993.935180664062 994.558044433594 994.098693847656 990.214904785156 988.968994140625 984.021667480469 979.789123535156 983.821716308594 999.212951660156 1003.66387939453
942.505798339844 938.361999511719 934.097473144531 940.748657226562 935.418395996094 931.621826171875 930.700805664062 930.74755859375 947.515014648438 951.723999023438 958.015075683594 969.181579589844 970.671508789062 969.340515136719 979.082702636719 977.356140136719 976.657165527344 972.244934082031 981.61962890625 976.75244140625 984.145446777344 980.369323730469 984.256408691406 987.819519042969 982.465454101562 981.271057128906 988.008850097656 982.699340820312 973.559448242188 961.937255859375 966.980529785156 966.795593261719 974.7314453125 978.740173339844 987.704650878906 997.235595703125 1006.20043945312 998.6533203125 1003.22747802734 1004.25384521484 1004.89642333984 1011.92889404297 1008.97485351562 1007.91955566406 1010.62872314453 1009.68884277344 1011.22784423828 1014.04437255859 1004.52496337891 1004.33087158203 1006.17620849609 997.273132324219 1002.66510009766 997.465881347656 995.000427246094 981.355651855469 986.712280273438 976.732177734375 981.993896484375 979.236083984375 983.382568359375 977.29150390625 977.273193359375 979.79296875 976.988220214844 982.279296875 979.445129394531 982.443237304688 988.747619628906 984.801208496094 991.099365234375 991.053527832031 984.058654785156 988.746643066406 995.290893554688 993.858764648438 999.847839355469 999.389526367188 999.786926269531 1001.20855712891 991.967102050781 996.74462890625 999.165710449219 996.264587402344 996.551452636719 996.996154785156 994.973876953125 999.486999511719 993.347412109375 987.640686035156 990.635498046875 982.265380859375 992.250061035156 981.035949707031 986.012817382812 998.529724121094 1003.98999023438 1008.47058105469 1008.93994140625 1009.52795410156 1002.99346923828 1009.06768798828 1004.17724609375 1008.82196044922 1014.88018798828 1022.77850341797 1021.76770019531 1023.74584960938 1020.79290771484 1025.29235839844 1024.10559082031 1034.58337402344 1033.6826171875 1026.64697265625 1023.12384033203 1017.36395263672 1021.87182617188 1017.11724853516 1022.20971679688 1019.65283203125 1016.41162109375 1014.11889648438 1020.99493408203 1028.61022949219 1023.36877441406 1024.74084472656 1013.16046142578 1008.953125 1010.08227539062 1011.46325683594 1012.98614501953 1006.18536376953 1004.7490234375 1011.66296386719 1021.87219238281 1015.63134765625 1013.02355957031 1008.28704833984 1001.01037597656 998.07080078125 990.49462890625 987.422302246094 989.061401367188 983.084045410156 981.5107421875 985.039672851562 986.494812011719 991.92529296875 998.508422851562 1002.46264648438
951.256164550781 941.431640625 928.802307128906 932.464050292969 942.012573242188 937.457214355469 938.627563476562 943.711975097656 943.614074707031 944.650451660156 953.637329101562 961.193725585938 973.932739257812 972.185241699219 981.789001464844 982.891662597656 971.836853027344 971.425537109375 969.161437988281 975.698974609375 983.623474121094 990.373901367188 992.033630371094 987.687133789062 986.70751953125 983.868713378906 992.681945800781 981.192321777344 975.978210449219 967.684020996094 971.041809082031 978.740173339844 977.249694824219 979.781433105469 983.295593261719 998.332336425781 997.998657226562 994.435913085938 995.783264160156 1003.30828857422 1008.42791748047 1006.68920898438 1007.85522460938 1006.34252929688 1006.44744873047 1014.08221435547 1020.93450927734 1017.90368652344 1011.98272705078 1004.61596679688 1003.92663574219 998.272399902344 995.360717773438 995.052124023438 991.565551757812 986.476989746094 983.426086425781 978.119201660156 977.940246582031 978.351684570312 980.03125 973.962524414062 974.84375 973.277404785156 980.67333984375 979.642517089844 986.498901367188 994.221008300781 990.667846679688 982.378601074219 980.259887695312 988.56494140625 989.362243652344 996.550415039062 994.542785644531 996.814514160156 1000.39947509766 991.40966796875 993.253051757812 998.268615722656 997.278930664062 1001.20855712891 1008.34497070312 1009.38323974609 1000.62036132812 1000.48358154297 993.964233398438 1004.03442382812 1001.9775390625 998.732116699219 996.373291015625 996.133911132812 995.217468261719 985.628784179688 984.687255859375 993.6259765625 996.394348144531 997.756896972656 1000.02850341797 1007.34118652344 1008.69757080078 1007.22064208984 1003.52575683594 1016.33422851562 1019.22619628906 1022.63836669922 1025.78479003906 1027.07360839844 1026.99755859375 1026.95397949219 1030.73522949219 1028.04736328125 1034.16125488281 1027.21899414062 1029.09729003906 1019.85430908203 1019.37438964844 1009.74108886719 1013.20111083984 1013.81921386719 1017.33972167969 1010.45977783203 1015.93896484375 1014.61157226562 1016.11822509766 1014.26544189453 1010.46734619141 1006.12091064453 1003.03735351562 1004.87646484375 1011.89819335938 997.188049316406 1006.75042724609 1012.150390625 1016.62445068359 1013.03186035156 1014.86499023438 1008.66516113281 999.134033203125 996.4287109375 984.695068359375 992.476928710938 985.194030761719 982.095458984375 985.933837890625 994.505981445312 988.833862304688 989.695556640625 1001.65954589844 1003.10925292969
943.1220703125 942.997741699219 940.407470703125 933.988464355469 931.8046875 940.996887207031 939.884948730469 934.419128417969 936.492919921875 942.382995605469 946.467102050781 959.088928222656 976.138610839844 982.0400390625 988.781005859375 983.063110351562 978.072937011719 972.681091308594 974.138610839844 975.16943359375 983.046997070312 989.560852050781 994.123962402344 984.916564941406 987.518920898438 983.63427734375 995.613525390625 999.387512207031 991.591857910156 989.305480957031 973.339599609375 975.206237792969 980.3408203125 986.914428710938 991.305236816406 999.670471191406 993.490478515625 998.006408691406 1000.08154296875 1002.10632324219 1012.53393554688 1007.20465087891 1006.52557373047 1006.30554199219 1010.66363525391 1011.85418701172 1013.92889404297 1015.15673828125 1017.39556884766 1009.7607421875 1010.05047607422 993.798767089844 995.383422851562 985.840576171875 985.082214355469 980.329040527344 982.013793945312 976.789855957031 978.866333007812 981.414978027344 975.044006347656 978.144958496094 964.786499023438 970.104431152344 969.890258789062 975.729064941406 985.753784179688 992.378540039062 986.957580566406 973.746337890625 983.382751464844 985.869995117188 994.813110351562 998.689819335938 1000.48132324219 1001.22631835938 999.267150878906 989.3583984375 994.605895996094 1002.25207519531 1006.47924804688 1001.61279296875 1005.97393798828 1014.70245361328 1004.60021972656 1005.38604736328 998.12744140625 1002.77600097656 998.4443359375 989.38330078125 999.910766601562 999.55908203125 995.563720703125 990.623291015625 998.5908203125 990.504638671875 998.578979492188 996.843627929688 998.180236816406 1003.34033203125 1006.46948242188 1008.13568115234 1009.96246337891 1009.59155273438 1011.48944091797 1014.82427978516 1025.66662597656 1016.974609375 1032.05212402344 1022.90808105469 1027.5791015625 1026.83203125 1023.2265625 1021.00408935547 1026.91137695312 1016.78033447266 1018.95092773438 1015.47106933594 1019.95617675781 1023.28729248047 1018.08831787109 1024.53662109375 1020.41687011719 1012.43029785156 1014.61053466797 1016.08831787109 1008.68029785156 1016.62841796875 1005.16259765625 1001.95367431641 1010.95593261719 994.643676757812 1001.8017578125 1009.05505371094 1006.43353271484 1013.79736328125 1009.17407226562 1005.89526367188 996.490661621094 984.371765136719 981.057678222656 973.762512207031 978.206481933594 978.006164550781 975.55712890625 986.62841796875 980.447937011719 981.365844726562 988.030822753906 1000.27777099609
941.710876464844 936.949645996094 937.636291503906 948.227905273438 947.693664550781 948.057373046875 943.258361816406 943.165832519531 943.619445800781 944.648071289062 956.302001953125 962.573059082031 971.408935546875 975.137329101562 985.790405273438 983.243835449219 982.837829589844 978.084899902344 974.415649414062 983.039916992188 986.621398925781 991.67529296875 1000.58483886719 995.380187988281 984.373229980469 992.046752929688 993.97265625 992.593627929688 994.595703125 984.956176757812 978.232543945312 984.91552734375 980.220947265625 985.099975585938 987.749450683594 993.440002441406 993.37939453125 996.952026367188 992.863159179688 1008.04272460938 1013.203125 1016.4892578125 1012.36242675781 1009.51458740234 1012.26403808594 1010.01208496094 1007.68292236328 1014.3515625 1012.94305419922 1014.43231201172 1013.83227539062 997.58203125 993.632995605469 988.829528808594 984.499755859375 979.973083496094 986.113952636719 980.228271484375 978.814575195312 985.185241699219 975.495788574219 975.55078125 971.959594726562 971.138488769531 966.347473144531 972.230773925781 977.802917480469 983.534484863281 983.29345703125 985.193298339844 983.705688476562 981.559509277344 992.203674316406 987.699157714844 991.802124023438 993.921813964844 1000.091796875 995.090759277344 996.333618164062 1004.49645996094 1008.47418212891 1001.39953613281 1007.58544921875 1008.13586425781 1009.50335693359 995.962951660156 997.578796386719 999.897094726562 991.827331542969 991.394958496094 989.866943359375 987.48828125 987.501342773438 992.56982421875 995.632446289062 987.69287109375 993.715209960938 996.02880859375 998.4326171875 1001.39154052734 1010.22833251953 1008.56048583984 1013.23999023438 1018.41558837891 1011.22320556641 1020.50262451172 1024.03674316406 1025.90795898438 1027.47143554688 1029.88635253906 1029.36389160156 1027.12390136719 1028.52770996094 1029.41442871094 1026.10864257812 1025.08850097656 1016.61334228516 1007.89770507812 1018.04968261719 1015.95788574219 1017.16455078125 1011.36071777344 1012.63031005859 1011.19738769531 1005.64190673828 1002.89349365234 1005.11724853516 1009.29339599609 999.689880371094 993.683349609375 1008.76745605469 1000.43579101562 998.53369140625 1011.40856933594 1004.38549804688 1004.85919189453 1006.52490234375 1004.20202636719 998.218078613281 990.183837890625 981.252502441406 977.491455078125 977.234130859375 974.206787109375 981.83935546875 991.11474609375 984.999145507812 981.919677734375 988.030822753906 995.49560546875
951.633422851562 937.886901855469 945.103332519531 945.137878417969 946.561401367188 940.877624511719 934.428771972656 944.179931640625 954.870910644531 958.946105957031 970.350891113281 970.928649902344 970.562805175781 979.112487792969 987.480651855469 975.718383789062 971.343688964844 979.825256347656 981.161682128906 973.943664550781 973.558715820312 985.276184082031 987.13671875 996.027465820312 985.526977539062 995.020446777344 991.954284667969 993.321594238281 986.187622070312 985.201232910156 980.914001464844 981.74169921875 984.13916015625 995.693908691406 984.552124023438 984.777038574219 998.891052246094 997.890686035156 1001.79144287109 1006.67950439453 1010.77935791016 1004.591796875 1013.66632080078 1009.21844482422 1006.57202148438 1005.75494384766 998.377868652344 1000.54815673828 1004.66882324219 998.737182617188 1010.18487548828 1008.18615722656 998.445861816406 997.81689453125 979.322387695312 982.102172851562 981.453735351562 980.396484375 989.011901855469 977.757690429688 980.006713867188 975.465881347656 973.039367675781 970.965087890625 967.7939453125 968.642333984375 983.125061035156 991.060852050781 986.637390136719 990.459899902344 982.791809082031 987.3427734375 987.15771484375 991.284057617188 990.456115722656 984.803527832031 985.750793457031 987.066772460938 999.215270996094 1004.25671386719 1013.53924560547 1005.87481689453 1006.08190917969 1016.95086669922 1005.82464599609 997.11083984375 1000.30249023438 995.893188476562 1000.43682861328 987.132995605469 982.23681640625 985.25390625 991.694946289062 983.886047363281 987.391784667969 985.348205566406 993.508972167969 1000.03002929688 1000.17242431641 1000.18218994141 1005.48413085938 1009.61553955078 1007.02288818359 1022.51104736328 1027.4677734375 1018.61334228516 1019.66705322266 1031.39477539062 1040.2880859375 1046.52392578125 1041.58239746094 1037.97937011719 1036.63415527344 1033.05981445312 1041.57824707031 1025.92590332031 1014.14117431641 1017.67919921875 1018.28387451172 1016.96813964844 1011.88641357422 1008.09759521484 1007.68927001953 1007.46447753906 998.452758789062 1000.02685546875 998.058532714844 1001.400390625 1002.25866699219 1001.099609375 999.202758789062 1004.60534667969 1010.91772460938 1006.19018554688 1002.63720703125 1001.091796875 1001.94372558594 996.567321777344 992.742370605469 987.364990234375 982.454528808594 977.968994140625 980.681457519531 980.791442871094 979.902282714844 991.183776855469 985.557983398438 974.266967773438 988.947692871094 1002.27642822266
943.441711425781 937.180786132812 943.342224121094 937.304565429688 937.806701660156 941.922485351562 945.180541992188 942.98388671875 955.464477539062 971.244750976562 971.784545898438 964.805908203125 974.592407226562 978.311828613281 974.159423828125 975.32421875 974.968383789062 974.0693359375 971.966979980469 974.02294921875 974.863525390625 988.193298339844 981.455444335938 978.498718261719 989.740173339844 996.094909667969 984.587036132812 981.953491210938 991.034851074219 980.33056640625 981.561401367188 978.510559082031 986.195556640625 987.856140136719 989.51025390625 988.276062011719 994.065734863281 994.604125976562 1003.44024658203 1006.29559326172 1000.94989013672 1009.72961425781 1008.46832275391 1006.05950927734 1008.8828125 1010.59051513672 1000.35998535156 997.687744140625 1004.63037109375 999.639709472656 1003.16363525391 1007.33349609375 998.354797363281 993.482666015625 984.093017578125 985.419738769531 986.817626953125 979.903076171875 976.294860839844 977.2724609375 974.880249023438 972.259643554688 968.956970214844 973.233093261719 971.564514160156 965.737121582031 974.864990234375 982.562927246094 986.345275878906 980.533569335938 996.466491699219 993.632263183594 992.468994140625 988.891174316406 979.609436035156 982.6640625 981.254760742188 991.973999023438 1004.62158203125 1000.99011230469 1007.10852050781 1006.58532714844 1006.63757324219 1011.57275390625 1003.44946289062 1006.89251708984 998.434143066406 997.424438476562 992.190490722656 990.727966308594 986.813720703125 988.262817382812 982.232177734375 986.954956054688 981.614562988281 991.841247558594 997.092041015625 997.09619140625 998.354187011719 1001.19934082031 1007.73205566406 1006.76391601562 1009.05944824219 1023.74536132812 1026.47436523438 1023.57531738281 1027.4482421875 1031.80017089844 1045.50012207031 1050.12585449219 1040.37622070312 1035.22961425781 1040.68286132812 1039.38208007812 1043.76013183594 1031.66381835938 1028.04479980469 1025.6171875 1012.32135009766 1015.51666259766 1014.80914306641 1007.21069335938 1010.34057617188 1004.87670898438 999.368347167969 993.531982421875 1000.60906982422 1001.35211181641 1002.57543945312 996.474304199219 999.044677734375 1005.97692871094 1000.53283691406 1001.70397949219 999.82373046875 995.302185058594 993.688415527344 995.779846191406 990.409057617188 987.927185058594 976.597534179688 986.268432617188 990.460266113281 981.948852539062 981.287536621094 985.927185058594 989.744873046875 987.5849609375 990.16943359375 1001.28515625
954.954772949219 950.404541015625 958.777038574219 940.655517578125 933.481872558594 937.592407226562 936.489318847656 945.759521484375 954.09814453125 969.35107421875 965.576416015625 973.623107910156 975.499145507812 977.560974121094 980.966613769531 973.491638183594 973.228515625 975.984130859375 974.014831542969 974.665222167969 978.67724609375 978.174987792969 975.003967285156 981.353576660156 989.372009277344 983.850524902344 977.668151855469 976.177612304688 982.671203613281 978.380981445312 974.04833984375 968.62890625 981.773559570312 985.633605957031 984.059509277344 987.62255859375 995.885375976562 998.163024902344 1001.94458007812 1002.38079833984 1000.63122558594 1003.06085205078 999.456665039062 999.65478515625 1004.22662353516 1006.39929199219 990.188354492188 988.570556640625 990.918029785156 994.525390625 998.266357421875 1004.19464111328 992.141784667969 981.585205078125 977.878967285156 981.994384765625 983.788818359375 987.205139160156 983.141906738281 977.413391113281 977.53857421875 968.511657714844 971.028686523438 963.389770507812 972.934204101562 973.668518066406 979.937316894531 976.297546386719 979.0263671875 990.290710449219 994.893615722656 987.799987792969 986.491027832031 989.291931152344 981.525695800781 978.130554199219 987.788391113281 987.256958007812 997.049682617188 1001.75891113281 1004.86193847656 1003.52691650391 1009.44909667969 1007.93902587891 1008.82238769531 1005.98815917969 999.338623046875 987.753540039062 989.826782226562 988.667602539062 991.941528320312 995.579467773438 987.373901367188 976.859924316406 986.989196777344 991.67626953125 1004.95782470703 1004.13055419922 1008.12384033203 1012.72027587891 1003.50787353516 1004.41796875 1005.42944335938 1015.68505859375 1023.22717285156 1034.302734375 1043.35791015625 1040.69982910156 1039.66528320312 1043.41833496094 1039.06201171875 1031.45947265625 1043.48620605469 1041.77526855469 1039.56567382812 1033.42761230469 1029.94885253906 1029.4248046875 1020.79949951172 1013.97808837891 1007.85046386719 1010.79919433594 1008.58343505859 1006.41174316406 1001.1171875 998.008544921875 985.766235351562 992.47314453125 997.957092285156 989.111267089844 991.029724121094 991.538940429688 1002.02569580078 1002.35491943359 996.567260742188 998.26904296875 996.556579589844 991.84521484375 989.310668945312 981.102294921875 982.815856933594 989.239562988281 983.920227050781 976.562744140625 981.298828125 978.906799316406 982.047119140625 980.316711425781 986.937072753906 993.451782226562
950.648681640625 949.861999511719 950.771728515625 939.514526367188 925.427307128906 928.551574707031 933.078002929688 937.346130371094 946.456665039062 957.489624023438 966.410522460938 975.129577636719 973.624755859375 970.261291503906 973.85595703125 973.908447265625 980.972412109375 975.351440429688 976.928283691406 969.007568359375 968.121337890625 969.827575683594 970.108703613281 975.436462402344 978.486694335938 978.794128417969 979.132934570312 978.073608398438 978.060913085938 974.35107421875 975.927062988281 970.250183105469 973.612426757812 973.442626953125 976.480895996094 972.470520019531 977.453247070312 991.201843261719 996.512268066406 994.664672851562 998.421142578125 1002.88018798828 1000.208984375 1004.19097900391 996.574645996094 990.244018554688 996.007751464844 993.833923339844 990.058715820312 991.4423828125 1000.25445556641 996.42724609375 986.063598632812 981.870544433594 984.610595703125 984.745483398438 986.687683105469 985.028503417969 990.4072265625 987.121032714844 978.521057128906 976.260986328125 970.133972167969 973.99755859375 972.768493652344 975.088256835938 972.345886230469 977.574584960938 979.150451660156 986.517761230469 988.767578125 982.694763183594 982.446350097656 985.818481445312 987.352783203125 979.539306640625 980.273193359375 989.934204101562 999.891296386719 1005.46691894531 1007.18048095703 1018.12933349609 1020.24194335938 1017.68243408203 1020.75152587891 1011.35949707031 1007.6611328125 1001.90936279297 994.867126464844 1001.71752929688 994.625305175781 997.655456542969 1003.59106445312 987.78076171875 993.787048339844 997.694763183594 997.3525390625 1006.27581787109 1005.09844970703 1007.05194091797 1000.80395507812 1002.99328613281 999.550354003906 1009.69390869141 1017.45300292969 1032.1923828125 1048.39074707031 1038.54846191406 1046.68286132812 1042.34313964844 1039.7607421875 1034.6455078125 1037.60180664062 1040.69653320312 1039.12414550781 1038.06420898438 1034.23107910156 1029.29663085938 1026.27099609375 1021.81640625 1009.40234375 1008.27410888672 1010.69738769531 997.077697753906 992.736389160156 989.264770507812 986.266784667969 984.082275390625 991.806030273438 985.207458496094 986.956298828125 992.290588378906 990.5029296875 994.623840332031 997.113159179688 1002.40979003906 996.654235839844 992.548278808594 989.239196777344 986.506530761719 983.349914550781 979.745483398438 981.159606933594 970.832092285156 978.826049804688 973.016296386719 978.310974121094 981.277648925781 984.790466308594 987.574523925781
953.36474609375 950.562744140625 940.679992675781 946.535400390625 934.046447753906 933.459411621094 934.00927734375 936.935241699219 949.313537597656 954.147094726562 965.482299804688 960.6923828125 962.579406738281 964.268188476562 965.309875488281 978.152954101562 977.77685546875 972.595397949219 967.952453613281 970.585632324219 967.388488769531 963.508361816406 965.346252441406 968.803405761719 976.738891601562 981.620910644531 978.228698730469 975.998901367188 970.270446777344 973.622497558594 972.43701171875 968.463684082031 970.48193359375 970.351806640625 967.294921875 967.290222167969 975.417602539062 981.103698730469 983.483337402344 985.969299316406 991.704650878906 1003.72497558594 1002.96929931641 988.900207519531 979.250610351562 986.700622558594 990.211791992188 992.374816894531 1002.04071044922 998.387268066406 1002.84606933594 994.262329101562 986.416137695312 990.910339355469 987.113342285156 987.529052734375 989.419494628906 990.128601074219 993.371398925781 982.925598144531 985.530029296875 982.356872558594 976.990661621094 989.12255859375 984.647827148438 975.977478027344 972.719055175781 973.465026855469 975.390502929688 982.46826171875 980.142822265625 987.426391601562 984.574645996094 993.257080078125 984.695495605469 979.22705078125 978.36865234375 986.49267578125 993.799377441406 1005.16741943359 1013.17663574219 1016.43676757812 1020.43212890625 1019.41094970703 1014.07611083984 1017.40881347656 1010.56701660156 1003.84832763672 1000.396484375 1001.31646728516 1004.99713134766 1011.94451904297 999.576599121094 989.097229003906 990.508666992188 996.006164550781 996.070495605469 1000.1201171875 1005.30505371094 1004.287109375 1003.12658691406 995.058471679688 1004.00042724609 1010.775390625 1010.61975097656 1027.18798828125 1040.76733398438 1038.83337402344 1047.05993652344 1051.59191894531 1040.32568359375 1039.09777832031 1033.98999023438 1038.0556640625 1039.34704589844 1045.26477050781 1046.21313476562 1030.52124023438 1026.28234863281 1021.98944091797 1017.611328125 1009.15155029297 997.641357421875 1002.46618652344 989.715515136719 983.111389160156 986.491455078125 991.115173339844 980.76416015625 991.65625 986.009887695312 983.695983886719 986.922668457031 988.474670410156 988.698791503906 992.661682128906 993.661560058594 993.853759765625 992.464050292969 982.419067382812 979.199829101562 981.202575683594 972.210998535156 973.354797363281 974.460021972656 975.941650390625 983.277709960938 984.189880371094 985.015502929688 983.849182128906
960.300170898438 954.285034179688 950.053344726562 945.995361328125 937.000732421875 932.129455566406 936.795471191406 944.8994140625 952.128173828125 962.223022460938 956.464294433594 957.582153320312 967.331115722656 967.331726074219 963.219482421875 967.882690429688 970.290283203125 960.390075683594 957.635559082031 963.02099609375 954.108825683594 961.552185058594 958.060791015625 961.192260742188 965.68701171875 965.92041015625 980.103332519531 979.918823242188 964.931091308594 966.276245117188 963.878723144531 968.691528320312 970.213684082031 971.081115722656 967.630737304688 962.925537109375 968.784118652344 975.905212402344 976.954162597656 993.882934570312 987.682800292969 988.204406738281 993.434692382812 976.224487304688 982.24169921875 984.315490722656 986.810302734375 998.226989746094 995.717529296875 1002.56567382812 994.053344726562 992.396301269531 986.775024414062 987.677978515625 993.606750488281 979.040710449219 990.714233398438 998.41552734375 997.044555664062 992.884216308594 989.879333496094 986.628051757812 986.171752929688 989.934143066406 995.5302734375 982.342102050781 979.246337890625 983.038024902344 979.433044433594 984.886047363281 981.179321289062 993.162231445312 989.905029296875 987.804321289062 974.541870117188 986.328918457031 977.439514160156 992.729248046875 999.610778808594 1002.42181396484 1008.34930419922 1010.22625732422 1012.54644775391 1025.8330078125 1025.79711914062 1017.12976074219 1004.09069824219 999.766784667969 1001.73187255859 1002.46350097656 1005.95404052734 1001.52429199219 1003.96697998047 997.079162597656 1004.97412109375 997.104919433594 991.481872558594 1000.88720703125 1001.91827392578 998.181701660156 991.123046875 1002.25140380859 1011.44366455078 1006.57690429688 1013.25561523438 1023.97570800781 1028.265625 1037.31103515625 1036.66137695312 1044.74853515625 1046.87414550781 1044.13806152344 1047.74426269531 1052.80895996094 1057.46875 1055.42822265625 1051.11059570312 1037.07312011719 1023.25286865234 1022.60003662109 1024.72180175781 1019.71722412109 997.78564453125 989.717468261719 988.959411621094 984.412231445312 986.926025390625 984.709655761719 982.398071289062 981.70263671875 975.494506835938 969.165100097656 985.170043945312 986.127197265625 992.729614257812 985.170288085938 991.771240234375 988.149353027344 990.368835449219 984.19970703125 975.527587890625 967.342651367188 970.7216796875 971.519897460938 972.800537109375 971.1103515625 975.877624511719 982.237365722656 984.667053222656 983.372192382812
961.8779296875 959.861877441406 956.252868652344 946.30859375 940.633056640625 935.346923828125 935.964111328125 936.14599609375 947.806335449219 951.495300292969 954.734497070312 958.439819335938 961.665954589844 972.885498046875 961.328002929688 959.992248535156 962.269897460938 964.034545898438 965.070129394531 962.347045898438 953.818054199219 952.641357421875 959.269592285156 960.037475585938 953.914916992188 951.736022949219 970.041809082031 958.903076171875 959.838745117188 964.144287109375 965.2724609375 964.938720703125 963.236755371094 974.789306640625 969.869689941406 971.908935546875 968.789306640625 977.199340820312 969.716125488281 983.447998046875 987.501831054688 984.761169433594 976.384643554688 985.003784179688 976.414245605469 975.30517578125 980.094787597656 989.887145996094 993.574768066406 993.337585449219 989.741638183594 1002.08197021484 989.972229003906 996.902526855469 996.227905273438 984.730102539062 985.735595703125 994.453369140625 988.211486816406 989.215454101562 983.029235839844 990.74169921875 987.335205078125 992.008483886719 981.541625976562 992.649780273438 987.418884277344 983.120178222656 978.583129882812 984.144470214844 991.368774414062 995.620239257812 1002.26647949219 989.405334472656 985.593994140625 987.620422363281 989.112976074219 990.441589355469 993.331909179688 999.024780273438 1003.21588134766 1007.99011230469 1013.41082763672 1026.76733398438 1016.63067626953 1012.63287353516 1000.39971923828 1006.39202880859 1003.79455566406 998.849975585938 992.505615234375 996.553161621094 998.995544433594 995.952392578125 1000.42718505859 1000.45135498047 994.668884277344 995.29150390625 991.060974121094 991.047119140625 995.729370117188 1008.29180908203 1015.52758789062 1014.82037353516 1015.64056396484 1012.52239990234 1018.50946044922 1024.30798339844 1043.16967773438 1050.15698242188 1053.40100097656 1051.11926269531 1057.12536621094 1059.82165527344 1060.80981445312 1049.98388671875 1051.83227539062 1041.51403808594 1031.98596191406 1031.17858886719 1025.90710449219 1027.18408203125 1007.64794921875 999.842407226562 994.202514648438 987.093688964844 986.115661621094 982.731750488281 985.981323242188 980.723327636719 981.608154296875 980.2490234375 987.58544921875 998.853698730469 989.226867675781 987.586486816406 994.88134765625 990.596374511719 989.016723632812 981.276000976562 964.03125 966.327880859375 968.1630859375 969.103149414062 968.091735839844 973.588317871094 974.012329101562 975.327697753906 981.942932128906 978.706726074219
