NCOLS 150
NROWS 37
XLLCORNER 7394249
YLLCORNER 4842059
CELLSIZE 30
NODATA_VALUE -9999
954.282775878906 958.585021972656 963.727355957031 960.665710449219 968.204345703125 972.31884765625 971.594055175781 973.591857910156 961.774108886719 952.467224121094 945.672424316406 945.677307128906 943.473205566406 933.486083984375 948.422241210938 948.458679199219 955.511108398438 967.065246582031 965.247375488281 963.932189941406 961.610290527344 946.06787109375 942.801940917969 944.350708007812 952.690063476562 951.7158203125 950.306701660156 945.487060546875 951.047302246094 953.989501953125 950.256408691406 952.716735839844 944.858703613281 951.167236328125 946.803588867188 943.787780761719 949.0576171875 949.214050292969 953.011840820312 956.020385742188 955.858459472656 954.983337402344 956.516418457031 952.198852539062 954.007568359375 948.115478515625 942.773986816406 948.923706054688 953.322509765625 948.094604492188 958.790466308594 962.15869140625 954.514892578125 948.212890625 951.911254882812 954.233154296875 962.462646484375 954.866821289062 956.688842773438 961.312438964844 965.363403320312 969.758239746094 969.005737304688 972.746765136719 966.878356933594 964.217468261719 971.244140625 973.669372558594 970.881103515625 967.333251953125 969.670715332031 966.689636230469 957.651611328125 971.926940917969 961.922790527344 969.046752929688 966.310485839844 973.13818359375 977.661437988281 985.914123535156 983.254333496094 981.753051757812 974.182556152344 968.018615722656 971.077819824219 970.334838867188 975.68115234375 974.662292480469 975.530944824219 972.765808105469 962.076171875 952.543640136719 968.282836914062 977.301086425781 972.415893554688 963.727722167969 965.332275390625 972.132629394531 977.521484375 980.183166503906 990.688049316406 988.346252441406 983.782409667969 986.6318359375 987.591430664062 995.825744628906 1002.89447021484 1008.20751953125 1009.19738769531 1017.083984375 1016.15179443359 1000.05181884766 988.45556640625 989.215698242188 994.24755859375 986.019958496094 989.611999511719 995.622192382812 998.810241699219 1000.32556152344 1007.83209228516 1010.15399169922 1016.29943847656 1020.13275146484 1012.92724609375 1017.45300292969 1023.8955078125 1016.19122314453 1023.19781494141 1033.25463867188 1036.666015625 1037.45764160156 1037.3505859375 1037.61401367188 1043.80297851562 1051.37060546875 1049.0166015625 1036.98962402344 1031.45288085938 1038.45983886719 1045.75952148438 1031.0595703125 1037.45153808594 1036.82788085938 1034.34289550781 1030.05969238281 1033.87829589844 1048.63122558594 1041.54406738281 1037.89428710938
964.399230957031 963.562622070312 963.121704101562 959.269958496094 968.401733398438 968.382141113281 965.401428222656 961.570190429688 967.941711425781 962.445251464844 952.745727539062 937.828308105469 945.734436035156 949.139404296875 943.359680175781 948.713989257812 950.104125976562 954.177062988281 959.85693359375 959.602661132812 955.563720703125 943.236267089844 942.513854980469 941.836486816406 946.712951660156 947.446411132812 949.990905761719 956.5458984375 955.271667480469 949.775085449219 947.538635253906 955.71728515625 957.076904296875 949.609008789062 934.899047851562 940.546691894531 949.738525390625 955.059326171875 947.957580566406 957.776977539062 949.64501953125 947.558044433594 948.867980957031 954.394165039062 948.667053222656 946.846130371094 947.744140625 948.226013183594 951.543701171875 956.803771972656 952.813415527344 965.785400390625 959.78125 956.098083496094 948.679748535156 961.796875 968.583190917969 958.694396972656 958.42724609375 968.989624023438 969.42236328125 969.656005859375 968.962158203125 975.612365722656 970.723327636719 964.8603515625 973.898010253906 970.020812988281 967.476623535156 968.801879882812 964.066345214844 965.83251953125 967.058837890625 968.961853027344 969.335388183594 967.679260253906 973.147155761719 980.625671386719 974.357666015625 977.404968261719 975.29931640625 973.609558105469 977.062316894531 967.39794921875 978.847961425781 974.211364746094 980.677429199219 965.755432128906 976.580505371094 970.969848632812 970.101806640625 960.565551757812 968.298950195312 978.393493652344 966.433227539062 965.744201660156 969.437866210938 976.732727050781 972.577941894531 988.523376464844 998.332580566406 988.607788085938 994.998352050781 999.765197753906 1002.62396240234 1006.41375732422 1016.04071044922 1009.10009765625 1009.88116455078 1004.83850097656 1009.44464111328 1015.36334228516 999.194519042969 1003.64404296875 998.044982910156 1001.58013916016 1000.61956787109 1001.69763183594 1006.11328125 1010.64862060547 1011.05139160156 1018.6396484375 1012.95379638672 1012.32189941406 1015.32348632812 1019.56524658203 1023.52044677734 1024.99890136719 1018.76049804688 1027.04333496094 1035.0771484375 1036.56848144531 1034.84606933594 1040.3310546875 1036.49182128906 1041.02307128906 1046.10095214844 1042.46789550781 1035.73059082031 1045.794921875 1038.97985839844 1032.24548339844 1033.755859375 1034.69750976562 1027.52062988281 1032.18469238281 1031.28515625 1035.38317871094 1037.75915527344 1032.7255859375
965.495910644531 968.496948242188 962.983642578125 969.643859863281 969.327392578125 961.398742675781 965.038696289062 960.151245117188 967.449157714844 954.513916015625 948.848449707031 936.179504394531 945.041137695312 942.649291992188 942.632446289062 956.425354003906 953.201782226562 952.234558105469 951.956237792969 948.589538574219 949.213195800781 942.621948242188 938.235229492188 944.841430664062 940.003967285156 946.378356933594 940.618774414062 946.176574707031 952.587707519531 952.351440429688 946.72509765625 951.163757324219 945.729797363281 948.231323242188 942.499389648438 942.404357910156 937.734680175781 953.691711425781 950.485900878906 950.561279296875 949.005798339844 954.232177734375 947.63232421875 953.692565917969 949.948608398438 952.605590820312 953.445922851562 959.170227050781 953.935546875 954.311462402344 958.8427734375 961.379699707031 965.24462890625 953.287170410156 948.924011230469 947.867248535156 966.293029785156 971.649719238281 967.435546875 969.948547363281 973.707641601562 976.599060058594 974.002563476562 977.847229003906 966.424682617188 963.217834472656 969.547424316406 968.706665039062 957.225769042969 958.484619140625 965.034118652344 967.443359375 962.60009765625 968.3994140625 971.469299316406 967.119384765625 964.043701171875 973.712341308594 969.288940429688 959.616149902344 963.8671875 962.918395996094 971.7978515625 971.705993652344 976.670593261719 981.103332519531 974.419128417969 981.120239257812 980.424621582031 970.814392089844 962.990356445312 961.326049804688 964.717590332031 967.584411621094 971.2958984375 975.585510253906 980.318603515625 988.850463867188 981.427673339844 984.213317871094 988.749267578125 995.667663574219 999.579284667969 1000.32299804688 1008.78497314453 1015.43157958984 1013.95501708984 1019.27880859375 1011.19366455078 1008.17108154297 1010.00054931641 1012.47399902344 1013.49279785156 1012.65606689453 1005.81530761719 1004.22692871094 1011.41979980469 1016.26214599609 1012.03900146484 1016.99584960938 1020.78082275391 1024.87939453125 1027.70178222656 1021.53173828125 1016.84631347656 1024.69458007812 1017.86389160156 1016.89019775391 1015.24603271484 1021.70428466797 1033.50378417969 1032.45483398438 1038.92126464844 1040.107421875 1035.36303710938 1033.53527832031 1047.71008300781 1038.49951171875 1040.94689941406 1036.16552734375 1035.71447753906 1028.17883300781 1025.04968261719 1027.31652832031 1026.82763671875 1040.43713378906 1033.79296875 1031.16223144531 1024.85095214844 1015.59143066406
959.259155273438 955.686767578125 959.815551757812 958.417297363281 962.001708984375 963.715698242188 958.93603515625 958.69580078125 955.439331054688 950.214172363281 951.130615234375 946.610412597656 940.945251464844 945.883728027344 945.808532714844 947.174621582031 945.714782714844 952.677734375 952.940612792969 951.6689453125 950.731811523438 938.8046875 945.763854980469 956.650451660156 937.738220214844 930.393493652344 940.905883789062 950.235473632812 946.356201171875 940.125732421875 945.487121582031 946.503845214844 940.600952148438 945.970336914062 948.640747070312 949.026611328125 937.883178710938 952.30126953125 952.166870117188 951.046752929688 956.777709960938 959.3154296875 959.973510742188 953.903930664062 951.764526367188 957.19091796875 949.736328125 957.265747070312 959.156799316406 973.276428222656 973.742370605469 969.223327636719 963.374572753906 957.765869140625 956.668273925781 957.542236328125 967.816284179688 968.982177734375 964.779663085938 965.228332519531 970.262878417969 968.315673828125 969.021850585938 963.894348144531 959.54833984375 961.833129882812 974.668762207031 968.589538574219 969.57177734375 967.029174804688 973.619873046875 971.0126953125 964.660583496094 965.630798339844 961.396240234375 969.153015136719 971.450744628906 972.293884277344 970.869445800781 964.176940917969 962.266906738281 965.100158691406 976.195922851562 985.462707519531 987.077392578125 987.716674804688 986.084533691406 985.496520996094 979.523254394531 968.994506835938 978.327331542969 966.129333496094 969.035827636719 968.682556152344 963.882141113281 974.889038085938 985.365112304688 982.639465332031 985.619934082031 991.40087890625 1003.56665039062 1008.01263427734 1010.38122558594 1008.04461669922 1008.42944335938 1007.90093994141 1018.56140136719 1022.39483642578 1013.20452880859 1012.64984130859 1016.48492431641 1019.96166992188 1006.82623291016 1009.41387939453 1011.49700927734 1009.68524169922 1012.58764648438 1018.15155029297 1025.44226074219 1030.68688964844 1033.26208496094 1027.04016113281 1031.85925292969 1029.85998535156 1026.89526367188 1015.875 1018.77142333984 1015.05676269531 1015.19403076172 1023.0419921875 1032.31567382812 1038.91882324219 1033.80529785156 1036.20458984375 1038.22448730469 1040.42541503906 1043.78747558594 1044.47131347656 1046.517578125 1035.96875 1028.48168945312 1028.51916503906 1032.71740722656 1034.77307128906 1021.66772460938 1030.93896484375 1032.57568359375 1028.9140625 1011.08203125 1011.25561523438
953.044128417969 956.015808105469 962.554077148438 963.858093261719 961.184204101562 966.022583007812 954.768981933594 946.244018554688 942.057861328125 945.631713867188 955.063781738281 951.826049804688 936.47216796875 943.251525878906 944.849548339844 945.688720703125 943.138671875 949.082397460938 944.724487304688 956.55615234375 950.5673828125 945.482482910156 949.901611328125 948.810363769531 940.437133789062 934.162109375 950.58544921875 948.349182128906 945.394287109375 946.369750976562 949.605346679688 943.84716796875 946.866394042969 947.443786621094 950.011657714844 954.396118164062 944.091552734375 945.051025390625 952.107727050781 956.664001464844 956.671142578125 952.619995117188 958.193298339844 948.202880859375 945.189270019531 938.499694824219 944.744201660156 957.325866699219 962.343505859375 978.659118652344 965.088562011719 970.258728027344 966.452819824219 970.369445800781 975.443115234375 970.5966796875 963.343505859375 968.057250976562 966.994140625 974.975830078125 977.038696289062 970.943725585938 967.651611328125 964.564147949219 960.582336425781 962.659423828125 963.552795410156 970.424926757812 967.366455078125 967.81640625 979.599243164062 973.7578125 967.137939453125 958.421203613281 957.819213867188 959.968505859375 977.716674804688 982.111633300781 970.020324707031 972.578796386719 967.421813964844 969.933349609375 981.230773925781 982.341979980469 985.350036621094 990.370544433594 980.919982910156 981.095458984375 980.44921875 976.274230957031 977.581848144531 977.967651367188 975.229309082031 969.966979980469 975.656616210938 974.804748535156 983.638610839844 991.009094238281 993.079223632812 998.992065429688 999.435363769531 1015.88928222656 1012.455078125 1012.60180664062 1010.93133544922 1009.70758056641 1017.87335205078 1024.43908691406 1015.17468261719 1013.03070068359 1017.67938232422 1014.95477294922 1008.08898925781 1004.42938232422 1013.52886962891 1018.876953125 1017.67315673828 1037.04284667969 1043.02014160156 1045.55834960938 1040.11975097656 1030.18505859375 1035.30871582031 1040.17639160156 1027.94580078125 1026.45434570312 1023.06781005859 1018.37701416016 1024.07055664062 1031.85314941406 1032.34252929688 1040.20166015625 1032.759765625 1037.62097167969 1039.05712890625 1036.8720703125 1046.9833984375 1047.7578125 1041.78234863281 1032.67028808594 1021.90350341797 1030.041015625 1021.35955810547 1017.29150390625 1017.63842773438 1012.48504638672 1023.7705078125 1026.22900390625 1011.87377929688 1005.29254150391
950.797119140625 950.290222167969 953.354553222656 955.8388671875 950.650634765625 950.480529785156 946.272521972656 948.281372070312 940.172058105469 938.736389160156 941.202819824219 939.703735351562 938.663513183594 931.352722167969 943.599487304688 939.655700683594 940.200622558594 938.35205078125 940.770385742188 944.231262207031 951.207763671875 949.30712890625 949.102172851562 943.113891601562 943.90283203125 939.595458984375 947.811767578125 948.378234863281 952.555236816406 952.140014648438 955.281066894531 958.066650390625 959.580749511719 960.404479980469 950.554931640625 949.471069335938 943.832092285156 946.521789550781 944.168334960938 956.4970703125 956.509582519531 959.953674316406 956.04541015625 951.114074707031 941.714721679688 948.479187011719 955.312622070312 963.599853515625 971.614135742188 973.616821289062 974.03955078125 969.248107910156 975.212707519531 978.279296875 967.125549316406 970.621765136719 972.855407714844 966.614074707031 970.684143066406 973.209228515625 968.575073242188 961.586608886719 964.815795898438 954.616516113281 969.100708007812 968.1259765625 965.3544921875 968.037353515625 974.439758300781 968.300109863281 977.9453125 982.041748046875 974.835327148438 966.495666503906 966.954956054688 966.402465820312 973.617431640625 977.633239746094 975.651672363281 982.469360351562 973.204528808594 975.854797363281 979.571166992188 980.458190917969 979.486877441406 985.091186523438 979.278930664062 984.677673339844 978.344421386719 977.942810058594 975.220031738281 974.661743164062 973.858093261719 971.64404296875 972.973388671875 975.532409667969 980.380859375 990.61474609375 995.823364257812 997.305969238281 996.792602539062 1001.04632568359 1004.91516113281 1009.638671875 1017.66320800781 1015.75030517578 1022.13439941406 1019.07312011719 1016.34832763672 1018.0234375 1014.60961914062 1010.47668457031 1003.46588134766 1009.60498046875 1011.46179199219 1020.14343261719 1017.25579833984 1029.46765136719 1044.60192871094 1043.10668945312 1038.05993652344 1040.19763183594 1038.26184082031 1038.73388671875 1029.79553222656 1024.02270507812 1019.37280273438 1027.57641601562 1023.18182373047 1028.79162597656 1035.43615722656 1034.07409667969 1036.34252929688 1034.23291015625 1039.20434570312 1032.41772460938 1036.48522949219 1040.65209960938 1035.35339355469 1028.55029296875 1020.94952392578 1016.90606689453 1016.60546875 1022.38262939453 1014.18414306641 1012.24261474609 1030.94555664062 1022.77111816406 1012.78454589844 999.485534667969
948.952880859375 951.888916015625 948.810668945312 949.809448242188 951.139343261719 946.190368652344 943.982971191406 945.941833496094 943.979736328125 939.639831542969 934.952514648438 936.867614746094 928.628234863281 941.507568359375 944.902526855469 928.235595703125 939.205200195312 943.145874023438 942.920654296875 958.504333496094 951.446105957031 945.786071777344 954.048583984375 953.338928222656 940.482299804688 947.774169921875 946.759094238281 951.287414550781 949.722778320312 957.023498535156 959.784240722656 959.448669433594 963.141662597656 965.304931640625 953.558044433594 948.900146484375 950.744201660156 951.484558105469 954.629089355469 958.50537109375 959.730102539062 960.420593261719 957.093017578125 956.737854003906 955.770812988281 959.013366699219 965.3603515625 968.575927734375 973.954406738281 973.072814941406 967.867370605469 970.736267089844 973.133605957031 980.089294433594 970.342163085938 971.811462402344 970.292114257812 970.115478515625 973.505798339844 974.065002441406 960.21728515625 962.21435546875 972.130065917969 965.638061523438 967.120178222656 973.567932128906 969.225280761719 970.453308105469 970.319580078125 965.97265625 978.158813476562 986.706481933594 978.599609375 978.187622070312 980.180847167969 977.527526855469 972.800048828125 985.150939941406 977.448913574219 984.715026855469 976.243469238281 970.3759765625 975.912292480469 984.2490234375 985.312194824219 989.846252441406 979.491271972656 975.33154296875 977.783386230469 980.137939453125 980.309387207031 969.609069824219 960.842224121094 975.85107421875 977.254821777344 982.540893554688 980.571838378906 988.083129882812 999.786804199219 1002.01190185547 1000.07043457031 1005.23474121094 1006.55694580078 1003.50323486328 1006.79278564453 1000.86828613281 1007.86071777344 1025.88732910156 1017.22125244141 1020.96148681641 1008.748046875 1011.39495849609 1009.82122802734 1016.69519042969 1009.38330078125 1018.87298583984 1022.98852539062 1023.72412109375 1036.59729003906 1038.90844726562 1039.2158203125 1041.15185546875 1040.04992675781 1032.98547363281 1028.453125 1025.49792480469 1027.10278320312 1023.18041992188 1025.62060546875 1027.30432128906 1029.13903808594 1036.57238769531 1029.06323242188 1030.79711914062 1030.11657714844 1032.60888671875 1030.49072265625 1035.79943847656 1031.26232910156 1017.77905273438 1016.03851318359 1012.77319335938 1017.84271240234 1008.05432128906 1018.404296875 1013.98486328125 1024.33386230469 1018.65521240234 1007.20867919922 1011.82147216797
942.549865722656 945.716979980469 943.058654785156 960.369323730469 947.679382324219 952.957885742188 939.277648925781 942.719970703125 947.115783691406 942.344787597656 930.736022949219 934.082275390625 931.23388671875 948.329223632812 947.235290527344 941.760314941406 946.962890625 953.296081542969 949.9501953125 964.559143066406 955.861450195312 951.320190429688 953.447326660156 958.260498046875 952.375122070312 956.956420898438 953.350158691406 950.821960449219 950.443298339844 957.17724609375 953.825317382812 949.583557128906 956.5341796875 954.335754394531 952.415405273438 961.412902832031 962.663879394531 950.6474609375 958.539428710938 972.084777832031 970.221313476562 964.946716308594 964.0341796875 955.618041992188 961.909973144531 966.650634765625 966.169982910156 972.369323730469 971.313903808594 981.516723632812 984.120422363281 977.244934082031 979.194030761719 987.631408691406 977.981201171875 976.086547851562 977.572448730469 975.300903320312 976.312072753906 972.488159179688 974.769714355469 965.626525878906 973.697998046875 975.66796875 976.321105957031 974.825073242188 967.514770507812 972.187805175781 970.45556640625 964.666198730469 971.32568359375 984.455932617188 983.971862792969 984.974548339844 982.569091796875 979.015991210938 979.402893066406 976.740478515625 975.566467285156 972.380126953125 978.5966796875 986.875122070312 980.663513183594 984.025146484375 976.247375488281 980.992858886719 977.282409667969 978.947204589844 981.124084472656 983.801086425781 980.477233886719 971.453918457031 969.582458496094 978.223876953125 986.770263671875 992.528076171875 995.251770019531 999.169189453125 1012.26257324219 1004.1826171875 1005.37725830078 1011.09783935547 1011.19415283203 1006.01062011719 998.500183105469 1011.63702392578 1008.52239990234 1021.74053955078 1011.90802001953 1017.62640380859 1017.82019042969 1007.33264160156 1012.88690185547 1017.080078125 1017.36657714844 1027.56384277344 1031.04846191406 1036.35791015625 1040.73510742188 1050.71875 1047.3525390625 1047.78344726562 1036.76806640625 1033.09143066406 1032.13916015625 1026.17700195312 1030.4345703125 1027.01391601562 1028.23706054688 1025.55993652344 1023.78887939453 1025.67614746094 1030.29528808594 1029.37194824219 1034.55859375 1033.20568847656 1031.30505371094 1025.60107421875 1018.76806640625 1013.3837890625 1016.99273681641 1013.36645507812 1007.58465576172 1012.20910644531 1013.20147705078 1012.10229492188 1007.57672119141 1006.86724853516 1006.17401123047 1000.32794189453
946.766845703125 953.695251464844 948.521362304688 943.367248535156 940.809509277344 942.927978515625 935.171508789062 937.924560546875 942.927307128906 944.159484863281 934.359924316406 942.811584472656 939.760559082031 945.14697265625 944.905151367188 945.763366699219 956.98291015625 962.455871582031 956.8916015625 963.668395996094 967.419799804688 964.305603027344 958.02783203125 960.241088867188 954.233215332031 962.4384765625 959.019653320312 954.746459960938 960.31005859375 955.900695800781 951.725463867188 947.220642089844 951.573852539062 951.903991699219 954.118225097656 962.443969726562 963.439880371094 954.759765625 963.643188476562 965.091735839844 974.559753417969 973.380310058594 977.250854492188 969.888488769531 966.294738769531 969.195373535156 973.225158691406 977.53662109375 983.163818359375 981.524353027344 982.641052246094 984.23779296875 992.395935058594 994.880859375 981.126159667969 977.542419433594 978.691650390625 975.847595214844 972.124694824219 969.279724121094 967.124328613281 964.946350097656 964.729553222656 970.122314453125 974.163452148438 973.449584960938 972.681640625 968.755554199219 970.926513671875 970.864624023438 980.235534667969 981.454650878906 985.483764648438 983.332824707031 986.467590332031 985.065734863281 979.265991210938 979.143981933594 968.07470703125 970.837219238281 981.086853027344 978.807189941406 982.836608886719 976.006469726562 981.386596679688 984.675415039062 987.497863769531 989.926635742188 980.371765136719 976.990905761719 973.653625488281 979.721374511719 975.791625976562 979.900085449219 984.824523925781 1000.458984375 1008.69506835938 1013.08807373047 1008.31762695312 1013.09918212891 1008.72705078125 1009.40148925781 1004.24780273438 1008.52142333984 1008.20532226562 1010.42517089844 1012.44244384766 1015.50329589844 1015.06188964844 1014.9931640625 1016.89782714844 1015.07147216797 1017.62408447266 1015.78265380859 1022.53344726562 1028.84558105469 1024.15966796875 1040.02062988281 1050.37524414062 1051.60009765625 1046.82275390625 1045.10583496094 1041.91076660156 1037.02746582031 1032.115234375 1027.47412109375 1032.12573242188 1026.01110839844 1014.07537841797 1015.16589355469 1022.06115722656 1017.70556640625 1027.19934082031 1017.96484375 1030.06689453125 1030.48205566406 1020.04333496094 1027.04345703125 1019.72619628906 1023.42456054688 1018.18670654297 1012.04077148438 1007.54949951172 1013.90124511719 1010.96118164062 998.555358886719 1002.63153076172 997.824401855469 1002.63385009766 997.242248535156
954.454040527344 957.599060058594 955.4609375 948.168823242188 947.684997558594 940.466552734375 942.405639648438 934.584655761719 942.799133300781 943.326538085938 931.323791503906 932.695922851562 940.466430664062 955.031311035156 947.289672851562 948.505615234375 959.200744628906 967.027160644531 968.447082519531 968.302978515625 960.9736328125 965.532531738281 955.722778320312 970.1875 963.069641113281 966.770141601562 963.090209960938 955.534362792969 954.315246582031 950.939575195312 951.990844726562 948.737426757812 949.266296386719 947.921569824219 950.358459472656 959.847534179688 968.156677246094 959.880187988281 959.402160644531 962.387573242188 977.023193359375 973.517333984375 980.768981933594 977.039733886719 979.018127441406 985.337951660156 985.451049804688 991.408264160156 1001.39294433594 987.299072265625 991.299011230469 991.341857910156 993.103393554688 996.715026855469 993.692810058594 979.041015625 980.140563964844 981.754699707031 978.845642089844 971.494201660156 974.3583984375 967.660522460938 967.148986816406 967.502502441406 972.658081054688 972.805297851562 977.363403320312 971.7919921875 968.171630859375 966.317199707031 978.229125976562 980.332763671875 988.509582519531 990.565002441406 988.528686523438 988.208435058594 984.926574707031 982.227416992188 984.872985839844 977.261779785156 987.791381835938 981.114990234375 986.153869628906 983.344116210938 979.805053710938 982.102600097656 976.388671875 983.97021484375 980.486145019531 979.813049316406 976.465881347656 982.809875488281 976.107543945312 982.408508300781 991.290710449219 995.416748046875 994.505004882812 1003.55078125 1012.02416992188 1011.25311279297 1006.37628173828 1017.10485839844 1008.99346923828 1011.15252685547 1007.13256835938 1013.22674560547 1020.38262939453 1018.14978027344 1012.99841308594 1013.63958740234 1011.88671875 1013.34997558594 1016.06958007812 1021.33465576172 1029.55200195312 1034.75402832031 1035.78259277344 1036.70300292969 1039.14489746094 1040.49877929688 1046.5361328125 1046.97314453125 1040.52722167969 1043.11889648438 1039.34008789062 1027.10583496094 1036.01452636719 1024.01025390625 1010.60052490234 1010.84753417969 1011.20703125 1006.97979736328 1008.99334716797 1019.40161132812 1024.5107421875 1022.51379394531 1021.68450927734 1026.10656738281 1025.59704589844 1013.17767333984 1012.98596191406 1010.56701660156 1014.09979248047 1015.12921142578 1005.60333251953 1005.25170898438 995.189514160156 996.38427734375 1000.17797851562 1003.79736328125
954.690124511719 953.77587890625 950.659362792969 948.021423339844 941.209289550781 939.077331542969 936.795654296875 930.8740234375 940.605651855469 935.3671875 936.5283203125 941.899658203125 945.039123535156 947.095642089844 960.509460449219 956.306030273438 964.051513671875 971.417602539062 976.718933105469 972.675537109375 965.924194335938 966.56689453125 962.614440917969 971.190368652344 977.660339355469 972.631591796875 978.374450683594 968.2255859375 966.847229003906 955.268188476562 956.234802246094 953.989318847656 950.903564453125 949.433349609375 955.688110351562 958.152709960938 966.802917480469 976.55859375 967.571472167969 968.952270507812 973.114074707031 977.834045410156 977.485595703125 970.630004882812 980.299255371094 983.751525878906 995.361389160156 998.948059082031 1004.70428466797 996.861022949219 1004.43640136719 1002.01519775391 994.511474609375 988.848205566406 986.364990234375 982.689453125 986.653625488281 981.712890625 978.700988769531 974.962646484375 969.066528320312 966.702697753906 967.163391113281 965.603576660156 968.960510253906 978.370666503906 980.760925292969 985.513977050781 981.793884277344 972.363525390625 975.884765625 982.841735839844 987.530700683594 982.095458984375 983.509826660156 989.730285644531 988.222717285156 992.060791015625 986.144470214844 983.664916992188 991.698974609375 985.669616699219 986.097717285156 985.560546875 989.334350585938 978.781372070312 983.193725585938 982.4755859375 983.357849121094 978.488891601562 977.489562988281 979.764465332031 976.513854980469 977.232421875 984.8291015625 994.328186035156 995.127685546875 1003.85357666016 1011.23175048828 1001.19653320312 1009.15698242188 1009.35437011719 1006.5068359375 1001.24200439453 1009.80108642578 1006.44927978516 1011.93884277344 1015.72668457031 1016.31591796875 1011.86614990234 1010.07196044922 1014.84259033203 1022.88934326172 1027.10546875 1022.25732421875 1033.98217773438 1033.79089355469 1031.7783203125 1033.85546875 1035.29309082031 1037.78735351562 1034.88562011719 1039.68994140625 1032.01025390625 1031.90270996094 1028.71228027344 1015.36383056641 1014.82983398438 1007.63928222656 1012.70867919922 1006.07055664062 1005.04919433594 1013.49517822266 1015.17596435547 1020.79168701172 1014.74603271484 1021.64447021484 1022.49432373047 1021.90899658203 1008.50616455078 1003.08880615234 1005.22119140625 1000.81378173828 1009.69244384766 1002.31732177734 1002.1484375 994.829833984375 993.707153320312 999.658264160156 991.520324707031
948.847534179688 949.582702636719 944.957458496094 936.239624023438 931.199951171875 929.999877929688 928.367614746094 937.503479003906 935.626831054688 936.764709472656 938.2626953125 946.60546875 956.325378417969 954.9169921875 958.550598144531 963.158935546875 961.539123535156 971.8525390625 976.900329589844 977.559143066406 978.356140136719 968.958984375 973.69677734375 971.836120605469 981.568603515625 980.460754394531 977.079284667969 973.003662109375 965.5791015625 955.82421875 955.036254882812 957.989196777344 953.059936523438 942.2392578125 954.597717285156 968.603393554688 973.826965332031 978.348327636719 976.765869140625 970.246215820312 972.005554199219 979.983337402344 978.932983398438 977.944213867188 980.086364746094 984.723876953125 1004.23156738281 1009.60797119141 1014.37249755859 1009.54699707031 1007.77545166016 995.509338378906 995.821411132812 989.839965820312 996.540832519531 994.639099121094 989.183166503906 974.393798828125 982.510314941406 980.693969726562 968.920532226562 967.778564453125 962.580505371094 968.285461425781 964.640075683594 980.915832519531 979.437194824219 984.326477050781 980.678283691406 979.184387207031 983.943298339844 979.22998046875 980.481079101562 984.265869140625 984.55615234375 987.184020996094 985.715270996094 993.71484375 985.928955078125 979.531799316406 985.370361328125 992.187805175781 987.276062011719 984.471252441406 987.862060546875 989.767578125 987.273254394531 989.973083496094 985.661560058594 990.771240234375 977.838073730469 972.127258300781 976.154418945312 976.731262207031 986.356323242188 994.492431640625 996.490295410156 996.086120605469 1003.98992919922 1007.22473144531 997.297973632812 999.323364257812 998.962463378906 998.740539550781 1005.65118408203 1006.45288085938 1006.07171630859 1011.13543701172 1019.69549560547 1015.11206054688 1009.75054931641 1010.7880859375 1017.6748046875 1023.28491210938 1026.02331542969 1030.34924316406 1024.66772460938 1029.66906738281 1026.78601074219 1035.2021484375 1040.64672851562 1033.02282714844 1024.26245117188 1024.60070800781 1027.51147460938 1028.71362304688 1018.44604492188 1016.99450683594 1007.58709716797 1008.7802734375 1009.16101074219 1015.11859130859 1022.67633056641 1023.23443603516 1016.06610107422 1005.41784667969 1004.55688476562 1018.830078125 1023.26428222656 1015.55535888672 1018.27380371094 1004.150390625 997.267944335938 1002.79876708984 1002.67791748047 1003.47692871094 989.5283203125 985.8134765625 995.314453125 994.081848144531
945.213256835938 945.134033203125 932.312438964844 937.376953125 932.234619140625 931.618286132812 932.009155273438 941.464782714844 945.982849121094 944.618041992188 945.976318359375 943.459045410156 959.386291503906 960.275268554688 963.223754882812 962.367553710938 979.417907714844 973.173828125 974.43896484375 983.007873535156 983.245910644531 978.846435546875 979.078491210938 982.979919433594 993.068725585938 992.938049316406 990.050659179688 979.054138183594 971.440185546875 964.993530273438 957.556396484375 962.417785644531 952.294738769531 952.355834960938 966.999389648438 978.452026367188 985.021118164062 980.65673828125 974.462524414062 980.560241699219 975.563537597656 982.822692871094 985.362182617188 992.665344238281 989.634948730469 990.837951660156 999.699951171875 1012.67785644531 1014.25183105469 1011.91876220703 1015.32196044922 992.17138671875 994.042297363281 986.301574707031 991.656066894531 991.778564453125 986.064758300781 980.906860351562 972.616882324219 975.607055664062 979.738586425781 970.49609375 980.390380859375 975.490051269531 965.572998046875 967.98876953125 973.172424316406 977.338439941406 984.761962890625 986.319885253906 985.651245117188 980.685119628906 984.144775390625 984.933654785156 985.204772949219 993.955322265625 987.0546875 994.673828125 990.594909667969 989.673461914062 988.492736816406 994.662353515625 994.454162597656 997.058288574219 996.761962890625 995.829467773438 1001.7998046875 987.364868164062 991.921142578125 987.568969726562 980.590148925781 982.2783203125 980.879760742188 979.620300292969 989.620788574219 984.539123535156 992.516418457031 998.997253417969 1003.40850830078 1001.34674072266 1004.19885253906 998.3037109375 998.888000488281 1006.43231201172 1006.29840087891 1011.63128662109 1011.29138183594 1019.68963623047 1021.39184570312 1015.61663818359 1014.52917480469 1022.03387451172 1025.99389648438 1029.05993652344 1029.94860839844 1033.14599609375 1027.779296875 1029.04248046875 1036.72009277344 1036.05639648438 1033.50573730469 1030.27587890625 1021.30560302734 1027.66662597656 1022.65057373047 1024.64794921875 1021.51568603516 1013.94311523438 1006.16223144531 997.448120117188 1007.43865966797 1017.84332275391 1013.3876953125 1016.23468017578 1015.9365234375 1016.60986328125 1007.56115722656 1014.16925048828 1017.03936767578 1015.64038085938 1008.77709960938 999.720397949219 1001.060546875 1005.20770263672 1003.73742675781 995.274597167969 987.955688476562 979.972229003906 989.767639160156 998.215515136719
942.857543945312 938.061828613281 934.689331054688 931.700866699219 930.785339355469 931.932495117188 935.169860839844 946.202941894531 949.926391601562 952.046264648438 950.817199707031 946.500610351562 957.806335449219 968.172668457031 978.649475097656 969.01416015625 971.066833496094 980.506042480469 980.608642578125 982.557861328125 984.826477050781 987.287109375 994.457885742188 990.066345214844 990.586853027344 990.816711425781 985.777526855469 972.617370605469 965.581604003906 969.242919921875 971.865051269531 964.546630859375 957.769714355469 957.6201171875 967.8046875 993.620178222656 992.812072753906 987.407897949219 980.427551269531 974.37841796875 977.177062988281 988.541442871094 996.105651855469 998.780151367188 999.555053710938 994.377319335938 995.984436035156 1003.30340576172 1016.19482421875 1005.97448730469 1006.78796386719 1000.44049072266 990.862915039062 995.187377929688 989.075622558594 992.705017089844 999.304565429688 989.292724609375 981.674926757812 972.434143066406 978.780822753906 968.207458496094 966.666381835938 977.1767578125 971.973388671875 972.607299804688 975.798706054688 981.3330078125 989.50048828125 982.877624511719 985.990905761719 980.033569335938 990.676452636719 996.719421386719 994.804870605469 992.750610351562 990.160095214844 991.861267089844 993.864074707031 988.870788574219 989.591064453125 989.276977539062 997.935546875 992.521606445312 998.521301269531 1003.49822998047 995.042053222656 991.827209472656 985.645568847656 994.263366699219 983.914245605469 979.558654785156 981.708801269531 982.608032226562 991.63623046875 988.200805664062 996.22412109375 995.099365234375 1003.38317871094 1007.81964111328 1006.74822998047 1006.41107177734 1005.10272216797 1003.43682861328 1008.80291748047 1004.62432861328 1011.81518554688 1010.90100097656 1014.87786865234 1013.79516601562 1021.650390625 1019.55639648438 1031.20166015625 1029.35815429688 1031.68225097656 1026.09411621094 1020.95349121094 1021.18920898438 1026.05017089844 1027.69873046875 1021.05285644531 1010.94177246094 1025.18249511719 1027.63745117188 1022.38763427734 1020.77844238281 1014.54406738281 1010.40216064453 1003.68865966797 1000.69464111328 998.078674316406 1020.52465820312 1011.43865966797 1001.19445800781 1014.65515136719 1011.98950195312 1016.95196533203 1018.11767578125 1015.50811767578 1007.71081542969 1001.27624511719 993.9306640625 990.626159667969 992.647766113281 990.224914550781 987.722961425781 984.793579101562 985.881286621094 990.350891113281 999.193176269531
933.388000488281 937.283325195312 937.443298339844 927.368103027344 928.720153808594 927.424377441406 939.961303710938 941.074584960938 949.667907714844 949.09619140625 951.447998046875 959.140747070312 961.093322753906 970.927490234375 980.399230957031 972.26318359375 974.436340332031 981.495483398438 988.479431152344 989.613220214844 989.449157714844 996.480346679688 995.763366699219 998.053283691406 994.281372070312 988.87109375 983.573669433594 971.08740234375 970.919555664062 962.602844238281 974.429443359375 966.768188476562 963.984375 968.382629394531 975.8759765625 986.279235839844 999.816528320312 991.720947265625 983.388854980469 984.23095703125 988.575317382812 999.553344726562 999.459106445312 1004.25268554688 1005.02374267578 1009.46752929688 1007.6123046875 1010.12133789062 1013.99633789062 1013.2041015625 1008.7841796875 999.270202636719 990.041870117188 989.715881347656 994.920654296875 995.430786132812 988.83984375 987.251708984375 976.253112792969 970.311950683594 973.635803222656 978.999938964844 972.554260253906 969.891174316406 979.234375 975.319091796875 972.192504882812 979.654357910156 988.162719726562 987.672912597656 989.898132324219 985.571228027344 992.263366699219 994.309265136719 994.7470703125 997.027526855469 988.99169921875 986.452270507812 988.306335449219 996.5439453125 993.655212402344 991.649963378906 991.656311035156 1004.19506835938 1003.37963867188 1005.92822265625 1004.26007080078 992.670043945312 988.083435058594 982.117919921875 982.395751953125 984.214172363281 989.450378417969 984.644897460938 993.969665527344 998.119934082031 994.54541015625 1003.38012695312 993.393920898438 1005.58410644531 1016.96728515625 1013.41351318359 1003.85845947266 1012.17193603516 1015.10968017578 1020.98675537109 1016.37091064453 1013.24475097656 1014.81811523438 1022.03631591797 1029.01123046875 1030.33215332031 1033.91491699219 1019.68798828125 1021.82196044922 1017.83001708984 1017.30548095703 1014.5224609375 1025.09838867188 1021.32769775391 1016.33526611328 1013.02709960938 1012.79827880859 1023.47015380859 1024.89086914062 1018.72863769531 1007.63751220703 1004.75579833984 1001.58343505859 1002.99273681641 1006.90454101562 1008.48217773438 1008.73895263672 1012.81103515625 1018.58587646484 1014.69781494141 1014.98168945312 1012.41204833984 1011.11163330078 999.023010253906 1001.04626464844 997.792053222656 994.251831054688 993.013000488281 981.612548828125 989.472961425781 988.8818359375 990.616455078125 1005.83563232422 1001.44958496094
933.064025878906 938.702514648438 934.964660644531 931.569580078125 928.074279785156 930.16259765625 933.912292480469 938.209106445312 952.692749023438 951.175476074219 962.606506347656 967.294250488281 966.57958984375 969.828796386719 975.057556152344 980.935607910156 976.614135742188 985.076538085938 987.447631835938 981.277160644531 986.749450683594 992.025695800781 997.350341796875 1000.2373046875 997.395324707031 994.853332519531 988.163146972656 978.696655273438 980.700439453125 968.198120117188 974.668334960938 963.976623535156 963.738037109375 979.261840820312 985.523986816406 996.397888183594 996.951599121094 995.655639648438 985.514953613281 984.364990234375 995.093933105469 1007.17651367188 1007.72210693359 1015.89605712891 1010.54357910156 1016.61999511719 1016.18231201172 1014.67510986328 1008.77856445312 1009.88903808594 1008.60882568359 1000.21752929688 997.799865722656 987.797546386719 990.21630859375 995.159606933594 992.934814453125 984.725036621094 980.338684082031 977.242858886719 974.559875488281 971.724060058594 973.773376464844 972.797119140625 973.944885253906 972.2822265625 978.313781738281 979.266174316406 987.137573242188 980.790954589844 984.227294921875 987.927917480469 982.138061523438 989.128662109375 993.559936523438 1000.67224121094 988.5771484375 989.104431152344 989.413452148438 994.967163085938 999.852966308594 1003.71807861328 1003.16998291016 1006.57556152344 1008.22015380859 1008.61602783203 1005.43377685547 989.914123535156 986.319458007812 980.1416015625 977.322326660156 985.954406738281 982.497192382812 981.7099609375 994.651672363281 1009.79187011719 1006.78485107422 1006.81420898438 1006.55651855469 1005.81896972656 1012.59008789062 1011.00573730469 1012.69610595703 1019.32080078125 1009.50042724609 1012.44219970703 1019.07586669922 1019.18298339844 1018.31677246094 1025.44262695312 1034.13256835938 1037.17565917969 1029.59619140625 1024.2119140625 1015.50787353516 1019.23779296875 1017.40588378906 1021.86297607422 1010.29669189453 1016.76629638672 1020.50024414062 999.263916015625 1007.73583984375 1012.56573486328 1015.55725097656 1016.44183349609 1010.79852294922 1001.81756591797 999.475036621094 1003.37097167969 1011.01989746094 1010.62243652344 1002.88098144531 1006.51837158203 1018.59936523438 1012.86181640625 1013.36505126953 1004.77429199219 1004.46380615234 996.635437011719 990.850708007812 995.23095703125 988.602661132812 989.902770996094 994.872497558594 977.378112792969 985.457092285156 983.404174804688 990.291809082031 989.851501464844
931.361267089844 937.635925292969 935.105102539062 935.658264160156 937.91748046875 931.363403320312 927.977905273438 926.532775878906 944.071228027344 958.328063964844 966.890197753906 970.924255371094 965.573181152344 970.484252929688 985.879638671875 977.259582519531 985.910583496094 983.342834472656 985.229370117188 986.057922363281 982.630859375 988.954956054688 991.780456542969 991.544250488281 988.868041992188 996.880737304688 995.540100097656 990.129760742188 985.608154296875 984.756896972656 972.528686523438 972.450927734375 975.344482421875 980.364135742188 987.926696777344 997.395629882812 1004.82891845703 1000.91705322266 992.117370605469 993.004455566406 998.321166992188 1008.31683349609 1009.22778320312 1012.22650146484 1014.88134765625 1017.72235107422 1021.19342041016 1017.08197021484 1019.32843017578 1006.03045654297 1003.56072998047 995.871398925781 995.711791992188 992.3427734375 997.267883300781 1001.65484619141 990.589660644531 985.426940917969 974.948486328125 975.257934570312 973.461608886719 973.474731445312 968.840393066406 969.797485351562 976.790344238281 974.731994628906 976.024475097656 973.975524902344 974.682739257812 983.664428710938 990.013977050781 993.169860839844 989.938781738281 986.862182617188 984.656616210938 991.024841308594 987.841430664062 990.949584960938 993.522888183594 1002.20465087891 995.650390625 1007.92016601562 1008.68408203125 1006.21539306641 1003.25323486328 1009.29266357422 1011.50848388672 996.88232421875 987.0947265625 983.060974121094 979.785400390625 985.1953125 985.013549804688 986.386108398438 994.409118652344 1006.57934570312 1011.75933837891 1008.42395019531 997.878601074219 998.137268066406 1005.626953125 1010.94140625 1008.19421386719 1018.08166503906 1015.47088623047 1017.33233642578 1014.90258789062 1022.3955078125 1018.36053466797 1016.83538818359 1026.23120117188 1034.67077636719 1036.33361816406 1030.5546875 1029.63830566406 1019.77227783203 1023.54486083984 1024.84338378906 1010.06072998047 1009.88482666016 993.588134765625 998.639709472656 993.733154296875 1006.98504638672 1016.98358154297 1014.26043701172 1003.98699951172 1004.26232910156 1006.15411376953 1002.52111816406 1007.53466796875 1003.93865966797 989.166015625 1003.27880859375 1008.88079833984 1016.24615478516 1001.66741943359 995.173278808594 992.547485351562 985.796142578125 994.014892578125 993.563598632812 984.543884277344 985.394714355469 988.004028320312 981.168151855469 979.055480957031 975.292114257812 982.834411621094 978.471862792969
942.747863769531 950.811767578125 937.950622558594 934.772094726562 942.02392578125 930.019409179688 935.900390625 936.855041503906 949.678771972656 973.519714355469 982.078247070312 975.833129882812 972.148071289062 973.610107421875 984.399047851562 981.511779785156 984.9501953125 981.876220703125 987.270568847656 984.852783203125 980.959655761719 991.229431152344 989.652587890625 986.446472167969 988.730773925781 980.853881835938 994.168640136719 981.885009765625 992.297424316406 987.793640136719 980.056823730469 976.035339355469 983.975219726562 988.285888671875 980.791015625 998.619995117188 1001.10577392578 999.658874511719 1001.47479248047 996.96923828125 998.010314941406 1007.89483642578 1011.69573974609 1006.40478515625 1015.33544921875 1018.41528320312 1022.11804199219 1014.66369628906 1010.87219238281 1000.54608154297 997.109924316406 987.680541992188 989.024658203125 992.774597167969 994.746459960938 995.061889648438 987.577026367188 989.55810546875 978.255004882812 984.698913574219 980.938049316406 972.282165527344 967.265075683594 970.676147460938 974.047302246094 973.334533691406 980.084289550781 974.692810058594 976.499694824219 990.300598144531 994.611572265625 993.005493164062 991.386901855469 988.038208007812 988.304626464844 981.106323242188 986.756591796875 995.062255859375 998.1494140625 1000.90631103516 1002.59539794922 1015.89990234375 1008.60528564453 1007.25286865234 1010.19409179688 1009.70227050781 999.832092285156 993.254699707031 986.382263183594 986.603088378906 991.716003417969 982.915710449219 980.412536621094 980.105163574219 982.145568847656 1005.50103759766 1009.03765869141 1004.55102539062 997.059631347656 1005.56903076172 1014.06396484375 1008.27880859375 1011.53955078125 1015.28912353516 1010.84417724609 1009.81787109375 1012.29077148438 1013.39526367188 1017.22442626953 1018.29846191406 1023.63128662109 1030.46240234375 1033.50500488281 1034.98999023438 1036.24584960938 1028.55432128906 1022.25689697266 1022.89630126953 1012.62158203125 1002.87316894531 995.017822265625 1001.58618164062 1001.87115478516 1005.95172119141 1010.236328125 1008.45526123047 1011.13806152344 1008.63879394531 1000.3857421875 1009.04968261719 1012.57525634766 1003.75140380859 987.882751464844 996.598266601562 1008.7880859375 1004.24755859375 987.767700195312 994.028259277344 991.701354980469 984.971618652344 989.964660644531 982.674865722656 982.848876953125 979.566162109375 975.711303710938 975.426025390625 975.546569824219 962.663757324219 973.610595703125 974.41552734375
950.127502441406 945.677673339844 949.201110839844 944.742736816406 944.51513671875 938.575073242188 943.592224121094 948.699035644531 949.446044921875 964.962219238281 979.930541992188 975.644592285156 973.801696777344 972.263305664062 977.663879394531 973.485412597656 983.241943359375 984.713012695312 981.411865234375 984.815307617188 986.913452148438 982.663635253906 987.697570800781 990.085144042969 1002.48498535156 992.152221679688 990.141479492188 987.17138671875 991.899475097656 987.604614257812 986.864562988281 986.391357421875 991.287048339844 982.732421875 982.036987304688 998.734436035156 1000.32989501953 1009.60675048828 1010.86437988281 1010.1611328125 1004.09368896484 1002.39453125 997.272399902344 1000.73718261719 1008.90246582031 1020.37738037109 1017.15600585938 1016.83843994141 1007.333984375 1007.99078369141 999.201965332031 985.436706542969 991.840393066406 995.151123046875 995.371520996094 997.774719238281 998.210998535156 992.775817871094 989.807250976562 976.223754882812 978.085021972656 977.046569824219 970.992492675781 975.267639160156 974.715209960938 968.373840332031 975.599243164062 977.843566894531 973.664794921875 977.717895507812 997.8857421875 992.304260253906 989.716674804688 991.1484375 990.264587402344 991.679931640625 987.353881835938 996.417114257812 997.618896484375 1006.6669921875 1009.57330322266 1006.302734375 1005.75701904297 1011.67590332031 1014.49908447266 1007.01745605469 991.880126953125 993.168090820312 998.961059570312 1005.44677734375 992.637817382812 987.309326171875 988.367919921875 988.077270507812 993.064208984375 1000.80462646484 1003.69573974609 1000.27233886719 1000.98083496094 1013.55236816406 1014.04711914062 1008.73931884766 1010.98870849609 1014.09100341797 1003.86297607422 1007.69573974609 1012.82891845703 1022.06140136719 1017.18731689453 1015.58056640625 1027.49719238281 1030.62390136719 1038.04565429688 1037.61462402344 1040.28735351562 1035.28137207031 1033.74353027344 1025.53698730469 1017.21380615234 1000.46557617188 992.128845214844 1004.85858154297 1009.95245361328 1007.00439453125 1013.43695068359 1013.81945800781 1010.0849609375 998.181213378906 1001.00231933594 999.678405761719 1004.33044433594 998.642944335938 1003.99499511719 1003.97845458984 997.6513671875 999.436218261719 998.124450683594 992.107299804688 982.526489257812 988.886596679688 993.287658691406 983.231994628906 981.763549804688 972.540588378906 972.979736328125 971.929443359375 964.140747070312 965.409729003906 969.626037597656 975.644104003906
952.468200683594 947.766235351562 945.192443847656 934.661926269531 942.596435546875 938.635375976562 937.377502441406 944.131774902344 956.771545410156 960.818481445312 972.767883300781 973.46533203125 974.019409179688 973.255126953125 975.029846191406 974.150756835938 974.518676757812 977.383972167969 977.142700195312 974.506652832031 981.453552246094 981.496704101562 983.950317382812 978.361938476562 990.940673828125 1000.07061767578 988.227783203125 987.181945800781 977.411315917969 983.528930664062 983.583557128906 983.407897949219 993.894592285156 986.817077636719 986.064697265625 993.646484375 998.890625 1006.01538085938 1009.59429931641 1015.52655029297 1009.45391845703 995.935546875 997.69384765625 1001.82666015625 1002.40246582031 1010.69976806641 1017.56396484375 1013.51391601562 1012.25592041016 1008.68798828125 998.14697265625 1000.47485351562 994.098449707031 995.133666992188 993.742004394531 991.298583984375 996.316162109375 993.054748535156 987.696044921875 978.3466796875 988.853576660156 987.238830566406 979.181762695312 976.838562011719 975.14697265625 975.877319335938 971.973999023438 972.60986328125 972.727905273438 978.163452148438 990.91552734375 995.799499511719 992.137756347656 987.688354492188 991.1357421875 993.119384765625 1002.33148193359 1004.57666015625 1008.18756103516 1013.42889404297 1012.57470703125 1007.81494140625 1011.94952392578 1010.45153808594 1009.80609130859 1004.85168457031 996.441162109375 998.894287109375 1000.22338867188 993.112426757812 995.718627929688 991.694702148438 988.500244140625 993.664611816406 998.149230957031 1001.06274414062 1000.03735351562 997.465881347656 1003.17193603516 1010.13543701172 1009.91265869141 1013.83276367188 1011.02453613281 1004.91284179688 1009.0908203125 1008.4541015625 1011.73779296875 1024.04077148438 1031.86572265625 1030.8056640625 1034.09155273438 1040.48779296875 1041.76184082031 1048.51684570312 1048.47045898438 1045.53137207031 1040.27490234375 1033.05041503906 1024.10217285156 1004.40643310547 997.456115722656 1003.2939453125 1001.87493896484 1008.63739013672 1011.42858886719 1004.98364257812 1008.01385498047 1000.73345947266 1008.27301025391 998.475402832031 1006.13854980469 998.331604003906 996.372802734375 994.828369140625 1000.47692871094 996.523498535156 993.256164550781 991.856750488281 985.211242675781 986.190979003906 994.673950195312 988.474548339844 979.424438476562 981.28759765625 979.908020019531 967.622497558594 972.868286132812 970.971740722656 969.292785644531 967.554382324219
953.124389648438 950.991333007812 943.023132324219 940.843444824219 938.537719726562 936.952026367188 932.946716308594 939.58544921875 956.124328613281 959.696716308594 971.232543945312 976.857727050781 971.935791015625 981.363159179688 975.782165527344 979.45849609375 974.483581542969 973.6474609375 978.682434082031 981.505981445312 975.049743652344 981.264831542969 974.046325683594 984.387817382812 995.032409667969 995.665283203125 994.643859863281 980.276916503906 979.4853515625 980.106323242188 975.829406738281 987.345153808594 995.354431152344 985.594055175781 985.377746582031 991.561584472656 992.111572265625 992.357055664062 1005.47296142578 1001.18756103516 1000.57684326172 994.998474121094 1003.72479248047 997.260375976562 998.080627441406 1004.73303222656 997.126281738281 1011.88488769531 1004.29486083984 1012.32922363281 1010.66070556641 1005.23352050781 999.088562011719 1001.22900390625 999.551025390625 986.439758300781 983.461120605469 987.103576660156 987.085083007812 984.193603515625 985.6728515625 988.565002441406 989.443115234375 979.866821289062 974.247802734375 979.658081054688 974.389343261719 976.564392089844 980.612854003906 984.650024414062 990.576904296875 995.441650390625 985.77685546875 989.10009765625 990.93115234375 987.51953125 999.205139160156 1000.98864746094 1006.15789794922 1008.67657470703 1008.10607910156 1008.5556640625 1015.81671142578 1005.06762695312 1005.90283203125 997.4892578125 1001.57092285156 996.650634765625 1002.05157470703 1001.18884277344 993.805847167969 996.615173339844 996.300354003906 994.527099609375 1005.61175537109 994.186218261719 998.650512695312 1001.12371826172 1002.07757568359 1008.45367431641 1016.47607421875 1014.89331054688 1022.43273925781 1011.55267333984 1015.70495605469 1014.65930175781 1014.57537841797 1016.45855712891 1029.59020996094 1033.16320800781 1045.82116699219 1041.08325195312 1044.80444335938 1052.5244140625 1056.50183105469 1045.06884765625 1041.56884765625 1028.11999511719 1023.90673828125 1012.03894042969 1017.98370361328 1007.47607421875 1007.32641601562 1001.12927246094 1008.81463623047 1005.07562255859 990.738159179688 998.135498046875 994.643676757812 998.536254882812 1003.25891113281 991.796264648438 993.745788574219 993.38232421875 997.406311035156 998.220764160156 1000.44476318359 990.7587890625 990.554382324219 993.249206542969 987.472778320312 986.443481445312 977.953979492188 976.707458496094 973.986572265625 972.332885742188 973.269165039062 970.080444335938 973.787292480469 971.182861328125
958.263977050781 951.483459472656 941.685424804688 937.140441894531 940.95751953125 936.772216796875 933.672241210938 937.415283203125 951.78271484375 957.965942382812 970.510559082031 975.121154785156 972.748962402344 966.603576660156 975.273864746094 973.026123046875 971.26220703125 976.434936523438 977.545104980469 976.567810058594 981.523681640625 981.370422363281 971.374328613281 979.63623046875 980.946655273438 989.037353515625 985.054992675781 980.659362792969 970.6357421875 970.383911132812 988.158874511719 983.995727539062 984.024658203125 979.477233886719 982.903991699219 982.620666503906 982.569091796875 988.291259765625 995.457153320312 986.707824707031 992.062255859375 996.232543945312 991.889587402344 991.603820800781 1004.34576416016 994.145690917969 1004.22399902344 1008.69458007812 1009.46795654297 1006.08410644531 1013.22857666016 1002.09881591797 995.123229980469 996.752624511719 995.58740234375 987.368469238281 980.821594238281 984.640319824219 986.779296875 978.4501953125 982.882141113281 985.20166015625 986.296020507812 976.269348144531 973.272521972656 981.94677734375 984.81884765625 982.85546875 978.827697753906 987.164978027344 982.98193359375 985.602294921875 986.0947265625 987.180786132812 980.366516113281 987.537170410156 996.815307617188 1001.51568603516 1009.48742675781 1009.63244628906 1006.62298583984 1009.89758300781 1007.19415283203 1013.05706787109 1004.74426269531 1008.76141357422 1006.21337890625 994.464477539062 998.197570800781 1001.50762939453 1007.26770019531 997.754333496094 995.012756347656 1000.53619384766 1003.76763916016 995.873596191406 1001.32073974609 1001.66558837891 1007.10302734375 1013.73870849609 1017.78228759766 1014.73309326172 1012.19879150391 1009.87799072266 1017.42749023438 1016.23608398438 1021.73931884766 1031.99816894531 1031.12561035156 1037.24951171875 1037.49584960938 1049.18249511719 1046.74255371094 1048.67517089844 1055.08874511719 1051.08996582031 1042.85229492188 1034.78942871094 1032.97863769531 1030.05200195312 1033.45971679688 1020.09881591797 1010.83837890625 1009.68170166016 1007.08428955078 1007.72387695312 1002.44549560547 994.393920898438 985.055236816406 983.094787597656 996.641418457031 993.379028320312 988.7783203125 991.357788085938 1002.25799560547 1006.29406738281 1008.33453369141 989.638061523438 981.286560058594 987.51611328125 995.860046386719 997.669555664062 985.773376464844 981.374877929688 983.776672363281 970.345520019531 975.097778320312 974.919982910156 975.775329589844 973.639831542969
956.182434082031 958.441833496094 948.820739746094 945.350219726562 947.572875976562 948.658630371094 937.440490722656 933.89892578125 937.484130859375 949.269104003906 957.828186035156 968.109680175781 966.676391601562 960.736511230469 959.390930175781 972.833740234375 968.696228027344 964.441284179688 976.983947753906 977.563232421875 971.325378417969 965.625305175781 964.406311035156 969.454223632812 980.449645996094 975.986022949219 984.744812011719 974.287109375 969.453186035156 964.998962402344 970.435424804688 976.260620117188 974.53759765625 979.75927734375 979.289245605469 982.541931152344 986.553955078125 998.683654785156 995.475830078125 987.779541015625 992.339904785156 994.969482421875 993.165344238281 990.878295898438 985.8603515625 989.696716308594 1003.12835693359 1005.11273193359 1001.07592773438 1011.09063720703 1008.11840820312 998.887817382812 984.685729980469 988.710205078125 989.593078613281 986.652282714844 993.404235839844 991.5283203125 979.72509765625 977.858947753906 976.2958984375 981.630187988281 986.694580078125 981.902648925781 978.898376464844 990.464782714844 993.467041015625 988.838745117188 987.335754394531 988.604675292969 988.969421386719 989.870971679688 984.655090332031 991.026306152344 991.01123046875 989.0322265625 999.04052734375 999.888000488281 997.857421875 1000.32946777344 1007.99584960938 1006.07452392578 1014.18640136719 1013.19885253906 1012.4326171875 1010.69616699219 1007.49060058594 1007.23083496094 1002.22930908203 1002.48370361328 1000.17657470703 1006.42974853516 992.623046875 1001.56018066406 991.7685546875 988.543151855469 994.633728027344 997.166625976562 998.940795898438 1004.32922363281 1004.49084472656 1018.86334228516 1016.212890625 1016.68841552734 1016.39788818359 1022.98333740234 1028.46154785156 1028.59020996094 1036.11608886719 1048.72839355469 1054.02758789062 1057.51220703125 1054.525390625 1062.81213378906 1056.25671386719 1058.11279296875 1050.07861328125 1041.39367675781 1046.67846679688 1047.5361328125 1035.92919921875 1026.76989746094 1017.30657958984 1020.25494384766 1014.95556640625 1009.48193359375 1003.64282226562 999.755493164062 982.513549804688 981.025451660156 989.685974121094 994.495666503906 995.931030273438 993.224426269531 998.3310546875 999.407653808594 996.526550292969 991.620483398438 982.269104003906 978.1494140625 986.218811035156 996.373962402344 983.786254882812 983.893371582031 975.818420410156 975.128662109375 972.585998535156 981.325744628906 984.582458496094 975.409240722656
962.476745605469 959.197021484375 957.465454101562 944.202087402344 945.985900878906 938.119934082031 933.03173828125 938.728454589844 934.211608886719 938.598693847656 952.554321289062 959.850402832031 961.594970703125 956.079650878906 954.107421875 966.163330078125 963.810363769531 957.129028320312 961.197143554688 969.156799316406 964.393798828125 959.873413085938 961.121887207031 959.498291015625 969.197814941406 968.317199707031 973.88623046875 977.036010742188 964.582824707031 955.394409179688 964.042358398438 968.717102050781 968.774169921875 968.3544921875 967.340148925781 978.223815917969 975.777282714844 982.920654296875 983.130004882812 983.027526855469 988.311767578125 984.709167480469 986.230224609375 985.093078613281 989.350891113281 994.633850097656 998.9755859375 989.910888671875 988.920654296875 1001.78436279297 1006.03350830078 996.239868164062 990.249145507812 995.102355957031 994.974609375 990.765197753906 997.971435546875 991.931884765625 985.379150390625 976.116027832031 981.589172363281 986.941162109375 976.091735839844 987.802490234375 984.073547363281 983.4345703125 992.461242675781 983.732849121094 991.255859375 989.01025390625 983.862487792969 999.712036132812 997.105102539062 991.739074707031 988.449401855469 991.236328125 991.944946289062 990.673828125 995.627868652344 999.64306640625 1006.51391601562 1016.76818847656 1010.26470947266 1019.65911865234 1015.8603515625 1008.40893554688 1002.36285400391 1002.86212158203 1007.63568115234 998.853393554688 999.848266601562 1008.01721191406 1003.40893554688 1006.44110107422 993.940368652344 999.121948242188 1002.32629394531 992.737548828125 993.653503417969 995.229614257812 1002.80389404297 1016.07458496094 1017.21685791016 1008.72790527344 1010.13061523438 1029.73889160156 1040.53430175781 1047.44091796875 1043.22485351562 1045.73046875 1054.77954101562 1068.42932128906 1067.46716308594 1072.18493652344 1066.59240722656 1054.73889160156 1049.08276367188 1041.31384277344 1043.3330078125 1045.068359375 1036.72229003906 1031.75793457031 1022.51220703125 1018.40893554688 1018.90466308594 1015.16741943359 1001.10980224609 996.206604003906 988.494506835938 975.6689453125 981.130432128906 982.098510742188 990.882690429688 990.421264648438 994.981872558594 996.77099609375 992.057861328125 994.524963378906 983.072021484375 984.872314453125 981.5537109375 982.423828125 984.639526367188 983.752685546875 978.631713867188 976.206420898438 976.533874511719 983.09716796875 985.957580566406 978.586059570312
961.927429199219 960.656494140625 951.799682617188 947.022094726562 953.187316894531 945.54931640625 936.170471191406 939.898315429688 940.899841308594 940.7080078125 946.365356445312 947.012573242188 950.835754394531 950.333740234375 959.213439941406 972.167358398438 966.816650390625 965.401062011719 959.0712890625 956.411376953125 956.228271484375 953.840881347656 956.313354492188 963.467224121094 958.333862304688 953.596618652344 970.663024902344 967.619140625 959.828002929688 955.244506835938 960.535461425781 967.631896972656 963.828063964844 961.427185058594 961.000671386719 962.660949707031 967.875061035156 972.957397460938 974.402587890625 979.646362304688 979.174926757812 977.609069824219 982.974914550781 986.944458007812 986.715576171875 988.627868652344 994.755249023438 984.28466796875 978.188232421875 985.344848632812 990.651000976562 1006.20532226562 991.033813476562 993.072570800781 998.703186035156 989.888793945312 997.292297363281 982.540710449219 993.640502929688 986.060729980469 984.21875 984.556518554688 986.404357910156 993.436218261719 991.759399414062 993.153625488281 989.3173828125 978.328674316406 980.5224609375 988.960632324219 992.641418457031 996.793640136719 998.2265625 999.039306640625 993.950744628906 998.828002929688 985.7021484375 988.2119140625 993.127807617188 1005.05633544922 1002.73443603516 1007.01782226562 1016.78479003906 1015.59185791016 1012.74365234375 1000.22052001953 1000.55126953125 1009.25714111328 1008.24792480469 1005.80596923828 1005.04022216797 1004.42687988281 996.579345703125 997.260498046875 1002.10852050781 1007.55249023438 1004.25213623047 1006.88208007812 998.27197265625 997.46337890625 996.378051757812 1000.92785644531 1002.46441650391 1009.18872070312 1009.03033447266 1024.32788085938 1036.82507324219 1034.00207519531 1043.69982910156 1058.95349121094 1058.908203125 1064.09826660156 1071.30151367188 1066.48291015625 1065.65002441406 1050.3125 1055.68591308594 1045.99206542969 1045.14147949219 1039.25817871094 1040.29956054688 1027.4716796875 1016.37646484375 1013.7529296875 1016.19635009766 1004.57720947266 997.447875976562 994.104064941406 991.577697753906 986.303466796875 977.902404785156 992.872009277344 985.964904785156 980.278137207031 985.084167480469 984.418640136719 986.416320800781 985.957397460938 983.462158203125 977.6640625 978.462341308594 978.152160644531 978.176086425781 981.780151367188 972.318603515625 971.67138671875 969.249877929688 973.578674316406 974.833374023438 978.760070800781
961.548583984375 957.56640625 947.968566894531 946.171997070312 953.745788574219 955.129943847656 947.725830078125 944.282409667969 939.239318847656 944.283935546875 947.566284179688 949.078491210938 946.766723632812 948.047546386719 959.129577636719 963.184143066406 963.088623046875 951.49462890625 951.673645019531 957.884765625 956.592529296875 952.326110839844 961.108764648438 960.660034179688 953.001159667969 958.233032226562 959.070068359375 962.55712890625 964.569519042969 955.072448730469 959.401977539062 966.017395019531 964.6201171875 954.990051269531 959.088073730469 954.914489746094 955.504821777344 968.879272460938 973.08447265625 974.1220703125 971.08935546875 984.198608398438 988.137939453125 997.431518554688 991.360717773438 994.235900878906 986.447265625 985.618591308594 982.295288085938 985.3349609375 998.040649414062 991.894714355469 996.08056640625 999.583190917969 996.682983398438 994.858520507812 999.849304199219 993.047546386719 992.080688476562 986.179931640625 996.10498046875 994.981384277344 993.230163574219 991.092529296875 990.928283691406 987.56494140625 987.302490234375 981.747131347656 980.252258300781 985.169067382812 997.445129394531 1000.38372802734 997.42138671875 1005.00885009766 999.763916015625 986.282104492188 993.183288574219 988.171020507812 994.62109375 1005.14324951172 997.596435546875 1001.64190673828 1008.75738525391 1009.36657714844 1012.22802734375 1007.88232421875 1009.45562744141 1005.40447998047 1016.31396484375 1006.51806640625 1004.29650878906 1002.29626464844 1006.80474853516 1002.19982910156 1002.55279541016 1008.08416748047 1006.71069335938 1002.85760498047 1002.35827636719 1008.69903564453 1001.86267089844 999.535522460938 1013.44232177734 1013.35308837891 1015.46612548828 1019.81793212891 1027.41027832031 1035.77453613281 1046.83276367188 1054.55993652344 1056.26147460938 1059.60400390625 1065.84729003906 1067.271484375 1069.36938476562 1061.48095703125 1054.98547363281 1047.11022949219 1045.84875488281 1053.18615722656 1042.48266601562 1026.91870117188 1012.83624267578 1013.66943359375 1025.08056640625 1010.2890625 998.007141113281 995.303039550781 991.846984863281 990.872314453125 978.552673339844 977.773376464844 978.237365722656 987.1279296875 982.113220214844 982.439147949219 979.101440429688 989.744812011719 977.65087890625 972.938903808594 978.784362792969 972.14208984375 972.349487304688 972.833862304688 969.857299804688 968.63671875 973.800109863281 973.853820800781 983.792419433594 977.461791992188
963.18701171875 957.158386230469 956.567626953125 958.081848144531 957.601989746094 965.125671386719 955.013549804688 947.654174804688 946.492858886719 944.706848144531 947.720031738281 940.778381347656 940.8759765625 949.752746582031 953.208190917969 958.324523925781 960.070922851562 957.175476074219 950.268310546875 956.510620117188 965.430480957031 958.547241210938 958.384399414062 957.811157226562 956.684936523438 961.746887207031 958.682006835938 959.034240722656 968.444641113281 962.89013671875 956.356811523438 959.89404296875 958.048034667969 958.740966796875 957.134948730469 959.47265625 965.05419921875 964.230773925781 970.228942871094 970.811340332031 974.702697753906 979.243713378906 981.486694335938 991.825866699219 990.704711914062 992.854553222656 995.377990722656 982.68994140625 977.302978515625 983.332336425781 998.005432128906 998.1396484375 993.120727539062 995.782287597656 999.69482421875 1007.72039794922 993.273315429688 987.234252929688 989.881103515625 994.522766113281 989.883056640625 987.704406738281 992.802795410156 996.101928710938 992.928955078125 985.61376953125 988.297424316406 992.897827148438 986.782897949219 988.295715332031 988.442016601562 997.525512695312 995.617553710938 996.622802734375 995.992431640625 996.641540527344 999.282958984375 993.626159667969 997.874328613281 994.140930175781 996.802734375 1003.28558349609 1002.82861328125 1012.08087158203 1012.48992919922 1010.74237060547 1006.91174316406 1008.669921875 1015.57342529297 1006.71472167969 1011.26574707031 1003.55688476562 1002.28021240234 1007.46350097656 1011.302734375 1004.61529541016 1005.15075683594 1008.91217041016 1010.57012939453 1012.37860107422 1020.07775878906 1016.06396484375 1016.64263916016 1013.8916015625 1020.53533935547 1014.91320800781 1021.78582763672 1030.06005859375 1053.25427246094 1047.9619140625 1050.40222167969 1059.25451660156 1063.19995117188 1060.88891601562 1064.62646484375 1063.83776855469 1069.76538085938 1055.84899902344 1047.89587402344 1049.80981445312 1041.69030761719 1030.72766113281 1021.51995849609 1016.94140625 1015.921875 1006.95361328125 1001.91986083984 996.965576171875 988.305725097656 987.323974609375 986.213439941406 979.998168945312 980.827209472656 985.642517089844 983.332702636719 978.803955078125 982.30810546875 975.462585449219 975.737731933594 971.184509277344 969.156433105469 960.664001464844 969.833129882812 968.146362304688 966.991149902344 966.389953613281 971.545593261719 975.289245605469 981.63427734375 983.227966308594
968.439697265625 966.521423339844 959.189086914062 965.576599121094 965.616271972656 965.358947753906 961.880126953125 944.759643554688 950.628173828125 941.794677734375 942.658813476562 943.286376953125 944.848388671875 945.248352050781 948.932006835938 952.601623535156 960.981811523438 956.013122558594 961.709289550781 963.717895507812 967.307861328125 964.152099609375 957.6005859375 951.126281738281 951.397338867188 961.554443359375 959.773193359375 960.341918945312 971.3369140625 957.970031738281 961.973937988281 960.100952148438 953.828002929688 951.839477539062 963.003479003906 966.571716308594 968.867431640625 968.253173828125 978.307434082031 966.060729980469 976.669067382812 971.181701660156 979.590270996094 987.188171386719 991.531433105469 993.782775878906 990.67236328125 991.331848144531 983.925354003906 985.052551269531 996.972778320312 989.29541015625 995.398986816406 1003.15209960938 1005.56719970703 1001.47967529297 999.117431640625 992.611206054688 988.094970703125 1002.88629150391 993.7724609375 990.158508300781 990.808227539062 1000.77331542969 994.430969238281 1002.44024658203 992.777526855469 988.405883789062 990.990966796875 986.856872558594 989.98193359375 992.178833007812 996.449340820312 998.692810058594 995.711669921875 998.998413085938 997.512878417969 996.506103515625 985.596862792969 989.2158203125 995.811950683594 1005.4638671875 1005.83135986328 1001.18103027344 1008.87915039062 1004.43127441406 1005.50280761719 1012.04278564453 1005.66241455078 998.703002929688 1001.14251708984 1000.86938476562 996.713562011719 999.202941894531 1005.341796875 1000.10302734375 999.899841308594 1012.92657470703 1017.27032470703 1018.26104736328 1018.91381835938 1026.47875976562 1024.70556640625 1018.41552734375 1018.63299560547 1014.45306396484 1015.05920410156 1024.58117675781 1048.18225097656 1042.46630859375 1046.75439453125 1049.68493652344 1042.01428222656 1055.66418457031 1061.6943359375 1064.78283691406 1064.50634765625 1057.51379394531 1058.26184082031 1052.60986328125 1046.66735839844 1032.99780273438 1026.02197265625 1023.38452148438 1018.17114257812 1013.62420654297 1009.13543701172 1002.14190673828 1003.26293945312 991.435241699219 988.32080078125 985.109436035156 981.265747070312 984.98486328125 979.935913085938 978.46484375 979.252014160156 971.276489257812 970.493103027344 968.53759765625 967.270324707031 961.492370605469 967.913269042969 974.091064453125 973.108154296875 971.326904296875 971.977966308594 984.981994628906 980.651306152344 983.397277832031
957.055358886719 962.744995117188 967.318176269531 970.8408203125 969.016906738281 970.466003417969 965.216491699219 955.109558105469 947.146484375 943.094787597656 946.868347167969 940.415771484375 947.335693359375 945.838439941406 948.563232421875 960.943115234375 956.565551757812 954.406433105469 953.964904785156 958.131164550781 959.944091796875 956.066467285156 951.213317871094 954.017028808594 956.7587890625 963.03564453125 965.175659179688 964.772155761719 967.228942871094 955.728820800781 958.784484863281 956.252868652344 951.432250976562 965.998046875 961.082763671875 965.446716308594 975.166198730469 968.848754882812 976.570861816406 983.711547851562 969.875427246094 977.266845703125 977.142578125 981.840881347656 980.176879882812 984.0029296875 978.827392578125 989.983337402344 982.875915527344 987.245483398438 992.447204589844 991.864135742188 997.573120117188 1006.46789550781 1011.09417724609 1015.29852294922 1004.54797363281 1000.47241210938 994.965942382812 998.287902832031 992.897888183594 994.724548339844 992.97216796875 992.186828613281 1004.23693847656 1001.94635009766 997.959228515625 991.935668945312 986.605285644531 987.535888671875 992.759948730469 991.895202636719 997.384643554688 993.283508300781 1005.32873535156 1003.92944335938 999.230773925781 993.219360351562 994.96044921875 993.060363769531 992.169860839844 998.139404296875 1004.146484375 999.196655273438 995.010314941406 1002.77557373047 1008.69305419922 1012.7568359375 1011.23986816406 1010.22198486328 1003.47503662109 1006.41247558594 998.825866699219 1009.78692626953 1003.97497558594 1006.60369873047 1008.02069091797 1014.81280517578 1016.27740478516 1016.08471679688 1021.51654052734 1021.36383056641 1030.25134277344 1026.52355957031 1025.82653808594 1018.20239257812 1021.82189941406 1033.61181640625 1049.29187011719 1047.85510253906 1048.52746582031 1052.09216308594 1048.22802734375 1047.72875976562 1054.76879882812 1064.56506347656 1060.30285644531 1062.58386230469 1064.62084960938 1057.28234863281 1041.02917480469 1032.83190917969 1025.90942382812 1021.43481445312 1018.47369384766 1003.22680664062 992.663269042969 999.185852050781 1003.814453125 993.601806640625 989.91748046875 988.269775390625 980.656921386719 979.897766113281 976.468078613281 970.869323730469 972.912963867188 965.603698730469 962.84619140625 963.704528808594 969.111083984375 964.684631347656 968.119506835938 974.293701171875 975.352600097656 976.757080078125 974.333923339844 981.102722167969 980.812072753906 985.547546386719
967.306274414062 962.401245117188 971.137268066406 975.108825683594 963.497192382812 974.050231933594 965.499633789062 956.418212890625 951.361694335938 947.057067871094 952.420349121094 950.102661132812 952.980224609375 955.8212890625 958.429443359375 966.609436035156 963.345458984375 953.287048339844 966.503173828125 958.464050292969 962.282836914062 955.952331542969 956.248901367188 954.058959960938 954.617736816406 968.887023925781 971.203918457031 973.503295898438 961.568359375 962.262329101562 961.522521972656 961.095458984375 969.439453125 969.760559082031 970.747680664062 966.011657714844 978.177551269531 975.421447753906 978.051147460938 978.856567382812 967.798522949219 975.157775878906 969.395202636719 972.592651367188 965.053283691406 973.706481933594 981.090454101562 976.395080566406 983.519775390625 984.075622558594 984.565979003906 990.774597167969 995.910095214844 999.394897460938 1001.072265625 1009.22375488281 1008.74060058594 1008.48687744141 996.344299316406 1000.82202148438 1000.13873291016 1001.28070068359 1003.44207763672 1000.83447265625 999.396423339844 1007.82745361328 995.90185546875 987.098205566406 992.573669433594 993.833679199219 992.980773925781 995.130859375 997.625854492188 998.741577148438 1005.2451171875 1000.83947753906 1001.53216552734 996.246643066406 997.472045898438 999.924743652344 993.976318359375 993.282836914062 998.000122070312 996.152160644531 997.429565429688 1007.7548828125 1007.60223388672 1011.37200927734 1011.18823242188 1015.62469482422 1013.06231689453 1008.28784179688 1015.97155761719 1011.53485107422 1011.72052001953 1017.50811767578 1009.32061767578 1010.08917236328 1007.83367919922 1019.97192382812 1027.13317871094 1023.04351806641 1032.80212402344 1025.49572753906 1019.8056640625 1018.51470947266 1026.47509765625 1042.59997558594 1045.34130859375 1045.63916015625 1058.94482421875 1054.27465820312 1049.6669921875 1059.40539550781 1054.52795410156 1060.47912597656 1059.94604492188 1061.02258300781 1055.76220703125 1041.3271484375 1040.28283691406 1036.96545410156 1030.87841796875 1021.13189697266 1022.30578613281 1018.71435546875 1002.32659912109 998.033508300781 985.388549804688 989.978515625 994.881591796875 988.838928222656 985.180297851562 979.94140625 974.567199707031 967.936340332031 967.909240722656 964.930541992188 963.1416015625 961.902282714844 964.684448242188 966.38671875 970.068664550781 969.444946289062 978.812927246094 975.376892089844 978.018493652344 978.211669921875 979.968322753906 967.245361328125
962.49853515625 966.817199707031 973.801940917969 974.776550292969 966.697509765625 966.538818359375 964.510864257812 959.951477050781 959.511474609375 957.502014160156 961.550720214844 959.0224609375 964.069274902344 972.643310546875 966.184204101562 970.107482910156 961.155334472656 956.167419433594 962.089721679688 964.672912597656 967.890747070312 962.092468261719 962.086547851562 956.108154296875 958.571350097656 968.589233398438 979.539733886719 972.416259765625 968.680053710938 972.545471191406 970.735290527344 964.1943359375 968.943969726562 970.413391113281 963.817321777344 961.913330078125 976.416870117188 977.276184082031 971.693054199219 971.928161621094 973.150329589844 972.959777832031 968.416564941406 963.554443359375 964.236022949219 976.837463378906 974.297241210938 980.907836914062 982.217712402344 983.014038085938 980.115661621094 991.708679199219 999.400268554688 997.96435546875 995.993286132812 1001.54626464844 1007.58770751953 1004.60314941406 1005.34790039062 1003.79724121094 1007.46899414062 1011.49981689453 1007.20428466797 1007.72711181641 1009.79797363281 1003.57012939453 1000.43371582031 1008.095703125 998.12939453125 997.709594726562 990.890991210938 1000.25256347656 999.096130371094 1004.19750976562 1004.99584960938 997.039489746094 998.918273925781 1000.30755615234 995.91259765625 991.597778320312 1001.99884033203 1004.38800048828 1007.85278320312 998.438842773438 995.26123046875 994.30908203125 999.35009765625 1009.53997802734 1015.91845703125 1018.81323242188 1013.4150390625 1008.02136230469 1013.71197509766 1012.47961425781 1015.21313476562 1013.87554931641 1018.00512695312 1008.07550048828 1013.95941162109 1015.87365722656 1009.66528320312 1016.08990478516 1026.34228515625 1033.884765625 1022.35534667969 1025.26098632812 1025.37426757812 1032.35009765625 1042.54797363281 1051.19079589844 1049.13159179688 1054.60986328125 1048.21960449219 1052.47375488281 1050.99438476562 1056.47314453125 1055.68701171875 1049.72802734375 1044.6435546875 1043.4765625 1039.40405273438 1033.3955078125 1035.72790527344 1031.21533203125 1030.69067382812 1018.10083007812 1009.07159423828 997.417724609375 996.256042480469 989.80078125 981.3154296875 976.362487792969 979.682678222656 977.047058105469 973.095764160156 974.629089355469 972.02197265625 971.408630371094 961.394653320312 961.084411621094 963.012756347656 962.276000976562 968.975646972656 965.120483398438 976.918823242188 982.134338378906 977.904602050781 974.503723144531 968.642211914062 967.046020507812
957.583801269531 966.986267089844 974.615539550781 974.152587890625 962.515991210938 962.391235351562 956.651611328125 958.556701660156 959.947692871094 949.970092773438 951.276428222656 956.7041015625 966.547180175781 970.713684082031 969.173034667969 971.751281738281 971.046691894531 962.941589355469 971.134521484375 967.855590820312 966.214965820312 969.546020507812 961.979125976562 963.249877929688 966.398315429688 972.263366699219 972.751098632812 975.482360839844 967.701843261719 972.298950195312 965.352600097656 961.828979492188 963.692810058594 968.571533203125 967.462219238281 970.531188964844 980.631530761719 978.637084960938 983.269714355469 980.655578613281 977.049499511719 981.734680175781 974.800170898438 973.6357421875 970.371276855469 969.211242675781 969.643249511719 974.160339355469 987.688903808594 987.276123046875 984.581665039062 994.3330078125 1000.49615478516 998.259643554688 997.371398925781 1004.55474853516 1006.58880615234 1018.56530761719 1008.38311767578 1008.50738525391 1014.38061523438 1016.32672119141 1013.91143798828 1007.40393066406 1012.37030029297 1003.68676757812 1005.61431884766 1009.72283935547 998.237121582031 999.163635253906 995.100524902344 992.294860839844 1002.59649658203 1007.60705566406 1005.69879150391 998.22314453125 994.984802246094 1000.47021484375 1001.80505371094 990.942321777344 995.364013671875 1006.06787109375 994.240478515625 997.009033203125 995.01025390625 995.283447265625 1003.58355712891 1008.42364501953 1010.12811279297 1009.82006835938 1013.90057373047 1013.50988769531 1014.14532470703 1015.79425048828 1017.16278076172 1019.41802978516 1014.70660400391 1017.69879150391 1019.70404052734 1022.08843994141 1028.5859375 1020.11547851562 1023.82434082031 1024.81652832031 1023.22857666016 1034.27978515625 1026.505859375 1028.23620605469 1036.17907714844 1044.41857910156 1044.91687011719 1046.73266601562 1048.6328125 1046.41564941406 1043.52917480469 1049.35498046875 1043.78857421875 1038.46533203125 1038.77172851562 1027.15991210938 1041.50952148438 1033.30285644531 1032.65771484375 1031.63012695312 1025.04431152344 1017.51867675781 1012.19543457031 997.172790527344 993.796752929688 989.329040527344 984.89501953125 980.733459472656 974.489990234375 977.118103027344 979.96142578125 974.067321777344 972.552062988281 970.160461425781 959.152709960938 962.368225097656 970.129821777344 963.206481933594 959.389892578125 955.438049316406 963.434753417969 973.225952148438 968.689270019531 966.788330078125 964.691162109375 970.146301269531
964.679565429688 964.398681640625 970.000915527344 963.253173828125 959.918579101562 962.636779785156 957.712341308594 953.871459960938 950.055480957031 952.666748046875 949.365234375 954.193115234375 963.508056640625 967.960083007812 970.637512207031 971.302185058594 969.159912109375 962.997619628906 959.216857910156 952.492431640625 967.896118164062 975.987731933594 979.039428710938 969.30712890625 963.083312988281 964.125854492188 970.983520507812 966.197937011719 968.950439453125 966.663818359375 964.379455566406 964.665954589844 970.388854980469 967.947204589844 974.81591796875 970.095275878906 970.167846679688 974.264892578125 980.399597167969 990.820129394531 977.168090820312 975.134094238281 972.585083007812 980.018432617188 977.010009765625 974.376892089844 967.096374511719 978.196716308594 979.732604980469 984.326293945312 984.349975585938 1000.17474365234 997.585754394531 990.129333496094 992.679931640625 1002.18304443359 1009.28283691406 1010.50512695312 1016.38873291016 1020.80633544922 1021.51080322266 1020.91961669922 1016.56652832031 1014.19970703125 1008.884765625 1003.00885009766 1006.68322753906 999.990112304688 999.729919433594 998.357971191406 1002.71685791016 999.788391113281 999.061889648438 997.918640136719 1008.08349609375 1001.81378173828 997.919921875 999.780822753906 998.457214355469 999.794311523438 996.119140625 994.601867675781 993.960571289062 987.134399414062 999.841125488281 1004.39825439453 1003.99450683594 1009.6640625 1001.79614257812 1003.23858642578 1013.16687011719 1006.71624755859 1015.76068115234 1023.33264160156 1028.8154296875 1026.15698242188 1020.06951904297 1027.53137207031 1030.51770019531 1033.70288085938 1028.2216796875 1022.73901367188 1024.9775390625 1019.97351074219 1023.74597167969 1026.21447753906 1032.16418457031 1031.94775390625 1040.17004394531 1043.72021484375 1049.17883300781 1049.09826660156 1047.0458984375 1044.23376464844 1037.29614257812 1042.43310546875 1035.18725585938 1029.67517089844 1025.64819335938 1032.10693359375 1040.17541503906 1038.13269042969 1031.15295410156 1023.98669433594 1018.931640625 1016.50054931641 1006.25378417969 998.103210449219 1001.29803466797 989.487060546875 992.066589355469 976.514526367188 967.557006835938 974.521423339844 983.155456542969 971.467102050781 973.268615722656 966.94970703125 959.892578125 959.132690429688 966.673950195312 961.729858398438 966.047790527344 966.028686523438 965.844360351562 966.272888183594 963.063171386719 968.662109375 963.482116699219 971.224792480469
962.610168457031 955.417053222656 960.63232421875 972.968872070312 962.904602050781 958.775817871094 954.963134765625 952.4609375 948.009887695312 949.805419921875 950.619140625 954.794738769531 959.253234863281 973.714721679688 963.059204101562 965.353332519531 977.263366699219 976.678283691406 965.061096191406 966.747314453125 965.842590332031 975.43994140625 968.608520507812 970.411499023438 967.247375488281 965.782836914062 961.534423828125 973.629089355469 962.382507324219 960.576049804688 960.397583007812 959.088562011719 964.221923828125 967.345275878906 972.25341796875 966.040466308594 974.451293945312 966.292907714844 975.501159667969 979.599670410156 977.089538574219 975.765258789062 980.081970214844 972.002502441406 975.267395019531 970.751525878906 971.690002441406 981.98193359375 974.032409667969 985.146606445312 983.199584960938 991.676147460938 1000.08563232422 995.600769042969 1001.97210693359 995.355529785156 1001.09814453125 1011.88214111328 1015.103515625 1018.08374023438 1013.29205322266 1028.44360351562 1020.15905761719 1018.39916992188 1014.52569580078 1003.13983154297 1003.37329101562 997.739196777344 1001.328125 986.442810058594 993.390991210938 1005.12982177734 1003.78564453125 1006.4228515625 1008.48553466797 1006.09039306641 1004.63934326172 1006.35571289062 1000.45001220703 998.620849609375 1000.15484619141 989.304382324219 989.963623046875 995.819885253906 998.219299316406 1001.09375 1002.33331298828 997.708557128906 996.432250976562 1008.51177978516 1013.48370361328 1008.17510986328 1009.50885009766 1025.72399902344 1027.58715820312 1028.58752441406 1024.79125976562 1023.14038085938 1023.23077392578 1027.08850097656 1022.650390625 1025.45092773438 1027.55053710938 1021.16064453125 1019.38970947266 1032.01501464844 1030.85241699219 1028.05883789062 1034.55236816406 1040.80432128906 1045.60803222656 1046.18493652344 1048.79418945312 1043.26208496094 1047.28820800781 1035.62512207031 1032.20947265625 1024.36669921875 1018.84216308594 1025.333984375 1035.75134277344 1029.55920410156 1029.9873046875 1020.97515869141 1016.12078857422 1019.91979980469 1011.18383789062 997.482177734375 995.109313964844 996.479614257812 998.999816894531 989.375366210938 979.161010742188 976.356750488281 966.704345703125 968.234985351562 971.080688476562 962.645751953125 959.532409667969 960.282287597656 962.59228515625 956.530090332031 964.027587890625 959.914184570312 966.281921386719 960.645751953125 962.354797363281 962.056396484375 958.860229492188 964.598999023438
961.308166503906 968.072692871094 962.939758300781 958.714111328125 968.747863769531 961.0947265625 957.220825195312 949.578796386719 948.851989746094 944.639587402344 947.332275390625 951.976257324219 964.836303710938 963.678771972656 960.35302734375 965.388854980469 970.975463867188 971.790588378906 966.612060546875 968.394104003906 966.378784179688 973.075439453125 968.83251953125 973.659729003906 974.919921875 974.573181152344 968.233032226562 961.813293457031 966.060668945312 955.185791015625 960.286804199219 960.145080566406 955.693725585938 964.006713867188 970.567016601562 972.415405273438 975.002258300781 969.470031738281 976.248168945312 978.368041992188 978.884338378906 985.745178222656 979.692810058594 976.314331054688 968.474060058594 964.966918945312 965.490966796875 989.539794921875 981.92431640625 983.168640136719 981.321472167969 977.246887207031 983.959167480469 993.64794921875 997.703369140625 998.141235351562 1005.17572021484 1013.03045654297 1008.72552490234 1007.57470703125 1011.21875 1010.59057617188 1023.27905273438 1024.27258300781 1012.22467041016 1015.02825927734 1010.74182128906 999.393615722656 1002.94616699219 997.871826171875 1003.65625 999.9189453125 1008.15863037109 1000.34539794922 1009.00384521484 1010.33642578125 1007.47583007812 1003.65991210938 1004.67315673828 1002.05786132812 996.082214355469 998.591552734375 990.971374511719 998.592346191406 998.372985839844 998.152648925781 999.449584960938 998.906494140625 1004.49682617188 1009.82452392578 1006.96728515625 998.31787109375 1009.94506835938 1013.46173095703 1023.87322998047 1026.13647460938 1028.640625 1023.73614501953 1033.51647949219 1028.70104980469 1025.02392578125 1028.33654785156 1023.28265380859 1031.28649902344 1021.498046875 1017.08251953125 1022.68536376953 1018.41009521484 1029.6025390625 1037.81457519531 1036.41613769531 1038.45654296875 1045.81384277344 1053.08850097656 1046.11181640625 1044.26208496094 1039.37951660156 1030.80053710938 1021.23291015625 1025.80187988281 1024.44409179688 1026.61267089844 1025.19458007812 1026.95568847656 1023.470703125 1019.927734375 1013.95251464844 996.925903320312 991.775024414062 993.291809082031 998.467651367188 993.621826171875 982.311767578125 967.1455078125 957.653198242188 963.1826171875 968.936096191406 968.743103027344 953.904174804688 951.453063964844 955.701171875 955.79541015625 960.4736328125 953.034484863281 956.480346679688 954.019653320312 954.026306152344 958.666442871094 967.819396972656 973.054016113281
963.466674804688 959.777954101562 962.837341308594 960.679382324219 966.411865234375 960.134826660156 954.126647949219 947.188781738281 952.046081542969 944.373107910156 954.473937988281 952.746154785156 961.175170898438 970.228637695312 970.079345703125 975.485412597656 976.374755859375 983.280212402344 978.926513671875 978.385559082031 970.075439453125 975.401428222656 977.1474609375 978.226745605469 975.228576660156 974.659423828125 971.429809570312 970.526794433594 964.32568359375 953.557189941406 959.593505859375 958.515258789062 957.781127929688 962.231811523438 971.736450195312 974.675964355469 980.005676269531 978.187683105469 985.288146972656 983.1279296875 987.402587890625 983.62060546875 980.727233886719 976.696533203125 972.59130859375 974.447082519531 975.756896972656 975.803100585938 978.081298828125 976.352783203125 979.456787109375 975.276062011719 987.352294921875 994.002990722656 993.323059082031 999.520446777344 1013.048828125 1011.26147460938 1007.94787597656 1003.11340332031 1013.3994140625 1013.34106445312 1017.46905517578 1025.35241699219 1023.46868896484 1022.09741210938 1011.22216796875 1009.44805908203 1012.29650878906 1005.16271972656 1002.33801269531 1005.32830810547 1008.21075439453 1013.73815917969 1006.37774658203 1004.25341796875 1006.11779785156 999.919494628906 1000.92822265625 996.446411132812 995.817321777344 1003.23254394531 1001.0732421875 997.567321777344 1002.80981445312 1000.46038818359 995.598205566406 1002.60534667969 1003.34887695312 1010.18438720703 1009.97839355469 1003.74255371094 1011.38616943359 1015.34814453125 1027.30969238281 1031.341796875 1037.306640625 1030.07922363281 1027.01623535156 1027.34228515625 1029.42199707031 1032.83239746094 1019.82397460938 1035.14111328125 1024.17211914062 1019.6259765625 1027.9033203125 1029.64038085938 1022.48767089844 1030.66101074219 1027.96911621094 1039.48352050781 1041.65966796875 1040.86181640625 1045.7724609375 1047.95178222656 1043.37548828125 1038.8955078125 1028.3583984375 1027.90222167969 1021.97467041016 1021.55035400391 1022.66845703125 1015.38885498047 1014.17504882812 1021.62335205078 1016.26300048828 1001.88604736328 996.070129394531 1000.57794189453 985.3818359375 988.0654296875 977.185852050781 962.749816894531 960.884643554688 968.7880859375 967.255493164062 968.932922363281 962.105895996094 958.215087890625 954.517333984375 959.815185546875 959.61572265625 956.095825195312 953.829467773438 951.150634765625 950.980834960938 953.159790039062 956.37646484375 970.07470703125
964.977661132812 966.634948730469 964.780700683594 963.627685546875 965.024475097656 963.767761230469 953.743469238281 941.245666503906 943.830078125 942.456115722656 959.477294921875 962.657470703125 965.809143066406 970.489135742188 982.395080566406 983.429321289062 980.173095703125 980.90625 976.94580078125 971.605773925781 972.992248535156 976.168640136719 970.706115722656 975.93701171875 971.496948242188 965.736328125 962.843566894531 963.834289550781 961.138977050781 953.7626953125 956.93408203125 956.729248046875 959.069091796875 960.007263183594 962.804992675781 964.254699707031 975.660705566406 971.630126953125 987.666442871094 977.643310546875 985.059875488281 986.332153320312 984.146362304688 971.1357421875 975.688171386719 973.305541992188 980.796264648438 976.872131347656 980.08203125 979.126953125 980.071044921875 976.126403808594 991.377502441406 987.089782714844 992.740844726562 1002.84637451172 1011.84130859375 1024.11340332031 1006.62933349609 1014.85961914062 1006.85070800781 1010.86785888672 1019.84167480469 1016.83203125 1024.45666503906 1018.89770507812 1020.30603027344 1017.62805175781 1014.11834716797 1001.96636962891 997.041076660156 1005.63580322266 1014.02825927734 1024.98742675781 1011.99194335938 995.849304199219 996.865173339844 998.56982421875 1004.12921142578 1005.47357177734 1001.96716308594 1005.38482666016 1001.56982421875 1002.29797363281 1003.65081787109 1003.16723632812 999.024841308594 1006.75079345703 1009.23693847656 1014.57165527344 1016.90942382812 1016.26599121094 1008.60809326172 1019.00408935547 1030.85437011719 1032.43347167969 1032.70190429688 1030.3798828125 1039.62670898438 1037.93688964844 1036.92895507812 1033.95007324219 1037.28686523438 1038.61767578125 1026.611328125 1020.27459716797 1027.07360839844 1024.64501953125 1021.82427978516 1021.39434814453 1028.82629394531 1040.25268554688 1040.73193359375 1032.05480957031 1043.07897949219 1044.71911621094 1040.76086425781 1029.15966796875 1017.55395507812 1027.2119140625 1023.53155517578 1019.04370117188 1017.23547363281 1010.90155029297 1018.34692382812 1019.87567138672 1013.52514648438 1004.35614013672 992.668762207031 992.169860839844 978.338317871094 970.799072265625 972.692443847656 967.145446777344 965.332702636719 968.742248535156 966.546447753906 966.731750488281 959.256103515625 960.422790527344 959.378356933594 966.381408691406 962.649536132812 958.40771484375 946.175048828125 944.787170410156 948.713195800781 939.51416015625 947.562377929688 952.355834960938
