NCOLS 150
NROWS 37
XLLCORNER 7394249
YLLCORNER 4842359
CELLSIZE 30
NODATA_VALUE -9999
973.302001953125 969.203857421875 972.536010742188 967.807434082031 963.355224609375 960.151733398438 953.473449707031 965.526245117188 972.289978027344 973.179870605469 975.634460449219 973.827697753906 977.201171875 976.090698242188 973.404052734375 969.384765625 972.007446289062 968.155090332031 963.844421386719 964.458068847656 964.155517578125 950.093994140625 956.439331054688 958.791320800781 968.5185546875 961.044799804688 960.779602050781 958.495971679688 963.069946289062 964.723937988281 974.152038574219 973.731567382812 966.672973632812 969.185241699219 968.32763671875 968.019775390625 960.229309082031 966.459289550781 965.472351074219 962.02392578125 955.303527832031 955.368286132812 951.581970214844 950.710693359375 956.411560058594 962.920227050781 964.58984375 973.246398925781 967.222473144531 968.736999511719 961.924377441406 964.161682128906 961.257080078125 969.203491210938 959.407043457031 962.9951171875 962.2275390625 961.326538085938 979.114074707031 973.839904785156 973.32080078125 966.942321777344 969.61767578125 966.741088867188 962.688354492188 953.232177734375 955.826232910156 953.676086425781 952.657409667969 957.848449707031 962.314208984375 963.26904296875 962.294982910156 970.553955078125 967.224853515625 963.052612304688 964.641174316406 970.842224121094 972.306213378906 971.857971191406 969.749450683594 976.132019042969 969.947998046875 971.892944335938 967.550598144531 980.905944824219 972.858703613281 966.711364746094 966.178527832031 974.517028808594 974.439270019531 972.448364257812 970.089111328125 978.332763671875 975.817932128906 983.681030273438 979.716369628906 973.601806640625 977.031433105469 976.48876953125 981.210205078125 987.248840332031 980.454467773438 982.044677734375 981.5341796875 978.333435058594 981.625244140625 978.129577636719 982.495544433594 980.372192382812 987.098999023438 985.374694824219 988.020690917969 993.099853515625 1005.03405761719 1002.0615234375 1001.51330566406 1007.06219482422 1006.25054931641 1013.06597900391 1005.62878417969 1014.10919189453 1023.89758300781 1026.1484375 1038.81420898438 1040.41760253906 1045.73474121094 1040.87145996094 1043.51306152344 1054.75134277344 1063.71997070312 1072.73706054688 1076.47265625 1076.537109375 1074.14526367188 1081.73352050781 1083.48742675781 1088.31286621094 1090.5947265625 1102.81958007812 1105.6318359375 1100.966796875 1106.87561035156 1111.51794433594 1114.1240234375 1127.25512695312 1135.15893554688 1140.75378417969 1139.17663574219 1137.341796875
976.321105957031 971.371643066406 975.191589355469 959.293518066406 964.372253417969 959.494323730469 958.215148925781 975.840881347656 984.116088867188 973.7099609375 973.276733398438 973.576721191406 974.079711914062 978.604919433594 970.609436035156 977.399963378906 977.087829589844 973.020690917969 969.998352050781 964.175720214844 966.002807617188 961.715087890625 959.251220703125 959.231384277344 966.546264648438 965.624328613281 958.777770996094 956.983764648438 965.037963867188 973.064453125 969.054260253906 967.628051757812 967.316101074219 965.123596191406 971.440368652344 957.650207519531 960.764709472656 962.048034667969 962.783203125 957.444396972656 957.693908691406 955.593200683594 945.563598632812 948.564819335938 953.940551757812 957.666687011719 952.819763183594 964.461608886719 974.902404785156 967.651062011719 968.177185058594 960.720092773438 965.58447265625 966.850402832031 965.09716796875 954.392822265625 963.667175292969 959.983581542969 971.623229980469 978.079772949219 966.003723144531 960.876159667969 971.121643066406 968.318115234375 951.843139648438 953.650390625 949.639831542969 950.198669433594 955.021850585938 958.457946777344 962.18212890625 959.539978027344 966.580261230469 975.189086914062 964.531921386719 961.5830078125 956.401794433594 955.001159667969 969.3720703125 975.655944824219 972.12646484375 976.422546386719 972.836364746094 977.802001953125 978.912048339844 975.237060546875 975.918212890625 967.530212402344 968.738891601562 969.465637207031 977.337585449219 978.898010253906 977.818481445312 982.877746582031 971.237365722656 972.721618652344 974.451782226562 971.066162109375 976.437072753906 981.826782226562 979.963562011719 982.120361328125 983.132141113281 983.529113769531 981.147155761719 974.971618652344 982.843200683594 990.607543945312 991.303649902344 980.645568847656 971.390075683594 978.648986816406 972.604858398438 990.982360839844 1000.23718261719 1000.87036132812 1007.13995361328 997.956604003906 1006.93865966797 1013.62811279297 1011.23010253906 1022.69958496094 1023.39947509766 1023.91674804688 1029.79223632812 1045.7763671875 1049.74499511719 1034.99462890625 1040.61999511719 1047.63305664062 1064.22863769531 1076.25769042969 1082.08813476562 1079.26550292969 1086.95043945312 1087.02795410156 1090.13500976562 1090.447265625 1096.31042480469 1099.27026367188 1104.6875 1103.82116699219 1100.35534667969 1099.3017578125 1101.59765625 1113.21740722656 1118.45764160156 1131.64855957031 1123 1126.59228515625
957.89013671875 957.095886230469 968.467468261719 970.326721191406 978.18505859375 975.682373046875 973.154113769531 970.386596679688 980.776245117188 970.819396972656 973.338134765625 974.175659179688 975.214904785156 981.5244140625 976.480651855469 964.220153808594 972.361633300781 972.599670410156 973.916809082031 959.830322265625 964.606079101562 963.320190429688 972.420715332031 966.822509765625 964.548522949219 968.723022460938 965.829345703125 959.243835449219 959.64453125 961.709411621094 965.2841796875 968.490661621094 965.45751953125 966.049499511719 963.982055664062 963.7939453125 960.56884765625 966.8671875 967.331970214844 963.477233886719 957.889404296875 957.655822753906 950.701171875 954.349792480469 955.91162109375 948.300720214844 942.419128417969 962.070190429688 966.291015625 967.742919921875 972.53076171875 960.002502441406 964.655700683594 966.120910644531 956.364807128906 958.548706054688 967.407287597656 961.456787109375 968.646911621094 956.976867675781 959.247863769531 955.853637695312 960.586975097656 960.589111328125 956.127258300781 945.447204589844 952.7880859375 960.084045410156 962.164855957031 960.295227050781 956.585571289062 960.613891601562 962.163208007812 965.606689453125 961.891967773438 967.891784667969 963.282409667969 958.925170898438 961.307434082031 963.950073242188 963.030456542969 969.696838378906 964.959411621094 970.985473632812 963.44775390625 967.963195800781 972.623718261719 969.59033203125 975.492614746094 973.193359375 975.572875976562 973.759704589844 971.308959960938 961.167358398438 971.587280273438 975.536865234375 969.466918945312 970.118591308594 969.604736328125 970.6162109375 979.645446777344 977.456115722656 980.382629394531 980.149475097656 982.369506835938 978.79345703125 985.151489257812 986.491760253906 990.395690917969 980.578369140625 972.626220703125 975.869384765625 977.646545410156 981.955932617188 996.910705566406 1002.13806152344 1004.67462158203 1000.93536376953 1010.14147949219 1014.22174072266 1016.90484619141 1027.63427734375 1020.55419921875 1019.62377929688 1025.4326171875 1039.44775390625 1037.01953125 1036.60925292969 1041.20178222656 1044.86059570312 1060.64123535156 1069.22338867188 1072.1455078125 1088.30310058594 1082.84692382812 1086.29357910156 1087.02404785156 1091.17700195312 1096.82312011719 1093.22216796875 1100.17919921875 1101.45861816406 1101.02685546875 1093.9599609375 1104.53771972656 1104.79919433594 1112.91271972656 1118.19555664062 1111.5751953125 1108.62829589844
958.786071777344 956.937072753906 968.467529296875 971.095092773438 973.416381835938 973.056823730469 970.534973144531 962.703674316406 974.870300292969 969.838500976562 964.63525390625 974.889526367188 980.598693847656 977.2744140625 978.104309082031 973.524597167969 967.820739746094 972.780090332031 967.56201171875 963.238647460938 960.824340820312 956.42578125 967.497924804688 961.7294921875 961.749877929688 965.113098144531 960.46826171875 958.15869140625 963.094787597656 969.155883789062 973.661254882812 964.192077636719 961.809509277344 970.028076171875 964.756103515625 966.686645507812 962.916442871094 968.001770019531 965.093444824219 959.864807128906 959.370910644531 954.720336914062 946.8330078125 957.963562011719 954.096496582031 952.114807128906 953.619689941406 957.495727539062 952.503784179688 959.764953613281 956.644653320312 959.660095214844 971.538513183594 967.621276855469 959.385375976562 954.758911132812 951.026123046875 959.978454589844 959.578674316406 962.944458007812 960.39208984375 953.354064941406 954.744506835938 959.109497070312 954.417358398438 949.841552734375 964.936401367188 966.613830566406 961.758972167969 968.077575683594 959.83837890625 959.186706542969 965.444885253906 966.472717285156 973.478088378906 971.632751464844 960.131469726562 963.927612304688 954.624755859375 959.304260253906 959.592712402344 958.370666503906 966.957702636719 963.906127929688 963.050048828125 960.5927734375 970.774841308594 974.334655761719 965.096618652344 975.314147949219 971.579528808594 970.005981445312 959.612548828125 961.285339355469 964.030212402344 975.634826660156 973.55322265625 974.698608398438 975.311706542969 971.831970214844 970.706359863281 974.549560546875 974.824645996094 980.849426269531 984.055114746094 974.686584472656 978.751831054688 980.880798339844 981.007263183594 982.980224609375 976.009399414062 980.198913574219 980.524780273438 985.130310058594 989.958068847656 992.830871582031 993.190185546875 995.281311035156 1005.32244873047 1013.42883300781 1006.16320800781 1016.20568847656 1015.76080322266 1022.11865234375 1021.47442626953 1027.65173339844 1030.40258789062 1029.21203613281 1041.59448242188 1042.45910644531 1050.30419921875 1063.72082519531 1076.21301269531 1086.44982910156 1085.85900878906 1089.99768066406 1092.77001953125 1087.06030273438 1081.15234375 1088.86962890625 1091.79736328125 1089.45349121094 1085.9833984375 1091.10705566406 1086.12341308594 1106.17761230469 1098.90026855469 1113.46594238281 1104.54455566406 1102.35620117188
960.056274414062 966.012145996094 972.497314453125 975.677551269531 968.2158203125 970.056030273438 970.20947265625 971.817199707031 971.390380859375 970.148315429688 968.106506347656 968.08154296875 977.103881835938 976.037109375 974.048706054688 973.016967773438 977.216857910156 978.270568847656 967.081176757812 961.857849121094 961.730895996094 950.669311523438 955.261779785156 970.033386230469 966.23486328125 965.229614257812 967.250244140625 956.590576171875 953.491638183594 962.533142089844 963.123168945312 959.158508300781 953.043518066406 961.158996582031 964.718872070312 957.697509765625 953.024108886719 953.925537109375 955.572814941406 959.581787109375 958.936828613281 955.307006835938 957.445678710938 956.308227539062 957.656433105469 952.025451660156 952.931030273438 950.351745605469 955.223327636719 954.532470703125 960.956665039062 961.334289550781 954.631591796875 956.84375 948.335876464844 953.395202636719 954.131103515625 946.256530761719 955.857177734375 961.798095703125 952.8955078125 957.807556152344 946.565063476562 946.056640625 956.7900390625 955.871643066406 960.162658691406 960.45263671875 956.828796386719 965.896789550781 967.5595703125 961.615417480469 962.173400878906 964.807006835938 965.255981445312 959.671569824219 960.603698730469 956.039672851562 955.612609863281 955.230224609375 960.163513183594 960.177490234375 965.021545410156 967.08056640625 969.755249023438 961.003234863281 960.953369140625 970.267944335938 962.474670410156 969.820617675781 969.475708007812 977.334106445312 970.652526855469 968.220703125 969.524108886719 972.810546875 980.808715820312 977.33251953125 973.88818359375 977.913818359375 973.186096191406 972.208862304688 970.913391113281 978.622253417969 980.477783203125 977.922485351562 978.046142578125 979.098999023438 982.958679199219 987.22412109375 989.479125976562 999.699035644531 986.893981933594 983.734802246094 996.590698242188 1001.07586669922 995.43798828125 995.940551757812 1000.76440429688 1013.33410644531 1012.14587402344 1007.95513916016 1007.27593994141 1019.56939697266 1016.10394287109 1021.51373291016 1031.5400390625 1030.720703125 1042.98034667969 1053.85437011719 1057.75048828125 1055.29125976562 1064.43994140625 1079.69006347656 1080.51611328125 1087.39880371094 1078.97998046875 1082.02819824219 1080.06286621094 1083.19519042969 1078.0732421875 1081.04748535156 1077.89819335938 1079.49035644531 1086.40185546875 1093.30249023438 1094.91516113281 1096.84777832031 1098.28356933594 1103.505859375
956.425659179688 962.750854492188 967.794311523438 969.759704589844 967.575866699219 976.587463378906 969.241638183594 966.928466796875 968.032897949219 967.392761230469 975.153137207031 971.752136230469 968.995056152344 968.832336425781 964.002136230469 969.106811523438 968.039855957031 971.598327636719 968.691040039062 962.720336914062 956.486999511719 956.080383300781 955.979614257812 967.095703125 962.862670898438 959.9609375 965.806762695312 959.423034667969 950.231689453125 951.76171875 963.763549804688 960.550903320312 953.344665527344 955.748718261719 958.498413085938 965.014282226562 960.568786621094 956.805053710938 961.466552734375 957.623107910156 969.256103515625 961.754516601562 954.002502441406 955.256469726562 958.583862304688 956.53955078125 953.901916503906 958.880065917969 950.183349609375 949.04443359375 956.089172363281 962.007263183594 958.453918457031 953.696838378906 948.061767578125 950.452880859375 958.278198242188 950.782836914062 951.119689941406 953.015319824219 955.110595703125 953.189575195312 952.409606933594 951.44384765625 950.333068847656 958.035461425781 958.050048828125 958.450317382812 957.680297851562 969.876098632812 964.018737792969 968.210754394531 967.855773925781 967.370849609375 958.889709472656 959.166564941406 959.259155273438 954.81005859375 956.063659667969 952.601257324219 962.273681640625 958.830932617188 969.910766601562 962.602172851562 964.325012207031 963.870056152344 959.036376953125 962.586364746094 964.723876953125 961.483581542969 964.974060058594 970.790893554688 969.662109375 964.236083984375 967.395812988281 975.213562011719 981.413452148438 987.282653808594 982.722839355469 976.740112304688 972.919372558594 977.278198242188 976.976501464844 975.59326171875 984.96728515625 980.039245605469 980.456848144531 977.681579589844 977.435668945312 985.404113769531 989.307312011719 1001.40545654297 995.025146484375 994.504089355469 1000.72326660156 993.910339355469 993.317810058594 996.686157226562 1007.5478515625 1006.57379150391 1012.19018554688 1008.80694580078 1013.44421386719 1013.30584716797 1010.38781738281 1025.927734375 1032.27490234375 1043.63049316406 1054.23327636719 1051.166015625 1049.53796386719 1052.12438964844 1060.96923828125 1072.15356445312 1079.27917480469 1085.13635253906 1083.33703613281 1078.33972167969 1072.3173828125 1070.08728027344 1067.39172363281 1068.650390625 1069.63159179688 1071.77062988281 1076.5087890625 1086.78454589844 1085.38671875 1090.64440917969 1097.88171386719 1096.09399414062
961.964538574219 956.388000488281 964.253723144531 962.181762695312 976.308349609375 970.531066894531 975.046936035156 963.280639648438 965.945983886719 971.09228515625 971.367919921875 960.458312988281 960.8603515625 951.413330078125 953.083129882812 967.444641113281 971.828796386719 975.856689453125 972.762023925781 965.896667480469 961.33837890625 953.190307617188 953.46484375 958.404907226562 960.716674804688 953.548767089844 959.543518066406 951.770629882812 946.582885742188 941.471557617188 951.241638183594 949.493957519531 955.4736328125 959.703857421875 959.850402832031 964.865661621094 956.125122070312 952.007263183594 955.030395507812 955.472595214844 963.211486816406 965.962158203125 955.802551269531 957.770202636719 961.14404296875 954.387634277344 959.089416503906 960.841979980469 946.077697753906 950.484069824219 947.174438476562 948.726501464844 961.767883300781 963.696838378906 946.536499023438 944.596557617188 954.06982421875 949.504455566406 951.731872558594 952.546447753906 954.056396484375 951.026794433594 948.470947265625 950.42041015625 948.552001953125 957.334838867188 960.157409667969 958.334045410156 959.992919921875 963.455017089844 969.752868652344 965.559448242188 957.364196777344 958.158447265625 952.821716308594 967.127990722656 967.888854980469 962.064025878906 955.298400878906 961.969665527344 962.144165039062 968.173278808594 963.1962890625 964.295471191406 966.882690429688 961.803955078125 962.955871582031 961.316650390625 960.828918457031 960.370544433594 965.114685058594 966.210998535156 965.640258789062 968.904907226562 968.526245117188 976.264770507812 975.31494140625 973.675659179688 982.252563476562 981.389221191406 979.136047363281 975.059265136719 981.04736328125 986.281799316406 987.916625976562 981.596801757812 986.513549804688 980.17529296875 979.402282714844 992.705078125 993.572509765625 999.486389160156 997.822082519531 989.708862304688 993.888671875 992.851257324219 1000.72784423828 1002.22052001953 1005.23046875 1012.41339111328 1005.53546142578 1004.03735351562 1006.30084228516 1012.08135986328 1023.5703125 1024.65588378906 1045.71862792969 1055.16345214844 1059.72399902344 1055.34985351562 1050.20690917969 1048.11547851562 1049.82934570312 1056.10668945312 1071.1962890625 1074.7568359375 1080.26879882812 1079.66052246094 1067.90454101562 1056.31274414062 1056.84899902344 1061.25512695312 1055.48034667969 1054.30102539062 1069.70544433594 1073.81994628906 1079.32653808594 1084.27661132812 1085.86291503906 1089.54125976562
950.093383789062 970.648193359375 976.481201171875 973.114807128906 973.747802734375 978.892211914062 974.204528808594 972.866455078125 971.372924804688 978.936645507812 969.068237304688 967.924255371094 955.440307617188 952.452331542969 958.97119140625 966.997863769531 972.927612304688 977.01025390625 965.682922363281 963.432189941406 948.320922851562 946.832702636719 955.413146972656 947.377868652344 949.626708984375 940.351135253906 947.964599609375 960.652770996094 954.114807128906 949.885070800781 945.595275878906 946.146179199219 955.648071289062 958.403015136719 955.36572265625 954.765930175781 953.152099609375 956.68798828125 948.795227050781 948.05712890625 961.761352539062 963.229125976562 961.504150390625 953.738098144531 953.874267578125 959.155944824219 962.618408203125 958.6552734375 954.988342285156 956.813903808594 966.902465820312 956.079406738281 963.394226074219 955.499572753906 945.662231445312 951.997497558594 953.451416015625 953.651428222656 953.335998535156 949.696350097656 955.435791015625 951.827514648438 950.714660644531 953.392272949219 954.272155761719 956.395935058594 960.93994140625 970.545532226562 965.701293945312 966.052368164062 968.803833007812 962.051452636719 959.985290527344 962.048706054688 962.806701660156 963.227783203125 970.409545898438 959.009399414062 967.958801269531 961.889465332031 961.148864746094 965.158142089844 967.196228027344 966.4453125 972.338256835938 964.878051757812 960.288146972656 960.93310546875 963.396606445312 967.028198242188 961.56689453125 965.021057128906 968.472900390625 969.447326660156 971.564819335938 975.937377929688 963.866638183594 971.261047363281 969.900634765625 979.636352539062 980.615295410156 982.286193847656 979.01025390625 980.776733398438 984.658874511719 992.349243164062 982.656494140625 981.606506347656 984.3408203125 991.972778320312 991.116577148438 994.657165527344 1008.76977539062 999.248291015625 1008.884765625 1002.85766601562 1000.15686035156 1002.67883300781 1000.68682861328 1000.73889160156 1002.08404541016 1009.15490722656 1007.75592041016 1007.49755859375 1016.11401367188 1023.13525390625 1041.29541015625 1046.25451660156 1047.7216796875 1044.04992675781 1046.48962402344 1049.84484863281 1051.1455078125 1058.54077148438 1063.67492675781 1067.4052734375 1062.58312988281 1072.54736328125 1063.9365234375 1047.84106445312 1047.67822265625 1039.11059570312 1046.42248535156 1039.35888671875 1056.12731933594 1067.01733398438 1070.57067871094 1078.10522460938 1073.38110351562 1071.46545410156
955.111328125 960.306701660156 960.968017578125 973.356201171875 970.396179199219 974.649353027344 967.641662597656 975.983520507812 976.738342285156 980.267517089844 975.11328125 959.956665039062 962.639831542969 963.397644042969 962.499145507812 966.934143066406 969.962707519531 969.1669921875 963.655029296875 956.461791992188 946.884399414062 950.86376953125 944.7265625 943.747863769531 950.32275390625 951.844970703125 950.892883300781 943.680541992188 951.293090820312 955.173400878906 948.119201660156 946.874572753906 953.711364746094 960.148986816406 959.022277832031 950.406860351562 951.404113769531 943.958190917969 935.297546386719 943.447387695312 949.973693847656 965.272277832031 957.256408691406 957.222412109375 961.735229492188 959.721984863281 950.4208984375 954.362365722656 967.482788085938 960.118530273438 958.159729003906 955.796142578125 950.54931640625 950.445861816406 952.162231445312 953.481750488281 954.152404785156 961.634216308594 961.019226074219 956.332946777344 958.368896484375 955.793212890625 952.476989746094 958.0595703125 964.979675292969 963.597351074219 963.831237792969 968.853332519531 970.877868652344 973.9482421875 970.240966796875 971.314025878906 962.695068359375 963.271484375 959.822570800781 958.96728515625 965.400451660156 974.630126953125 969.191040039062 958.590393066406 960.320983886719 959.616821289062 965.901550292969 959.190673828125 967.799377441406 963.598266601562 967.142639160156 960.920471191406 962.783874511719 960.25830078125 957.689880371094 958.14697265625 970.966613769531 973.053405761719 976.701965332031 977.607299804688 975.105712890625 973.880065917969 977.013732910156 984.384155273438 985.684814453125 986.072326660156 990.327514648438 984.428344726562 989.820251464844 982.691162109375 976.40234375 980.305847167969 978.519592285156 985.858032226562 991.955261230469 996.74609375 1000.50769042969 1005.45721435547 1008.36248779297 1010.08831787109 1008.60437011719 1010.25970458984 1005.52563476562 1004.896484375 993.448425292969 1007.12756347656 1010.64117431641 1012.08312988281 1008.74835205078 1022.48382568359 1027.93872070312 1038.91662597656 1042.96350097656 1054.04321289062 1049.96313476562 1051.79736328125 1053.6552734375 1045.00146484375 1054.8427734375 1055.0087890625 1056.65075683594 1058.76550292969 1051.08239746094 1043.69445800781 1040.07727050781 1040.84118652344 1042.21569824219 1035.08605957031 1055.64819335938 1056.20361328125 1058.76281738281 1058.18786621094 1057.63330078125 1066.50744628906
956.357055664062 963.476684570312 964.978515625 962.151428222656 966.621154785156 967.490051269531 965.489135742188 974.3515625 981.287109375 978.306762695312 969.490600585938 962.60400390625 958.204467773438 961.478515625 965.476379394531 960.813842773438 962.1474609375 960.901000976562 957.562377929688 943.706359863281 934.916259765625 942.473083496094 946.381774902344 946.792602539062 947.044494628906 955.639404296875 946.755126953125 948.657043457031 943.275939941406 957.774108886719 950.242431640625 949.787109375 952.638610839844 955.082702636719 951.556213378906 954.917724609375 955.516174316406 945.776550292969 941.026184082031 942.741333007812 944.673767089844 949.633972167969 946.117431640625 951.013000488281 951.822143554688 953.942565917969 956.261291503906 966.716857910156 962.680358886719 961.903625488281 956.376831054688 958.467712402344 946.691345214844 947.122314453125 952.116577148438 950.402770996094 962.071960449219 963.171875 956.598449707031 961.305053710938 963.142272949219 960.250427246094 959.510009765625 957.055419921875 962.711181640625 967.551574707031 961.24267578125 957.292724609375 957.046997070312 959.473449707031 965.773193359375 968.878051757812 974.112915039062 965.787414550781 966.378601074219 954.566162109375 966.113830566406 969.574645996094 966.118469238281 966.147583007812 966.455505371094 970.572875976562 968.699035644531 969.021606445312 967.063232421875 969.060485839844 961.088500976562 961.964111328125 964.081237792969 971.800109863281 975.4013671875 965.631164550781 967.436950683594 976.264709472656 975.927795410156 981.515258789062 972.583190917969 967.124694824219 976.256164550781 987.049377441406 991.539184570312 985.892639160156 985.5830078125 987.238403320312 996.621704101562 983.491271972656 981.977416992188 977.027160644531 975.495239257812 987.516174316406 986.38671875 995.401306152344 1003.57995605469 1009.82006835938 1011.15185546875 1011.33013916016 1007.001953125 1019.31652832031 1014.62091064453 1010.69189453125 1004.30828857422 1008.31829833984 1012.29473876953 1009.19592285156 1017.07196044922 1016.61059570312 1018.35693359375 1031.99877929688 1037.84252929688 1034.64636230469 1045.74658203125 1045.71765136719 1044.23608398438 1048.51623535156 1040.77758789062 1046.07702636719 1042.29431152344 1047.65319824219 1040.95068359375 1036.60217285156 1039.96008300781 1032.83923339844 1025.25341796875 1020.75836181641 1033.06823730469 1041.40966796875 1048.8857421875 1049.29821777344 1054.03344726562 1052.45434570312
949.750732421875 955.077819824219 969.131164550781 957.399475097656 967.423522949219 963.668395996094 969.902404785156 979.966918945312 984.932373046875 972.7490234375 959.413635253906 948.497436523438 950.254089355469 957.080383300781 963.358032226562 964.429321289062 956.709716796875 952.270202636719 947.373901367188 943.053344726562 943.521728515625 945.42431640625 950.064025878906 951.480224609375 955.132751464844 954.561706542969 952.698852539062 948.948669433594 950.261535644531 953.029357910156 954.52001953125 961.412231445312 952.462158203125 957.444274902344 945.389770507812 946.069458007812 954.63623046875 942.863342285156 942.753540039062 934.803649902344 940.9453125 949.445922851562 948.968505859375 951.337158203125 956.323608398438 956.313354492188 959.414306640625 959.446350097656 955.736572265625 959.926086425781 952.90185546875 961.915466308594 952.472106933594 954.09521484375 957.425537109375 959.297668457031 957.588928222656 964.515319824219 969.558471679688 966.120178222656 965.458068847656 964.653625488281 967.261169433594 963.671203613281 956.374389648438 962.320190429688 965.732971191406 962.592590332031 954.297119140625 957.38134765625 971.322143554688 974.142211914062 972.16015625 976.624206542969 968.44189453125 968.778869628906 967.273254394531 970.054138183594 969.008850097656 968.970642089844 968.055236816406 966.756469726562 975.754150390625 975.599060058594 969.51953125 968.977905273438 972.0634765625 969.601440429688 965.742309570312 975.339721679688 975.156494140625 977.366882324219 971.199462890625 974.577819824219 977.049560546875 982.777770996094 971.313171386719 970.896423339844 982.256225585938 990.295654296875 984.743103027344 992.932189941406 990.815979003906 1000.05297851562 990.287109375 987.901611328125 986.0576171875 989.195556640625 982.361511230469 986.093933105469 987.605590820312 997.608154296875 999.966125488281 1006.64044189453 1013.25592041016 1011.22485351562 1023.69677734375 1012.59313964844 1014.41595458984 1015.04553222656 1007.29278564453 1008.46081542969 1016.11865234375 1021.75543212891 1018.39624023438 1026.44030761719 1028.21887207031 1030.833984375 1028.71716308594 1042.45849609375 1036.50964355469 1036.38610839844 1039.52563476562 1037.05163574219 1029.14050292969 1039.69470214844 1031.986328125 1043.078125 1033.58435058594 1026.41394042969 1030.45300292969 1026.42822265625 1011.21325683594 1015.7998046875 1022.56707763672 1031.45678710938 1038.4091796875 1037.8427734375 1039.70043945312 1042.99499511719
950.600402832031 956.877807617188 963.568115234375 961.966430664062 964.140930175781 962.845581054688 968.195983886719 968.977233886719 972.469665527344 963.396606445312 960.520874023438 950.1982421875 952.631042480469 949.521057128906 953.624145507812 958.337951660156 951.069702148438 954.091247558594 942.902221679688 937.287658691406 944.170776367188 945.660888671875 947.680297851562 953.966796875 955.917907714844 951.837219238281 947.267395019531 950.120178222656 952.726745605469 948.818908691406 955.900451660156 960.388366699219 959.222717285156 948.457824707031 948.733703613281 943.88623046875 941.550903320312 943.349975585938 941.359619140625 943.484619140625 943.4404296875 950.64990234375 948.958984375 951.835266113281 953.472961425781 961.060424804688 952.531677246094 953.785888671875 960.163269042969 955.157287597656 950.256103515625 952.839538574219 960.775634765625 958.926208496094 960.225952148438 969.3251953125 964.4638671875 968.024353027344 972.834350585938 968.570861816406 969.217651367188 962.359985351562 958.737609863281 957.187683105469 952.055603027344 959.283264160156 964.1474609375 960.780212402344 957.052062988281 964.666259765625 976.949829101562 969.865966796875 974.400512695312 969.728576660156 964.820068359375 960.956604003906 965.287414550781 966.575378417969 966.572326660156 960.255737304688 961.807434082031 970.777648925781 974.210571289062 972.646423339844 979.471130371094 969.578308105469 976.654479980469 977.121276855469 972.478088378906 970.89501953125 967.214660644531 960.91455078125 968.331665039062 972.057006835938 973.351135253906 971.278442382812 974.95068359375 980.2734375 980.60595703125 982.082214355469 990.777770996094 1000.46942138672 997.619689941406 1000.42712402344 996.705749511719 989.198303222656 996.367065429688 992.254455566406 978.586791992188 984.210205078125 991.6025390625 999.029357910156 1013.18310546875 1012.08911132812 1015.83276367188 1014.95141601562 1022.05969238281 1020.92822265625 1013.83599853516 1022.07952880859 1016.83673095703 1018.0693359375 1016.51220703125 1020.22479248047 1015.69946289062 1027.70483398438 1032.50939941406 1023.04095458984 1017.39611816406 1036.62109375 1036.01416015625 1035.2451171875 1037.26062011719 1027.20336914062 1023.43634033203 1019.30627441406 1025.86730957031 1024.55834960938 1025.18395996094 1021.68347167969 1025.42358398438 1015.966796875 1009.34802246094 1005.84680175781 1019.33508300781 1019.24481201172 1023.18579101562 1024.05920410156 1030.83654785156 1031.08081054688
952.157592773438 954.690185546875 952.611450195312 965.851989746094 967.430297851562 967.399536132812 973.878051757812 970.48779296875 961.250122070312 965.168884277344 963.504150390625 953.760986328125 945.823913574219 948.159057617188 958.333984375 953.788391113281 947.935424804688 945.929260253906 944.185180664062 938.37548828125 940.024291992188 947.294494628906 955.198791503906 952.972839355469 948.010925292969 952.343566894531 951.171081542969 947.636962890625 951.755432128906 953.899597167969 953.124206542969 962.341918945312 956.311645507812 949.720031738281 942.386840820312 940.242614746094 935.725280761719 942.871337890625 943.714172363281 944.039306640625 950.735656738281 951.838806152344 956.839477539062 955.796203613281 961.874755859375 966.181030273438 964.5166015625 969.402465820312 956.91455078125 954.070007324219 945.773376464844 956.710510253906 954.204284667969 954.201171875 959.778930664062 967.315185546875 971.244506835938 961.984680175781 967.750183105469 972.440063476562 970.799011230469 972.734313964844 964.828186035156 955.459838867188 953.595031738281 958.519836425781 958.541015625 955.019165039062 965.907897949219 966.591369628906 968.69677734375 966.7763671875 967.396240234375 970.711730957031 964.486938476562 971.571472167969 969.839660644531 970.934997558594 965.680053710938 966.370361328125 967.251342773438 973.757629394531 970.466247558594 974.166931152344 981.236938476562 987.263610839844 987.629272460938 986.170166015625 974.112365722656 977.773254394531 970.911560058594 967.367248535156 969.437927246094 977.583435058594 974.205200195312 974.044128417969 973.153259277344 985.55224609375 989.905822753906 993.989318847656 988.596313476562 995.164672851562 998.825866699219 1009.54516601562 993.350341796875 987.367248535156 996.742980957031 990.443969726562 978.27880859375 973.673217773438 985.045837402344 995.133728027344 1007.98962402344 1011.9794921875 1005.95617675781 1010.2314453125 1017.05993652344 1022.89709472656 1022.39526367188 1026.05285644531 1032.08142089844 1029.05126953125 1026.9091796875 1016.56878662109 1022.37414550781 1027.03088378906 1023.61193847656 1022.79510498047 1015.71954345703 1032.08618164062 1031.62377929688 1036.064453125 1039.06335449219 1031.89819335938 1027.51171875 1027.57177734375 1024.93591308594 1027.08654785156 1025.24194335938 1022.66125488281 1017.23492431641 1012.25793457031 1020.57373046875 1011.25726318359 1016.06427001953 1013.89862060547 1011.24462890625 1021.17169189453 1020.77655029297 1027.61645507812
943.404968261719 956.951721191406 954.0830078125 959.12890625 962.482604980469 966.636840820312 963.085876464844 960.803039550781 959.134399414062 960.57177734375 945.981140136719 949.913330078125 953.800170898438 950.271484375 943.663696289062 945.533996582031 945.148681640625 945.183410644531 943.715087890625 942.273864746094 940.966979980469 947.588562011719 949.439575195312 951.815307617188 943.080200195312 943.945068359375 952.805114746094 943.598083496094 948.240417480469 947.988830566406 948.946044921875 949.719482421875 954.2734375 954.858093261719 942.224731445312 940.66796875 941.768188476562 947.822082519531 950.509399414062 945.398071289062 955.507019042969 962.525512695312 959.221374511719 964.68505859375 965.095886230469 963.641967773438 963.199584960938 964.517211914062 960.22265625 959.582580566406 952.47216796875 957.391174316406 961.237365722656 961.337951660156 963.637634277344 972.156860351562 967.922790527344 969.176879882812 970.539001464844 969.839782714844 958.935241699219 968.085876464844 964.481201171875 965.259155273438 962.958557128906 958.274780273438 958.273071289062 963.428344726562 962.256103515625 965.886901855469 973.283020019531 972.784606933594 975.211547851562 980.834289550781 964.196899414062 968.537658691406 973.556091308594 969.70556640625 968.8701171875 960.720520019531 966.652465820312 978.087463378906 976.832397460938 976.952392578125 988.648498535156 988.15771484375 994.260192871094 985.140869140625 982.246643066406 975.336181640625 980.460266113281 973.561767578125 975.567443847656 976.391479492188 970.967346191406 980.285949707031 979.078430175781 990.996948242188 989.555114746094 997.520385742188 1003.24639892578 994.89892578125 994.99365234375 996.118530273438 994.261962890625 991.376098632812 987.827270507812 993.650085449219 978.408142089844 980.918273925781 988.755981445312 995.806945800781 994.794067382812 1007.22064208984 1003.65808105469 1007.81530761719 1019.59118652344 1025.19018554688 1033.0703125 1035.50146484375 1035.74597167969 1040.24426269531 1029.48779296875 1032.99694824219 1020.33813476562 1018.58325195312 1018.12469482422 1019.25891113281 1011.97711181641 1018.19555664062 1026.05297851562 1027.88134765625 1021.37567138672 1030.82861328125 1029.11633300781 1024.76049804688 1029.35009765625 1034.96276855469 1031.79663085938 1038.88110351562 1019.83758544922 1020.5986328125 1011.65966796875 1010.99993896484 1014.97631835938 1006.75909423828 1012.05725097656 1013.91186523438 1018.57427978516 1026.25244140625
946.384948730469 959.236206054688 959.48681640625 954.873840332031 955.000061035156 950.083435058594 955.654479980469 946.314880371094 957.268859863281 951.188049316406 942.973876953125 943.154174804688 943.586242675781 940.315124511719 937.126098632812 943.452209472656 945.049743652344 946.790710449219 944.526428222656 949.703552246094 951.087219238281 951.877197265625 957.895629882812 951.633911132812 944.392761230469 946.028137207031 942.776672363281 948.304016113281 937.818664550781 946.482482910156 949.76611328125 956.877075195312 957.436584472656 957.40673828125 950.94140625 941.18994140625 938.933715820312 944.038024902344 948.013427734375 957.948120117188 955.524963378906 959.5244140625 968.983215332031 969.50390625 962.161804199219 968.534912109375 968.430847167969 963.175109863281 968.190795898438 963.732727050781 961.02978515625 968.466735839844 961.788635253906 966.345764160156 975.997314453125 976.651611328125 970.362976074219 966.920959472656 976.4541015625 959.370056152344 962.951110839844 967.529235839844 967.574645996094 960.403564453125 967.573669433594 968.830505371094 969.782958984375 961.698120117188 966.273315429688 963.448303222656 969.955139160156 978.976257324219 977.636047363281 973.935302734375 969.688537597656 967.547546386719 974.569213867188 983.100158691406 969.931640625 956.234558105469 976.359497070312 976.327087402344 976.298461914062 979.140380859375 985.306396484375 983.302368164062 983.559875488281 987.767517089844 982.417785644531 984.228332519531 978.25 977.318664550781 976.553466796875 969.545837402344 973.565185546875 981.603576660156 983.912170410156 985.635620117188 980.757446289062 991.9150390625 984.473754882812 986.689086914062 993.518859863281 994.073547363281 994.482971191406 1001.43927001953 992.479125976562 992.297546386719 974.797607421875 978.233581542969 991.426818847656 1006.69482421875 1007.92395019531 1015.84674072266 1018.65783691406 1024.53881835938 1019.93115234375 1028.58740234375 1030.91613769531 1037.62121582031 1041.3896484375 1039.19360351562 1030.54479980469 1028.11340332031 1022.90814208984 1015.80670166016 1009.10607910156 1008.29766845703 1016.00402832031 1012.19244384766 1016.39880371094 1015.81262207031 1015.89581298828 1019.43817138672 1023.77990722656 1026.703125 1031.02429199219 1029.95361328125 1030.21374511719 1037.04272460938 1010.69067382812 1008.50970458984 1013.12567138672 1012.81762695312 1015.33355712891 1003.63586425781 1022.09173583984 1023.7275390625 1019.41156005859 1022.99786376953
958.520324707031 959.987915039062 953.762512207031 957.423095703125 949.278381347656 951.791625976562 947.287170410156 947.809204101562 949.776916503906 939.727722167969 941.109313964844 943.436218261719 943.724304199219 944.219360351562 945.592407226562 949.653625488281 949.63330078125 937.732177734375 945.700317382812 955.943664550781 960.4013671875 959.264770507812 955.597717285156 960.770385742188 949.910278320312 941.857849121094 941.399963378906 946.44775390625 942.453918457031 945.398986816406 951.827819824219 959.801513671875 962.325622558594 951.281127929688 949.226806640625 942.834777832031 954.708068847656 953.482788085938 951.86474609375 953.273681640625 961.989379882812 957.286193847656 970.845886230469 972.41552734375 970.3095703125 974.117919921875 966.726257324219 967.40576171875 961.42919921875 964.288146972656 970.803955078125 969.196228027344 963.062683105469 975.048461914062 975.054809570312 972.497985839844 974.591491699219 975.089477539062 974.112365722656 976.593566894531 964.119689941406 965.891296386719 965.239318847656 970.036254882812 972.453247070312 974.704467773438 973.398071289062 969.484008789062 973.391967773438 972.663452148438 973.142761230469 981.720458984375 981.439147949219 974.918395996094 973.203308105469 975.568725585938 977.816772460938 977.807556152344 973.984802246094 973.634704589844 972.857849121094 973.190368652344 977.165283203125 977.818420410156 984.608581542969 983.072021484375 987.339782714844 989.148315429688 988.760498046875 975.661682128906 979.264770507812 974.594055175781 976.208190917969 975.140380859375 968.838745117188 980.44140625 975.383728027344 978.48486328125 979.595642089844 991.327514648438 999.059143066406 996.108520507812 999.77197265625 997.758483886719 998.588928222656 1002.66546630859 999.474853515625 993.743896484375 992.205871582031 990.043029785156 998.307495117188 1008.02465820312 1017.80389404297 1019.10998535156 1027.49633789062 1033.98767089844 1025.68347167969 1030.10693359375 1035.06323242188 1030.71960449219 1035.87939453125 1038.71826171875 1035.810546875 1029.64318847656 1021.76531982422 1017.72698974609 1016.07165527344 1013.60076904297 1016.30981445312 1008.07452392578 1019.27325439453 1010.15570068359 1008.68017578125 1018.43048095703 1019.44958496094 1015.29125976562 1028.37902832031 1023.57440185547 1035.44934082031 1034.8994140625 1024.39489746094 1020.03497314453 1016.62640380859 1014.38104248047 1016.29779052734 1013.65460205078 1023.93530273438 1014.27545166016 1015.96789550781 1009.20336914062
962.330444335938 947.744750976562 949.318237304688 951.523132324219 947.376586914062 951.029724121094 951.345825195312 949.340637207031 950.530822753906 943.349975585938 951.16064453125 941.020080566406 945.248352050781 935.547058105469 943.178833007812 955.323425292969 947.863220214844 948.1025390625 953.1455078125 960.789306640625 958.251525878906 964.942749023438 962.62060546875 961.783996582031 942.006469726562 942.350524902344 948.10009765625 952.306884765625 944.944946289062 958.342224121094 970.990539550781 959.531433105469 964.141174316406 956.848510742188 948.802612304688 949.359375 956.133544921875 963.312194824219 962.863586425781 969.145202636719 965.669189453125 967.010803222656 968.438903808594 981.143005371094 977.364929199219 981.853393554688 979.165649414062 960.50634765625 966.0751953125 981.920349121094 976.893188476562 984.183166503906 981.645324707031 980.859008789062 976.833312988281 979.046264648438 979.68408203125 982.562744140625 972.325988769531 978.020446777344 965.779357910156 958.073181152344 963.240661621094 969.967529296875 973.524108886719 969.446228027344 973.986755371094 967.694396972656 970.382202148438 972.112731933594 980.106323242188 995.215576171875 988.742248535156 979.817077636719 971.995483398438 980.934936523438 982.55322265625 976.014770507812 967.659057617188 978.706420898438 977.900512695312 970.869689941406 981.163330078125 980.663269042969 986.823852539062 988.2470703125 990.720458984375 993.245666503906 975.597595214844 976.068054199219 978.041870117188 972.905578613281 965.45556640625 969.149841308594 972.071899414062 978.546813964844 983.263366699219 981.709777832031 989.020568847656 993.884216308594 992.68701171875 990.625122070312 993.897277832031 997.228881835938 998.199340820312 993.968994140625 997.954467773438 996.896301269531 996.9482421875 1009.74652099609 999.482604980469 1006.18414306641 1012.83551025391 1016.57098388672 1025.6884765625 1041.16540527344 1028.56237792969 1031.87915039062 1039.84375 1040.8828125 1043.15893554688 1031.35778808594 1027.78137207031 1016.07061767578 1015.79901123047 1019.59393310547 1019.591796875 1011.87133789062 1015.94293212891 1017.30120849609 1017.40466308594 1012.25531005859 1011.25927734375 1021.01104736328 1023.15838623047 1020.64923095703 1021.50311279297 1031.22814941406 1028.51745605469 1028.36291503906 1029.17529296875 1022.39483642578 1025.02770996094 1022.20257568359 1016.66564941406 1015.00384521484 1016.59545898438 1013.70794677734 1018.76824951172 1019.09942626953
950.867919921875 942.471984863281 945.668334960938 944.8583984375 946.245727539062 944.368408203125 951.592102050781 948.279174804688 951.293579101562 949.722106933594 955.710632324219 946.777709960938 953.525390625 944.09375 937.288146972656 946.109008789062 954.019409179688 952.990600585938 949.171752929688 952.367858886719 964.8955078125 965.964721679688 962.839538574219 957.245971679688 951.461059570312 955.565612792969 950.594116210938 948.540649414062 953.169982910156 965.589294433594 965.398193359375 961.657348632812 955.888610839844 961.132568359375 958.09423828125 944.77001953125 962.993103027344 971.110595703125 969.906066894531 972.249084472656 968.431762695312 973.976745605469 965.987915039062 971.393493652344 978.236389160156 976.067016601562 978.771240234375 972.167175292969 967.462036132812 974.749206542969 981.025268554688 977.168212890625 983.220886230469 978.472045898438 974.803771972656 978.107971191406 978.180053710938 978.077270507812 979.533447265625 970.22607421875 970.825622558594 960.935363769531 960.697509765625 973.890075683594 976.788940429688 979.083068847656 967.6640625 968.573608398438 968.801208496094 968.60107421875 981.541748046875 984.298461914062 981.58251953125 979.393493652344 980.753662109375 980.838745117188 974.03955078125 972.345153808594 973.570129394531 976.247314453125 976.922241210938 974.1767578125 976.275451660156 982.756408691406 981.135864257812 985.38916015625 986.044860839844 983.601989746094 983.699768066406 978.878662109375 976.113647460938 970.316040039062 977.403076171875 977.215209960938 983.983093261719 989.780944824219 988.985656738281 994.009216308594 993.556762695312 994.6796875 996.7578125 996.13623046875 999.607727050781 997.811218261719 998.982788085938 988.599487304688 1003.35864257812 997.609680175781 995.861206054688 1009.23657226562 1015.13684082031 1023.41778564453 1009.79388427734 1016.26507568359 1021.74957275391 1038.36279296875 1031.68225097656 1040.73876953125 1038.02075195312 1041.64953613281 1044.92504882812 1039.45544433594 1032.61096191406 1021.82452392578 1026.00476074219 1023.97430419922 1021.46783447266 1019.88397216797 1020.64306640625 1022.83850097656 1022.93310546875 1023.02569580078 1021.61151123047 1018.04846191406 1017.71319580078 1015.73992919922 1021.65435791016 1024.10229492188 1026.67138671875 1019.51605224609 1021.62835693359 1013.62231445312 1022.80560302734 1023.41119384766 1010.83221435547 1008.63568115234 1006.03356933594 1007.75061035156 1020.12054443359 1019.08258056641
952.900085449219 951.006042480469 951.387268066406 948.763732910156 941.153503417969 940.770751953125 937.410827636719 940.65283203125 949.772888183594 947.62353515625 951.661376953125 957.858215332031 958.324584960938 946.114501953125 942.039978027344 937.100341796875 951.345275878906 961.551818847656 962.974975585938 966.894775390625 960.96923828125 965.27490234375 970.689270019531 972.873962402344 963.254699707031 961.9912109375 961.242980957031 954.288391113281 956.061218261719 959.472961425781 963.73681640625 954.868347167969 954.107421875 956.464538574219 962.948425292969 956.486572265625 955.839904785156 951.313171386719 968.936767578125 978.789123535156 979.988464355469 973.503112792969 975.177429199219 980.586853027344 977.996765136719 984.574096679688 979.389465332031 983.058166503906 980.814147949219 981.994201660156 984.744323730469 982.40869140625 986.124145507812 975.779663085938 974.228515625 980.21875 981.327453613281 971.364624023438 973.437622070312 972.104248046875 969.72998046875 965.185607910156 955.103637695312 961.435424804688 965.490112304688 956.891174316406 973.368530273438 978.763610839844 965.841491699219 967.589904785156 969.130126953125 975.552185058594 978.375427246094 980.129455566406 983.257934570312 984.7021484375 982.736083984375 978.546813964844 976.0107421875 977.752868652344 977.2548828125 980.32373046875 980.609924316406 977.789367675781 986.304992675781 985.264587402344 980.362854003906 990.515441894531 987.515991210938 977.13232421875 974.93310546875 975.958984375 979.745178222656 975.543212890625 986.467895507812 988.971374511719 992.850463867188 1001.94476318359 993.710510253906 990.286254882812 1001.61645507812 1006.77301025391 1010.45947265625 1006.12713623047 997.326721191406 1006.57879638672 1004.63555908203 1004.99005126953 1003.28125 1008.78088378906 1026.25988769531 1029.58996582031 1022.45532226562 1019.29602050781 1018.95935058594 1028.9306640625 1036.83081054688 1036.93151855469 1041.82080078125 1047.275390625 1055.82019042969 1041.78955078125 1038.14111328125 1035.93615722656 1024.40881347656 1012.88635253906 1023.72406005859 1017.21032714844 1006.91571044922 1018.07281494141 1025.80200195312 1017.03411865234 1020.39050292969 1018.75286865234 1014.21600341797 1024.69763183594 1024.47937011719 1027.69140625 1020.98162841797 1016.37396240234 1010.57177734375 1012.04681396484 1019.87060546875 1023.47235107422 1022.78350830078 1014.78967285156 1005.68798828125 999.411682128906 997.850830078125 1013.44122314453
953.583129882812 958.773132324219 950.187927246094 946.612609863281 936.372741699219 939.465209960938 939.581787109375 936.575378417969 942.383728027344 947.56005859375 953.063110351562 955.555114746094 952.811584472656 942.242919921875 942.091369628906 951.870483398438 958.544372558594 967.658264160156 973.707336425781 972.769836425781 972.833068847656 974.787414550781 974.994445800781 971.569152832031 971.408813476562 958.944396972656 959.86767578125 959.781982421875 958.988708496094 964.575927734375 959.182250976562 958.083190917969 961.322143554688 957.605224609375 960.585021972656 960.436584472656 953.967224121094 957.100036621094 975.629455566406 976.307922363281 988.107788085938 973.543029785156 984.645874023438 980.108215332031 986.453735351562 988.609313964844 991.445190429688 988.925720214844 991.203186035156 984.246948242188 986.595703125 975.4541015625 979.800048828125 974.412170410156 971.268249511719 973.098937988281 972.756408691406 980.745788574219 971.556213378906 972.872009277344 976.203857421875 972.866577148438 962.138732910156 961.840454101562 962.227478027344 966.832580566406 976.793212890625 980.531188964844 970.922485351562 964.495544433594 976.186950683594 984.272583007812 982.287170410156 986.485534667969 976.04443359375 982.444030761719 986.729675292969 988.888000488281 982.682556152344 982.688049316406 983.378784179688 979.183898925781 981.927673339844 986.800720214844 983.076049804688 977.330139160156 979.443481445312 982.770263671875 981.368286132812 979.554504394531 982.564575195312 981.237243652344 972.462463378906 976.725158691406 985.618103027344 989.064636230469 991.387756347656 1000.99884033203 995.378967285156 1002.45562744141 999.857543945312 1003.74377441406 1014.25762939453 1003.14691162109 1003.39953613281 1007.4345703125 1005.78039550781 1003.8857421875 1014.74835205078 1024.72680664062 1026.4033203125 1027.43518066406 1025.73559570312 1029.37194824219 1019.51403808594 1024.8486328125 1036.70971679688 1035.13598632812 1042.86853027344 1040.7431640625 1044.8935546875 1045.2626953125 1043.74096679688 1035.46276855469 1023.87512207031 1020.18286132812 1016.31597900391 1016.07397460938 1021.61737060547 1019.24938964844 1020.70104980469 1017.81616210938 1022.83624267578 1023.13311767578 1020.63873291016 1031.09851074219 1028.11096191406 1023.45092773438 1022.36535644531 1013.64776611328 1006.54455566406 1004.24499511719 1018.13159179688 1024.04797363281 1016.45751953125 1016.89306640625 1004.84271240234 1002.56457519531 988.569458007812 987.760437011719
961.900573730469 954.23828125 938.129455566406 939.542114257812 937.998901367188 934.82861328125 931.706726074219 937.409606933594 934.087463378906 939.201538085938 956.778381347656 957.857849121094 954.489013671875 951.636962890625 962.231384277344 971.674133300781 974.897766113281 973.338500976562 972.697204589844 978.560546875 978.122497558594 981.487426757812 981.620300292969 976.958862304688 963.17724609375 966.738952636719 961.710144042969 957.477416992188 954.790710449219 961.022399902344 959.974548339844 961.324584960938 960.984680175781 961.560546875 965.413513183594 959.831481933594 956.982604980469 961.711791992188 974.116394042969 980.03662109375 972.654663085938 980.839660644531 981.153198242188 982.17529296875 985.144165039062 990.856140136719 996.229187011719 996.463745117188 992.821899414062 998.296630859375 990.38427734375 983.966430664062 976.870056152344 972.812072753906 964.093811035156 970.18408203125 977.349243164062 971.415344238281 974.424560546875 972.907592773438 973.582397460938 979.181396484375 968.643859863281 968.305786132812 969.248596191406 972.899841308594 973.626220703125 979.764343261719 967.926879882812 973.205383300781 973.514343261719 979.851501464844 980.539611816406 981.227416992188 975.223083496094 978.88818359375 992.878479003906 996.476867675781 987.815673828125 985.95166015625 978.151916503906 978.199096679688 980.903625488281 980.344543457031 980.640014648438 987.651794433594 982.214904785156 974.797607421875 977.200256347656 976.585388183594 970.721557617188 978.892700195312 976.526062011719 981.991333007812 983.563903808594 989.895141601562 994.546569824219 1004.08929443359 998.938720703125 997.114074707031 1004.21807861328 1013.93811035156 1019.76275634766 1012.36865234375 1012.97351074219 1010.69213867188 1008.22961425781 1003.39349365234 1015.369140625 1026.68811035156 1029.458984375 1028.66186523438 1032.26879882812 1027.40161132812 1022.69262695312 1031.37194824219 1033.81176757812 1044.92443847656 1043.73083496094 1037.99462890625 1041.79333496094 1047.62805175781 1036.10278320312 1034.31408691406 1028.18615722656 1028.26770019531 1018.88232421875 1021.23345947266 1013.34344482422 1020.73028564453 1020.16125488281 1024.84020996094 1024.71740722656 1027.32897949219 1019.84051513672 1016.74133300781 1024.63623046875 1023.50726318359 1028.40515136719 1026.787109375 1022.20062255859 1018.05279541016 1015.36029052734 1013.59301757812 1016.44348144531 1012.58972167969 1006.63189697266 991.46337890625 987.133972167969 981.506408691406
945.135864257812 941.324340820312 936.88037109375 932.752136230469 924.932556152344 928.8974609375 932.664428710938 936.665222167969 950.0400390625 947.238037109375 953.298828125 969.520324707031 966.910827636719 970.251831054688 976.733703613281 981.384887695312 968.5 978.459167480469 983.593017578125 991.611328125 983.973449707031 980.378662109375 981.828002929688 977.944519042969 972.295837402344 968.973449707031 962.102355957031 961.184936523438 959.226257324219 960.470825195312 965.701171875 961.201965332031 964.918029785156 965.286376953125 967.222900390625 965.408996582031 968.505676269531 971.782104492188 975.880737304688 983.028198242188 978.008911132812 986.594604492188 987.999389648438 988.162963867188 993.619201660156 985.919738769531 985.519653320312 995.883178710938 995.718383789062 995.823425292969 992.480651855469 984.530578613281 980.678283691406 970.63427734375 976.385070800781 969.663330078125 971.143676757812 971.463439941406 976.056762695312 967.248168945312 970.376037597656 975.826477050781 980.547607421875 978.856689453125 977.905456542969 974.506286621094 973.382385253906 980.614074707031 976.002197265625 974.577697753906 977.143371582031 991.986328125 983.914672851562 976.945434570312 965.233032226562 977.249389648438 994.818603515625 996.565368652344 991.113159179688 981.284851074219 976.160461425781 980.109130859375 984.608337402344 981.360717773438 979.193298339844 986.857299804688 982.76318359375 978.694213867188 980.976867675781 977.319396972656 980.893615722656 986.904357910156 985.203063964844 980.669555664062 987.012512207031 991.620422363281 996.560729980469 1000.53820800781 997.893005371094 1000.86114501953 1003.93841552734 1003.59747314453 1019.06420898438 1012.72619628906 1014.306640625 1012.14825439453 1015.38513183594 1012.54705810547 1033.98303222656 1039.84924316406 1030.30981445312 1036.76416015625 1027.64111328125 1024.04846191406 1025.99548339844 1026.29846191406 1030.65954589844 1037.63171386719 1033.76477050781 1038.47729492188 1048.38024902344 1047.52233886719 1039.30053710938 1030.05810546875 1026.25061035156 1024.56201171875 1019.17230224609 1011.38153076172 1009.88366699219 1012.58508300781 1021.81085205078 1022.05993652344 1030.40002441406 1025.91125488281 1023.92810058594 1024.42822265625 1022.94305419922 1023.61938476562 1024.75122070312 1024.39453125 1015.23382568359 1003.71026611328 1002.46325683594 1006.14916992188 1012.11730957031 1008.78582763672 1001.28692626953 998.561096191406 988.367797851562 996.666931152344
939.789245605469 934.797668457031 936.556335449219 945.6181640625 931.063171386719 932.221435546875 933.868347167969 938.200439453125 954.705322265625 956.739013671875 964.606323242188 977.642639160156 975.695251464844 976.517395019531 975.054077148438 983.659240722656 987.563110351562 982.970703125 978.925354003906 982.731201171875 980.315734863281 984.319946289062 984.161071777344 986.683715820312 978.845153808594 965.661743164062 964.67578125 970.29296875 963.334899902344 972.307678222656 962.415771484375 977.447387695312 969.864013671875 971.619750976562 974.352844238281 979.663391113281 980.066040039062 974.554016113281 980.257507324219 980.013305664062 982.006652832031 987.801452636719 999.847290039062 1009.49053955078 1001.90783691406 1001.55218505859 995.421142578125 1000.59136962891 1000.35876464844 998.185546875 989.335754394531 983.624206542969 983.599914550781 990.561462402344 982.461547851562 979.132019042969 971.85546875 974.502136230469 971.062133789062 974.47607421875 975.090087890625 974.716918945312 977.495727539062 981.577331542969 983.794982910156 982.298950195312 977.411743164062 981.925476074219 979.8037109375 977.234436035156 987.056396484375 983.114624023438 979.339477539062 977.479370117188 978.521545410156 991.252807617188 984.207763671875 991.34423828125 986.879516601562 987.7958984375 987.578430175781 994.39111328125 994.692504882812 993.748291015625 985.383483886719 977.653137207031 985.230773925781 983.694641113281 990.833984375 983.230834960938 990.417419433594 988.699340820312 981.030334472656 990.877624511719 994.977355957031 994.636657714844 985.210266113281 998.872924804688 1006.66680908203 1006.50158691406 1005.54351806641 1009.87420654297 1013.85125732422 1013.03497314453 1017.14300537109 1010.962890625 1019.25244140625 1024.74084472656 1029.30395507812 1040.65832519531 1032.56274414062 1036.94580078125 1031.90710449219 1022.48645019531 1016.7900390625 1020.37860107422 1029.05236816406 1025.24768066406 1024.37475585938 1032.42907714844 1037.98217773438 1041.29333496094 1043.93640136719 1031.21447753906 1031.96362304688 1027.01794433594 1014.27508544922 1007.72003173828 1007.57092285156 1013.17413330078 1019.50329589844 1021.06585693359 1015.47094726562 1024.99267578125 1014.60809326172 1011.6708984375 1024.85034179688 1021.01129150391 1019.38635253906 1020.11181640625 1017.22686767578 995.512878417969 992.48828125 986.713989257812 993.287292480469 1000.11999511719 1001.19665527344 992.829528808594 993.890991210938 999.239990234375
931.216857910156 937.979125976562 934.038269042969 934.790222167969 935.128662109375 940.757873535156 936.217956542969 940.867370605469 954.297790527344 964.81396484375 958.639709472656 973.373840332031 975.483642578125 975.360107421875 972.734985351562 981.2119140625 986.977905273438 984.596740722656 978.052062988281 979.137084960938 977.82763671875 979.488586425781 989.924682617188 986.260192871094 980.637451171875 969.749450683594 969.815551757812 964.850708007812 970.146728515625 970.89990234375 972.961364746094 974.056762695312 975.690490722656 975.085388183594 968.924377441406 979.795471191406 977.8447265625 985.836608886719 981.421936035156 985.070434570312 981.445007324219 999.238037109375 1002.95080566406 1012.11456298828 1009.57861328125 1009.8466796875 1003.49597167969 998.02099609375 1005.11444091797 1004.7587890625 989.068298339844 992.86376953125 984.029602050781 984.565673828125 985.397155761719 985.602905273438 980.064270019531 981.54638671875 979.539367675781 980.37939453125 975.671813964844 969.591674804688 965.808776855469 972.813415527344 976.421691894531 987.531005859375 979.330932617188 981.584777832031 986.973937988281 979.470520019531 981.551818847656 990.744323730469 986.494934082031 983.432434082031 980.002136230469 992.988464355469 981.444091796875 984.080383300781 987.522277832031 987.169006347656 991.756164550781 998.541076660156 994.811340332031 993.224182128906 995.564514160156 993.140258789062 986.863220214844 994.647399902344 991.091430664062 986.39990234375 987.441955566406 988.975646972656 983.959899902344 989.123779296875 989.031616210938 989.890075683594 998.358764648438 1005.56323242188 1016.80224609375 1011.09155273438 1005.13482666016 1008.66961669922 1013.25451660156 1009.22137451172 1013.60076904297 1014.77923583984 1022.32727050781 1033.73889160156 1035.14660644531 1036.54223632812 1034.92578125 1036.29370117188 1030.95727539062 1016.76184082031 1016.08813476562 1017.74554443359 1025.16687011719 1015.05877685547 1018.15667724609 1028.57653808594 1027.07922363281 1041.95727539062 1031.51440429688 1034.8486328125 1027.13830566406 1024.38891601562 1017.20501708984 1015.10107421875 1008.19635009766 1012.53698730469 1016.91839599609 1018.61694335938 1014.81298828125 1012.63800048828 1001.36798095703 1013.31964111328 1016.68743896484 1014.35150146484 1011.39758300781 1011.32598876953 1005.00012207031 991.895080566406 978.725646972656 982.995178222656 990.580383300781 991.165954589844 988.665588378906 995.042541503906 997.122619628906 990.740478515625
936.589233398438 927.253540039062 935.205017089844 940.446899414062 938.259033203125 940.927978515625 940.976379394531 947.176696777344 941.492248535156 961.344848632812 971.41552734375 974.426452636719 969.097473144531 971.253540039062 968.751403808594 977.779052734375 975.389709472656 983.264892578125 979.502624511719 976.30419921875 987.162048339844 988.663452148438 992.989013671875 992.213500976562 980.050231933594 980.620788574219 980.551391601562 984.858764648438 975.214538574219 968.798522949219 970.396118164062 978.177062988281 977.245910644531 978.467468261719 976.2958984375 971.59716796875 978.635803222656 989.009948730469 993.703430175781 991.234375 995.075988769531 1004.61285400391 1009.6728515625 1018.97735595703 1017.05914306641 1013.95910644531 1009.48327636719 1011.75079345703 1006.95404052734 1007.82415771484 1012.61676025391 1007.26519775391 990.404724121094 994.993286132812 992.629455566406 994.744262695312 985.541809082031 985.65869140625 983.404113769531 982.003356933594 982.103759765625 972.134460449219 972.575988769531 972.335693359375 969.881042480469 981.746704101562 983.3515625 981.628356933594 986.972534179688 988.807006835938 982.35498046875 990.423156738281 986.235412597656 990.752685546875 978.183410644531 983.835571289062 984.363220214844 991.402709960938 991.993469238281 988.755737304688 993.174926757812 996.096435546875 994.08056640625 995.765930175781 992.514038085938 983.321044921875 995.510986328125 988.597106933594 995.78271484375 988.089538574219 992.281066894531 988.700805664062 987.715148925781 988.352111816406 985.769226074219 988.909362792969 992.355041503906 997.900085449219 1013.05474853516 1008.3427734375 1005.20477294922 1008.55426025391 1004.80358886719 1015.77551269531 1012.93011474609 1012.38500976562 1020.84411621094 1029.59399414062 1036.13073730469 1041.17565917969 1035.8046875 1036.02124023438 1033.88684082031 1018.12109375 1015.03240966797 1020.42474365234 1016.73114013672 1015.63110351562 1022.32507324219 1020.17370605469 1026.07604980469 1029.13403320312 1027.85009765625 1028.81579589844 1025.24841308594 1017.5537109375 1012.23370361328 1007.93133544922 1005.23327636719 1001.77899169922 1007.83941650391 1008.82830810547 1014.02655029297 1015.83294677734 1010.58081054688 1001.39910888672 1012.89965820312 1015.77404785156 1015.03759765625 1011.16729736328 996.485595703125 990.777160644531 983.118469238281 979.191772460938 985.706665039062 992.878234863281 992.04833984375 987.910705566406 999.115295410156 996.285522460938
940.709533691406 938.077941894531 926.738647460938 935.192932128906 939.787353515625 942.962890625 939.637329101562 942.748840332031 950.158935546875 958.593444824219 970.390258789062 970.90625 971.519165039062 976.436828613281 978.094482421875 968.962951660156 970.428771972656 982.427612304688 981.347229003906 980.224609375 984.967956542969 987.048522949219 990.219482421875 998.103698730469 996.93212890625 993.678100585938 988.955078125 989.491333007812 984.894470214844 982.994079589844 981.370788574219 974.059326171875 975.593017578125 983.017578125 976.923706054688 972.986267089844 989.686828613281 995.707580566406 998.578857421875 995.435302734375 1001.80395507812 1013.45239257812 1015.13751220703 1024.26623535156 1015.47723388672 1015.78594970703 1020.47741699219 1011.89154052734 1004.84222412109 1007.52374267578 1019.80523681641 1018.67169189453 1010.66320800781 994.775024414062 995.792541503906 994.085327148438 986.062255859375 987.329833984375 979.981323242188 979.062744140625 975.033142089844 974.293579101562 980.497497558594 976.010009765625 975.79541015625 977.438842773438 972.055969238281 974.213928222656 979.482788085938 988.006896972656 991.802490234375 988.564147949219 986.233764648438 977.501647949219 983.928405761719 977.355102539062 981.965515136719 982.10302734375 992.282348632812 994.902160644531 995.805480957031 998.316711425781 992.531677246094 997.051879882812 999.882019042969 1001.07049560547 999.681884765625 993.263977050781 998.350463867188 991.106689453125 993.989807128906 991.183837890625 984.560668945312 987.078002929688 989.037475585938 988.77490234375 988.538818359375 1001.47729492188 1001.36254882812 1003.52764892578 997.108459472656 1002.65661621094 1006.56207275391 1006.86206054688 1009.52130126953 1005.68536376953 1013.92987060547 1032.29565429688 1039.35119628906 1037.064453125 1026.18884277344 1022.77423095703 1027.83154296875 1027.97021484375 1022.46429443359 1013.57122802734 1015.2236328125 1012.59948730469 1014.23333740234 1015.87121582031 1018.64184570312 1019.82116699219 1018.54779052734 1019.90057373047 1015.47821044922 1017.69989013672 1011.26995849609 1009.57763671875 1003.19366455078 1001.39086914062 1001.26916503906 1010.26373291016 1004.74536132812 1003.38262939453 1002.47692871094 1007.197265625 1002.69128417969 1014.58355712891 1011.04473876953 1010.77331542969 992.48974609375 985.09130859375 986.225646972656 986.891235351562 985.845520019531 988.611938476562 990.152587890625 992.6767578125 995.666442871094 999.328857421875
941.783935546875 952.287536621094 937.132385253906 931.176208496094 935.761291503906 934.874206542969 943.036743164062 956.044250488281 956.301940917969 964.531127929688 971.197326660156 970.624938964844 981.824279785156 980.693359375 978.458251953125 977.282409667969 977.865478515625 976.5888671875 982.19873046875 977.352600097656 983.97802734375 985.641235351562 995.4287109375 995.463317871094 1003.53021240234 1003.46954345703 993.116088867188 988.062866210938 982.171752929688 975.581298828125 983.830139160156 986.948425292969 985.684875488281 980.206848144531 984.158325195312 986.713989257812 992.214416503906 999.955932617188 996.409118652344 1008.33453369141 1010.00006103516 1022.31072998047 1013.96661376953 1008.07318115234 1008.80926513672 1012.98370361328 1017.37780761719 1017.29919433594 1007.76794433594 1018.30529785156 1024.50012207031 1021.68347167969 1008.40991210938 1000.74987792969 999.817626953125 993.026977539062 984.418212890625 988.210510253906 988.264953613281 987.765075683594 977.226928710938 977.265075683594 981.759338378906 979.839233398438 976.435302734375 979.330810546875 978.907104492188 973.982482910156 979.512817382812 984.259643554688 986.071228027344 984.165832519531 991.341064453125 984.274536132812 977.797912597656 985.306396484375 981.51123046875 983.51318359375 979.948913574219 990.997802734375 995.87890625 1006.01556396484 1007.50024414062 992.267211914062 994.535705566406 1004.25280761719 1008.50244140625 1006.04840087891 996.479125976562 989.981567382812 985.555725097656 982.490905761719 980.347778320312 985.973876953125 988.5302734375 988.76904296875 987.704284667969 991.6484375 1002.54162597656 1006.37713623047 1005.60571289062 1001.79406738281 1008.18804931641 1013.71435546875 1006.80694580078 1009.64923095703 1013.94830322266 1025.29406738281 1030.68884277344 1033.52917480469 1035.67443847656 1037.22692871094 1032.03576660156 1026.53869628906 1019.42602539062 1023.73999023438 1027.20385742188 1017.04388427734 1012.55993652344 1014.11798095703 1011.80035400391 1010.91125488281 1015.31176757812 1019.12683105469 1022.69616699219 1015.52374267578 1009.43322753906 1009.00628662109 1005.42083740234 1005.70843505859 1005.751953125 1008.51171875 1000.17242431641 1000.32916259766 997.176452636719 998.306884765625 1007.197265625 1006.57458496094 1002.16125488281 1004.09094238281 992.9501953125 997.429138183594 986.806579589844 984.450561523438 980.398803710938 984.53759765625 985.284545898438 983.904907226562 984.6220703125 989.857543945312
950.395141601562 952.361572265625 943.062866210938 933.611633300781 921.72216796875 930.770446777344 938.705932617188 941.979187011719 954.149475097656 964.743957519531 970.709045410156 980.778991699219 977.452209472656 984.04638671875 979.919311523438 975.973449707031 971.667602539062 972.633422851562 977.610961914062 989.490661621094 987.934509277344 997.833801269531 993.03564453125 994.924621582031 1006.10101318359 993.203125 999.288391113281 989.5390625 992.170166015625 979.314331054688 984.808227539062 980.5576171875 979.08544921875 978.604858398438 978.385986328125 988.731079101562 991.135559082031 997.010131835938 1014.08709716797 1006.54528808594 1009.91357421875 1005.97381591797 1002.56555175781 1004.59136962891 1011.32690429688 1017.45263671875 1019.01745605469 1021.29077148438 1019.12884521484 1018.92810058594 1015.13708496094 1013.35699462891 1008.12103271484 1002.60791015625 996.317443847656 1000.52166748047 994.158813476562 995.088684082031 990.23779296875 981.207397460938 983.381408691406 971.746948242188 970.123657226562 973.001098632812 973.255432128906 972.002319335938 982.251586914062 968.295227050781 973.260986328125 979.951171875 989.373413085938 987.114074707031 989.358947753906 987.440979003906 980.598449707031 978.215209960938 981.949584960938 986.474914550781 987.043151855469 1000.61206054688 999.611206054688 1009.50677490234 1010.41802978516 998.537292480469 995.462341308594 1001.14483642578 1008.25079345703 999.773132324219 996.17919921875 994.286376953125 989.750427246094 978.763732910156 976.567077636719 983.920959472656 985.5625 982.363891601562 981.182800292969 994.15380859375 1003.34020996094 997.946899414062 995.339965820312 1001.60003662109 1008.06158447266 1009.31420898438 997.610229492188 1010.47241210938 1010.49780273438 1018.90161132812 1020.69854736328 1030.46179199219 1035.09326171875 1043.05810546875 1036.56677246094 1025.53112792969 1023.91107177734 1028.09448242188 1025.80529785156 1027.34936523438 1017.51715087891 1006.83465576172 1007.43041992188 1002.88122558594 1015.26361083984 1018.17565917969 1013.48773193359 1013.10382080078 1010.37951660156 1005.38482666016 1005.65087890625 1008.7763671875 1007.53955078125 1004.98321533203 1000.7421875 990.944885253906 994.852966308594 997.421203613281 1003.3046875 1003.93609619141 993.659606933594 995.654479980469 999.115356445312 999.236633300781 989.193969726562 979.52490234375 973.77392578125 986.283813476562 988.457275390625 981.934143066406 986.786560058594 990.107666015625
947.693115234375 947.002380371094 946.037231445312 938.840881347656 926.685974121094 927.470153808594 940.427551269531 939.052124023438 953.569458007812 958.975463867188 971.816833496094 973.770446777344 981.233093261719 977.008117675781 974.649291992188 971.021484375 970.332641601562 961.396301269531 980.452514648438 995.989379882812 991.251098632812 995.083740234375 996.369873046875 998.579772949219 993.206909179688 994.116455078125 995.12109375 989.65673828125 985.451354980469 981.912719726562 989.201538085938 981.911071777344 980.132873535156 983.240295410156 986.725891113281 978.461791992188 989.450256347656 994.89306640625 1000.60888671875 995.047912597656 1003.00408935547 988.141540527344 997.841674804688 1004.06976318359 1001.48663330078 1009.28845214844 1013.72802734375 1022.16162109375 1011.42590332031 998.945251464844 998.508544921875 997.914245605469 1003.38116455078 994.688415527344 992.005920410156 982.73681640625 985.627014160156 995.115173339844 984.828186035156 982.072326660156 980.464294433594 977.291687011719 965.870910644531 973.220275878906 964.68212890625 973.261047363281 976.992553710938 974.413818359375 978.202697753906 978.936340332031 983.289306640625 991.700378417969 991.254272460938 987.14111328125 982.285888671875 985.102844238281 992.637268066406 1004.88549804688 1007.1865234375 1011.93322753906 1011.65093994141 1010.048828125 1013.50665283203 1008.12066650391 1003.03637695312 1008.19561767578 999.779174804688 997.094055175781 992.090454101562 991.765197753906 982.549072265625 979.597961425781 990.328308105469 993.661682128906 983.637634277344 979.458679199219 984.614868164062 991.713989257812 1000.52490234375 1004.99914550781 997.555969238281 1005.29034423828 1012.20935058594 1012.11090087891 1003.85797119141 1008.3935546875 1010.56225585938 1014.15313720703 1021.939453125 1026.03881835938 1039.98693847656 1044.95361328125 1039.24768066406 1032.40197753906 1025.93505859375 1031.40979003906 1028.90844726562 1027.02270507812 1019.50402832031 1007.70129394531 1002.66131591797 1005.80334472656 1008.20623779297 1007.62280273438 1008.14813232422 1007.26000976562 1001.43865966797 1007.08929443359 998.079406738281 1003.30834960938 1006.15045166016 1002.5029296875 989.556213378906 988.8583984375 996.856506347656 998.229614257812 995.117553710938 994.089782714844 994.203308105469 990.711669921875 986.43212890625 992.767456054688 989.844421386719 982.552734375 979.463256835938 981.354187011719 970.427551269531 979.423156738281 985.594848632812 986.926330566406
945.058044433594 949.9013671875 951.350463867188 939.005859375 935.036193847656 937.9833984375 941.1044921875 946.54736328125 958.070617675781 961.091430664062 965.015747070312 970.337890625 972.840698242188 976.551879882812 971.9345703125 973.604858398438 967.83984375 964.202819824219 978.019287109375 986.255615234375 993.475952148438 986.007568359375 989.095581054688 989.751770019531 978.150695800781 979.827941894531 992.516967773438 991.09326171875 984.386840820312 985.130981445312 981.157958984375 975.960876464844 979.431640625 986.671997070312 983.394897460938 980.109924316406 993.979858398438 994.492431640625 999.558044433594 999.669860839844 990.602966308594 986.020202636719 1000.04943847656 1005.86145019531 1007.36456298828 1009.85559082031 1015.01184082031 1015.12957763672 1008.77191162109 1002.64764404297 994.861267089844 990.407104492188 992.868774414062 989.669616699219 989.809997558594 987.774291992188 983.225036621094 986.593322753906 985.734191894531 985.976379394531 985.001586914062 982.80908203125 982.599670410156 978.127319335938 968.6181640625 975.045288085938 982.71044921875 970.061157226562 973.629211425781 971.618957519531 977.940002441406 994.253295898438 986.577026367188 977.569763183594 981.905212402344 989.473999023438 1000.40057373047 1006.7587890625 1026.35083007812 1016.39538574219 1017.72918701172 1012.93353271484 1008.31628417969 1008.94281005859 1006.15728759766 1000.6279296875 999.918762207031 1001.09362792969 999.69677734375 994.801208496094 987.183349609375 987.751281738281 990.160888671875 990.4482421875 986.66552734375 995.018432617188 985.885131835938 992.04345703125 1000.71038818359 1001.72515869141 1009.16455078125 1012.35754394531 1006.87414550781 1005.94567871094 1014.0654296875 1022.95465087891 1018.08264160156 1014.57788085938 1026.54772949219 1025.44128417969 1035.71142578125 1048.85339355469 1037.14782714844 1036.00109863281 1035.49084472656 1032.12170410156 1033.92321777344 1030.01123046875 1024.22607421875 1011.72882080078 1008.74615478516 1003.81378173828 1000.31726074219 1003.84368896484 1002.30853271484 1003.64001464844 995.044494628906 1004.87152099609 1001.64508056641 1006.97265625 1003.71636962891 983.877807617188 985.040466308594 978.221740722656 984.227416992188 985.380187988281 994.513122558594 992.466247558594 990.954650878906 990.111145019531 989.307250976562 984.079406738281 979.793884277344 977.79150390625 976.107543945312 977.807922363281 970.369262695312 985.608154296875 982.332824707031 981.631225585938
941.135070800781 950.114868164062 947.924743652344 941.407287597656 940.441040039062 932.646362304688 932.554626464844 949.245239257812 962.956115722656 958.493835449219 969.319702148438 967.743469238281 972.788635253906 986.268798828125 975.416259765625 977.21337890625 979.187316894531 973.889587402344 985.580444335938 980.388488769531 979.305969238281 975.961853027344 976.251159667969 982.511840820312 977.045837402344 988.571533203125 986.898071289062 992.826965332031 991.546813964844 983.734130859375 979.84228515625 974.601318359375 978.195739746094 986.6904296875 988.181396484375 990.332763671875 993.510803222656 991.215148925781 991.764465332031 985.507019042969 988.584350585938 988.428833007812 998.296752929688 992.218139648438 1002.96313476562 1006.09576416016 999.903442382812 1001.07574462891 1006.33270263672 1007.28479003906 1000.79815673828 993.069519042969 990.509887695312 988.024841308594 985.927856445312 986.369812011719 988.152465820312 984.431030273438 985.473449707031 987.559448242188 987.148498535156 983.758911132812 970.803405761719 981.586853027344 966.96435546875 976.842163085938 978.191955566406 980.139526367188 975.573608398438 981.683959960938 979.688293457031 989.126708984375 983.143798828125 984.14990234375 980.407592773438 985.587463378906 993.271606445312 1005.29644775391 1016.794921875 1011.58416748047 1007.53460693359 1012.96484375 1007.54034423828 1007.04547119141 1002.19451904297 1007.25054931641 1004.61279296875 1001.20568847656 997.080139160156 991.268432617188 995.329528808594 984.656188964844 987.573547363281 990.143676757812 991.106567382812 993.951110839844 992.684448242188 993.779174804688 999.939147949219 1003.21362304688 1008.17309570312 1007.42230224609 1004.46350097656 1015.38623046875 1021.28430175781 1026.37109375 1027.34008789062 1027.43334960938 1025.0712890625 1033.79968261719 1032.97607421875 1042.67395019531 1036.58142089844 1039.14685058594 1042.24291992188 1048.2421875 1036.95446777344 1031.35424804688 1023.90081787109 1019.02368164062 1018.09259033203 1011.76239013672 1001.11651611328 997.937316894531 1000.54565429688 994.422729492188 997.368530273438 1000.31726074219 994.860778808594 999.057250976562 987.113159179688 980.55517578125 972.12646484375 965.121887207031 968.785095214844 982.739013671875 989.913696289062 993.979919433594 993.296875 986.857360839844 980.346313476562 983.212707519531 979.920776367188 981.60009765625 987.643432617188 983.5283203125 988.001342773438 991.019165039062 981.501281738281 987.361145019531
946.029418945312 947.650390625 942.722961425781 946.464538574219 940.589477539062 938.093566894531 940.918029785156 953.868103027344 958.38525390625 958.31005859375 967.168151855469 973.502380371094 977.011901855469 986.015930175781 977.550659179688 984.804931640625 971.918762207031 975.75732421875 972.722106933594 977.281921386719 970.171508789062 962.143920898438 978.748046875 981.967468261719 980.391845703125 982.962219238281 979.999328613281 987.936462402344 981.99609375 984.541076660156 980.828002929688 977.950134277344 977.2744140625 983.455871582031 971.663024902344 975.3505859375 984.660400390625 988.009704589844 984.0966796875 986.90771484375 984.223083496094 987.1025390625 991.092224121094 995.778137207031 997.69921875 996.700256347656 996.129760742188 998.201782226562 1000.25146484375 999.9326171875 994.831970214844 986.156188964844 983.77880859375 981.43359375 983.727294921875 989.141296386719 989.763977050781 996.578369140625 986.259033203125 982.306518554688 989.552062988281 977.960205078125 976.087890625 978.088745117188 975.104736328125 977.987121582031 982.790405273438 985.380004882812 978.649658203125 972.958862304688 967.534912109375 979.1484375 981.28271484375 981.449829101562 984.918640136719 982.623718261719 987.314208984375 995.482238769531 1007.98645019531 1005.69360351562 1010.97351074219 1010.30847167969 997.930480957031 999.239074707031 1001.89306640625 995.345642089844 1001.48101806641 997.407958984375 990.760314941406 990.524719238281 995.513305664062 988.621032714844 992.8720703125 990.0517578125 995.347961425781 992.854675292969 999.465515136719 1005.33013916016 998.853454589844 997.928100585938 998.987731933594 1002.41259765625 1007.58184814453 1009.65338134766 1019.24060058594 1033.65856933594 1031.20764160156 1035.58654785156 1037.39538574219 1037.90515136719 1043.51940917969 1050.70922851562 1044.14306640625 1046.59228515625 1043.10961914062 1048.41955566406 1053.55297851562 1039.09240722656 1031.04479980469 1041.06188964844 1024.19311523438 1013.95245361328 1004.7001953125 1004.10467529297 996.394470214844 994.969177246094 996.191345214844 987.372253417969 986.334045410156 975.425170898438 979.559997558594 982.013366699219 972.035949707031 964.490173339844 964.497863769531 976.392517089844 979.15380859375 983.203796386719 985.393188476562 982.197204589844 987.032775878906 980.137084960938 982.319519042969 979.976440429688 982.832641601562 989.762817382812 987.426574707031 987.481506347656 987.219787597656 986.637573242188
952.026000976562 947.391235351562 945.545104980469 940.943054199219 950.010681152344 941.646118164062 935.603942871094 946.871337890625 950.591552734375 957.463256835938 963.494750976562 968.284484863281 969.399841308594 978.809936523438 979.133178710938 976.819396972656 971.521484375 966.442077636719 974.915100097656 964.039184570312 969.887512207031 957.263610839844 964.398742675781 976.477783203125 971.790161132812 984.720581054688 986.006225585938 982.233947753906 975.612854003906 975.314636230469 971.378234863281 976.661682128906 980.11865234375 969.499816894531 960.494445800781 966.382873535156 971.123352050781 977.313171386719 985.567810058594 991.474426269531 986.717041015625 990.100280761719 986.548706054688 995.360595703125 996.356750488281 996.951904296875 1000.50946044922 1005.07336425781 1000.89312744141 994.641540527344 989.055847167969 990.977783203125 988.42724609375 988.357482910156 994.816528320312 988.494445800781 991.526184082031 990.727661132812 980.106201171875 972.638061523438 984.125122070312 982.153747558594 977.266540527344 980.225769042969 975.089660644531 980.475219726562 982.173095703125 983.990844726562 992.353942871094 984.196105957031 972.539978027344 966.744750976562 977.01171875 982.904968261719 984.360656738281 988.000732421875 986.294311523438 998.137145996094 997.6357421875 998.080200195312 1010.27593994141 1010.13464355469 1005.43414306641 1001.92816162109 1006.86029052734 1002.29925537109 985.448181152344 993.453979492188 993.374206542969 995.698913574219 996.351928710938 1004.76385498047 1001.30065917969 1002.53295898438 1006.94641113281 1002.59826660156 1001.21447753906 1003.58239746094 1003.203125 1001.43438720703 1001.35919189453 1003.63043212891 1004.47570800781 1008.40661621094 1008.89965820312 1022.31866455078 1031.43615722656 1035.14367675781 1035.61706542969 1042.498046875 1049.86938476562 1051.34106445312 1053.64611816406 1055.51574707031 1055.474609375 1050.24731445312 1049.86938476562 1045.39233398438 1047.01977539062 1046.83447265625 1033.28198242188 1023.88989257812 1008.96203613281 1008.27819824219 1000.40765380859 995.158264160156 987.281494140625 981.743286132812 984.677856445312 977.759338378906 979.216125488281 979.524597167969 975.949829101562 967.526489257812 964.60888671875 972.77001953125 982.137756347656 980.034057617188 990.922485351562 982.697204589844 986.975036621094 982.458190917969 982.583862304688 977.034484863281 981.442932128906 980.30810546875 977.809020996094 970.296752929688 980.350036621094 983.702697753906
945.339172363281 948.972839355469 946.390258789062 939.978454589844 944.326599121094 939 938.774108886719 947.487182617188 952.246826171875 950.23046875 956.048828125 959.911804199219 962.725463867188 958.599548339844 967.349609375 948.777099609375 956.384826660156 962.708557128906 967.703552246094 966.875854492188 968.102600097656 960.699645996094 955.653747558594 959.296630859375 967.165161132812 978.391479492188 979.743225097656 977.322082519531 976.767395019531 974.029174804688 970.508728027344 971.1455078125 965.047119140625 960.940490722656 959.283142089844 966.605712890625 968.123718261719 970.363220214844 981.678588867188 982.902160644531 988.216369628906 983.614013671875 991.362976074219 994.07080078125 999.534362792969 995.684387207031 998.968994140625 1007.95367431641 1004.21813964844 995.39892578125 988.224487304688 990.629028320312 986.584350585938 984.728515625 983.320251464844 990.107238769531 996.160400390625 986.875915527344 988.809204101562 979.31005859375 984.700622558594 982.218444824219 986.911193847656 985.584777832031 981.113647460938 987.132568359375 987.165222167969 980.885559082031 985.457275390625 981.390563964844 980.418334960938 976.766906738281 977.901184082031 976.366088867188 985.054138183594 993.201782226562 992.332641601562 989.008239746094 989.712646484375 994.878173828125 997.362548828125 1008.73150634766 1007.43536376953 1011.41314697266 1001.11755371094 997.246215820312 992.935546875 991.084228515625 996.691528320312 996.833068847656 999.757263183594 1000.6591796875 1001.13848876953 1003.07849121094 1001.83215332031 1008.35632324219 1001.83319091797 999.4404296875 1009.26129150391 1007.53765869141 1003.00231933594 1008.76342773438 1003.81945800781 1005.16973876953 1012.11358642578 1023.67681884766 1035.16772460938 1042.70043945312 1042.96936035156 1037.39282226562 1046.39294433594 1048.97021484375 1060.72644042969 1059.31225585938 1058.94482421875 1062.88330078125 1056.75427246094 1045.9853515625 1048.24755859375 1049.50170898438 1032.15185546875 1016.35577392578 1005.94165039062 1003.67669677734 1005.51831054688 995.291198730469 989.904846191406 982.195068359375 984.318664550781 981.52978515625 971.913513183594 975.999755859375 981.591979980469 977.600463867188 967.31640625 972.470703125 979.515441894531 979.138488769531 989.033508300781 988.10400390625 986.854736328125 982.525024414062 971.706420898438 970.196960449219 975.297302246094 974.162048339844 963.634643554688 966.943115234375 982.40625 977.276733398438
946.080261230469 938.346557617188 936.96875 932.182434082031 935.810852050781 941.466674804688 940.443481445312 940.348510742188 943.408508300781 946.652465820312 945.592163085938 952.622009277344 955.176696777344 954.303955078125 958.982055664062 951.065979003906 952.607727050781 949.255065917969 958.720031738281 961.808654785156 952.655700683594 951.961120605469 951.481628417969 960.768859863281 962.378234863281 965.100769042969 962.441040039062 964.524353027344 976.088684082031 970.589477539062 961.816284179688 966.123962402344 959.626037597656 959.833374023438 956.588317871094 962.738098144531 969.945617675781 967.251098632812 969.306518554688 972.283996582031 977.311950683594 985.424743652344 990.508239746094 994.748413085938 1012.33874511719 1000.85308837891 1006.07379150391 999.7236328125 993.037536621094 1001.97717285156 992.958435058594 997.53857421875 991.308776855469 979.279235839844 985.124084472656 981.441101074219 988.26220703125 988.255981445312 995.494689941406 984.757080078125 984.759216308594 989.193420410156 986.518493652344 991.018981933594 990.238220214844 994.2578125 982.078063964844 978.472351074219 982.392333984375 988.971313476562 991.270812988281 981.502380371094 978.146545410156 981.132507324219 985.234741210938 989.955627441406 988.892211914062 983.295593261719 983.023986816406 989.622253417969 996.481140136719 1013.87646484375 1008.11029052734 1003.89196777344 999.219421386719 998.647277832031 996.019165039062 995.640441894531 995.391784667969 1002.80047607422 1003.49194335938 1001.58929443359 1001.55755615234 1003.38928222656 1010.16735839844 1012.77740478516 1010.55609130859 1006.02453613281 1001.30096435547 1004.11773681641 1006.64373779297 1001.45166015625 995.579223632812 1007.23596191406 1014.08319091797 1029.50634765625 1037.84289550781 1049.4375 1046.30908203125 1044.39465332031 1048.35437011719 1049.15979003906 1054.33264160156 1062.87609863281 1069.24389648438 1062.58630371094 1061.63806152344 1049.03930664062 1039.82873535156 1046.11145019531 1022.65612792969 1012.46600341797 1008.85107421875 1007.62463378906 995.809326171875 991.27978515625 990.692199707031 988.009033203125 983.259338378906 977.514709472656 969.297058105469 976.088500976562 979.212341308594 984.217468261719 976.400756835938 977.822265625 980.072265625 983.859985351562 982.587097167969 985.782897949219 987.484985351562 974.6435546875 966.123901367188 970.130554199219 971.709533691406 972.900695800781 974.59814453125 977.070007324219 977.922058105469 975.365417480469
947.167602539062 938.928344726562 935.415405273438 937.0029296875 942.946655273438 945.391723632812 940.183776855469 945.6123046875 940.919067382812 935.162536621094 940.109252929688 946.465393066406 953.345825195312 951.613708496094 947.568725585938 947.383605957031 946.939697265625 951.235595703125 955.792114257812 947.729553222656 947.010009765625 950.801818847656 952.674560546875 956.934387207031 957.013122558594 958.545654296875 947.901062011719 952.399291992188 956.237426757812 959.124145507812 961.565063476562 964.441040039062 970.358581542969 967.21435546875 954.965576171875 963.9541015625 959.052978515625 965.379638671875 963.073425292969 975.624633789062 975.462036132812 975.195434570312 989.733032226562 994.55029296875 1001.46166992188 1006.26159667969 1001.51690673828 992.131774902344 991.97607421875 993.318603515625 994.004699707031 1000.66949462891 994.118591308594 991.762145996094 990.1904296875 993.132934570312 989.415405273438 993.981750488281 997.546875 993.294982910156 991.830261230469 993.013427734375 990.845581054688 999.792175292969 999.452392578125 983.194458007812 979.119506835938 987.895202636719 995.418823242188 990.903198242188 995.973876953125 989.303771972656 987.181274414062 991.163696289062 992.931213378906 999.633666992188 1001.060546875 997.350952148438 989.771118164062 996.280212402344 998.440856933594 1007.51104736328 1002.24487304688 1003.85748291016 1001.12921142578 1008.29315185547 1006.9921875 998.884826660156 1000.57287597656 1001.74670410156 1002.90783691406 1000.78497314453 998.804870605469 1001.01049804688 1012.89666748047 1013.32159423828 1007.666015625 997.862854003906 1003.05694580078 998.353881835938 1002.54638671875 1006.88128662109 1014.65356445312 1023.85443115234 1011.44256591797 1021.06628417969 1039.11462402344 1044.78356933594 1049.24975585938 1048.74426269531 1056.48474121094 1052.35522460938 1051.53515625 1067.53112792969 1073.54052734375 1057.18920898438 1055.92028808594 1052.0927734375 1042.60229492188 1041.783203125 1034.17126464844 1019.97827148438 1010.18041992188 1009.04309082031 1001.541015625 1002.14495849609 992.67236328125 987.697387695312 976.760681152344 981.1240234375 979.962646484375 984.080749511719 986.861694335938 986.071899414062 981.829223632812 983.362121582031 982.296325683594 980.103149414062 987.66162109375 985.319091796875 978.414428710938 970.679626464844 968.759704589844 970.483276367188 968.571044921875 966.634643554688 966.969665527344 972.752868652344 975.404113769531 981.088317871094
958.581848144531 947.067443847656 944.581359863281 939.471496582031 940.246704101562 942.233947753906 947.622253417969 942.550659179688 939.296264648438 940.794921875 940.644226074219 944.608337402344 949.023071289062 950.364013671875 942.531311035156 950.158752441406 961.766418457031 956.120422363281 954.409912109375 947.538146972656 945.835571289062 948.262329101562 952.596618652344 952.007751464844 962.738525390625 957.934692382812 959.3681640625 956.576171875 958.924011230469 963.682434082031 961.674133300781 975.047668457031 967.053955078125 968.161315917969 962.747009277344 954.491394042969 957.607543945312 962.823425292969 967.941955566406 967.261413574219 963.099670410156 970.210632324219 981.798645019531 993.974426269531 994.4462890625 991.274841308594 990.728637695312 984.809448242188 987.85009765625 996.936889648438 998.27734375 999.270263671875 997.689147949219 1000.43017578125 997.865356445312 997.183898925781 999.329162597656 1002.31848144531 1005.16925048828 1000.5 992.429992675781 996.422058105469 1003.11462402344 997.365417480469 1000.41754150391 993.936706542969 992.747253417969 986.907287597656 989.331298828125 987.635009765625 987.347534179688 984.0078125 991.469665527344 992.867614746094 995.369201660156 1005.72235107422 1004.74926757812 1008.02697753906 1005.95520019531 997.054809570312 1003.05096435547 1001.23583984375 989.400939941406 994.645202636719 1001.96356201172 1016.20684814453 1016.04730224609 1016.20983886719 1008.56231689453 1003.50109863281 1000.94342041016 1003.78216552734 1010.69366455078 1006.45123291016 1012.24536132812 1008.71826171875 1004.20336914062 1007.91168212891 1010.22814941406 1011.92889404297 1001.92840576172 1018.33099365234 1022.68743896484 1020.90252685547 1018.81500244141 1024.08642578125 1040.87182617188 1045.25366210938 1045.31774902344 1045.75634765625 1048.56213378906 1050.16625976562 1062.78405761719 1067.39245605469 1072.32873535156 1059.75793457031 1056.06018066406 1043.99365234375 1041.67126464844 1043.75048828125 1045.22546386719 1027.74536132812 1009.97784423828 1010.65081787109 1006.17608642578 996.203186035156 992.641845703125 988.674865722656 977.720153808594 980.973754882812 980.713928222656 979.575561523438 990.231506347656 986.144165039062 987.089172363281 986.346130371094 982.671569824219 975.435913085938 987.465942382812 987.219665527344 988.765197753906 974.433776855469 961.575378417969 966.319641113281 966.349731445312 963.542724609375 970.989440917969 970.850524902344 975.8671875 986.744750976562
