NCOLS 150
NROWS 37
XLLCORNER 7394249
YLLCORNER 4842299
CELLSIZE 30
NODATA_VALUE -9999
961.313232421875 957.385131835938 958.835571289062 960.901306152344 971.209167480469 974.150085449219 973.109558105469 977.685791015625 978.354675292969 973.960144042969 978.767944335938 978.910095214844 980.69482421875 981.43701171875 975.597229003906 966.066162109375 967.210815429688 971.191711425781 970.02685546875 976.473083496094 973.429626464844 966.611877441406 966.130065917969 966.489074707031 962.738525390625 961.098999023438 954.667724609375 966.92529296875 963.113525390625 966.928344726562 969.074768066406 966.56396484375 964.610412597656 964.810729980469 970.764099121094 974.831787109375 967.513061523438 966.635925292969 967.37646484375 961.552856445312 948.392822265625 953.37353515625 949.94921875 957.168334960938 965.490905761719 965.146179199219 962.336975097656 961.745910644531 956.587036132812 966.943176269531 966.077697753906 960.367248535156 961.556823730469 955.682250976562 956.558532714844 954.293395996094 953.800415039062 966.93798828125 958.033935546875 955.917846679688 957.247802734375 956.159851074219 963.180236816406 956.744995117188 965.20849609375 960.296997070312 960.839721679688 954.051391601562 957.782165527344 961.313293457031 961.636047363281 961.311462402344 961.52001953125 955.0205078125 952.197082519531 965.063171386719 963.935852050781 962.045532226562 969.31884765625 969.176452636719 983.098205566406 984.972778320312 988.603454589844 979.344116210938 967.383544921875 970.474792480469 972.941284179688 966.750305175781 968.444458007812 968.308471679688 974.557250976562 978.617248535156 975.677307128906 971.212219238281 980.066467285156 973.340148925781 971.223327636719 978.14111328125 975.708862304688 974.800720214844 978.912231445312 981.613952636719 984.176452636719 986.219299316406 977.581604003906 979.3505859375 979.111328125 994.849975585938 1003.91223144531 1001.87976074219 998.988159179688 984.130981445312 974.987976074219 979.785034179688 985.952941894531 985.908386230469 1000.03186035156 1002.15625 1014.57781982422 1010.42468261719 1020.83813476562 1029.63342285156 1024.97717285156 1034.98901367188 1037.74694824219 1031.54626464844 1026.3154296875 1026.33117675781 1023.796875 1030.77478027344 1042.41674804688 1045.95385742188 1061.93798828125 1077.33129882812 1088.05163574219 1088.99682617188 1089.01538085938 1092.85473632812 1112.90368652344 1108.58935546875 1113.44506835938 1105.05969238281 1116.90454101562 1109.01440429688 1110.79772949219 1114.56433105469 1117.82873535156 1115.52954101562 1116.6025390625 1119.71130371094
957.748229980469 956.185241699219 966.951721191406 966.374816894531 973.108154296875 973.5576171875 975.632873535156 971.146484375 975.922241210938 975.042297363281 975.829467773438 977.009582519531 978.468994140625 979.335571289062 972.481994628906 969.571472167969 973.829711914062 967.483642578125 967.172546386719 972.714172363281 974.808410644531 971.092224121094 966.564514160156 959.126220703125 960.472351074219 953.237976074219 949.559814453125 960.677368164062 966.908874511719 974.18896484375 963.637634277344 959.444946289062 957.807678222656 964.483642578125 974.577209472656 974.440795898438 975.541687011719 963.319458007812 956.670288085938 950.357727050781 943.205932617188 948.132629394531 951.482482910156 951.104125976562 959.217346191406 954.156921386719 959.925659179688 952.731079101562 957.209106445312 960.704528808594 966.407104492188 961.8994140625 957.361389160156 949.373901367188 944.283935546875 945.872802734375 948.817687988281 952.786193847656 954.43798828125 958.881408691406 958.852294921875 950.381591796875 958.283935546875 955.628967285156 957.853149414062 960.584533691406 960.329956054688 957.684692382812 960.155029296875 966.780578613281 954.639282226562 966.339721679688 955.666076660156 953.927978515625 951.822570800781 959.289672851562 958.942321777344 968.659973144531 972.888916015625 981.607727050781 977.470458984375 982.702087402344 981.003173828125 976.769836425781 969.257507324219 965.294372558594 972.691101074219 971.719482421875 970.507263183594 971.906555175781 965.859130859375 963.127990722656 978.364440917969 980.838317871094 966.179870605469 962.671203613281 975.775268554688 974.997314453125 976.851379394531 971.142700195312 976.359802246094 979.5654296875 985.332458496094 985.758422851562 973.646728515625 972.950073242188 973.296691894531 994.776611328125 992.888061523438 988.358520507812 989.600219726562 984.345764160156 976.830932617188 987.128540039062 981.884765625 987.995788574219 995.157348632812 999.452453613281 1013.06536865234 1016.57879638672 1016.94818115234 1024.59594726562 1035.17626953125 1030.82189941406 1035.69836425781 1025.9423828125 1023.580078125 1026.94494628906 1033.43701171875 1042.58813476562 1043.13000488281 1058.14868164062 1068.98266601562 1082.39965820312 1096.61083984375 1095.56787109375 1095.86889648438 1103.69421386719 1107.96667480469 1108.91052246094 1104.54809570312 1110.5166015625 1108.47778320312 1113.12316894531 1106.32189941406 1106.56066894531 1102.47717285156 1100.91833496094 1112.34741210938 1119.61181640625
962.732299804688 960.992736816406 965.452697753906 969.900329589844 974.430847167969 982.179260253906 977.669006347656 974.963134765625 973.828247070312 972.180480957031 972.801818847656 972.889892578125 976.677429199219 974.179077148438 970.285766601562 968.511779785156 966.453796386719 965.017883300781 970.96337890625 982.287841796875 980.965148925781 975.181701660156 962.542236328125 960.301696777344 959.290466308594 955.292236328125 954.546325683594 957.219604492188 970.669555664062 969.476318359375 961.842346191406 965.368957519531 957.792541503906 960.168640136719 968.687194824219 970.452453613281 974.742553710938 969.133056640625 960.435607910156 954.864501953125 941.446594238281 945.858459472656 954.668395996094 952.129272460938 954.620910644531 959.144348144531 954.152709960938 954.756225585938 956.002868652344 950.946960449219 960.993957519531 958.826049804688 952.7265625 945.363464355469 948.901000976562 954.304748535156 948.350219726562 954.708984375 956.135925292969 952.673156738281 953.606506347656 953.753601074219 952.868530273438 954.2138671875 958.570983886719 956.160949707031 961.954895019531 959.378112792969 964.377990722656 968.224914550781 966.240600585938 967.826171875 965.910034179688 956.6357421875 957.347473144531 951.845520019531 960.087280273438 974.358520507812 977.32177734375 975.513610839844 975.885620117188 975.282104492188 968.208618164062 966.122985839844 972.890991210938 957.786499023438 953.901000976562 967.137634277344 970.048889160156 967.401916503906 963.797546386719 966.511047363281 965.865661621094 970.2666015625 967.75439453125 973.404968261719 971.565368652344 969.567810058594 970.921752929688 975.632751464844 973.539306640625 972.726318359375 989.884887695312 992.958557128906 981.130981445312 977.700134277344 980.372802734375 990.184936523438 985.680969238281 983.483947753906 974.993896484375 973.247192382812 981.870727539062 982.324157714844 981.520141601562 984.947570800781 982.986572265625 992.135375976562 1012.31384277344 1011.76123046875 1012.08197021484 1023.49072265625 1034.16369628906 1034.57958984375 1032.88049316406 1020.67468261719 1021.98168945312 1033.26623535156 1035.05102539062 1044.16223144531 1050.09387207031 1060.63940429688 1074.29443359375 1086.30676269531 1086.17065429688 1101.58837890625 1092.89111328125 1101.84765625 1102.08276367188 1102.79138183594 1098.48815917969 1102.4140625 1099.91430664062 1097.92199707031 1089.22631835938 1098.25891113281 1100.15612792969 1103.39562988281 1101.40490722656 1112.90625
968.401245117188 966.490600585938 968.24755859375 965.533569335938 974.1787109375 975.902038574219 974.758911132812 971.545715332031 967.386169433594 969.892761230469 969.742736816406 969.923767089844 973.313354492188 962.988342285156 966.648376464844 961.71875 961.156433105469 971.445190429688 966.785339355469 975.408203125 978.088195800781 962.992309570312 956.122619628906 956.040100097656 957.735046386719 954.747924804688 952.578796386719 955.362609863281 963.653930664062 965.609985351562 969.113342285156 963.321899414062 961.17578125 955.062561035156 949.904479980469 964.871887207031 963.255249023438 964.206420898438 955.100402832031 949.326721191406 951.399597167969 949.385375976562 948.765441894531 957.447082519531 950.068786621094 948.894958496094 952.979064941406 946.255554199219 951.814636230469 944.016662597656 956.057067871094 955.699951171875 946.201293945312 949.134338378906 955.27001953125 956.229431152344 950.257141113281 955.913208007812 958.160705566406 963.619995117188 955.779113769531 952.528259277344 955.800170898438 954.705932617188 962.876892089844 961.42822265625 958.650451660156 963.069641113281 964.074768066406 971.41845703125 972.991333007812 968.628295898438 966.248840332031 961.920593261719 958.862487792969 959.245971679688 964.302490234375 966.187744140625 973.464111328125 976.640808105469 965.538146972656 963.113159179688 959.323181152344 959.31884765625 964.972106933594 966.492919921875 961.734558105469 970.791259765625 967.895812988281 975.294677734375 969.898681640625 978.318420410156 968.482788085938 965.382995605469 967.835754394531 971.297790527344 978.169189453125 971.918579101562 978.375 976.856567382812 975.171875 972.512512207031 986.589599609375 986.743713378906 984.431945800781 983.181945800781 985.6787109375 987.373291015625 991.68994140625 980.873840332031 985.358459472656 986.966003417969 988.234069824219 984.473754882812 981.335876464844 986.759826660156 990.082702636719 997.202819824219 1007.73168945312 1011.61706542969 1017.85858154297 1022.27362060547 1015.11596679688 1024.08264160156 1022.10864257812 1020.97271728516 1018.90032958984 1021.45465087891 1033.73461914062 1046.03198242188 1048.97253417969 1063.98864746094 1076.91235351562 1084.80822753906 1085.49462890625 1090.86413574219 1084.0283203125 1087.73364257812 1091.48266601562 1081.99548339844 1089.96801757812 1089.58630371094 1084.64184570312 1082.66101074219 1081.47314453125 1082.74694824219 1082.69067382812 1099.01794433594 1096.51062011719 1105.318359375
979.127746582031 974.380065917969 954.798461914062 967.204956054688 972.826599121094 972.164794921875 969.619506835938 967.518859863281 971.921630859375 964.673583984375 976.086364746094 973.657287597656 960.473937988281 959.684631347656 956.982482910156 965.153930664062 951.310974121094 957.382629394531 964.904724121094 967.269592285156 965.711853027344 967.650817871094 961.459289550781 954.328552246094 952.290100097656 951.447570800781 954.720092773438 955.930541992188 964.03271484375 961.389343261719 960.753112792969 965.303649902344 955.149353027344 960.921447753906 958.65625 962.192565917969 956.191162109375 957.42724609375 954.973571777344 950.379943847656 945.642639160156 953.322814941406 954.569702148438 958.872924804688 958.250122070312 946.156799316406 942.04736328125 946.816223144531 942.897766113281 944.657775878906 955.353149414062 948.394348144531 957.552795410156 950.672058105469 955.096313476562 955.486267089844 954.701782226562 946.223693847656 960.617492675781 963.584838867188 960.695922851562 953.905944824219 957.124206542969 955.295166015625 957.619079589844 960.263732910156 961.483459472656 955.988403320312 964.589416503906 967.980834960938 964.497436523438 970.083251953125 963.950439453125 958.664794921875 962.479797363281 961.989013671875 963.84423828125 966.741577148438 971.585327148438 971.774658203125 960.420349121094 967.615478515625 965.92333984375 967.464904785156 961.425659179688 965.216552734375 964.794799804688 969.01123046875 968.958374023438 972.098449707031 972.767639160156 972.069946289062 955.879943847656 957.732666015625 964.506652832031 979.079956054688 977.370178222656 976.873657226562 979.499938964844 979.356140136719 976.079040527344 974.472351074219 975.220031738281 983.55078125 984.302795410156 985.278564453125 985.389892578125 995.929504394531 987.325256347656 992.480590820312 993.994323730469 995.0185546875 996.293762207031 993.299499511719 989.111267089844 986.627014160156 991.122863769531 1003.271484375 1006.33135986328 1012.22418212891 1004.11499023438 1009.34155273438 1012.50024414062 1009.60418701172 1015.12634277344 1011.72521972656 1010.93682861328 1015.53991699219 1023.42486572266 1033.77917480469 1042.6474609375 1060.46606445312 1064.81115722656 1072.64489746094 1079.09338378906 1087.27661132812 1089.44421386719 1086.21362304688 1081.2431640625 1072.3623046875 1072.43371582031 1068.998046875 1068.66577148438 1064.51110839844 1066.357421875 1069.16015625 1077.05688476562 1090.79260253906 1098.84106445312 1091.67822265625
970.325073242188 972.141967773438 960.976684570312 966.996948242188 960.957153320312 970.414184570312 974.232604980469 974.818725585938 964.094665527344 964.95458984375 961.322021484375 962.827880859375 961.68701171875 962.020141601562 963.022583007812 966.439147949219 961.150329589844 956.748229980469 970.364868164062 969.289489746094 963.263549804688 961.153076171875 956.4130859375 947.682922363281 942.463806152344 953.280639648438 945.71728515625 953.253784179688 958.276245117188 960.44091796875 951.895080566406 957.571044921875 953.708679199219 952.813415527344 955.692810058594 961.194580078125 964.901123046875 961.003173828125 956.173034667969 951.40673828125 953.369140625 952.379272460938 958.178588867188 962.862854003906 951.430053710938 941.944763183594 939.585021972656 945.266296386719 954.541625976562 950.166748046875 951.411010742188 951.845886230469 949.761901855469 947.017333984375 956.650512695312 956.447937011719 957.825317382812 958.556030273438 952.986511230469 957.569213867188 953.736694335938 952.098205566406 954.394348144531 962.509033203125 952.904968261719 949.463623046875 959.341125488281 967.26220703125 965.830383300781 967.160705566406 969.057678222656 956.085876464844 964.854064941406 964.86572265625 967.551330566406 969.146606445312 969.999572753906 959.575317382812 963.472900390625 962.456359863281 967.552062988281 968.334350585938 960.226867675781 964.006591796875 960.043823242188 970.228393554688 965.703918457031 962.571594238281 973.138061523438 968.910339355469 977.15576171875 963.891723632812 966.218017578125 955.785217285156 969.218872070312 981.102172851562 989.870422363281 985.524169921875 983.517211914062 985.897827148438 979.852661132812 975.714050292969 983.270751953125 979.309387207031 973.042053222656 977.789367675781 983.350891113281 986.790100097656 990.080139160156 990.529846191406 986.682678222656 991.872863769531 997.19482421875 996.142761230469 1001.42272949219 989.80126953125 999.221496582031 998.637268066406 1005.8857421875 1004.52545166016 992.214050292969 1000.35235595703 1012.78833007812 1007.66198730469 1009.13494873047 1007.93908691406 1002.9375 1009.27093505859 1017.17181396484 1024.42846679688 1042.68957519531 1052.42687988281 1057.31799316406 1069.57739257812 1076.81823730469 1076.31604003906 1078.47875976562 1075.82019042969 1071.49621582031 1061.36193847656 1066.45385742188 1060.03039550781 1054.28112792969 1057.95678710938 1050.82958984375 1062.18176269531 1072.12951660156 1075.95886230469 1079.46862792969 1083.09204101562
952.785522460938 959.529052734375 961.685852050781 959.900512695312 953.073303222656 968.054809570312 972.342407226562 959.163818359375 963.128967285156 969.751098632812 956.970336914062 958.29052734375 953.053039550781 960.990478515625 965.660949707031 966.859497070312 962.824279785156 966.237976074219 960.2041015625 960.179870605469 967.232421875 953.675415039062 953.257751464844 950.099975585938 950.536193847656 943.659545898438 950.393981933594 954.917541503906 948.234924316406 954.133728027344 957.989074707031 957.764099121094 953.267272949219 947.7333984375 953.435424804688 959.39501953125 960.150085449219 950.059875488281 950.341369628906 941.857238769531 950.425170898438 946.495056152344 952.627258300781 961.974304199219 945.316833496094 944.682739257812 945.773498535156 959.158447265625 954.587951660156 952.134887695312 940.113586425781 948.639831542969 949.676635742188 949.387329101562 954.99853515625 952.688110351562 954.819274902344 961.349182128906 961.963439941406 957.259887695312 958.402587890625 947.962341308594 959.1474609375 959.81396484375 951.711364746094 955.667602539062 962.103332519531 969.66552734375 974.776611328125 967.845520019531 970.841491699219 966.577758789062 968.713134765625 974.313720703125 973.486206054688 973.482727050781 975.393920898438 958.77392578125 964.772155761719 968.796752929688 970.154846191406 971.670837402344 967.189453125 963.448608398438 964.341186523438 964.076354980469 962.156372070312 960.45556640625 970.990844726562 968.81884765625 964.812622070312 970.274719238281 972.885498046875 972.398376464844 965.173645019531 973.478332519531 982.204772949219 986.668273925781 991.314575195312 987.314514160156 991.080078125 983.979248046875 983.203063964844 976.358459472656 968.530578613281 970.098266601562 980.982421875 992.162414550781 984.731018066406 990.773315429688 1002.92718505859 998.132629394531 998.620178222656 1001.17877197266 1004.42413330078 997.027160644531 990.579528808594 996.358947753906 997.923278808594 1002.94805908203 995.382019042969 993.927978515625 1006.59509277344 1008.62969970703 1008.640625 1006.21636962891 1008.97711181641 1020.60614013672 1026.61083984375 1028.67272949219 1038.09741210938 1045.12744140625 1053.96008300781 1063.98400878906 1067.2490234375 1065.32421875 1063.4423828125 1062.76745605469 1064.66088867188 1059.46435546875 1058.78698730469 1049.80541992188 1035.47094726562 1038.93493652344 1047.77770996094 1054.45690917969 1054.61975097656 1058.46203613281 1067.603515625 1081.17309570312
965.117797851562 961.39111328125 962.420104980469 955.569885253906 963.490173339844 969.451721191406 966.156982421875 959.416015625 965.291809082031 957.346252441406 962.113830566406 954.991149902344 951.88818359375 952.58154296875 964.567932128906 960.803649902344 956.8720703125 959.068237304688 955.848510742188 953.667724609375 962.67431640625 957.766540527344 953.956604003906 949.219543457031 939.97265625 934.671203613281 940.651062011719 950.192138671875 952.484191894531 960.21728515625 955.760864257812 945.735229492188 950.282287597656 949.09765625 949.410461425781 958.187377929688 948.83544921875 947.60107421875 951.931457519531 932.39111328125 934.691528320312 939.830078125 953.353759765625 960.940002441406 954.453430175781 949.232238769531 959.100952148438 970.466491699219 959.572937011719 953.025573730469 949.368469238281 946.012878417969 945.239990234375 953.032165527344 956.783630371094 963.543151855469 955.270568847656 953.137756347656 966.0966796875 961.8623046875 958.209777832031 958.736083984375 964.942565917969 957.991333007812 959.645690917969 951.437683105469 955.870178222656 961.168701171875 967.558410644531 968.944946289062 962.356140136719 966.684204101562 959.022338867188 965.0302734375 980.971069335938 966.80615234375 962.32421875 972.363830566406 964.353393554688 967.533386230469 966.516235351562 968.609313964844 961.428283691406 969.258239746094 966.379455566406 963.371887207031 956.940307617188 969.580444335938 972.111511230469 977.373107910156 976.658264160156 974.041076660156 971.134887695312 972.501525878906 967.621948242188 967.1474609375 976.764587402344 981.284362792969 984.427185058594 989.156372070312 984.130065917969 988.645080566406 989.64501953125 979.118530273438 974.746826171875 969.759765625 982.687622070312 995.423950195312 1000.63244628906 1001.61077880859 1006.67266845703 1002.75433349609 1000.8427734375 998.11474609375 1003.00646972656 1003.48059082031 991.818725585938 1003.92858886719 1007.03698730469 1004.15258789062 1003.15344238281 997.489196777344 1010.06213378906 1017.44384765625 1015.37896728516 1018.06164550781 1012.86456298828 1027.64636230469 1035.50158691406 1030.15026855469 1039.59582519531 1047.27954101562 1048.48510742188 1059.921875 1059.89172363281 1045.59265136719 1049.19665527344 1050.16577148438 1053.7587890625 1044.94653320312 1050.19885253906 1036.63073730469 1028.25219726562 1023.42236328125 1038.41589355469 1043.11352539062 1050.47900390625 1047.44580078125 1055.93884277344 1068.68212890625
960.850463867188 966.875183105469 960.348327636719 954.590576171875 959.318298339844 974.449951171875 968.645568847656 958.610778808594 955.649597167969 961.426513671875 953.300476074219 953.210815429688 962.401184082031 959.923461914062 956.876647949219 951.827697753906 959.488098144531 961.5029296875 955.826599121094 952.280578613281 953.350891113281 951.08984375 949.837463378906 947.790100097656 938.748352050781 934.208618164062 938.516296386719 947.105590820312 945.257690429688 953.694213867188 946.625183105469 948.397216796875 954.175842285156 956.654724121094 956.497497558594 957.516418457031 949.434875488281 947.172973632812 949.314147949219 941.087585449219 937.60400390625 940.742614746094 945.402099609375 947.859680175781 953.113586425781 959.935546875 967.016357421875 963.220825195312 961.327819824219 954.723083496094 949.947875976562 948.628601074219 955.649047851562 954.031372070312 959.587280273438 958.377014160156 955.646301269531 958.25341796875 969.994201660156 966.748168945312 963.27734375 963.824157714844 961.167236328125 962.805969238281 956.259521484375 958.372863769531 956.276611328125 962.980529785156 961.554077148438 973.186584472656 965.987976074219 964.086791992188 968.304565429688 956.240478515625 976.38623046875 971.137756347656 976.21142578125 969.719421386719 972.271850585938 964.114440917969 959.810424804688 971.45263671875 965.89306640625 977.955993652344 978.257751464844 970.888854980469 971.362365722656 976.754821777344 973.021484375 973.193664550781 966.437133789062 977.6865234375 970.794616699219 961.739135742188 974.682861328125 977.436767578125 972.895690917969 970.218017578125 984.067565917969 988.3740234375 991.250610351562 989.233093261719 983.722045898438 978.584533691406 979.510314941406 976.161376953125 993.156066894531 986.568054199219 994.560546875 1002.35772705078 1005.6455078125 1007.11059570312 1008.21435546875 1002.4306640625 998.427551269531 994.849487304688 1003.91278076172 1006.89141845703 1006.06927490234 1009.25970458984 999.203674316406 999.642944335938 1005.97479248047 1014.87683105469 1015.53839111328 1013.37884521484 1022.34582519531 1032.10168457031 1036.96594238281 1027.02966308594 1044.08532714844 1039.96508789062 1041.26306152344 1043.79333496094 1043.39123535156 1040.33288574219 1046.24169921875 1049.37622070312 1039.72338867188 1042.71740722656 1040.24768066406 1036.53137207031 1029.66687011719 1026.90185546875 1034.70910644531 1045.78063964844 1052.32836914062 1042.32421875 1042.83972167969 1049.73779296875
962.331298828125 964.957397460938 958.838500976562 957.422790527344 967.433532714844 974.656494140625 966.806640625 958.338195800781 959.900695800781 961.127258300781 955.589721679688 959.745910644531 952.011901855469 955.373229980469 951.725708007812 954.856750488281 954.816101074219 959.272338867188 954.75 949.476806640625 946.292724609375 942.095397949219 933.793273925781 932.052490234375 940.992126464844 939.008728027344 937.496826171875 943.027526855469 943.86376953125 947.576782226562 948.711364746094 948.575439453125 952.142578125 960.224304199219 953.552978515625 955.746643066406 953.352111816406 944.316345214844 942.455383300781 942.320251464844 944.396545410156 935.021484375 947.557739257812 960.562561035156 960.806213378906 961.595458984375 960.773254394531 966.814208984375 968.262939453125 954.074157714844 958.273681640625 961.817687988281 955.451843261719 954.880004882812 965.610229492188 965.310852050781 965.06494140625 964.71435546875 965.26025390625 966.127624511719 970.182067871094 962.768615722656 956.129211425781 964.198669433594 954.575073242188 963.929565429688 956.964721679688 957.713562011719 960.342956542969 969.56396484375 962.025085449219 957.299072265625 966.351440429688 967.111267089844 966.065490722656 966.647155761719 971.556945800781 969.655029296875 966.495361328125 969.514404296875 964.275451660156 970.002014160156 966.497131347656 962.600891113281 968.172058105469 975.331298828125 978.316650390625 974.51123046875 972.187316894531 965.26025390625 966.362487792969 974.064880371094 972.818603515625 966.79443359375 967.807373046875 980.781677246094 971.506408691406 984.845886230469 993.083862304688 988.24169921875 995.942810058594 993.004638671875 991.977722167969 985.409484863281 986.486389160156 983.662475585938 987.997985839844 986.698120117188 987.787353515625 992.68017578125 1006.03820800781 1012.78375244141 1006.04022216797 1010.55017089844 1002.12493896484 998.575256347656 1006.33099365234 1003.95135498047 1008.31567382812 1014.10107421875 1021.12048339844 1009.97583007812 1011.3642578125 1022.85424804688 1016.69061279297 1019.35064697266 1022.12548828125 1030.76257324219 1030.70031738281 1030.02990722656 1043.46435546875 1047.77551269531 1045.13745117188 1034.69909667969 1037.88305664062 1040.27258300781 1043.7119140625 1047.99658203125 1034.69201660156 1036.57421875 1028.10424804688 1032.92565917969 1021.99536132812 1019.19818115234 1023.08898925781 1031.30834960938 1042.35852050781 1040.59326171875 1040.62670898438 1042.90930175781
954.794372558594 953.789978027344 951.478576660156 954.313781738281 958.908630371094 960.00927734375 945.659484863281 947.336608886719 950.048645019531 947.245422363281 953.179321289062 949.411926269531 955.154541015625 950.267333984375 948.667724609375 941.712524414062 950.624206542969 949.48095703125 943.454345703125 945.614379882812 937.542114257812 935.986328125 936.664611816406 932.968200683594 941.641052246094 943.643615722656 943.039245605469 942.859252929688 950.088989257812 950.959350585938 955.363037109375 948.412719726562 953.156921386719 953.330261230469 944.800903320312 954.32958984375 949.502502441406 943.153747558594 936.573852539062 936.247253417969 943.560852050781 947.063415527344 961.147216796875 961.836547851562 966.834106445312 960.366638183594 968.240966796875 967.854797363281 961.782348632812 955.650329589844 959.566711425781 964.320068359375 964.945007324219 965.591491699219 966.300476074219 964.377319335938 963.891235351562 962.073547363281 967.814392089844 968.060729980469 964.378601074219 961.488464355469 960.794616699219 964.402709960938 950.876831054688 953.159912109375 958.453796386719 961.54052734375 967.806823730469 970.974731445312 965.368774414062 964.485717773438 970.809814453125 967.124694824219 970.430786132812 968.505615234375 972.39306640625 969.872741699219 965.77490234375 970.036193847656 967.259582519531 966.213806152344 977.635009765625 976.872924804688 968.864196777344 968.819519042969 973.348327636719 977.92578125 974.808044433594 973.639038085938 976.061096191406 977.108093261719 974.967224121094 970.560729980469 971.469909667969 972.161010742188 974.175170898438 983.123229980469 990.146911621094 989.208068847656 1001.10235595703 998.1005859375 983.167541503906 979.778503417969 983.730224609375 986.687194824219 989.621887207031 993.026245117188 992.590881347656 991.886901855469 998.024108886719 1004.38708496094 1014.76678466797 1005.30474853516 996.341247558594 1003.26025390625 1000.09417724609 1008.14721679688 1010.82934570312 1013.91632080078 1020.66687011719 1012.43304443359 1020.17956542969 1030.34289550781 1030.56555175781 1025.97839355469 1020.97497558594 1027.87426757812 1026.64794921875 1034.64770507812 1038.56799316406 1046.50817871094 1045.27124023438 1041.26989746094 1035.28503417969 1036.53356933594 1038.9990234375 1037.5625 1027.02490234375 1020.66870117188 1031.60083007812 1024.49145507812 1025.25354003906 1015.83044433594 1019.51025390625 1018.4638671875 1031.3212890625 1025.32336425781 1025.90600585938 1032.67407226562
952.456848144531 947.226928710938 958.092956542969 954.787231445312 961.816711425781 954.776794433594 948.885437011719 946.953125 945.806640625 947.151428222656 946.665771484375 953.945190429688 954.648864746094 954.553405761719 942.001403808594 942.597229003906 948.970703125 943.906494140625 937.588562011719 943.744384765625 944.665832519531 942.554565429688 936.704895019531 944.296630859375 944.787963867188 950.071472167969 946.860534667969 948.188842773438 942.093383789062 944.956359863281 961.67236328125 956.214477539062 955.978515625 952.429321289062 942.452575683594 946.91455078125 946.151611328125 943.879028320312 937.511413574219 933.911987304688 942.049682617188 951.60302734375 958.724975585938 960.116577148438 964.971496582031 962.554321289062 972.25927734375 970.116271972656 971.149475097656 957.93212890625 962.431884765625 962.404235839844 966.462097167969 972.423461914062 970.065612792969 963.882751464844 965.821411132812 960.859924316406 967.843322753906 960.589416503906 961.403503417969 962.217163085938 960.459289550781 953.437805175781 955.12158203125 953.798645019531 956.16162109375 966.674560546875 971.609191894531 976.461730957031 974.82568359375 973.844665527344 978.643188476562 976.606384277344 974.009887695312 975.084838867188 977.705993652344 976.617858886719 964.80419921875 963.352844238281 963.494445800781 970.626525878906 978.634094238281 974.60693359375 972.093811035156 972.411499023438 972.676452636719 971.126403808594 977.733947753906 977.798767089844 976.60107421875 978.012512207031 977.663757324219 979.857604980469 976.306335449219 973.135925292969 974.384582519531 974.423522949219 987.668640136719 994.763305664062 995.229858398438 995.606811523438 982.535888671875 988.520141601562 987.887390136719 995.438537597656 1000 1002.42901611328 1006.96923828125 998.129211425781 1010.05096435547 1015.73229980469 1019.32885742188 1012.2939453125 1008.56066894531 1004.68084716797 1006.52197265625 1018.23748779297 1020.427734375 1019.25115966797 1024.1552734375 1024.89660644531 1027.51379394531 1025.67321777344 1032.23156738281 1021.60882568359 1015.43408203125 1027.17431640625 1037.00463867188 1041.10986328125 1045.4375 1047.16906738281 1044.60144042969 1043.45678710938 1037.201171875 1046.9912109375 1040.27392578125 1031.84790039062 1022.68762207031 1021.53997802734 1028.01965332031 1028.34094238281 1023.34643554688 1018.24676513672 1010.08215332031 1015.85913085938 1020.32263183594 1021.32171630859 1014.20086669922 1018.71044921875
959.210083007812 956.668701171875 957.16650390625 965.012145996094 964.218505859375 956.610534667969 959.931274414062 951.963073730469 948.062377929688 946.336547851562 946.161682128906 952.601806640625 942.733520507812 945.733276367188 936.88037109375 944.562438964844 941.289428710938 942.339477539062 938.332946777344 935.000671386719 941.94921875 951.359008789062 956.9267578125 962.708557128906 948.009155273438 946.774108886719 950.210205078125 950.424987792969 942.037780761719 943.746215820312 957.058349609375 957.331726074219 944.509216308594 946.309509277344 946.070434570312 950.788940429688 948.949462890625 944.601928710938 935.365173339844 941.345886230469 951.7890625 959.29296875 958.051940917969 972.982055664062 965.599426269531 967.695373535156 973.602905273438 969.008605957031 965.612915039062 962.191345214844 963.568908691406 967.403564453125 970.535400390625 973.398803710938 967.775634765625 967.822082519531 971.030212402344 963.742309570312 965.3076171875 977.077758789062 967.794799804688 971.453430175781 961.283813476562 957.617736816406 956.433898925781 956.411437988281 958.536499023438 967.733459472656 971.120178222656 969.53466796875 971.405639648438 971.707641601562 978.458740234375 986.607055664062 977.346923828125 970.053588867188 974.009643554688 985.10205078125 976.505798339844 974.788696289062 967.1748046875 963.90771484375 965.903991699219 974.879333496094 976.109008789062 973.790771484375 975.884338378906 977.655883789062 985.07421875 988.574340820312 977.015625 976.564636230469 981.555725097656 976.01025390625 975.331604003906 976.145263671875 978.978881835938 982.358520507812 991.701782226562 993.934997558594 991.310180664062 991.760437011719 988.77099609375 989.217651367188 994.357727050781 993.768615722656 995.371459960938 998.428466796875 999.057739257812 1005.22052001953 1014.21466064453 1018.4130859375 1015.81909179688 1018.57244873047 1010.08331298828 1012.05285644531 1021.18121337891 1020.04779052734 1028.75903320312 1023.96636962891 1033.74621582031 1035.71752929688 1036.32702636719 1025.84057617188 1027.71520996094 1019.28344726562 1019.47796630859 1029.89489746094 1042.32397460938 1044.02770996094 1048.69689941406 1045.39306640625 1034.13452148438 1035.669921875 1031.5224609375 1041.13671875 1032.38537597656 1030.11242675781 1035.39074707031 1024.78979492188 1028.94677734375 1026.58703613281 1028.3740234375 1016.70648193359 1010.67962646484 1014.98254394531 1020.34234619141 1012.06274414062 1007.04626464844 1018.75311279297
962.257568359375 961.602844238281 962.635070800781 958.180297851562 963.863952636719 953.172180175781 951.149475097656 949.982116699219 944.056945800781 941.268920898438 936.721557617188 941.302917480469 939.895812988281 944.228332519531 949.128723144531 954.348083496094 947.860046386719 943.322387695312 946.089416503906 944.421081542969 943.235290527344 953.455078125 965.649291992188 968.772094726562 965.227722167969 962.798706054688 958.952209472656 953.647094726562 954.329040527344 941.915893554688 946.72607421875 955.473388671875 944.926818847656 951.264587402344 943.250427246094 943.023193359375 942.680603027344 943.111145019531 948.1708984375 950.020385742188 955.722595214844 954.561767578125 969.601379394531 970.065002441406 977.781433105469 972.805786132812 973.697631835938 965.338439941406 963.808776855469 963.789123535156 961.077026367188 964.403930664062 971.813415527344 976.656555175781 971.503845214844 968.404113769531 965.750915527344 965.481689453125 973.230773925781 975.565673828125 967.516723632812 965.176818847656 962.965698242188 959.815246582031 963.39794921875 958.840454101562 968.739501953125 962.942565917969 968.168701171875 975.884155273438 975.578796386719 973.840148925781 981.638366699219 986.579833984375 975.870788574219 977.074890136719 974.369140625 983.229553222656 980.241760253906 979.105224609375 969.423706054688 959.518188476562 957.666809082031 968.661560058594 976.010498046875 974.800048828125 975.61572265625 984.274291992188 983.98486328125 984.7294921875 967.728881835938 972.876525878906 976.521545410156 986.027221679688 985.261535644531 984.05078125 982.834106445312 984.150329589844 986.513793945312 991.704223632812 991.955688476562 991.490173339844 988.04052734375 993.240783691406 992.288269042969 995.538635253906 995.403137207031 992.319213867188 997.454895019531 1011.94482421875 1018.20416259766 1027.50915527344 1013.18872070312 1020.54956054688 1022.97064208984 1023.81097412109 1023.22711181641 1030.63366699219 1031.95532226562 1034.95764160156 1027.13317871094 1038.34033203125 1033.68200683594 1029.21459960938 1029.00561523438 1021.45037841797 1020.32214355469 1026.17541503906 1043.02648925781 1049.92626953125 1056.27954101562 1042.0419921875 1028.66149902344 1023.05487060547 1030.39697265625 1026.8779296875 1022.05603027344 1024.419921875 1031.39038085938 1026.19482421875 1025.26525878906 1015.37451171875 1022.71832275391 1017.87658691406 1013.65802001953 1019.52850341797 1023.33581542969 1014.08361816406 1015.08032226562 1017.78778076172
960.41015625 958.055297851562 964.727844238281 953.94482421875 957.51953125 951.71435546875 951.406677246094 946.387451171875 945.070739746094 940.19775390625 938.873901367188 933.123229980469 938.727844238281 942.573974609375 952.231994628906 949.254333496094 948.133361816406 953.550170898438 940.057800292969 946.491271972656 957.144165039062 970.34912109375 963.133605957031 970.070861816406 961.665893554688 965.653076171875 958.954772949219 948.747619628906 945.647766113281 938.374755859375 943.699584960938 943.176147460938 943.713134765625 953.133544921875 945.455993652344 946.168090820312 944.714233398438 948.668823242188 949.185485839844 955.291442871094 960.811889648438 958.123901367188 965.615966796875 967.776245117188 975.984802246094 978.11962890625 978.128601074219 971.120056152344 971.655212402344 968.115600585938 967.480590820312 967.335632324219 974.272521972656 976.005554199219 979.295776367188 979.905090332031 966.424377441406 971.425598144531 972.347900390625 967.626953125 960.868957519531 966.498046875 969.791198730469 964.001708984375 971.773681640625 969.275512695312 967.99560546875 964.043823242188 971.313171386719 972.627746582031 979.017333984375 978.716918945312 986.505249023438 984.937255859375 980.639526367188 976.599914550781 970.31640625 977.078979492188 968.623046875 976.256896972656 963.3701171875 965.775329589844 959.978881835938 971.661376953125 985.12109375 984.996459960938 981.235229492188 986.395080566406 976.969055175781 971.788818359375 968.068481445312 974.182189941406 978.704223632812 994.654418945312 985.1689453125 982.041320800781 984.459228515625 990.413879394531 997.068420410156 992.294738769531 993.47314453125 992.669616699219 1001.72534179688 996.002197265625 994.574279785156 995.269470214844 996.395935058594 995.816040039062 999.662414550781 1007.99530029297 1015.69494628906 1014.83087158203 1019.09912109375 1026.83532714844 1027.01257324219 1024.21228027344 1029.44458007812 1040.72998046875 1046.04272460938 1044.67663574219 1042.82214355469 1044.5244140625 1043.74853515625 1035.97705078125 1028.47448730469 1023.63775634766 1020.61907958984 1027.4423828125 1037.05969238281 1041.8271484375 1042.55419921875 1032.25451660156 1031.57824707031 1024.49743652344 1022.25451660156 1020.51324462891 1018.52337646484 1026.70153808594 1026.72155761719 1028.89782714844 1029.6435546875 1018.59051513672 1017.94995117188 1019.53558349609 1016.10809326172 1015.85717773438 1013.71618652344 1017.21008300781 1008.34539794922 1013.00054931641
957.38671875 954.112243652344 963.861633300781 951.648803710938 947.489379882812 945.368591308594 944.131896972656 947.984436035156 947.833618164062 940.020812988281 937.990478515625 936.440002441406 942.708618164062 940.012512207031 945.883056640625 953.068542480469 953.83544921875 954.900024414062 953.628967285156 953.811767578125 959.764343261719 979.991516113281 976.211303710938 968.518310546875 972.258666992188 967.980895996094 956.834228515625 949.5859375 944.471313476562 946.156860351562 942.333801269531 941.105895996094 955.652282714844 949.656188964844 952.647277832031 958.237670898438 956.032958984375 954.037780761719 962.226196289062 964.1982421875 962.591125488281 966.88134765625 961.075439453125 962.681030273438 973.199096679688 982.023376464844 986.929077148438 983.235595703125 979.587097167969 985.6796875 980.000305175781 972.848999023438 976.952819824219 977.670104980469 977.190063476562 976.720825195312 974.950439453125 977.352783203125 977.394592285156 971.905029296875 973.744201660156 976.234008789062 974.864685058594 963.677368164062 966.907348632812 974.152038574219 970.35888671875 967.359558105469 973.83935546875 980.35107421875 980.337280273438 986.331726074219 983.6533203125 979.526184082031 982.229797363281 981.645690917969 983.412292480469 972.354614257812 972.55859375 970.14453125 970.278747558594 966.428405761719 968.092712402344 974.561645507812 982.308471679688 986.932800292969 980.140869140625 989.434143066406 987.4931640625 969.384155273438 971.104064941406 972.839599609375 978.150207519531 987.036193847656 992.698791503906 987.359802246094 993.478515625 986.747192382812 988.967163085938 990.237609863281 990.613708496094 996.236633300781 1004.07989501953 995.62890625 999.470581054688 996.500793457031 1000.33575439453 1007.66046142578 1011.96032714844 1008.25268554688 1014.21142578125 1012.86480712891 1016.46850585938 1023.10681152344 1026.45166015625 1031.63757324219 1030.99645996094 1037.83776855469 1047.95544433594 1040.61462402344 1049.35974121094 1038.53442382812 1039.11877441406 1030.81726074219 1027.76196289062 1032.06164550781 1027.34619140625 1028.64624023438 1022.43170166016 1021.00439453125 1036.33215332031 1028.1005859375 1034.86340332031 1025.73669433594 1024.93395996094 1025.24987792969 1020.59429931641 1016.01989746094 1017.96252441406 1017.91821289062 1029.52685546875 1019.95269775391 1013.81024169922 1019.58874511719 1012.35980224609 1007.888671875 1010.21600341797 1006.59753417969 1006.66784667969 1008.15643310547
957.500671386719 948.590087890625 948.784118652344 946.064392089844 946.791687011719 935.9326171875 938.921752929688 944.494018554688 951.061157226562 952.883972167969 950.725341796875 952.954528808594 947.916870117188 936.494506835938 950.312927246094 956.295349121094 960.382873535156 963.114501953125 960.757629394531 962.578186035156 969.973571777344 977.463684082031 979.672668457031 974.867370605469 968.242309570312 964.12646484375 955.772094726562 953.733093261719 957.050537109375 953.209289550781 946.848022460938 950.925109863281 960.325866699219 954.17041015625 957.752197265625 960.341125488281 959.04248046875 963.70556640625 962.579711914062 964.3916015625 972.48095703125 968.981323242188 969.178527832031 966.538940429688 977.767639160156 976.250305175781 987.64794921875 985.136413574219 981.985290527344 986.61767578125 980.96484375 976.415893554688 982.800598144531 981.081665039062 970.741455078125 971.800354003906 973.118347167969 976.629150390625 980.355590820312 975.408752441406 971.4365234375 968.816772460938 978.216613769531 972.728088378906 974.09912109375 974.224670410156 969.56982421875 968.26318359375 976.269775390625 979.664794921875 979.911376953125 985.154296875 983.492797851562 983.707641601562 993.971862792969 983.156799316406 984.3896484375 978.337158203125 978.645202636719 971.160461425781 970.554809570312 968.165588378906 971.324951171875 972.638244628906 978.2431640625 981.299499511719 984.994812011719 984.999572753906 982.368286132812 976.8603515625 965.37646484375 969.618957519531 977.421447753906 985.530212402344 986.096496582031 997.469604492188 990.003356933594 990.25732421875 992.769958496094 992.186462402344 1001.2607421875 1005.25128173828 1014.91479492188 1002.9560546875 998.355285644531 1000.67041015625 1006.65325927734 1001.93200683594 1011.18322753906 1019.03875732422 1016.09588623047 1011.63977050781 1015.70074462891 1021.96502685547 1030.78234863281 1029.33728027344 1036.92712402344 1047.51892089844 1056.39660644531 1051.61987304688 1047.24035644531 1044.53869628906 1037.21960449219 1034.18188476562 1025.21765136719 1027.09631347656 1028.640625 1022.52185058594 1022.14630126953 1012.59588623047 1018.11981201172 1030.13806152344 1029.12976074219 1031.2783203125 1028.4794921875 1025.23291015625 1021.91772460938 1019.265625 1014.94775390625 1014.99670410156 1020.33013916016 1015.54583740234 1021.06665039062 1014.38372802734 1006.0966796875 1002.82073974609 1008.10833740234 1007.52728271484 1003.19750976562 1008.11993408203
948.786071777344 945.307800292969 950.881530761719 949.360412597656 940.649719238281 940.542236328125 938.238220214844 941.69677734375 952.661254882812 953.899536132812 957.911743164062 960.407409667969 949.618469238281 944.505676269531 947.651977539062 963.306213378906 964.001892089844 974.827026367188 972.466674804688 968.766540527344 982.392700195312 982.907348632812 978.202209472656 971.822082519531 974.138000488281 961.9970703125 958.88720703125 954.740905761719 956.159606933594 953.889282226562 955.147644042969 953.160217285156 947.929626464844 952.859252929688 951.249206542969 959.127746582031 969.661926269531 969.766540527344 970.129577636719 970.037841796875 969.122802734375 971.819702148438 973.049133300781 976.4990234375 986.792358398438 987.666198730469 988.612182617188 990.720947265625 991.491455078125 992.572509765625 990.9716796875 986.104125976562 984.134887695312 984.868469238281 963.654602050781 960.809692382812 966.603393554688 971.868835449219 986.841979980469 981.737487792969 971.760620117188 970.863098144531 976.138366699219 969.920166015625 968.765625 963.52294921875 969.913940429688 974.936767578125 978.769775390625 982.605163574219 979.941650390625 975.655700683594 980.579650878906 982.118041992188 987.524230957031 984.596496582031 984.808837890625 990.1259765625 985.294006347656 980.275451660156 969.428039550781 974.157348632812 981.825561523438 977.398864746094 985.073303222656 979.494262695312 985.27978515625 977.635681152344 980.576171875 972.825012207031 972.250671386719 971.221801757812 977.83056640625 988.091552734375 989.788757324219 998.461853027344 995.872131347656 995.602478027344 1003.74542236328 1002.24011230469 1010.77239990234 1002.21374511719 1000.75152587891 1007.23297119141 1001.65759277344 1003.83605957031 1005.42919921875 999.217041015625 1013.60327148438 1019.64837646484 1014.15838623047 1011.39605712891 1015.76397705078 1016.17926025391 1028.68737792969 1031.15966796875 1039.14819335938 1040.44677734375 1047.42651367188 1051.86279296875 1052.06823730469 1047.23742675781 1043.99719238281 1033.69091796875 1038.85974121094 1027.7607421875 1022.08703613281 1022.63665771484 1026.86572265625 1019.83489990234 1017.26245117188 1025.57556152344 1023.18530273438 1014.47125244141 1027.83044433594 1031.25610351562 1033.125 1025.4765625 1018.22198486328 1018.11120605469 1015.88604736328 1006.45007324219 1013.77307128906 1013.58227539062 1010.21429443359 1008.08782958984 1008.48034667969 1001.36676025391 998.527648925781 1001.39508056641
953.349975585938 949.798522949219 946.854431152344 940.290588378906 938.627197265625 930.475830078125 936.27099609375 940.088806152344 943.849182128906 952.460144042969 956.6923828125 960.396545410156 948.888977050781 949.708862304688 953.01220703125 965.008544921875 968.404113769531 976.118469238281 980.304016113281 989.098449707031 987.91748046875 986.631896972656 975.280151367188 978.570678710938 976.875915527344 965.448120117188 963.972290039062 958.68603515625 957.790283203125 955.902526855469 957.284729003906 954.061401367188 952.577941894531 939.838195800781 955.712951660156 954.118041992188 970.586303710938 971.967163085938 967.045288085938 966.508361816406 971.26953125 979.026428222656 980.913696289062 982.535095214844 985.349243164062 995.703063964844 1000.90716552734 995.015625 993.654541015625 992.345825195312 987.568359375 988.749938964844 987.79931640625 992.964172363281 973.084289550781 974.252502441406 980.101440429688 973.525512695312 985.182495117188 974.281616210938 964.957275390625 965.947143554688 966.342651367188 962.364929199219 963.994873046875 964.708618164062 980.605895996094 969.653015136719 970.756103515625 981.170227050781 983.637756347656 978.025817871094 979.264099121094 986.027160644531 986.876586914062 982.250366210938 987.527893066406 992.71630859375 990.646301269531 978.748779296875 974.841125488281 970.175415039062 983.233703613281 989.342163085938 984.736633300781 989.887878417969 986.592651367188 983.195190429688 973.726135253906 965.000854492188 969.075744628906 971.413391113281 982.307800292969 981.383239746094 991.241333007812 1002.57269287109 995.37060546875 1002.92541503906 1014.52978515625 1010.22882080078 1008.41778564453 996.217102050781 993.871887207031 1005.38848876953 1008.25494384766 1003.11224365234 1011.69744873047 1005.70227050781 1016.18212890625 1010.77111816406 1013.73052978516 1013.07751464844 1010.37799072266 1030.10461425781 1028.50439453125 1026.43591308594 1031.56469726562 1037.92956542969 1047.2880859375 1049.29138183594 1045.37744140625 1048.94409179688 1040.49731445312 1042.52026367188 1037.32763671875 1041.13696289062 1014.96630859375 1013.84735107422 1013.6337890625 1021.06439208984 1014.49621582031 1015.79760742188 1010.19885253906 1012.93200683594 1016.05590820312 1021.81866455078 1021.86486816406 1021.33087158203 1024.48229980469 1012.34069824219 1009.18438720703 1007.90173339844 1004.48913574219 1013.33422851562 1005.12652587891 1007.45336914062 1002.70471191406 999.736267089844 996.877746582031 991.870361328125
957.581665039062 953.770263671875 947.082275390625 941.195434570312 935.224975585938 936.967956542969 934.380615234375 938.396728515625 942.931213378906 946.645385742188 950.780578613281 956.923767089844 962.073608398438 958.910522460938 955.652465820312 963.354553222656 964.908203125 978.330078125 986.790588378906 987.037719726562 982.441955566406 980.094909667969 978.066528320312 979.993530273438 975.226440429688 970.265869140625 961.824340820312 958.525390625 970.665832519531 954.490234375 947.555236816406 955.632629394531 949.249938964844 946.322021484375 941.749206542969 959.154846191406 964.908569335938 973.257446289062 970.107788085938 981.001953125 985.12646484375 985.191711425781 990.178649902344 999.986877441406 986.985168457031 988.676452636719 998.934814453125 993.952880859375 998.184936523438 991.078491210938 996.371643066406 992.164916992188 987.011901855469 987.442199707031 989.294189453125 976.326538085938 970.006896972656 977.541809082031 980.051635742188 977.248779296875 960.531311035156 958.182800292969 973.527404785156 966.879943847656 968.82080078125 973.913635253906 980.387145996094 972.800964355469 971.406127929688 982.9521484375 984.877990722656 981.446960449219 981.293029785156 987.837463378906 977.551940917969 981.933410644531 993.331665039062 993.889282226562 987.880798339844 990.109191894531 978.697998046875 975.854919433594 984.598388671875 992.091186523438 989.232177734375 990.28857421875 980.874328613281 974.70654296875 979.478332519531 971.896606445312 972.975341796875 965.376403808594 976.668029785156 983.140991210938 989.753784179688 998.221313476562 1003.23461914062 1003.71746826172 1013.72741699219 1016.94903564453 1008.83062744141 1000.04022216797 1006.98168945312 1011.83880615234 1016.58325195312 1014.81591796875 1012.85510253906 1012.98504638672 1020.20855712891 1017.53002929688 1019.24133300781 1023.37976074219 1017.65899658203 1021.63464355469 1027.39172363281 1031.71411132812 1040.12060546875 1040.296875 1036.51184082031 1041.50671386719 1046.2578125 1039.03247070312 1041.73254394531 1045.45263671875 1044.13781738281 1035.97290039062 1022.00347900391 1011.38671875 1018.21917724609 1013.76232910156 1011.77673339844 1013.94146728516 1013.59210205078 1008.97045898438 1008.89880371094 1016.72052001953 1015.96575927734 1017.42517089844 1011.29296875 1010.28106689453 1004.32678222656 997.342041015625 1003.17224121094 996.467102050781 1002.1025390625 996.958679199219 1004.65545654297 995.456604003906 996.3212890625 992.815063476562
959.245361328125 955.729125976562 941.617858886719 937.030395507812 933.963256835938 938.621887207031 934.084045410156 938.380798339844 933.773010253906 945.069274902344 959.435852050781 967.053466796875 965.251342773438 968.109619140625 965.219665527344 960.776794433594 973.587829589844 980.639709472656 984.2216796875 995.160705566406 991.856079101562 979.686645507812 978.842468261719 985.6259765625 973.515014648438 967.908325195312 963.659484863281 967.093688964844 961.93115234375 959.612487792969 954.154235839844 958.436889648438 957.835571289062 959.852600097656 961.632934570312 955.716613769531 965.11083984375 969.819091796875 973.966918945312 981.840087890625 991.238342285156 994.963806152344 992.210754394531 999.511352539062 1002.16009521484 1006.54571533203 1008.45343017578 1006.35559082031 1001.13696289062 992.869262695312 983.798156738281 994.380187988281 986.636657714844 979.871826171875 989.598083496094 985.500732421875 980.94287109375 980.487609863281 975.731079101562 971.376770019531 969.649230957031 967.113220214844 973.871276855469 969.563720703125 970.542114257812 973.469177246094 986.132934570312 982.129333496094 977.229797363281 985.181762695312 983.048217773438 983.623779296875 983.692138671875 987.413330078125 990.234130859375 986.328979492188 990.917785644531 995.311767578125 989.996826171875 988.843078613281 983.381713867188 978.300170898438 983.79248046875 991.006408691406 990.655212402344 989.661926269531 987.176574707031 984.659423828125 980.042297363281 978.741821289062 976.865478515625 983.634094238281 979.874267578125 992.06689453125 987.303894042969 1006.16265869141 1001.86413574219 1006.21466064453 1005.81597900391 1014.15032958984 1010.70068359375 999.304016113281 1011.07098388672 1010.11059570312 1014.30023193359 1012.18133544922 1017.88165283203 1015.18054199219 1021.41070556641 1022.19403076172 1026.65954589844 1022.79412841797 1014.23767089844 1017.283203125 1020.44512939453 1032.54895019531 1017.74829101562 1021.72601318359 1020.21716308594 1036.85961914062 1040.42956542969 1040.32299804688 1038.92529296875 1043.45288085938 1040.77624511719 1037.02990722656 1023.59851074219 1016.44641113281 1014.92572021484 1012.7294921875 1018.88958740234 1016.71148681641 1006.55456542969 1009.6455078125 1012.34301757812 1011.94476318359 1011.06237792969 1011.68725585938 1011.45910644531 1005.03497314453 997.799865722656 994.253356933594 991.959533691406 996.85302734375 1001.99835205078 1004.63165283203 996.641540527344 992.235717773438 989.100280761719 1000.25463867188
954.356018066406 948.520446777344 939.993469238281 938.157653808594 939.768371582031 933.803649902344 939.515747070312 939.047607421875 934.870849609375 935.791625976562 950.26953125 955.213989257812 961.370666503906 969.369384765625 973.600708007812 971.35595703125 977.597290039062 992.251098632812 991.120056152344 994.800415039062 996.735107421875 993.664306640625 983.125610351562 982.049377441406 975.861145019531 973.256713867188 965.510803222656 965.800354003906 970.96630859375 969.996887207031 967.298950195312 963.098999023438 961.585876464844 963.625671386719 962.523681640625 964.689025878906 968.289306640625 975.332092285156 976.863586425781 987.570556640625 990.813049316406 987.559326171875 992.272827148438 1005.16796875 1008.97882080078 1011.27734375 1014.77209472656 1006.72399902344 995.445251464844 989.244445800781 990.083984375 990.237731933594 984.069152832031 995.829528808594 989.319152832031 992.114135742188 985.257263183594 984.909301757812 980.111083984375 980.520568847656 980.064514160156 969.214233398438 966.202392578125 975.278625488281 975.346923828125 975.183959960938 979.119445800781 991.611022949219 980.851196289062 982.103820800781 983.394958496094 994.14990234375 997.21484375 992.107788085938 993.974548339844 988.244506835938 991.733459472656 990.537841796875 987.848022460938 993.134033203125 987.161254882812 984.543884277344 983.536071777344 990.027282714844 990.991394042969 989.071899414062 987.150939941406 978.269165039062 979.934936523438 985.520751953125 980.603942871094 985.016662597656 984.74560546875 986.463562011719 981.813415527344 993.621887207031 1002.23309326172 1002.52679443359 1006.8095703125 1009.61846923828 1016.5634765625 1013.89343261719 1013.41888427734 1009.87615966797 1004.70727539062 1008.13793945312 1012.94366455078 1021.0234375 1014.17529296875 1020.34533691406 1023.13226318359 1035.6962890625 1022.62896728516 1017.03814697266 1017.63775634766 1020.29705810547 1028.359375 1022.57104492188 1023.11151123047 1030.40563964844 1031.19519042969 1028.99279785156 1036.87109375 1042.37109375 1042.98181152344 1030.34606933594 1022.89459228516 1016.44250488281 1008.34161376953 1010.40142822266 1014.02008056641 1004.79791259766 1002.42065429688 1005.05120849609 1008.97924804688 1014.85491943359 1012.52514648438 1009.62329101562 1010.74591064453 1005.94348144531 1002.23052978516 996.796875 993.592529296875 990.690368652344 989.118469238281 994.134582519531 997.832946777344 999.196228027344 990.91796875 1002.79095458984
955.518432617188 952.566040039062 942.18212890625 934.313171386719 940.321533203125 941.638793945312 957.552124023438 953.5966796875 946.913452148438 952.280883789062 948.544311523438 952.046264648438 965.372436523438 971.142639160156 976.222534179688 980.694091796875 983.273193359375 988.384643554688 992.599487304688 991.050109863281 990.043151855469 986.715881347656 995.1708984375 984.904846191406 978.196838378906 983.945922851562 972.585998535156 972.212646484375 968.900268554688 975.496459960938 963.227478027344 965.893798828125 971.25048828125 964.692565917969 967.736755371094 955.756591796875 973.079956054688 981.345947265625 976.508483886719 985.505065917969 991.642272949219 987.97802734375 995.004638671875 1014.98089599609 1020.6337890625 1019.64434814453 1017.80871582031 1015.75024414062 1008.06048583984 1004.93151855469 997.867980957031 997.314453125 989.396545410156 998.063110351562 984.168212890625 991.625183105469 986.569091796875 984.834045410156 982.52587890625 982.657470703125 983.460998535156 971.270141601562 970.605102539062 972.704833984375 974.529235839844 976.040222167969 983.331237792969 983.256164550781 987.186218261719 987.426818847656 993.992736816406 991.733703613281 997.533264160156 984.8583984375 987.275756835938 997.688415527344 995.181335449219 995.869140625 990.248779296875 1002.89764404297 997.397521972656 992.9765625 985.109313964844 983.673095703125 980.29931640625 989.657897949219 984.911254882812 994.266418457031 987.025817871094 990.558654785156 986.265075683594 986.810546875 985.003540039062 987.765808105469 985.697937011719 989.964050292969 1003.85290527344 997.8671875 1015.30358886719 1010.28723144531 1014.14215087891 1014.19366455078 1012.99774169922 1017.39538574219 1007.21881103516 1000.43048095703 1009.21911621094 1011.48016357422 1013.71453857422 1012.92486572266 1026.0263671875 1034.52282714844 1024.21826171875 1012.91369628906 1015.56219482422 1018.98498535156 1019.345703125 1018.73406982422 1018.58148193359 1020.17077636719 1015.67590332031 1033.94885253906 1037.40600585938 1038.11535644531 1034.35754394531 1020.21954345703 1019.57690429688 1003.66394042969 1007.1787109375 1011.56958007812 1006.08654785156 1000.85736083984 999.568908691406 1006.32800292969 1005.72302246094 1014.96557617188 1016.32177734375 1012.20104980469 996.93212890625 995.869445800781 995.326171875 986.496276855469 994.49853515625 987.994934082031 988.977416992188 988.074035644531 991.415588378906 994.49658203125 995.435546875 1001.96417236328
961.342834472656 947.973571777344 938.108825683594 926.448486328125 934.089904785156 943.090637207031 956.510192871094 957.260192871094 951.604187011719 951.012145996094 947.939514160156 954.781433105469 962.180236816406 977.381408691406 968.694702148438 972.777160644531 981.701538085938 991.957763671875 991.027893066406 991.737976074219 991.524536132812 985.045227050781 994.047119140625 987.662170410156 984.314514160156 987.188171386719 989.946411132812 978.012817382812 963.318969726562 965.977661132812 965.480590820312 975.824768066406 969.843933105469 964.006591796875 966.980773925781 965.93994140625 970.973388671875 988.257080078125 988.725402832031 990.978759765625 988.29052734375 992.381042480469 993.495239257812 1009.66357421875 1010.89135742188 1018.63482666016 1019.23321533203 1020.03033447266 1009.12487792969 1001.88122558594 997.627990722656 993.801147460938 991.8583984375 990.064880371094 982.508239746094 985.97607421875 989.578186035156 987.216552734375 982.2451171875 985.624938964844 983.168762207031 975.497375488281 973.112365722656 976.146362304688 974.549621582031 971.300048828125 967.766662597656 972.536071777344 982.246826171875 988.232177734375 992.037109375 984.60791015625 993.105712890625 985.291748046875 983.733947753906 990.957153320312 988.881103515625 994.747192382812 986.577392578125 993.234313964844 1003.55847167969 1001.05010986328 994.105773925781 997.246887207031 991.454528808594 990.1142578125 1006.05108642578 1000.71185302734 1004.68817138672 986.222839355469 982.252563476562 985.916076660156 991.286376953125 994.570434570312 988.296081542969 993.488403320312 995.239074707031 999.360656738281 1009.75164794922 1005.07720947266 1017.35559082031 1014.24346923828 1006.94903564453 1009.63250732422 1005.22778320312 999.163818359375 1005.38043212891 1007.91839599609 1021.58453369141 1014.9765625 1023.78228759766 1023.20050048828 1023.41967773438 1023.88787841797 1018.20928955078 1016.91094970703 1021.95361328125 1022.99584960938 1015.31256103516 1026.990234375 1019.43676757812 1027.97875976562 1030.20935058594 1025.62292480469 1030.53295898438 1020.83734130859 1013.91864013672 1005.91247558594 1004.90106201172 997.9267578125 996.958312988281 994.504699707031 997.068359375 1005.72613525391 1009.94885253906 1014.36968994141 1015.56823730469 1014.61572265625 998.961730957031 992.553833007812 985.904479980469 979.109313964844 987.401000976562 987.146484375 982.437805175781 989.061706542969 986.192443847656 989.33544921875 1000.14373779297 1003.82641601562
958.054382324219 943.600708007812 933.771728515625 932.4853515625 930.760986328125 939.807250976562 946.411010742188 952.336547851562 952.691650390625 954.881530761719 952.094604492188 949.827392578125 966.92822265625 970.333557128906 971.373046875 981.88427734375 987.204345703125 981.63818359375 983.828491210938 978.473876953125 986.62548828125 991.851745605469 992.530090332031 994.606506347656 990.449829101562 995.214599609375 986.343444824219 983.115234375 976.009460449219 975.977722167969 980.544250488281 982.029174804688 976.20458984375 974.718627929688 974.891235351562 978.397216796875 978.340698242188 987.524169921875 993.081115722656 994.019958496094 992.707702636719 1001.36383056641 1006.85424804688 1005.02673339844 1013.18347167969 1011.52728271484 1012.74554443359 1019.24420166016 1011.88830566406 1012.3671875 1010.78149414062 1000.021484375 993.35498046875 1000.93536376953 991.567810058594 992.844787597656 980.72607421875 980.128601074219 988.145629882812 986.534301757812 983.381225585938 978.532470703125 972.312622070312 969.263977050781 969.288635253906 978.078125 967.278930664062 967.4052734375 977.199645996094 984.210083007812 993.354125976562 995.561279296875 993.747131347656 988.681457519531 980.218566894531 985.466979980469 987.722839355469 995.719604492188 995.207641601562 998.324462890625 1015.72009277344 1017.43267822266 1003.12530517578 993.936462402344 988.657043457031 991.460998535156 998.548828125 1000.2744140625 1000.80364990234 991.840881347656 990.783081054688 991.806884765625 989.838195800781 987.820617675781 992.407043457031 989.784912109375 989.151000976562 997.415649414062 1002.61041259766 1003.87438964844 1001.05017089844 1010.01055908203 1008.96075439453 999.849426269531 1000.68017578125 995.706665039062 998.154052734375 1011.78314208984 1022.61834716797 1023.32592773438 1025.57507324219 1019.96868896484 1025.62524414062 1033.55517578125 1026.16931152344 1025.94348144531 1025.06530761719 1019.80657958984 1024.18823242188 1024.50158691406 1013.86114501953 1019.78436279297 1023.15930175781 1020.64367675781 1027.35363769531 1016.77783203125 1017.45623779297 1009.58605957031 1008.60821533203 996.148193359375 993.537658691406 993.946899414062 1001.52545166016 1004.25970458984 1013.45471191406 1015.75036621094 1015.16790771484 1006.36145019531 1005.142578125 989.547729492188 980.962524414062 977.637817382812 977.8916015625 983.789733886719 990.781555175781 989.320068359375 985.796569824219 986.75341796875 1000.22564697266 1005.73876953125
959.815734863281 946.900207519531 946.100463867188 934.116088867188 932.734375 934.713989257812 937.714172363281 947.185974121094 955.667358398438 959.334838867188 956.312133789062 953.546447753906 969.127197265625 972.963012695312 977.026489257812 978.960327148438 981.539245605469 981.783203125 983.640319824219 991.499084472656 989.04638671875 996.783020019531 998.890991210938 999.163818359375 997.48876953125 990.039978027344 990.207885742188 987.136413574219 981.853332519531 978.318786621094 990.402526855469 978.877319335938 980.005676269531 981.882873535156 986.223876953125 977.822143554688 986.390380859375 986.741943359375 988.440795898438 989.515319824219 991.702575683594 998.34619140625 1006.00427246094 1000.68511962891 1007.22863769531 1011.01422119141 1001.71533203125 1007.58062744141 1008.64440917969 1017.39654541016 1019.71234130859 1006.76898193359 999.836303710938 993.543579101562 996.468017578125 986.711608886719 979.719970703125 978.134155273438 985.528381347656 979.383911132812 982.899169921875 984.024291992188 979.600036621094 977.076782226562 973.152221679688 974.569702148438 971.891967773438 972.547607421875 973.36767578125 979.298278808594 984.581420898438 988.336120605469 995.914794921875 991.341064453125 976.859252929688 983.715759277344 984.247375488281 990.538452148438 1002.83837890625 1002.31323242188 1008.14453125 1011.17797851562 1002.92645263672 1002.86175537109 992.380249023438 989.684753417969 993.037536621094 999.509826660156 998.582763671875 993.393737792969 992.832824707031 986.199340820312 986.021484375 987.891418457031 995.539855957031 994.985961914062 997.418518066406 999.051391601562 998.082824707031 1002.14447021484 1005.74829101562 1007.15228271484 1006.3095703125 1007.18151855469 1001.85424804688 994.262451171875 1005.27807617188 1015.35046386719 1024.19274902344 1028.88427734375 1022.98095703125 1028.87182617188 1020.99530029297 1034.23828125 1041.25463867188 1032.09509277344 1031.47204589844 1038.41577148438 1028.72436523438 1026.279296875 1023.26165771484 1014.8798828125 1016.59289550781 1020.51220703125 1007.17156982422 1005.78405761719 1014.74267578125 1013.71795654297 1004.14703369141 995.470031738281 996.030029296875 992.968688964844 1000.99548339844 1001.69329833984 1010.60461425781 1009.19604492188 1001.46142578125 990.225891113281 996.407043457031 992.086853027344 980.558776855469 969.617370605469 965.188049316406 973.8076171875 982.114135742188 986.648254394531 991.495910644531 991.977111816406 999.607666015625 1008.80145263672
955.622253417969 958.904663085938 949.868835449219 948.368347167969 939.787841796875 943.785278320312 936.970153808594 941.324340820312 946.096252441406 944.505310058594 957.643005371094 958.019409179688 969.275024414062 984.348999023438 978.730773925781 979.05859375 984.770202636719 983.705200195312 982.869262695312 984.534790039062 989.535705566406 990.260070800781 996.422119140625 995.019592285156 994.005676269531 1000.32934570312 991.7490234375 986.593933105469 982.843383789062 980.8447265625 981.991088867188 985.841064453125 979.624877929688 981.708679199219 985.172119140625 987.034240722656 992.022766113281 989.194091796875 985.955810546875 985.362670898438 995.450866699219 996.946655273438 1003.80963134766 992.19970703125 988.119384765625 1000.81726074219 997.921142578125 997.236755371094 1001.03448486328 1012.44244384766 1013.58966064453 1014.00689697266 998.145263671875 992.888610839844 990.342468261719 989.682983398438 988.34619140625 983.085998535156 983.374633789062 977.625610351562 977.6328125 976.315734863281 974.293029785156 980.56689453125 977.622253417969 974.568603515625 977.431030273438 979.931457519531 976.848327636719 982.662475585938 975.661560058594 986.594421386719 998.643188476562 994.472412109375 990.991333007812 985.806640625 991.919067382812 1002.64678955078 1001.85137939453 1005.23046875 1006.93811035156 1006.59515380859 1010.46783447266 1003.56616210938 1002.24938964844 994.175109863281 995.171936035156 998.285949707031 994.995788574219 1001.25311279297 996.371765136719 993.393127441406 997.859191894531 994.640808105469 998.914611816406 1001.01800537109 999.635375976562 1002.62084960938 1005.38366699219 1004.59259033203 1004.04040527344 1006.25866699219 1011.75183105469 1002.82110595703 1005.16650390625 1003.28558349609 1004.79089355469 1012.45147705078 1026.68591308594 1028.89392089844 1023.91192626953 1029.96447753906 1026.13391113281 1031.50158691406 1037.53332519531 1032.52038574219 1038.81384277344 1035.48657226562 1030.08325195312 1032.03259277344 1028.62219238281 1020.13940429688 1026.36657714844 1019.44750976562 1015.05047607422 1015.09613037109 1013.81182861328 1003.10833740234 1009.22277832031 999.044616699219 1000.14770507812 996.281066894531 998.536926269531 1006.57421875 997.854187011719 1001.04095458984 1003.22009277344 995.05419921875 995.60986328125 986.598571777344 981.389221191406 977.49267578125 970.098999023438 980.376403808594 992.325927734375 985.180297851562 994.593933105469 996.930480957031 996.256896972656 999.091125488281
956.909606933594 958.198120117188 950.025817871094 943.475463867188 945.482727050781 938.871948242188 936.479309082031 945.570068359375 945.501220703125 950.277709960938 964.563903808594 963.361022949219 973.12109375 974.696655273438 980.714721679688 980.47802734375 977.569580078125 983.917358398438 978.575073242188 988.460815429688 989.83349609375 989.483154296875 984.2529296875 983.833923339844 993.861206054688 985.694702148438 987.052673339844 982.322143554688 981.613708496094 983.5771484375 980.389343261719 980.118408203125 985.598510742188 981.49658203125 985.867431640625 989.551330566406 994.466247558594 994.103576660156 993.298706054688 990.181945800781 994.880249023438 1001.78973388672 1004.43658447266 1004.52221679688 1000.08514404297 1000.25445556641 996.805969238281 994.865966796875 1005.58166503906 1001.77038574219 1013.30432128906 1008.29864501953 995.918029785156 996.369934082031 986.681030273438 986.598449707031 990.058471679688 991.206665039062 993.402099609375 982.887939453125 981.13427734375 972.046203613281 974.048400878906 974.144348144531 978.20751953125 970.463684082031 976.336120605469 972.707824707031 983.89501953125 984.685302734375 989.102722167969 985.506164550781 987.313842773438 987.985290527344 991.317321777344 983.909240722656 986.146606445312 1006.07305908203 994.984069824219 993.621948242188 998.86962890625 1005.79931640625 1006.66149902344 1012.72802734375 1004.02270507812 1003.09259033203 1004.66046142578 996.970581054688 995.001220703125 994.604675292969 994.903137207031 985.701354980469 995.711303710938 1001.34326171875 1003.18383789062 1004.33575439453 1002.90954589844 1004.61663818359 1006.05841064453 1016.64495849609 1008.1572265625 1007.83679199219 1001.27429199219 1003.30999755859 1002.01910400391 1007.15075683594 1006.68035888672 1016.48767089844 1026.62316894531 1026.44348144531 1023.63635253906 1027.70788574219 1033.31994628906 1029.03002929688 1033.88159179688 1034.53149414062 1041.02185058594 1047.08361816406 1035.27966308594 1030.87524414062 1031.63891601562 1030.34631347656 1025.64306640625 1025.38610839844 1015.89398193359 1006.97430419922 1004.9755859375 1004.02655029297 1001.23370361328 1000.88958740234 995.697875976562 995.352966308594 1003.66253662109 998.162780761719 994.686828613281 997.044250488281 1001.10656738281 991.458374023438 987.748596191406 986.697021484375 977.287048339844 981.432556152344 987.446899414062 990.438659667969 988.534973144531 989.391906738281 987.665100097656 993.517456054688 999.948974609375 1001.69665527344
949.709167480469 951.321716308594 951.738708496094 946.645202636719 951.30859375 945.302185058594 942.840087890625 941.940307617188 942.850463867188 955.291687011719 971.472045898438 968.885803222656 972.052856445312 970.627685546875 975.648498535156 972.050415039062 973.905578613281 976.2529296875 980.316711425781 980.465270996094 988.955993652344 987.428649902344 986.828552246094 988.342895507812 987.588134765625 984.412780761719 979.316833496094 977.948486328125 975.466003417969 978.261291503906 971.99072265625 973.984130859375 979.518432617188 986.345764160156 985.927124023438 988.994201660156 995.754272460938 993.019836425781 986.860778808594 995.164184570312 994.825561523438 993.755004882812 990.565002441406 1005.63879394531 1003.03070068359 999.313049316406 990.521423339844 984.414306640625 1000.46704101562 1010.39990234375 1005.56304931641 1008.95819091797 1013.23931884766 996.701965332031 991.72216796875 981.891967773438 997.056762695312 994.635986328125 988.9697265625 986.279113769531 979.491455078125 973.658630371094 973.010375976562 977.566223144531 973.795166015625 973.370971679688 977.18408203125 978.279602050781 980.607482910156 982.460266113281 984.078674316406 981.106262207031 987.635620117188 990.155212402344 994.080688476562 989.027954101562 985.203552246094 987.391052246094 992.45361328125 990.523559570312 998.521301269531 1005.09912109375 1009.05706787109 1011.05413818359 1003.96545410156 1008.07098388672 996.564697265625 999.960266113281 1000.39532470703 992.36865234375 994.065063476562 995.793640136719 997.863342285156 1007.3212890625 1001.06970214844 995.949768066406 1001.78082275391 1000.79614257812 1009.29077148438 1015.54730224609 1009.58862304688 1006.92950439453 1002.6015625 995.231811523438 1002.69262695312 1006.06811523438 1009.42687988281 1017.77770996094 1026.00695800781 1023.06213378906 1029.42980957031 1027.82470703125 1038.43176269531 1036.03833007812 1034.85034179688 1040.89453125 1046.44506835938 1039.21606445312 1043.68249511719 1043.29943847656 1034.43298339844 1035.71728515625 1032.91430664062 1021.19836425781 1009.44488525391 996.50146484375 992.920166015625 996.657043457031 997.347351074219 1000.63922119141 1010.67065429688 1006.08880615234 1001.77923583984 997.550170898438 1001.97540283203 992.065673828125 995.809509277344 984.408569335938 988.669799804688 984.776916503906 979.756958007812 978.878051757812 980.017944335938 976.537414550781 979.122497558594 977.31298828125 994.913879394531 998.076721191406 1000.62573242188 1000.25091552734
949.966918945312 940.788757324219 941.104431152344 942.78759765625 948.689880371094 948.051879882812 936.9326171875 930.776916503906 943.156677246094 951.124267578125 962.590454101562 968.019470214844 963.043151855469 970.991577148438 972.466918945312 978.358276367188 979.127502441406 975.749206542969 976.937255859375 972.398864746094 978.125671386719 982.541564941406 982.453918457031 981.248474121094 986.330139160156 968.712768554688 966.772216796875 974.678588867188 967.813659667969 977.135437011719 980.476135253906 985.238525390625 978.894348144531 982.783569335938 982.170776367188 988.932067871094 990.9765625 981.929992675781 989.391052246094 993.331970214844 986.345153808594 994.24560546875 988.529296875 994.228759765625 1004.85791015625 1005.64819335938 1000.11700439453 992.778686523438 998.675231933594 1006.72399902344 1012.72882080078 1011.55072021484 1007.0712890625 998.960510253906 982.393737792969 988.296691894531 997.790344238281 989.252563476562 982.486206054688 979.39453125 977.528198242188 970.318969726562 975.857788085938 981.731689453125 973.874572753906 975.489868164062 974.8828125 980.60693359375 978.182312011719 981.736450195312 987.730529785156 985.348388671875 986.075927734375 988.548828125 993.442687988281 986.856201171875 991.623657226562 978.597778320312 987.192993164062 981.483642578125 1004.15325927734 998.308166503906 1008.64288330078 1005.64593505859 1008.48699951172 1011.71667480469 999.873474121094 998.348815917969 1003.66815185547 1000.48767089844 998.722534179688 997.633178710938 995.948059082031 991.751708984375 994.053588867188 997.078247070312 999.475158691406 1003.54162597656 1003.19696044922 1010.47735595703 1006.71783447266 995.901306152344 1001.29516601562 1001.97143554688 1011.27203369141 1013.97747802734 1015.25610351562 1024.00073242188 1025.39624023438 1030.29296875 1031.06005859375 1035.06201171875 1048.04345703125 1038.62084960938 1046.02062988281 1049.0146484375 1039.6328125 1029.35876464844 1037.96960449219 1042.26159667969 1038.78759765625 1030.00378417969 1023.52911376953 1012.53839111328 997.479675292969 990.755187988281 983.696838378906 992.634704589844 994.792602539062 995.552734375 1004.32946777344 1012.85504150391 1001.96813964844 1006.22735595703 996.793579101562 995.118713378906 985.926940917969 985.62353515625 990.074340820312 979.167297363281 979.322998046875 977.809814453125 977.165649414062 970.417785644531 974.582885742188 977.351928710938 984.984375 990.712219238281 1006.47747802734 1010.68670654297
944.937377929688 944.308471679688 937.348937988281 942.224060058594 935.738830566406 945.511474609375 943.695190429688 941.346313476562 940.97802734375 952.247497558594 959.238037109375 962.098327636719 964.806518554688 958.463439941406 959.890075683594 965.968200683594 963.425720214844 964.726684570312 967.205383300781 964.158142089844 964.653259277344 973.048278808594 966.977478027344 966.138671875 975.874694824219 966.261901855469 963.972839355469 970.477294921875 965.183837890625 965.633666992188 967.613586425781 976.459228515625 977.405029296875 968.503295898438 985.9580078125 980.625793457031 983.454772949219 988.9140625 977.583129882812 979.623657226562 984.717346191406 989.888854980469 988.580017089844 995.148376464844 1001.29272460938 1002.87719726562 1001.19854736328 995.353393554688 998.754516601562 1002.44104003906 1016.27368164062 1013.68859863281 997.943359375 999.210693359375 982.958251953125 990.792663574219 997.227661132812 988.616271972656 988.1337890625 985.643432617188 978.284545898438 986.423400878906 976.247680664062 981.726196289062 980.920776367188 978.471435546875 980.309448242188 985.375305175781 988.223754882812 984.078796386719 990.603088378906 988.406494140625 985.570373535156 989.028625488281 982.589416503906 987.089477539062 978.49462890625 984.470397949219 990.187377929688 995.879211425781 999.232116699219 993.701477050781 999.73876953125 1003.66333007812 1006.80895996094 1003.42468261719 1001.79223632812 994.599609375 997.114562988281 995.665405273438 996.263671875 994.878601074219 997.3828125 996.229797363281 996.349487304688 997.894897460938 1000.62536621094 1002.15887451172 1008.60736083984 1012.50061035156 994.764465332031 997.975341796875 1000.70300292969 1007.1513671875 1009.29864501953 1016.80023193359 1022.02325439453 1029.78515625 1024.10083007812 1031.24108886719 1029.78601074219 1047.30944824219 1058.22668457031 1050.81750488281 1053.37133789062 1053.33178710938 1041.30993652344 1034.7021484375 1029.89929199219 1040.37329101562 1037.83349609375 1022.74597167969 1018.91387939453 1011.35906982422 987.317077636719 976.479248046875 982.300842285156 977.354797363281 984.931884765625 989.68603515625 989.726806640625 995.785217285156 998.139587402344 997.297546386719 991.358032226562 993.968505859375 985.94970703125 975.167236328125 985.788269042969 980.493041992188 972.580810546875 978.746154785156 971.450927734375 967.990234375 971.621826171875 976.570617675781 981.906433105469 980.700988769531 995.733947753906 1002.26287841797
939.820617675781 953.338500976562 937.847839355469 933.641662597656 934.257751464844 936.154113769531 942.358215332031 938.286254882812 933.265258789062 951.425048828125 948.593078613281 956.101928710938 956.8623046875 957.651977539062 955.532836914062 966.167236328125 962.604797363281 965.294982910156 962.578308105469 961.722106933594 951.231628417969 952.244140625 957.465698242188 962.283264160156 965.78271484375 967.382873535156 969.068115234375 965.62353515625 955.555480957031 961.244262695312 960.623718261719 964.556274414062 967.200500488281 972.739318847656 985.705932617188 990.425048828125 982.238525390625 978.869201660156 978.768005371094 974.819885253906 979.985107421875 982.804260253906 990.287658691406 987.446411132812 983.585083007812 986.640930175781 996.453979492188 997.744384765625 1006.404296875 1000.4111328125 1003.48107910156 1003.52960205078 999.4130859375 994.859008789062 994.328247070312 993.511657714844 999.331787109375 990.347351074219 983.816772460938 978.802307128906 976.607849121094 983.541198730469 990.505554199219 987.752563476562 977.864990234375 978.246826171875 983.391174316406 981.0478515625 980.692199707031 985.409729003906 983.86767578125 988.459594726562 991.5634765625 987.662902832031 987.61083984375 989.511596679688 981.001831054688 981.468322753906 993.885131835938 992.98291015625 1000.93823242188 999.01904296875 1001.84002685547 999.468627929688 1005.19738769531 1009.54656982422 998.086364746094 990.857177734375 998.062255859375 999.759887695312 1006.40100097656 1001.19311523438 999.413635253906 992.908508300781 1000.51092529297 1001.54290771484 1006.3955078125 1004.47509765625 1018.10272216797 1011.9248046875 1011.51263427734 1009.19360351562 1007.68621826172 1005.21954345703 1006.71405029297 1019.26043701172 1027.10217285156 1034.99926757812 1035.70922851562 1027.84387207031 1034.42700195312 1036.43994140625 1049.04370117188 1052.20959472656 1053.06188964844 1053.18872070312 1038.98449707031 1039.71240234375 1043.44958496094 1040.78833007812 1045.22338867188 1033.21130371094 1008.72595214844 998.032958984375 989.03759765625 974.0927734375 972.863159179688 975.579467773438 982.497436523438 981.19580078125 988.273681640625 993.812866210938 990.738708496094 992.810791015625 989.136901855469 991.009033203125 984.643981933594 975.420227050781 980.977844238281 983.562683105469 975.394592285156 972.123291015625 971.068603515625 972.218505859375 974.919860839844 975.021423339844 978.750427246094 979.337158203125 985.319702148438 979.890319824219
954.801086425781 947.179016113281 943.395263671875 948.997619628906 936.625122070312 937.223693847656 945.639526367188 943.789428710938 933.481018066406 938.105773925781 943.608520507812 947.658630371094 948.798095703125 953.882507324219 953.239624023438 952.049194335938 958.919067382812 959.832275390625 963.88623046875 953.967407226562 950.714660644531 954.652526855469 955.205322265625 965.523559570312 965.083374023438 961.651489257812 965.565063476562 961.020935058594 955.494750976562 959.856140136719 963.12451171875 963.313110351562 964.98681640625 976.048828125 980.400451660156 975.070373535156 981.89208984375 989.762939453125 983.194702148438 978.405639648438 974.342163085938 980.013793945312 988.946716308594 980.398071289062 984.27734375 981.8095703125 996.464050292969 996.260192871094 999.969543457031 1005.02685546875 996.278503417969 1001.24810791016 1006.57952880859 1002.95227050781 994.082214355469 991.544494628906 992.727844238281 992.957092285156 981.342407226562 984.626770019531 994.58837890625 982.205017089844 985.961303710938 978.7041015625 984.383544921875 985.170227050781 986.383605957031 991.25 993.304504394531 994.136413574219 987.365478515625 996.689331054688 997.194580078125 987.873229980469 993.577514648438 994.492309570312 986.761657714844 990.1484375 989.851684570312 995.008850097656 997.661193847656 1002.52038574219 997.023193359375 1000.06646728516 1006.08209228516 1013.12487792969 994.944763183594 1009.24560546875 998.216552734375 1009.75457763672 1000.15930175781 991.535461425781 1001.40667724609 1003.17364501953 1005.97491455078 1009.78271484375 1011.11267089844 1015.71020507812 1018.71405029297 1018.21661376953 1017.46514892578 1017.54559326172 1020.03430175781 1018.42150878906 1019.65087890625 1018.72454833984 1026.54260253906 1036.03979492188 1033.60693359375 1036.25366210938 1034.22741699219 1045.28662109375 1052.794921875 1048.76440429688 1049.53857421875 1051.87646484375 1043.9423828125 1043.11328125 1047.36096191406 1044.90649414062 1031.39855957031 1029.09777832031 1008.45385742188 995.523681640625 982.115051269531 978.028564453125 976.982788085938 975.416137695312 980.479370117188 978.195129394531 978.478576660156 982.532531738281 985.405639648438 984.802795410156 995.424926757812 985.588012695312 980.200927734375 986.876220703125 983.728637695312 978.438171386719 977.028930664062 974.195922851562 977.604248046875 973.544921875 964.607604980469 962.80126953125 974.276245117188 981.972717285156 980.881225585938 978.463500976562
957.545104980469 962.103698730469 955.181518554688 953.914733886719 937.840087890625 935.317993164062 943.870727539062 937.515563964844 939.482299804688 948.351318359375 949.51171875 951.676086425781 949.1142578125 962.7060546875 958.666564941406 951.396301269531 953.828125 959.919921875 961.595642089844 955.817749023438 957.893737792969 953.726928710938 958.463562011719 954.5927734375 958.732727050781 958.220947265625 957.840454101562 955.127746582031 951.166320800781 963.001770019531 964.406066894531 970.3564453125 968.696960449219 970.331909179688 974.444091796875 979.875244140625 981.806274414062 973.599670410156 979.574340820312 976.55908203125 978.737365722656 979.451049804688 978.562561035156 979.4052734375 987.189758300781 990.190795898438 991.922546386719 993.30126953125 989.66943359375 996.622375488281 994.7197265625 1000.00207519531 1008.28356933594 1004.04302978516 1000.54602050781 991.67041015625 986.285339355469 989.846618652344 990.93408203125 988.434997558594 987.643920898438 994.292724609375 996.825744628906 990.736450195312 992.6962890625 986.911315917969 992.896484375 986.347473144531 989.3759765625 995.800598144531 1000.41864013672 997.759826660156 987.426330566406 983.667175292969 992.900939941406 994.2041015625 993.437133789062 993.799377441406 992.30908203125 991.536926269531 999.238342285156 996.8154296875 993.668640136719 1005.44903564453 1005.07531738281 1010.91009521484 1003.43127441406 1015.94757080078 1006.71820068359 1004.63989257812 996.457275390625 995.562805175781 995.5107421875 998.174499511719 1008.00469970703 1007.05120849609 1000.79052734375 1007.70715332031 1017.06060791016 1019.28704833984 1016.21942138672 1026.68994140625 1019.22717285156 1019.25213623047 1015.68408203125 1017.22882080078 1026.92761230469 1040.98388671875 1042.57434082031 1047.02624511719 1047.56665039062 1045.03442382812 1054.06982421875 1051.21533203125 1060.19091796875 1056.22399902344 1048.92236328125 1044.78234863281 1047.80786132812 1047.40087890625 1038.69458007812 1023.19140625 1013.01623535156 1005.5341796875 997.432373046875 985.385498046875 975.541137695312 981.250732421875 977.429931640625 976.203918457031 975.854614257812 975.808044433594 982.939453125 986.819519042969 985.921752929688 983.60107421875 990.929931640625 989.636535644531 988.951904296875 978.11279296875 978.305541992188 973.146545410156 982.974365234375 966.352172851562 968.581665039062 972.255737304688 967.452758789062 977.112365722656 972.722717285156 978.028381347656
955.998352050781 958.258361816406 960.971130371094 954.921142578125 949.56103515625 942.176696777344 939.736328125 942.648254394531 939.2099609375 943.555480957031 943.911682128906 942.516357421875 956.677673339844 958.916076660156 955.840148925781 952.66259765625 958.195068359375 955.812377929688 955.766174316406 962.557312011719 957.779541015625 959.024536132812 953.960998535156 958.500549316406 957.777465820312 964.397338867188 953.231201171875 950.621154785156 957.602844238281 955.259399414062 960.624145507812 964.404968261719 966.648315429688 970.871276855469 966.476684570312 973.613586425781 969.1025390625 965.444946289062 972.384338378906 970.046508789062 975.641052246094 980.499267578125 979.831665039062 979.1103515625 987.309448242188 986.400268554688 993.269409179688 986.739807128906 991.230529785156 999.424682617188 998.79638671875 998.277404785156 1006.81311035156 998.867004394531 995.155822753906 992.565734863281 986.065856933594 997.620361328125 998.673889160156 1001.68072509766 987.500305175781 992.143798828125 993.452880859375 999.897888183594 987.772399902344 986.257141113281 992.302612304688 996.970458984375 993.500915527344 994.852111816406 992.18310546875 993.076171875 988.547607421875 990.975646972656 989.824768066406 995.128234863281 989.225891113281 994.86328125 996.767883300781 987.197326660156 991.999755859375 991.287109375 994.385314941406 1004.65747070312 1005.66253662109 1006.01403808594 1016.86157226562 1009.60375976562 1009.24359130859 1002.25726318359 993.594299316406 991.733581542969 993.769592285156 996.1796875 996.370788574219 1003.51361083984 1000.59600830078 1005.34606933594 1017.91467285156 1017.38671875 1027.29235839844 1025.54333496094 1029.03186035156 1021.32678222656 1022.31219482422 1021.64495849609 1036.40417480469 1051.91638183594 1047.89990234375 1044.73803710938 1056.95104980469 1045.65258789062 1048.90551757812 1054.17700195312 1058.88366699219 1059.62841796875 1059.58850097656 1045.80651855469 1047.3076171875 1040.13610839844 1032.65051269531 1029.86413574219 1019.85461425781 1014.83032226562 1005.41717529297 1000.38989257812 987.010681152344 983.028747558594 976.666076660156 985.673767089844 980.505859375 982.933532714844 973.871337890625 987.007446289062 986.132995605469 992.240539550781 988.330444335938 986.784545898438 981.600036621094 974.981750488281 973.144897460938 971.672058105469 966.959777832031 965.45166015625 976.108642578125 973.47509765625 972.621398925781 973.895935058594 976.817565917969 976.891479492188
958.741760253906 955.583251953125 954.571960449219 955.959045410156 948.391235351562 951.680358886719 951.463134765625 948.51513671875 949.959594726562 951.094055175781 941.816589355469 947.385864257812 948.421203613281 953.0478515625 952.778381347656 949.369873046875 953.888244628906 959.131958007812 960.718383789062 965.325805664062 964.204711914062 955.006286621094 961.810729980469 965.154724121094 965.230102539062 958.449768066406 960.347106933594 961.143859863281 962.583068847656 952.917724609375 958.002197265625 963.420043945312 971.163330078125 969.339904785156 972.978454589844 967.620361328125 969.997619628906 968.310119628906 964.825744628906 963.743469238281 966.277038574219 977.371337890625 979.3525390625 979.003051757812 979.233032226562 993.828125 989.207641601562 983.669799804688 988.819946289062 992.982727050781 998.569030761719 999.444091796875 996.461181640625 991.399536132812 989.090637207031 995.268981933594 998.68359375 999.620971679688 1003.20922851562 1006.55450439453 989.136352539062 991.617309570312 991.744323730469 992.091735839844 990.457397460938 988.668151855469 994.875183105469 993.791748046875 997.119689941406 990.146545410156 992.30810546875 996.636840820312 986.260192871094 984.631225585938 989.771606445312 996.728088378906 991.6904296875 989.3505859375 994.287536621094 995.847900390625 976.973266601562 990.186096191406 996.707641601562 999.051818847656 1003.85711669922 1009.82818603516 1008.78540039062 1009.67297363281 1009.91546630859 1008.24169921875 1007.34893798828 997.984191894531 990.924438476562 999.688110351562 1004.87530517578 1001.72399902344 1003.98645019531 1016.27795410156 1017.65637207031 1016.92510986328 1026.02062988281 1026.42126464844 1028.70092773438 1026.59838867188 1031.77490234375 1032.73815917969 1033.52233886719 1051.09692382812 1046.77941894531 1049.71520996094 1056.07568359375 1063.84948730469 1066.47265625 1064.24230957031 1063.6455078125 1063.43969726562 1055.87475585938 1052.39038085938 1052.39306640625 1048.5419921875 1043.80334472656 1036.41357421875 1026.08337402344 1014.74365234375 1017.23132324219 1015.83557128906 1003.00604248047 996.429992675781 997.271606445312 990.501647949219 990.559204101562 984.187194824219 982.777648925781 988.262573242188 989.751647949219 990.329345703125 983.115295410156 981.251159667969 981.401184082031 978.177368164062 971.211791992188 965.533325195312 962.015258789062 962.591796875 970.054077148438 971.992126464844 980.586547851562 976.057922363281 973.737976074219 977.87109375
962.613952636719 956.674255371094 958.286315917969 952.822998046875 960.832458496094 956.624694824219 958.120666503906 955.6044921875 944.043518066406 946.769104003906 952.412292480469 946.586547851562 953.7958984375 955.774536132812 956.768859863281 964.176940917969 967.590454101562 963.511413574219 961.287170410156 957.494445800781 962.865051269531 953.779846191406 957.786682128906 955.645812988281 962.000366210938 966.114440917969 965.995666503906 957.391784667969 955.882507324219 953.106140136719 965.988098144531 964.762023925781 963.952270507812 966.707397460938 966.070495605469 971.303283691406 977.486389160156 976.143371582031 969.933959960938 964.241088867188 976.627197265625 969.55126953125 974.036499023438 976.16796875 976.068542480469 984.27099609375 992.269470214844 981.512390136719 984.648132324219 990.829040527344 997.076538085938 990.883483886719 995.764465332031 994.984741210938 996.787475585938 1002.77020263672 1001.83465576172 1013.1513671875 1004.86840820312 1002.19024658203 995.346923828125 991.429077148438 998.591735839844 987.331787109375 995.679138183594 996.549560546875 997.141845703125 998.282653808594 997.740112304688 982.510009765625 993.002319335938 995.857116699219 984.889343261719 993.007873535156 992.779846191406 990.434692382812 995.350219726562 991.994750976562 992.351440429688 990.198120117188 982.895141601562 994.040832519531 995.7099609375 993.209838867188 997.539184570312 1010.69146728516 1010.34484863281 1006.71594238281 1016.10900878906 1017.27429199219 1011.31884765625 1000.42626953125 1011.03735351562 1009.98541259766 1004.75006103516 1004.96850585938 998.817749023438 1015.74340820312 1017.84649658203 1017.68139648438 1021.6103515625 1019.1240234375 1017.4755859375 1028.01159667969 1031.78210449219 1034.67517089844 1039.47680664062 1041.29223632812 1037.78149414062 1050.54663085938 1058.59912109375 1062.47082519531 1067.76330566406 1064.2021484375 1060.78247070312 1056.1298828125 1056.21862792969 1061.26135253906 1050.99353027344 1063.86962890625 1047.17736816406 1032.42724609375 1024.67541503906 1027.85021972656 1026.17504882812 1017.32299804688 1010.84606933594 998.79638671875 992.902282714844 996.156921386719 989.912170410156 983.505859375 979.9189453125 989.201293945312 977.986938476562 979.043884277344 985.613220214844 975.03271484375 980.186279296875 967.340026855469 971.47802734375 962.205993652344 961.157775878906 965.548583984375 969.239868164062 974.176147460938 973.17724609375 978.125915527344 971.146728515625 969.460144042969
