NCOLS 150
NROWS 37
XLLCORNER 7394249
YLLCORNER 4843799
CELLSIZE 30
NODATA_VALUE -9999
999.955932617188 1001.3662109375 995.4228515625 996.888244628906 1000.16467285156 1006.80456542969 1002.41326904297 1006.53155517578 998.366882324219 1004.68682861328 1017.11877441406 1017.40576171875 1014.49310302734 1020.72595214844 1011.62384033203 1009.65557861328 1010.84161376953 1006.12017822266 1011.38458251953 1015.13623046875 1033.44348144531 1030.86450195312 1032.94360351562 1028.78051757812 1022.37707519531 1024.45239257812 1024.08642578125 1031.30725097656 1023.78961181641 1025.69970703125 1026.80590820312 1021.86608886719 1032.3154296875 1037.8525390625 1040.1669921875 1020.17144775391 1021.51684570312 1028.4140625 1029.92248535156 1020.87622070312 1026.34741210938 1022.48657226562 1011.71978759766 1022.92572021484 1015.27911376953 1017.82983398438 1007.35107421875 1004.08740234375 1002.64874267578 1004.36932373047 1001.69866943359 997.662048339844 984.634094238281 979.280517578125 973.769104003906 965.208251953125 953.404968261719 958.965270996094 951.868957519531 931.3798828125 936.515991210938 933.271240234375 938.790710449219 921.870666503906 926.671997070312 918.930419921875 919.680053710938 921.643432617188 920.875610351562 926.998168945312 932.342590332031 936.86328125 945.413940429688 952.97412109375 960.597595214844 968.248901367188 977.518859863281 971.229858398438 987.403076171875 989.4462890625 989.814208984375 993.914001464844 1002.34216308594 997.361938476562 985.864624023438 981.761657714844 983.275634765625 961.71923828125 955.116882324219 944.253845214844 938.586791992188 930.411743164062 924.522094726562 912.098388671875 905.059020996094 900.291625976562 900.391662597656 892.751525878906 886.89794921875 885.582763671875 885.663818359375 877.23828125 868.789245605469 857.605895996094 865.712219238281 874.785217285156 876.441528320312 873.934631347656 877.092102050781 875.943969726562 877.158264160156 878.64501953125 879.437927246094 898.695495605469 902.732238769531 902.481079101562 902.6416015625 920.636169433594 924.776123046875 925.207153320312 925.420532226562 930.754028320312 938.66943359375 941.775146484375 937.262145996094 945.893432617188 954.417846679688 962.988586425781 969.294189453125 984.875122070312 1000.54968261719 1003.36590576172 1006.45324707031 1024.07055664062 1034.61730957031 1047.60546875 1060.79956054688 1070.55700683594 1077.681640625 1089.22094726562 1087.57360839844 1090.55456542969 1103.78161621094 1105.22790527344 1102.91162109375 1090.13061523438 1084.03088378906 1076.37561035156 1059.34167480469 1042.57006835938
995.872802734375 989.776794433594 994.598693847656 999.619873046875 993.084594726562 997.844543457031 999.805236816406 1009.01861572266 1013.00524902344 1008.30932617188 1011.79547119141 1013.05792236328 1002.63305664062 1006.84149169922 1004.20465087891 1003.58978271484 1013.17364501953 1005.42443847656 1011.09197998047 1018.65795898438 1022.21936035156 1027.21228027344 1033.17883300781 1027.69030761719 1026.86437988281 1019.93115234375 1020.33721923828 1025.38171386719 1017.4189453125 1016.50299072266 1020.92437744141 1018.87847900391 1027.98803710938 1033.90747070312 1030.14599609375 1030.89453125 1017.08831787109 1025.80627441406 1035.60534667969 1022.49688720703 1019.46575927734 1020.59539794922 1015.31561279297 1017.35583496094 1013.63275146484 1010.64831542969 1003.16412353516 1004.97235107422 1000.3798828125 1004.62396240234 991.946838378906 998.347778320312 984.642517089844 975.59765625 976.708679199219 968.802673339844 966.55419921875 962.225524902344 958.228820800781 953.384887695312 946.851013183594 944.648742675781 938.272644042969 935.509521484375 935.370361328125 928.627075195312 930.067687988281 923.577392578125 934.172668457031 937.321960449219 942.041137695312 936.989501953125 948.9375 961.688232421875 957.399536132812 973.890075683594 980.141357421875 990.60009765625 998.746032714844 990.466979980469 1001.75085449219 1012.16442871094 1010.31201171875 1000.10791015625 994.245422363281 983.592529296875 979.072143554688 962.296813964844 945.86376953125 943.1162109375 930.901672363281 929.222595214844 916.707946777344 911.426696777344 901.975708007812 902.039916992188 897.274230957031 892.228210449219 889.029724121094 883.404113769531 884.14501953125 880.798522949219 869.357604980469 865.86865234375 876.83447265625 875.361938476562 883.011596679688 885.960693359375 880.532592773438 874.8291015625 881.597412109375 877.268676757812 877.937194824219 902.209655761719 902.70458984375 907.971740722656 913.548706054688 912.695251464844 924.728149414062 925.736389160156 923.933715820312 928.691650390625 936.596130371094 940.497009277344 941.307250976562 948.616943359375 953.3798828125 958.702026367188 962.6337890625 979.001953125 990.35302734375 1002.05548095703 1014.43487548828 1027.75793457031 1038.24584960938 1040.3017578125 1057.25305175781 1067.68151855469 1079.2177734375 1097.41333007812 1109.36791992188 1106.35522460938 1110.68432617188 1114.64758300781 1108.19213867188 1099.86267089844 1089.58032226562 1081.65466308594 1075.74182128906 1058.54565429688
1002.59149169922 988.045104980469 994.043762207031 995.116088867188 994.484924316406 999.200622558594 1000.97741699219 1005.01025390625 1007.70452880859 1010.82482910156 1002.44940185547 1008.64965820312 1002.22479248047 1005.89373779297 1002.06494140625 1008.72912597656 1016.18005371094 1008.97125244141 1010.4150390625 1014.90057373047 1019.29241943359 1022.22137451172 1023.58343505859 1024.20275878906 1024.857421875 1024.94885253906 1014.51220703125 1019.40185546875 1021.46215820312 1010.13049316406 1016.24884033203 1012.49645996094 1016.87622070312 1023.10345458984 1024.40686035156 1028.15454101562 1025.6591796875 1025.74255371094 1022.05084228516 1022.19183349609 1016.57995605469 1016.58538818359 1009.98065185547 1014.62219238281 1014.37854003906 1008.12322998047 1000.09527587891 1002.78509521484 998.99462890625 997.893127441406 1002.66369628906 998.231567382812 988.12353515625 983.310119628906 977.072814941406 965.512451171875 966.995422363281 966.173217773438 975.65380859375 970.31298828125 964.206726074219 952.856018066406 952.49658203125 949.685852050781 953.688598632812 951.124755859375 949.934143066406 939.162658691406 940.840270996094 946.0283203125 940.988464355469 945.862670898438 948.194213867188 958.696716308594 967.523254394531 970.369018554688 978.559875488281 995.3857421875 1005.3837890625 999.615905761719 1012.76861572266 1015.57092285156 1010.89276123047 1006.63073730469 993.397888183594 984.321350097656 972.99609375 959.9951171875 947.887817382812 938.167602539062 926.544555664062 924.128295898438 921.05078125 913.451965332031 908.87939453125 895.313659667969 901.124877929688 896.396667480469 888.30224609375 882.243591308594 885.485412597656 884.310729980469 885.842407226562 876.640014648438 870.334289550781 874.044677734375 889.953674316406 889.130065917969 878.029235839844 877.501647949219 880.496337890625 875.384399414062 877.282287597656 894.651000976562 907.164184570312 903.51171875 911.1484375 913.428344726562 916.474060058594 921.865356445312 924.16015625 938.325256347656 938.081848144531 932.451538085938 942.520202636719 941.582397460938 948.018432617188 955.273132324219 965.244201660156 974.742126464844 980.924499511719 998.263366699219 1016.49768066406 1026.39135742188 1026.93176269531 1041.93395996094 1056.82543945312 1063.41369628906 1084.78796386719 1108.79821777344 1117.02978515625 1127.81494140625 1123.3681640625 1123.42468261719 1120.31494140625 1112.54223632812 1100.64526367188 1099.14526367188 1088.65270996094 1075.70397949219
995.3857421875 993.101440429688 980.45849609375 985.756896972656 999.889282226562 1001.40960693359 1002.76959228516 1008.35772705078 1013.78265380859 1012.1240234375 1010.07952880859 1000.24420166016 1008.82427978516 1011.68414306641 1001.58227539062 998.243408203125 1004.25964355469 1008.50701904297 1010.38745117188 1026.79858398438 1024.48864746094 1016.75933837891 1024.51940917969 1017.80426025391 1027.18273925781 1027.84033203125 1018.48297119141 1017.62310791016 1015.27319335938 1008.29742431641 1016.65045166016 1016.62933349609 1006.95031738281 1021.31274414062 1020.50952148438 1018.42944335938 1024.9912109375 1026.26171875 1027.23815917969 1021.99841308594 1026.34057617188 1016.38745117188 1011.77996826172 1021.61395263672 1006.02630615234 1015.02429199219 1006.31079101562 1000.6396484375 996.120544433594 994.115661621094 996.141174316406 994.309509277344 992.134338378906 990.387390136719 986.036987304688 973.777709960938 974.4970703125 978.622863769531 984.138549804688 984.469177246094 977.181701660156 968.054321289062 961.157592773438 968.398803710938 958.884826660156 960.75341796875 964.333129882812 956.017517089844 952.755554199219 944.086853027344 948.945007324219 958.384460449219 960.574035644531 966.821838378906 969.850952148438 964.060363769531 988.848266601562 1000.76788330078 998.434448242188 1014.50042724609 1011.27893066406 1015.75115966797 1014.48358154297 1005.47149658203 996.209289550781 983.678100585938 972.265930175781 959.920166015625 943.964721679688 943.875305175781 932.415100097656 932.953369140625 922.94091796875 918.620544433594 910.759582519531 903.982666015625 901.146118164062 895.80029296875 894.044067382812 890.53515625 883.887573242188 890.330932617188 892.213073730469 889.062927246094 880.584838867188 887.348876953125 885.419250488281 890.642944335938 887.411193847656 890.469665527344 885.625671386719 886.359252929688 890.599243164062 904.697814941406 903.785583496094 910.774597167969 908.287292480469 925.048461914062 914.751647949219 924.852661132812 932.047180175781 940.3173828125 946.260620117188 952.060241699219 953.859436035156 944.697570800781 960.679321289062 954.819030761719 964.8759765625 979.645446777344 985.119262695312 1012.00579833984 1018.06463623047 1024.42321777344 1033.17944335938 1044.03674316406 1059.79736328125 1070.22351074219 1085.91479492188 1112.87524414062 1122.15417480469 1128.00415039062 1137.88635253906 1138.943359375 1135.54565429688 1129.66589355469 1125.03918457031 1111.40124511719 1102.68078613281 1089.25
984.912048339844 985.685974121094 990.294860839844 996.765808105469 994.247253417969 997.675476074219 997.045471191406 1003.36328125 1012.78735351562 1004.31872558594 996.623840332031 1003.10479736328 1010.71350097656 1013.81640625 1008.03228759766 1006.99066162109 1009.62103271484 1011.88714599609 1016.96478271484 1022.70141601562 1026.73315429688 1026.94689941406 1027.94653320312 1017.5205078125 1025.92517089844 1023.12353515625 1014.59881591797 1008.18475341797 1003.11944580078 1005.09625244141 1011.82788085938 1012.30786132812 1015.40277099609 1020.02056884766 1016.62957763672 1013.84497070312 1026.50378417969 1023.42620849609 1035.64855957031 1016.53802490234 1026.30310058594 1019.46429443359 1018.02825927734 1016.72271728516 1012.30523681641 1016.85760498047 1013.69085693359 999.758422851562 994.2265625 992.678527832031 999.4189453125 991.098876953125 991.606262207031 983.475830078125 992.399108886719 983.902526855469 995.635070800781 996.616027832031 1000.89501953125 988.216857910156 979.392944335938 972.576721191406 975.249450683594 975.459716796875 971.800964355469 969.9755859375 977.609985351562 975.466247558594 967.897705078125 959.755432128906 957.126037597656 961.366455078125 966.942138671875 969.122863769531 968.028259277344 977.851013183594 993.725219726562 1003.84594726562 1009.08514404297 1016.08331298828 1018.04681396484 1023.44543457031 1024.91088867188 1005.93933105469 1002.41979980469 987.444274902344 969.24560546875 956.599548339844 952.719360351562 943.357299804688 935.057800292969 933.042541503906 933.458679199219 924.028503417969 905.081665039062 908.662109375 915.59521484375 900.166748046875 901.19091796875 892.511657714844 898.049865722656 895.438293457031 893.408447265625 892.858459472656 890.396911621094 894.134216308594 898.6708984375 899.376220703125 896.386962890625 893.011596679688 892.843811035156 894.9755859375 899.413269042969 906.34716796875 913.037048339844 908.566345214844 902.29638671875 908.028198242188 914.844299316406 925.489868164062 928.2568359375 933.979187011719 945.645080566406 956.903015136719 954.181518554688 953.042785644531 965.695434570312 959.256469726562 964.905395507812 974.546569824219 989.534057617188 1005.4990234375 1020.24072265625 1031.37170410156 1038.91442871094 1051.36010742188 1059.76000976562 1076.75476074219 1085.61340332031 1108.81884765625 1122.33557128906 1132.03747558594 1144.99365234375 1140.42272949219 1139.70764160156 1141.81896972656 1137.31408691406 1126.13354492188 1116.39599609375 1100.42468261719
981.326049804688 985.099975585938 990.834350585938 998.875732421875 999.885864257812 997.108642578125 998.977416992188 992.53515625 994.560119628906 993.138488769531 991.870849609375 1002.72833251953 998.157653808594 1006.30059814453 1014.27624511719 1010.16271972656 1008.51043701172 1017.57244873047 1018.99731445312 1011.62103271484 1029.78356933594 1027.8662109375 1020.65484619141 1021.06756591797 1024.29064941406 1011.38665771484 996.360595703125 1003.35455322266 1002.39978027344 1006.20947265625 1005.13702392578 1017.68072509766 1019.85864257812 1013.54467773438 1020.72705078125 1027.81982421875 1023.87335205078 1022.76330566406 1033.94006347656 1022.43188476562 1023.20129394531 1017.537109375 1019.84478759766 1009.85858154297 1008.39642333984 1016.28454589844 1021.99090576172 1002.28973388672 998.267761230469 995.465270996094 999.548278808594 1002.53161621094 998.281494140625 999.729309082031 997.899169921875 995.486511230469 1009.56335449219 1005.12451171875 1006.66955566406 994.615783691406 997.2216796875 987.76318359375 986.282165527344 985.438415527344 979.900268554688 977.83544921875 978.346557617188 978.237426757812 974.483154296875 967.282470703125 964.964416503906 959.634155273438 968.971557617188 981.389709472656 986.020202636719 999.856140136719 1009.93951416016 1014.15667724609 1019.27203369141 1026.93444824219 1017.41552734375 1019.35687255859 1017.67907714844 1009.84606933594 1000.15655517578 986.699890136719 971.163330078125 961.473266601562 957.433166503906 942.341918945312 936.600524902344 938.602355957031 927.653442382812 920.415649414062 906.287658691406 909.19921875 915.838928222656 916.692993164062 915.597778320312 900.519348144531 901.2509765625 901.419067382812 901.460632324219 901.870361328125 895.737976074219 895.706848144531 894.648681640625 898.382690429688 905.653930664062 899.232055664062 904.753784179688 909.307250976562 905.724975585938 908.968566894531 913.610046386719 903.801879882812 910.833862304688 913.213989257812 924.623962402344 934.512573242188 930.99560546875 943.518005371094 940.313232421875 949.447265625 952.478332519531 954.175842285156 965.974914550781 965.652038574219 968.241943359375 979.981628417969 991.12158203125 1013.88952636719 1022.92291259766 1031.82495117188 1045.28881835938 1056.08776855469 1070.43029785156 1083.49230957031 1093.96313476562 1105.60961914062 1126.2138671875 1134.27600097656 1140.06030273438 1141.60607910156 1142.56823730469 1141.70825195312 1144.8310546875 1130.98059082031 1120.27221679688 1108.12145996094
985.878967285156 983.523132324219 990.934936523438 1003.56018066406 1002.87158203125 996.779724121094 1001.16943359375 995.023620605469 998.752075195312 998.441101074219 997.216979980469 994.824462890625 991.575805664062 993.392028808594 1004.2724609375 1003.19732666016 1003.00756835938 1017.69610595703 1017.80950927734 1019.60137939453 1013.11669921875 1017.57794189453 1014.00616455078 1015.38348388672 1016.44384765625 1003.36614990234 991.346801757812 1002.54010009766 1001.71490478516 1010.79907226562 1010.91094970703 1023.00396728516 1023.93347167969 1015.78308105469 1011.92022705078 1021.09161376953 1023.38848876953 1023.53704833984 1021.32751464844 1018.92907714844 1020.97961425781 1011.12945556641 1015.578125 1010.95880126953 1014.35211181641 1014.13226318359 1013.87982177734 1012.54577636719 1004.14495849609 1000.01324462891 998.852294921875 1010.14117431641 1013.40087890625 1009.68469238281 1010.78076171875 1003.333984375 1007.64050292969 1010.82849121094 1008.50225830078 1002.45074462891 991.171936035156 986.136535644531 995.188171386719 991.393615722656 986.381225585938 981.801208496094 983.242736816406 975.781555175781 969.538208007812 975.713317871094 971.07177734375 963.289428710938 976.742553710938 981.758728027344 993.627563476562 1002.46264648438 1013.84649658203 1026.73547363281 1028.81689453125 1034.33654785156 1018.83245849609 1022.17016601562 1016.90539550781 1012.96118164062 996.945556640625 986.072875976562 978.926391601562 969.843322753906 957.497436523438 943.802917480469 941.28515625 941.063903808594 932.208435058594 923.701843261719 920.032409667969 920.830200195312 917.890197753906 920.219055175781 905.435485839844 908.59228515625 908.912475585938 909.046752929688 915.033874511719 913.925476074219 904.28857421875 899.5234375 907.142211914062 904.517333984375 915.189758300781 918.065795898438 910.453002929688 913.963134765625 913.020202636719 917.872985839844 916.697998046875 909.816162109375 907.596557617188 914.173767089844 922.82177734375 933.783142089844 934.712524414062 928.8037109375 938.964172363281 947.416137695312 961.8203125 968.9267578125 979.665283203125 978.325805664062 976.942199707031 989.248718261719 1002.15985107422 1022.43408203125 1027.94226074219 1038.61560058594 1060.18530273438 1073.244140625 1079.85620117188 1098.61547851562 1098.42944335938 1116.30883789062 1128.95751953125 1135.2880859375 1141.59753417969 1150.40991210938 1139.5009765625 1137.03515625 1139.63659667969 1130.79113769531 1129.162109375 1105.98510742188
974.754821777344 976.484680175781 977.237487792969 994.041442871094 1003.43939208984 1004.6435546875 1002.49108886719 990.0673828125 995.012634277344 991.667907714844 985.84375 986.407531738281 986.255249023438 991.224670410156 993.4521484375 996.32177734375 1002.41137695312 1004.61218261719 1003.11437988281 1003.08367919922 1001.99139404297 1008.41448974609 1015.23651123047 1017.66387939453 1008.59075927734 1005.814453125 992.603576660156 994.023132324219 1000.23529052734 1006.92181396484 1012.42395019531 1014.96051025391 1012.97442626953 1017.09228515625 1010.54803466797 1023.37469482422 1029.162109375 1020.94525146484 1016.72967529297 1010.27728271484 1023.12481689453 1015.99017333984 1021.33941650391 1015.76507568359 1017.80352783203 1016.31066894531 1011.55938720703 1004.14758300781 1010.36071777344 1010.53607177734 1015.15600585938 1012.45782470703 1020.96374511719 1012.50677490234 1003.98712158203 1000.11981201172 1001.57141113281 1007.71417236328 1009.07391357422 996.013549804688 991.932373046875 996.270324707031 1004.94604492188 1007.63897705078 996.101989746094 988.679931640625 986.623901367188 988.311584472656 979.848999023438 975.785095214844 974.209289550781 965.953674316406 973.151916503906 994.771911621094 1008.50463867188 1012.57104492188 1019.40533447266 1023.35504150391 1036.91259765625 1037.02197265625 1032.01379394531 1026.45983886719 1021.03936767578 1020.03637695312 1008.64910888672 991.327209472656 984.643371582031 977.5029296875 966.0615234375 951.774475097656 945.950012207031 948.079895019531 935.643737792969 930.183898925781 934.370666503906 932.63525390625 923.909851074219 926.952575683594 929.076293945312 932.800598144531 928.381958007812 928.690673828125 917.606567382812 919.312255859375 914.0400390625 914.390686035156 924.39013671875 925.272399902344 924.625061035156 930.351318359375 916.474426269531 908.116333007812 923.322082519531 916.195556640625 910.235229492188 907.063842773438 903.726135253906 911.139282226562 924.521179199219 932.793334960938 925.408081054688 928.10302734375 942.298461914062 955.247680664062 963.617736816406 968.095275878906 978.325317382812 983.196533203125 983.289794921875 999.5009765625 1014.56127929688 1032.16491699219 1037.60144042969 1043.79541015625 1061.67712402344 1073.9580078125 1077.59020996094 1099.93737792969 1102.22241210938 1112.80102539062 1121.38928222656 1134.67980957031 1140.28552246094 1146.25524902344 1141.72424316406 1137.92639160156 1128.90466308594 1135.06774902344 1131.6533203125 1115.71130371094
968.764526367188 972.421447753906 972.685119628906 986.980895996094 998.440307617188 1006.095703125 992.199829101562 988.510009765625 1000.87677001953 992.958862304688 987.407165527344 982.460205078125 989.112060546875 995.559814453125 1000.44360351562 1006.072265625 1008.44952392578 999.547424316406 996.317321777344 998.920288085938 1002.39636230469 999.405944824219 1009.96179199219 1004.42181396484 1004.69940185547 1003.478515625 989.747314453125 994.384948730469 1001.58013916016 1004.34558105469 1010.62139892578 1011.73077392578 1006.80963134766 1013.25177001953 1015.10736083984 1027.95422363281 1028.63879394531 1025.7880859375 1019.91430664062 1012.43450927734 1015.505859375 1026.43200683594 1028.591796875 1029.80541992188 1026.45861816406 1018.20184326172 1018.22180175781 1014.6142578125 1015.51690673828 1008.38391113281 1012.51635742188 1010.46496582031 1014.00689697266 1012.99487304688 1008.28393554688 1014.33685302734 1005.35089111328 1004.52667236328 1013.35418701172 1005.43133544922 999.945678710938 1006.17010498047 1004.74285888672 1013.05767822266 1003.03277587891 990.610900878906 993.078002929688 998.777709960938 989.236694335938 982.634155273438 978.116943359375 983.660461425781 990.296752929688 1003.78503417969 1010.15893554688 1015.53900146484 1022.26452636719 1028.26110839844 1033.83020019531 1044.13623046875 1035.47766113281 1026.42517089844 1024.09802246094 1028.79809570312 1017.11291503906 1001.13134765625 993.663391113281 986.25341796875 974.236267089844 956.369079589844 942.021423339844 930.667358398438 939.150146484375 935.946899414062 937.039123535156 932.974670410156 926.9580078125 936.797607421875 941.918151855469 948.467102050781 949.325744628906 935.905944824219 929.86962890625 922.0771484375 927.762390136719 934.525939941406 931.650329589844 937.483642578125 943.751037597656 939.559814453125 930.667602539062 910.583435058594 917.391357421875 920.173706054688 910.512023925781 907.355529785156 897.514282226562 901.485717773438 905.85107421875 925.311157226562 926.733093261719 934.5673828125 950.4755859375 950.566162109375 958.698120117188 964.342895507812 975.814514160156 974.252136230469 989.18408203125 1003.72448730469 1018.05712890625 1043.28332519531 1053.2470703125 1063.29748535156 1064.921875 1079.46789550781 1081.75720214844 1094.93322753906 1100.04614257812 1103.20385742188 1111.98571777344 1116.12194824219 1129.77868652344 1126.34375 1136.00207519531 1137.20922851562 1126.29504394531 1124.45300292969 1120.65319824219 1114.95385742188
965.633972167969 974.895629882812 982.187194824219 987.135070800781 988.588623046875 997.750122070312 992.823181152344 993.480041503906 986.478881835938 990.784362792969 991.957397460938 990.583862304688 983.9267578125 986.916137695312 994.919189453125 1004.31890869141 1002.18768310547 1001.26654052734 993.692932128906 992.042419433594 989.712524414062 992.454345703125 999.356323242188 1003.36584472656 990.367858886719 992.712463378906 994.30029296875 1006.09625244141 991.963623046875 1004.93518066406 1010.56811523438 1017.34338378906 1006.80218505859 1005.01818847656 1021.25012207031 1029.94506835938 1030.19665527344 1037.64990234375 1027.41723632812 1027.921875 1028.61218261719 1033.19104003906 1038.08276367188 1036.21069335938 1032.03234863281 1028.33166503906 1017.99237060547 1020.53381347656 1006.74035644531 1013.77514648438 1017.06872558594 1013.35546875 1013.36975097656 1013.53210449219 1001.03631591797 1010.70874023438 1015.11883544922 1010.037109375 1021.93170166016 1012.83062744141 1010.51257324219 1015.21612548828 1018.51013183594 1014.29510498047 1010.07965087891 1011.57196044922 999.712463378906 994.068237304688 987.309692382812 978.259094238281 978.790893554688 986.855651855469 990.6015625 1002.24298095703 1013.59564208984 1024.88427734375 1021.86993408203 1031.46813964844 1031.0654296875 1032.2861328125 1033.09838867188 1019.61926269531 1022.92529296875 1021.63494873047 1021.94915771484 1006.14953613281 998.12890625 984.548889160156 968.904663085938 953.393127441406 941.803894042969 938.603393554688 945.570739746094 943.373840332031 944.425415039062 927.903930664062 934.366943359375 939.808776855469 946.367431640625 953.539855957031 945.043884277344 944.150512695312 944.559692382812 936.751281738281 935.737487792969 940.592407226562 941.142272949219 945.231262207031 957.708129882812 955.054870605469 941.79248046875 934.884399414062 930.123291015625 926.498291015625 911.512023925781 906.404296875 902.12255859375 905.131042480469 909.788024902344 922.394226074219 936.62353515625 945.708190917969 960.494262695312 960.48291015625 966.301391601562 973.451354980469 979.047546386719 992.490844726562 994.466918945312 1000.88256835938 1025.66125488281 1038.220703125 1057.77563476562 1063.2666015625 1070.15563964844 1070.06994628906 1073.36901855469 1084.47546386719 1101.50463867188 1107.20959472656 1116.84680175781 1120.70056152344 1130.09497070312 1121.4794921875 1128.39025878906 1126.8818359375 1125.9609375 1124.33801269531 1117.31469726562 1115.22778320312
969.341125488281 981.008056640625 976.057739257812 989.687561035156 983.594848632812 991.81689453125 987.80078125 989.801635742188 988.732421875 983.631530761719 988.382019042969 990.07568359375 981.645080566406 988.183227539062 985.823486328125 990.701538085938 997.367248535156 998.476135253906 989.304565429688 986.270141601562 983.275512695312 993.315673828125 995.336608886719 992.3212890625 990.681335449219 987.114501953125 987.407043457031 997.424926757812 997.061584472656 1005.12847900391 1010.14074707031 999.505676269531 1002.73706054688 1007.37145996094 1024.32177734375 1029.65576171875 1029.47448730469 1038.97143554688 1037.48889160156 1029.158203125 1030.03088378906 1037.18981933594 1040.02661132812 1043.90454101562 1044.64672851562 1029.50537109375 1022.46197509766 1020.32525634766 1015.41851806641 1012.92315673828 1020.62518310547 1019.94848632812 1015.32727050781 1006.82696533203 1009.95294189453 1010.74371337891 1019.10278320312 1018.64508056641 1016.97784423828 1014.63580322266 1014.72113037109 1018.90264892578 1021.68255615234 1022.74810791016 1024.35583496094 1017.24200439453 1008.11566162109 996.732788085938 990.219848632812 981.800415039062 977.304565429688 978.923583984375 985.137573242188 998.281188964844 1014.03924560547 1023.57159423828 1030.83715820312 1032.39404296875 1029.59716796875 1025.79260253906 1032.84838867188 1021.4873046875 1030.29235839844 1027.18762207031 1014.23565673828 1016.49926757812 998.252014160156 983.926818847656 971.470581054688 966.320739746094 951.357666015625 939.133911132812 942.750671386719 939.626220703125 943.718872070312 939.036987304688 945.167724609375 950.414916992188 960.849975585938 958.138061523438 954.476318359375 956.437377929688 948.758056640625 943.435119628906 943.296630859375 938.676818847656 948.249938964844 960.85302734375 963.054016113281 961.679382324219 944.498413085938 937.922058105469 935.767944335938 927.936462402344 920.216064453125 912.523803710938 904.519897460938 915.071655273438 923.606872558594 938.308227539062 936.991088867188 947.473754882812 954.111328125 964.794799804688 975.716186523438 987.476806640625 988.437805175781 1002.82360839844 1001.56439208984 1013.04547119141 1025.84545898438 1036.89526367188 1052.05126953125 1059.78735351562 1068.95556640625 1066.08935546875 1066.09362792969 1074.04248046875 1094.17529296875 1101.59008789062 1114.55126953125 1123.53820800781 1124.56225585938 1118.57116699219 1115.36547851562 1108.83239746094 1113.54541015625 1115.07177734375 1114.53576660156 1112.97802734375
966.58056640625 980.568603515625 987.820373535156 984.466918945312 979.862060546875 988.813232421875 991.813781738281 988.652709960938 985.2626953125 976.974426269531 985.994567871094 977.827697753906 977.621765136719 979.764099121094 977.126647949219 993.203308105469 994.920227050781 992.139099121094 988.070678710938 991.77978515625 984.869140625 996.906066894531 979.904541015625 978.730529785156 977.612670898438 982.519348144531 991.191284179688 1001.82720947266 1001.14123535156 1004.34240722656 1010.42309570312 1003.68017578125 1000.40728759766 1014.05120849609 1019.47863769531 1025.43334960938 1027.58374023438 1039.61645507812 1040.92236328125 1037.35302734375 1040.96936035156 1042.28625488281 1042.890625 1040.83874511719 1038.90856933594 1029.64074707031 1029.21057128906 1020.59387207031 1021.29040527344 1020.666015625 1022.0517578125 1017.92108154297 1010.15594482422 1010.216796875 1015.28649902344 1020.59332275391 1016.771484375 1021.51245117188 1008.78601074219 1015.78503417969 1024.49633789062 1027.21667480469 1026.58044433594 1019.55816650391 1016.05682373047 1020.02838134766 1011.9599609375 996.670288085938 990.271240234375 986.264099121094 981.72705078125 983.433349609375 1002.99633789062 999.985595703125 1022.94976806641 1024.03076171875 1023.10821533203 1027.15563964844 1027.0615234375 1022.33575439453 1029.95642089844 1027.42163085938 1018.8779296875 1016.115234375 1023.0400390625 1010.02166748047 1001.30908203125 984.6044921875 973.044311523438 960.600036621094 961.171936035156 934.21142578125 936.459838867188 933.943786621094 947.3359375 955.163757324219 959.468688964844 955.143737792969 963.255432128906 963.795166015625 960.442749023438 951.295715332031 954.556274414062 950.09228515625 947.190307617188 943.65869140625 954.704528808594 960.979248046875 963.769958496094 966.693908691406 947.183166503906 946.076477050781 944.785766601562 936.240173339844 920.182861328125 918.157348632812 910.377563476562 919.083068847656 929.162536621094 932.457824707031 953.777465820312 957.163818359375 956.281066894531 964.747192382812 969.334350585938 978.606323242188 989.354553222656 1006.02917480469 1008.24475097656 1011.05889892578 1026.83203125 1029.76770019531 1045.16369628906 1057.75183105469 1055.82299804688 1065.09582519531 1064.08459472656 1072.28063964844 1085.53967285156 1093.67724609375 1110.74633789062 1116.14819335938 1112.52697753906 1117.80834960938 1108.75854492188 1110.16357421875 1111.427734375 1104.20886230469 1112.84204101562 1111.96643066406
976.923278808594 976.123413085938 986.246276855469 979.092590332031 973.578552246094 988.138061523438 981.082458496094 989.697509765625 980.637512207031 972.213134765625 978.988098144531 972.680603027344 965.603454589844 973.479309082031 988.222595214844 987.308959960938 990.835632324219 989.957336425781 986.956359863281 991.9560546875 991.663696289062 996.221374511719 986.969116210938 978.957702636719 978.427124023438 982.860168457031 995.767944335938 1004.17980957031 1002.77111816406 1010.22705078125 1015.01440429688 1008.12188720703 1012.13952636719 1018.24383544922 1017.39849853516 1026.61767578125 1029.02355957031 1037.99340820312 1051.4765625 1041.68310546875 1046.39672851562 1046.580078125 1045.4111328125 1042.04736328125 1040.37243652344 1034.462890625 1029.5361328125 1021.00476074219 1012.12469482422 1015.19982910156 1011.68908691406 1015.78387451172 1007.14184570312 999.72265625 1010.52880859375 1008.85650634766 1011.08770751953 1019.37841796875 1005.72418212891 1009.15173339844 1023.54022216797 1027.6640625 1030.62341308594 1028.08569335938 1019.86315917969 1021.02868652344 1008.330078125 999.928161621094 996.567626953125 997.716735839844 1002.21789550781 1009.02655029297 1008.76641845703 1016.68597412109 1020.96368408203 1025.66247558594 1034.27319335938 1025.75732421875 1023.50604248047 1028.22705078125 1029.17797851562 1030.0791015625 1017.94030761719 1023.87286376953 1021.53918457031 1008.01849365234 992.125305175781 983.600830078125 968.566650390625 967.743713378906 956.375122070312 945.277221679688 942.193664550781 946.989562988281 960.3828125 963.346923828125 963.747131347656 963.299926757812 963.819641113281 972.099365234375 974.055786132812 959.86279296875 955.135925292969 962.760314941406 957.249084472656 953.327941894531 959.620666503906 965.513549804688 969.590026855469 971.737365722656 956.789245605469 952.553527832031 944.474975585938 940.0283203125 923.47998046875 921.785522460938 915.083435058594 921.805847167969 933.835327148438 949.633483886719 963.097290039062 959.968444824219 971.986694335938 971.441284179688 965.736022949219 984.287292480469 993.681213378906 998.832641601562 1010.69836425781 1018.63403320312 1026.41381835938 1032.84106445312 1043.90393066406 1044.98388671875 1047.4091796875 1062.74597167969 1065.75134277344 1071.3896484375 1073.08630371094 1092.47094726562 1095.69348144531 1111.353515625 1117.51770019531 1110.36096191406 1105.71740722656 1112.50024414062 1109.08288574219 1097.68322753906 1105.5478515625 1098.4853515625
979.841369628906 982.6904296875 981.360717773438 973.12353515625 976.211242675781 978.589721679688 978.841369628906 985.791137695312 982.336364746094 982.714904785156 978.943298339844 974.910705566406 973.420593261719 978.0595703125 984.677978515625 982.733459472656 989.954895019531 987.960693359375 986.839416503906 984.247863769531 986.287536621094 986.935241699219 987.771850585938 985.90380859375 995.402526855469 996.922485351562 992.562561035156 996.688842773438 1004.60754394531 1001.84075927734 1007.05291748047 1024.36804199219 1016.07977294922 1019.51342773438 1019.28509521484 1021.79522705078 1034.92297363281 1046.04797363281 1055.15295410156 1045.59106445312 1043.73876953125 1037.53540039062 1045.63891601562 1039.99841308594 1039.70935058594 1039.6904296875 1030.23095703125 1018.31579589844 1011.93371582031 1008.20745849609 1007.17004394531 999.470458984375 997.634887695312 1004.83117675781 1008.24896240234 1012.63409423828 1008.75207519531 1012.33630371094 1018.130859375 1018.41607666016 1016.62268066406 1032.58483886719 1029.00842285156 1020.80706787109 1027.01672363281 1018.63293457031 1015.92163085938 1012.16748046875 1007.97943115234 1003.71313476562 1012.14056396484 1011.64929199219 1019.03881835938 1016.5029296875 1018.16766357422 1022.17779541016 1024.05627441406 1017.57250976562 1026.42736816406 1020.61987304688 1030.55615234375 1027.546875 1018.69842529297 1023.41290283203 1014.12512207031 999.536926269531 989.732971191406 982.189453125 981.263854980469 973.82275390625 969.667358398438 957.058166503906 956.579467773438 951.413024902344 956.776611328125 973.730407714844 979.187194824219 974.816589355469 973.855407714844 979.385559082031 968.939453125 969.069946289062 965.735473632812 966.875854492188 967.724487304688 963.497680664062 968.65771484375 976.166809082031 978.153137207031 969.958557128906 965.357727050781 957.92919921875 940.3154296875 940.309143066406 927.5224609375 923.036315917969 919.900939941406 928.620849609375 926.02392578125 937.492492675781 953.229248046875 956.870788574219 964.134704589844 965.840209960938 974.786499023438 982.342407226562 989.848388671875 996.744323730469 1007.82293701172 1029.13696289062 1037.87854003906 1032.16528320312 1042.20373535156 1043.2529296875 1044.37707519531 1058.5615234375 1071.39086914062 1066.35046386719 1079.55053710938 1083.39477539062 1092.9609375 1107.27770996094 1110.28930664062 1115.80444335938 1101.91662597656 1110.54370117188 1118.00463867188 1102.87915039062 1100.181640625 1103.33276367188
976.228515625 977.286865234375 977.047790527344 978.113830566406 972.86328125 982.294128417969 984.089111328125 983.58740234375 983.228454589844 980.749572753906 973.572387695312 969.198974609375 976.014953613281 981.405334472656 977.820007324219 975.722412109375 981.652160644531 980.403503417969 979.851867675781 971.4248046875 980.011474609375 986.888122558594 988.445007324219 990.360900878906 995.321044921875 997.075012207031 1004.44769287109 998.495727539062 1005.07098388672 1000.21026611328 1017.23413085938 1027.40625 1018.27642822266 1024.37573242188 1017.70965576172 1023.21856689453 1029.16772460938 1042.91198730469 1043.43566894531 1041.6279296875 1047.50451660156 1038.40856933594 1037.82604980469 1044.60729980469 1044.728515625 1039.80053710938 1024.98352050781 1024.81286621094 1014.79034423828 1014.68298339844 1014.19281005859 1004.74597167969 1008.23974609375 1010.16998291016 1006.23596191406 1008.69366455078 1010.29229736328 1016.44622802734 1017.40667724609 1012.55688476562 1011.70245361328 1020.32080078125 1019.86669921875 1019.07568359375 1024.80981445312 1024.84912109375 1016.66607666016 1014.20642089844 1027.77648925781 1018.25885009766 1015.60089111328 1022.93096923828 1018.10101318359 1022.93988037109 1018.12750244141 1017.80743408203 1016.53204345703 1021.41046142578 1016.21929931641 1013.75549316406 1014.70794677734 1014.71527099609 1021.60131835938 1013.74993896484 1006.27740478516 993.798278808594 989.489135742188 987.070007324219 986.519836425781 980.87890625 976.439086914062 966.440368652344 953.925659179688 949.763122558594 963.4111328125 980.43408203125 989.642333984375 983.243041992188 987.854187011719 978.478820800781 982.411743164062 979.426879882812 976.970520019531 974.767456054688 972.485168457031 974.997009277344 968.062438964844 984.018371582031 977.537841796875 980.345397949219 967.727600097656 957.886840820312 945.849670410156 935.265380859375 933.498840332031 926.316589355469 928.86669921875 935.860107421875 932.250610351562 947.040771484375 958.079284667969 962.69970703125 975.488647460938 975.49658203125 982.828002929688 983.857177734375 985.690551757812 1001.50628662109 1014.96301269531 1031.19116210938 1027.8349609375 1036.72900390625 1038.68359375 1037.2861328125 1045.35083007812 1047.63647460938 1067.177734375 1066.70629882812 1075.21704101562 1075.90747070312 1090.90295410156 1093.28662109375 1106.81872558594 1101.66687011719 1100.11743164062 1104.29052734375 1114.80041503906 1109.44506835938 1101.33801269531 1106.92541503906
965.951538085938 972.965393066406 967.914794921875 970.936584472656 967.770446777344 970.3232421875 979.681213378906 988.039367675781 991.260192871094 982.640380859375 979.507080078125 968.692321777344 971.436767578125 973.215087890625 970.450378417969 970.759704589844 977.462768554688 974.991027832031 981.058837890625 979.991027832031 982.028869628906 973.176452636719 986.371826171875 992.196411132812 999.440185546875 992.653381347656 999.961975097656 1009.15557861328 1011.79174804688 1011.03900146484 1019.41491699219 1020.38708496094 1025.44067382812 1033.02893066406 1023.58953857422 1020.94317626953 1027.05798339844 1036.41394042969 1043.57495117188 1030.93347167969 1036.90563964844 1047.03759765625 1039.00659179688 1045.8740234375 1046.00708007812 1040.94482421875 1038.5810546875 1029.44641113281 1018.22180175781 1011.00451660156 1006.27447509766 1005.30584716797 1004.08276367188 1006.91320800781 1010.13275146484 999.353271484375 1009.04071044922 1022.11114501953 1012.63653564453 1017.02044677734 1014.95666503906 1020.91021728516 1017.26666259766 1021.90362548828 1020.65533447266 1024.05627441406 1021.43023681641 1021.40588378906 1027.81762695312 1028.64599609375 1030.50146484375 1017.77777099609 1021.11376953125 1024.1572265625 1023.42767333984 1018.95977783203 1018.28802490234 1012.16497802734 1009.16052246094 1002.30200195312 1005.85778808594 1006.91705322266 1012.11486816406 1008.82592773438 1001.66558837891 996.625732421875 986.138793945312 993.323852539062 985.631713867188 976.680786132812 971.522705078125 961.715087890625 962.65087890625 965.673095703125 984.463073730469 986.278198242188 989.03662109375 984.836120605469 988.849304199219 985.9091796875 985.401611328125 993.581115722656 984.63623046875 982.959167480469 984.384155273438 990.508666992188 985.020324707031 988.262329101562 987.627380371094 974.793518066406 971.876403808594 957.822875976562 953.517517089844 950.734558105469 940.233764648438 937.54931640625 933.896423339844 935.315551757812 944.536926269531 948.959716796875 953.433654785156 971.864990234375 974.66650390625 984.051391601562 989.542297363281 990.108459472656 1005.28784179688 1005.45892333984 1018.09704589844 1027.31677246094 1022.1650390625 1029.32165527344 1030.37145996094 1039.30883789062 1047.4287109375 1053.72619628906 1063.818359375 1065.53076171875 1060.28857421875 1066.3310546875 1081.51782226562 1084.8251953125 1094.39099121094 1094.00109863281 1101.677734375 1102.10107421875 1096.73962402344 1098.85888671875 1097.88806152344 1098.64392089844
969.558227539062 971.584655761719 962.179626464844 970.275146484375 967.340270996094 968.555908203125 972.269226074219 989.494201660156 987.890747070312 970.930908203125 972.561706542969 968.95751953125 961.6630859375 962.923583984375 963.401245117188 959.307189941406 961.969055175781 969.236755371094 972.4716796875 979.561096191406 981.542419433594 974.076293945312 987.017150878906 991.824340820312 998.191833496094 996.691955566406 1006.03381347656 1013.24487304688 1011.41375732422 1013.64599609375 1013.54797363281 1016.17333984375 1025.45178222656 1032.53576660156 1027.4736328125 1032.83972167969 1029.68774414062 1031.26098632812 1037.14782714844 1030.47241210938 1032.75549316406 1035.85437011719 1036.029296875 1042.42907714844 1044.92138671875 1035.42431640625 1030.10388183594 1023.48480224609 1008.2529296875 1003.76928710938 1004.50628662109 1000.81701660156 1005.13305664062 995.012756347656 995.89697265625 999.876098632812 1012.87994384766 1018.40509033203 1013.57470703125 1017.66357421875 1020.40222167969 1010.78302001953 1018.27783203125 1016.47930908203 1029.56750488281 1016.93322753906 1020.37231445312 1027.34606933594 1024.16381835938 1027.79187011719 1029.05603027344 1027.39807128906 1018.62896728516 1013.60900878906 1015.1083984375 1009.43560791016 1019.16595458984 1011.44219970703 1010.44219970703 1006.65386962891 1003.51391601562 1000.54156494141 1010.83892822266 1008.72277832031 1002.24481201172 996.423400878906 986.599304199219 985.387817382812 988.193481445312 981.379150390625 984.141723632812 974.624755859375 976.313415527344 981.592468261719 992.141906738281 987.232116699219 987.37939453125 995.797424316406 992.272827148438 995.188415527344 990.839233398438 991.238586425781 989.896911621094 995.001037597656 999.877197265625 994.785949707031 990.674011230469 991.752136230469 984.471557617188 979.2958984375 973.957946777344 961.267456054688 948.104309082031 945.610412597656 938.080261230469 933.822143554688 936.875610351562 945.677551269531 945.431213378906 942.725402832031 951.902282714844 975.505737304688 972.141845703125 987.485595703125 992.447265625 1006.90545654297 1010.56683349609 1019.3671875 1022.09307861328 1026.93713378906 1024.51733398438 1031.79272460938 1039.69714355469 1040.16491699219 1038.6650390625 1049.40808105469 1053.88073730469 1061.650390625 1065.90222167969 1071.89562988281 1078.27758789062 1085.10729980469 1085.638671875 1093.10266113281 1094.48510742188 1093.80639648438 1094.51843261719 1095.65490722656 1098.71350097656 1102.90856933594
959.852111816406 967.156921386719 967.716491699219 959.746520996094 961.791809082031 964.024475097656 973.413696289062 981.136657714844 982.625061035156 966.663024902344 966.726501464844 963.454406738281 962.905212402344 953.1513671875 961.521667480469 960.094604492188 963.589050292969 960.083129882812 973.114379882812 976.963317871094 971.425842285156 975.905517578125 984.279968261719 989.906555175781 1003.71984863281 1005.57360839844 1005.171875 1013.59283447266 1013.23211669922 1007.02410888672 1016.90081787109 1016.80084228516 1024.40661621094 1035.88610839844 1031.05090332031 1031.36560058594 1032.08410644531 1021.84826660156 1028.54931640625 1029.28515625 1035.52258300781 1037.09851074219 1033.58666992188 1036.67260742188 1032.64587402344 1032.36669921875 1017.01300048828 1013.71728515625 1009.22277832031 1002.94256591797 1001.51110839844 1000.65673828125 997.822204589844 994.02587890625 996.912109375 1009.85760498047 1012.79583740234 1013.02270507812 1012.48901367188 1009.52484130859 1012.01812744141 1019.63427734375 1018.08471679688 1023.01354980469 1023.8544921875 1010.77056884766 1021.46936035156 1024.06066894531 1021.22583007812 1025.80541992188 1018.44738769531 1023.63995361328 1027.30712890625 1014.17492675781 1009.65161132812 1005.33990478516 1008.59497070312 1005.59967041016 1000.6904296875 999.644775390625 999.42138671875 1001.00561523438 998.878601074219 1009.54663085938 1001.03625488281 993.82080078125 989.989318847656 988.950561523438 989.559509277344 980.794006347656 981.737731933594 982.7607421875 996.039489746094 996.74560546875 1004.48883056641 1003.14233398438 1005.24841308594 1003.30554199219 999.258056640625 1002.38781738281 997.294311523438 995.066223144531 999.132568359375 988.994873046875 994.73095703125 1001.67614746094 991.527587890625 984.298583984375 978.426696777344 978.105041503906 971.803771972656 955.452026367188 946.275085449219 938.429443359375 928.77197265625 938.107604980469 941.474182128906 951.829956054688 944.320068359375 946.97802734375 953.686340332031 972.892211914062 979.557739257812 990.320556640625 993.060363769531 1002.69781494141 1016.77685546875 1017.59442138672 1025.38110351562 1028.09069824219 1031.30334472656 1039.56616210938 1043.31982421875 1044.68188476562 1050.06665039062 1058.58337402344 1059.08776855469 1058.31909179688 1069.79919433594 1077.18273925781 1079.39660644531 1084.52685546875 1087.17810058594 1082.50891113281 1091.19689941406 1089.27514648438 1085.83801269531 1091.71264648438 1099.42846679688 1106.13916015625
954.251098632812 959.068054199219 962.836120605469 956.555725097656 960.131469726562 965.906982421875 969.984802246094 971.237426757812 965.7490234375 956.400817871094 951.513916015625 956.984680175781 950.674743652344 948.344421386719 956.724670410156 961.6904296875 962.104736328125 960.876281738281 957.948303222656 966.831604003906 970.026489257812 968.956237792969 986.721435546875 994.174072265625 1003.25500488281 1005.41937255859 1009.17712402344 1004.13836669922 1007.76934814453 1004.19934082031 1017.62725830078 1020.54449462891 1021.28637695312 1023.54821777344 1020.87860107422 1018.30688476562 1029.46032714844 1025.10168457031 1031.65087890625 1027.55444335938 1021.32562255859 1027.6787109375 1031.01623535156 1028.93371582031 1017.43359375 1013.99523925781 1016.34173583984 1010.40618896484 1007.55078125 1004.89007568359 1004.05322265625 997.495361328125 1002.15032958984 1000.63073730469 1001.65313720703 1013.69989013672 1015.05340576172 1009.94421386719 1008.89910888672 1007.29382324219 1007.74700927734 1006.72076416016 1007.3740234375 1021.451171875 1018.94256591797 1018.53094482422 1026.80065917969 1032.66625976562 1024.43603515625 1024.97570800781 1017.876953125 1011.00671386719 1011.47320556641 1008.58282470703 1008.78887939453 1003.94671630859 1003.51531982422 1006.81243896484 1005.66656494141 996.396728515625 996.397399902344 993.923461914062 993.635559082031 1005.06164550781 1001.93695068359 1004.64971923828 998.255432128906 995.08544921875 984.156799316406 995.993835449219 986.935852050781 990.836853027344 997.994079589844 1005.69171142578 1009.78814697266 1013.29577636719 1016.68304443359 1011.03497314453 1005.88970947266 1006.92681884766 994.178649902344 988.226135253906 989.960815429688 991.192565917969 994.39990234375 999.742736816406 992.258178710938 984.470520019531 974.809448242188 971.843383789062 967.161315917969 955.751098632812 950.3818359375 934.012451171875 940.404541015625 945.227783203125 944.177978515625 951.40087890625 953.67578125 959.850646972656 971.460815429688 977.665283203125 981.082458496094 993.633239746094 1000.63531494141 1012.35736083984 1018.59362792969 1028.19873046875 1035.97778320312 1032.24243164062 1032.29248046875 1039.22937011719 1044.59790039062 1046.15795898438 1047.71728515625 1051.00268554688 1052.74304199219 1056.50988769531 1068.55590820312 1070.25012207031 1087.99328613281 1089.69665527344 1089.25695800781 1084.56713867188 1085.51196289062 1091.03955078125 1096.67749023438 1097.52355957031 1108.26684570312 1102.9423828125
946.853515625 948.232421875 958.443298339844 950.88330078125 952.615539550781 961.243286132812 954.644409179688 964.983520507812 960.606506347656 953.354370117188 957.010681152344 951.521118164062 947.363952636719 949.318054199219 951.944641113281 956.475952148438 961.038269042969 960.220336914062 962.763549804688 969.3837890625 972.881652832031 977.298767089844 980.667846679688 996.881408691406 997.5849609375 999.8251953125 1005.10021972656 1008.96966552734 1001.45440673828 1000.42749023438 1015.17791748047 1024.62927246094 1024.71472167969 1018.85803222656 1013.78686523438 1020.81024169922 1030.6572265625 1027.37377929688 1027.17236328125 1028.22521972656 1024.794921875 1027.08117675781 1024.24365234375 1019.87567138672 1016.048828125 1007.56439208984 1005.32727050781 1001.20068359375 1002.80078125 1000.28332519531 996.689086914062 1010.94592285156 1002.82354736328 1001.19750976562 1006.4501953125 1009.09680175781 1014.14599609375 1008.3984375 1013.01324462891 1013.20324707031 1010.20806884766 1015.54675292969 1016.01287841797 1016.90936279297 1010.580078125 1020.63348388672 1020.93481445312 1025.39489746094 1020.4921875 1019.47229003906 1015.49536132812 1016.53851318359 1003.79296875 1010.84136962891 1008.33612060547 1012.53930664062 1008.32879638672 1006.51910400391 1004.09509277344 1002.99725341797 991.392700195312 991.592956542969 998.335815429688 998.914855957031 1012.04992675781 1011.30157470703 1003.94543457031 1002.16180419922 1000.92492675781 1001.39605712891 1004.37634277344 1002.30480957031 996.750793457031 1006.03363037109 1022.43951416016 1029.90710449219 1022.31750488281 1011.52520751953 1013.10217285156 1016.91290283203 1004.64233398438 997.827514648438 997.314270019531 1005.34014892578 998.501159667969 1007.49243164062 1006.04107666016 991.878112792969 980.541320800781 974.571228027344 962.533142089844 955.623901367188 945.148559570312 946.857849121094 949.560302734375 942.797485351562 937.421569824219 953.756652832031 962.725036621094 969.721252441406 977.922119140625 983.669128417969 991.00732421875 1010.29583740234 1005.48553466797 1012.58898925781 1022.83337402344 1027.27404785156 1040.00744628906 1043.55041503906 1034.74816894531 1047.48254394531 1050.57299804688 1050.0146484375 1051.52624511719 1046.27966308594 1051.70007324219 1058.60998535156 1066.1689453125 1066.73168945312 1070.35266113281 1076.43725585938 1093.18200683594 1091.3583984375 1087.20324707031 1094.10412597656 1106.32727050781 1108.26525878906 1108.83959960938 1111.99877929688
944.024047851562 938.896850585938 946.342834472656 951.047912597656 948.517211914062 948.976135253906 953.76611328125 949.89306640625 956.784729003906 948.152587890625 952.787109375 955.6787109375 952.24853515625 946.069152832031 950.920104980469 954.005493164062 965.522338867188 963.012878417969 966.517761230469 970.602722167969 974.025024414062 982.867126464844 976.336486816406 982.093139648438 987.924865722656 988.342102050781 994.393371582031 999.025268554688 1001.97729492188 990.950927734375 1004.12823486328 1016.67205810547 1016.1337890625 1011.67376708984 1013.30828857422 1014.1591796875 1027.4501953125 1020.19885253906 1020.83532714844 1023.01824951172 1030.1298828125 1032.2314453125 1028.40026855469 1015.18011474609 1015.52508544922 1014.18310546875 1000.20050048828 998.9521484375 994.041015625 992.775817871094 997.346557617188 996.580444335938 997.123596191406 994.204162597656 1001.173828125 1009.04534912109 1014.251953125 1010.59979248047 1019.59368896484 1018.72503662109 1016.61529541016 1016.00073242188 1019.62683105469 1010.64337158203 1015.67022705078 1024.19543457031 1017.89617919922 1021.78039550781 1014.18707275391 1019.20526123047 1018.10900878906 1008.45819091797 1003.99017333984 1007.41918945312 1008.50219726562 1006.24224853516 1011.32977294922 1003.81451416016 995.510009765625 994.054077148438 995.392028808594 979.339111328125 993.776916503906 1002.35815429688 1008.64074707031 1014.60852050781 1016.93731689453 1008.09039306641 1007.57653808594 1013.96728515625 1018.85040283203 1018.76037597656 1019.45733642578 1024.87084960938 1026.77502441406 1028.03955078125 1024.17260742188 1020.16381835938 1021.28942871094 1020.59777832031 1013.85681152344 1010.01483154297 1001.78460693359 1003.33483886719 1002.70190429688 1003.24084472656 1006.98461914062 994.281066894531 985.221130371094 972.274353027344 972.439880371094 955.524658203125 950.8369140625 943.64404296875 948.627502441406 947.924438476562 951.356079101562 966.015014648438 970.068786621094 982.870239257812 992.167846679688 998.055419921875 995.713806152344 1016.13482666016 1015.62707519531 1025.54382324219 1025.17333984375 1028.1103515625 1044.74768066406 1042.47778320312 1051.09765625 1049.58166503906 1050.65979003906 1050.70776367188 1047.25671386719 1055.59057617188 1053.44580078125 1059.0283203125 1064.45812988281 1063.37182617188 1071.82434082031 1078.83312988281 1092.39294433594 1093.693359375 1098.70251464844 1107.7060546875 1110.49060058594 1118.71716308594 1106.04748535156 1118.82629394531
938.181701660156 942.365478515625 944.202026367188 943.891662597656 948.299499511719 947.447448730469 951.610717773438 950.720031738281 956.934143066406 954.585021972656 954.666381835938 956.686462402344 957.888916015625 953.661560058594 950.880737304688 955.735229492188 960.3037109375 969.590270996094 963.652587890625 979.413330078125 985.008605957031 989.908813476562 986.029235839844 980.153930664062 985.4638671875 981.623107910156 990.141723632812 993.010925292969 990.404846191406 992.108337402344 998.69287109375 1009.68200683594 1007.94470214844 1012.47540283203 1013.51342773438 1004.80737304688 1010.45227050781 1012.90582275391 1005.62084960938 1011.01666259766 1018.49743652344 1023.28521728516 1024.28112792969 1007.91186523438 1008.48876953125 1009.04962158203 1003.970703125 1001.02410888672 994.815063476562 992.011413574219 989.046630859375 986.373107910156 991.133850097656 993.5341796875 996.282165527344 1009.45471191406 1010.64477539062 1004.39019775391 1015.939453125 1016.68609619141 1019.97680664062 1008.49530029297 1011.64215087891 1005.83941650391 1015.61907958984 1015.45867919922 1020.33508300781 1016.3076171875 1016.41363525391 1014.08148193359 1004.06488037109 996.467651367188 992.978759765625 1000.33679199219 1002.02252197266 1007.62915039062 999.390625 994.789916992188 992.875549316406 997.460144042969 997.545349121094 990.107788085938 994.406616210938 1001.58221435547 1009.67144775391 1013.96630859375 1011.93231201172 1017.29992675781 1022.54742431641 1017.35943603516 1022.53399658203 1033.37622070312 1031.36682128906 1036.73840332031 1035.61535644531 1032.71423339844 1025.11743164062 1022.58361816406 1027.07922363281 1026.54638671875 1015.96008300781 1007.15155029297 1002.52758789062 1004.16693115234 1006.08654785156 1013.92126464844 1008.05456542969 998.256042480469 988.746887207031 986.586364746094 974.338073730469 967.447143554688 953.591247558594 946.884521484375 945.332397460938 958.020751953125 958.307983398438 973.748046875 985.9765625 986.596801757812 1000.82318115234 1002.55700683594 1010.98974609375 1013.31079101562 1029.10668945312 1036.55505371094 1034.83288574219 1034.7900390625 1039.84375 1047.32275390625 1054.46520996094 1045.72778320312 1053.67150878906 1052.89624023438 1053.68615722656 1047.75207519531 1047.85034179688 1063.40454101562 1057.02026367188 1062.23376464844 1061.39562988281 1081.16833496094 1090.55029296875 1095.5546875 1094.60107421875 1104.396484375 1113.15576171875 1112.07336425781 1112.19006347656 1111.1806640625
949.119018554688 946.83056640625 941.461181640625 934.162292480469 937.467102050781 950.736389160156 942.288269042969 949.422119140625 954.431457519531 949.769775390625 958.14892578125 953.352783203125 957.282043457031 950.54541015625 957.121459960938 967.201538085938 970.83447265625 972.262084960938 967.985412597656 982.707580566406 980.900390625 981.683959960938 981.064514160156 982.870483398438 985.3388671875 991.646179199219 995.117126464844 991.199523925781 986.934387207031 991.270324707031 998.283935546875 1003.38616943359 1000.32171630859 1009.52557373047 999.886413574219 1005.57751464844 1006.39965820312 993.915893554688 990.176208496094 990.588623046875 1009.97216796875 1002.82275390625 1009.32867431641 1004.05877685547 999.340270996094 1001.29833984375 1003.53057861328 1003.71960449219 998.887084960938 988.307922363281 993.933044433594 990.793518066406 989.404296875 998.575866699219 990.487365722656 1007.62182617188 1005.84912109375 1009.79522705078 1018.76824951172 1014.08123779297 1011.30163574219 1004.58587646484 999.132568359375 1012.24066162109 1012.30072021484 1013.20281982422 1011.91821289062 1012.2568359375 1007.47113037109 1008.30932617188 999.97119140625 987.926818847656 989.151733398438 998.62353515625 1001.80163574219 1002.26385498047 1000.16937255859 994.76806640625 996.422058105469 994.763549804688 994.23876953125 993.384460449219 999.728210449219 1000.19769287109 1009.25970458984 1006.82971191406 1004.89215087891 1005.86840820312 1025.55944824219 1022.74072265625 1025.33386230469 1034.54260253906 1031.2763671875 1032.72534179688 1045.30883789062 1038.14221191406 1030.38537597656 1028.16027832031 1018.25653076172 1021.32946777344 1013.43316650391 1009.63354492188 1003.82531738281 1004.28680419922 1005.52368164062 1004.17974853516 1015.15655517578 1005.53228759766 997.140808105469 989.142211914062 972.627380371094 962.268371582031 956.514892578125 951.681579589844 945.697692871094 947.556579589844 960.456970214844 966.555969238281 975.36279296875 989.576721191406 998.913391113281 1004.37286376953 1016.09271240234 1023.0302734375 1029.55041503906 1037.07885742188 1033.2861328125 1037.9013671875 1043.70910644531 1053.23608398438 1056.34326171875 1047.90673828125 1053.7978515625 1049.24938964844 1054.17919921875 1046.5693359375 1050.41833496094 1054.88146972656 1057.34704589844 1062.30432128906 1051.53894042969 1071.25048828125 1087.38464355469 1084.26342773438 1086.1103515625 1092.83374023438 1100.02795410156 1106.40856933594 1107.76879882812 1107.9970703125
952.828308105469 945.203308105469 944.583862304688 937.494995117188 944.5244140625 953.048278808594 954.12451171875 948.841003417969 948.777526855469 954.981384277344 961.677551269531 957.781921386719 950.175659179688 958.824035644531 968.07666015625 964.532348632812 967.337707519531 972.876281738281 971.177917480469 978.787170410156 978.355651855469 980.453735351562 988.051025390625 988.943908691406 990.674865722656 995.3515625 997.081848144531 995.502868652344 984.98876953125 992.249084472656 993.617614746094 995.269836425781 995.099182128906 1001.21710205078 1011.52764892578 996.299560546875 1006.63647460938 994.452087402344 999.270446777344 992.311584472656 996.226379394531 994.991271972656 989.862548828125 996.870849609375 1001.40246582031 1007.72564697266 996.443969726562 1005.97210693359 1008.16912841797 998.281188964844 991.167663574219 988.491760253906 988.438598632812 987.487548828125 994.113952636719 1000.57702636719 1008.96997070312 1006.19085693359 1009.00274658203 1011.34356689453 1009.03527832031 998.361511230469 1017.55462646484 1019.55499267578 1021.93786621094 1022.59228515625 1015.90344238281 997.328125 1004.53881835938 1009.5146484375 1000.17218017578 995.064331054688 985.394775390625 992.377380371094 995.440734863281 997.353942871094 993.799194335938 982.105834960938 988.0458984375 1002.34527587891 992.910278320312 982.71533203125 996.940734863281 989.553405761719 1000.10223388672 1002.92883300781 1002.62933349609 1007.06890869141 1021.50933837891 1022.59185791016 1028.35241699219 1034.24780273438 1037.38647460938 1037.05541992188 1042.07275390625 1035.09436035156 1030.54638671875 1031.51245117188 1015.94110107422 1006.41882324219 1003.462890625 1005.54602050781 999.905151367188 1005.96551513672 1002.43365478516 1005.01434326172 1003.43438720703 1001.80706787109 990.186645507812 981.705810546875 970.819396972656 959.346313476562 950.542175292969 951.372253417969 942.658813476562 954.256652832031 962.530578613281 971.128112792969 976.438171386719 983.056396484375 995.513793945312 1008.40405273438 1020.84692382812 1027.20861816406 1029.41320800781 1037.80249023438 1034.193359375 1038.89489746094 1036.43249511719 1035.06506347656 1038.26904296875 1039.50378417969 1046.48352050781 1043.02014160156 1043.28210449219 1039.03662109375 1044.90844726562 1051.49865722656 1059.67663574219 1061.5439453125 1063.84631347656 1067.78503417969 1077.61889648438 1080.10949707031 1085.64880371094 1095.90673828125 1102.33630371094 1093.93322753906 1098.91943359375 1111.07397460938
944.490234375 946.940551757812 948.657043457031 943.157043457031 948.570068359375 952.322082519531 958.546752929688 948.641906738281 957.781127929688 953.025085449219 965.862365722656 962.678466796875 964.594299316406 969.207763671875 974.351684570312 969.901611328125 971.886291503906 972.592041015625 982.282287597656 981.8037109375 982.834411621094 982.942565917969 991.324035644531 988.988586425781 991.317932128906 991.820373535156 994.292114257812 985.585266113281 985.042297363281 991.486511230469 988.200073242188 999.542358398438 1002.99517822266 999.846435546875 1000.40411376953 1002.5830078125 1001.24694824219 991.6328125 994.570861816406 994.461547851562 991.365417480469 990.957763671875 991.283020019531 992.933654785156 995.854187011719 994.391296386719 1002.86895751953 1005.79229736328 1001.77203369141 1000.95770263672 1003.98309326172 998.047668457031 991.320617675781 988.114990234375 991.162414550781 992.763916015625 1002.87268066406 1001.44073486328 1000.94537353516 1003.47619628906 1005.69702148438 1006.97009277344 1009.07073974609 1012.13470458984 1025.07653808594 1012.19329833984 1000.37670898438 1009.34124755859 1008.50775146484 1014.08557128906 1001.20794677734 993.862182617188 997.408935546875 1003.88024902344 995.198974609375 994.037353515625 986.6103515625 989.747009277344 992.923950195312 1000.47308349609 994.922729492188 989.09765625 993.339660644531 992.068725585938 1000.52026367188 1008.38140869141 1009.46838378906 1013.1923828125 1024.58203125 1021.42364501953 1020.57250976562 1031.45874023438 1035.44372558594 1041.06433105469 1046.39135742188 1034.79992675781 1032.41943359375 1017.88690185547 1014.67010498047 1011.05346679688 1003.5341796875 1003.9443359375 998.472412109375 1006.95452880859 1011.24517822266 1003.65234375 1002.96221923828 997.934143066406 992.545471191406 975.100280761719 966.225891113281 963.937438964844 949.822937011719 954.811889648438 950.875305175781 954.244323730469 961.309631347656 974.904846191406 977.257019042969 991.858825683594 998.958984375 1017.86773681641 1019.54705810547 1030.74877929688 1038.18688964844 1042.78674316406 1054.51770019531 1043.41540527344 1035.16235351562 1037.88342285156 1035.29418945312 1030.57202148438 1030.69787597656 1041.44116210938 1044.11840820312 1042.46826171875 1042.76098632812 1053.87731933594 1061.98071289062 1071.43676757812 1063.67846679688 1065.42407226562 1072.40600585938 1069.20324707031 1081.80798339844 1089.66784667969 1090.27014160156 1095.96069335938 1101.20922851562 1099.60961914062
947.982666015625 949.882141113281 951.915710449219 954.273742675781 953.262939453125 950 953.845092773438 955.806884765625 955.121826171875 960.440124511719 956.249450683594 959.97314453125 967.89306640625 979.757507324219 976.95556640625 971.814636230469 972.594665527344 978.526794433594 989.669677734375 983.417114257812 976.280578613281 979.845092773438 990.198181152344 994.865295410156 1000.84771728516 990.874267578125 992.189697265625 987.116455078125 987.822326660156 997.185852050781 1001.08941650391 999.607666015625 994.969970703125 989.751159667969 999.726196289062 1000.40075683594 997.896789550781 993.428833007812 990.531127929688 985.929870605469 985.981811523438 988.193237304688 994.651428222656 995.446105957031 993.44091796875 996.394714355469 995.843383789062 997.607360839844 998.255615234375 997.180786132812 994.199096679688 993.848449707031 995.081604003906 988.568359375 992.924499511719 996.010009765625 998.6884765625 997.64453125 999.517272949219 996.914794921875 999.719116210938 1000.70513916016 1003.68957519531 1004.35119628906 1003.86474609375 1007.73229980469 1002.71215820312 1005.07904052734 1010.6279296875 1007.90771484375 1004.33990478516 1000.30633544922 997.807922363281 999.792724609375 999.713684082031 988.734375 991.546569824219 994.361694335938 992.85498046875 993.232543945312 993.403442382812 995.288940429688 998.5185546875 1004.06762695312 1003.59436035156 1014.21740722656 1019.67730712891 1018.77856445312 1017.94232177734 1025.55541992188 1027.95581054688 1030.34851074219 1033.39562988281 1037.34069824219 1034.42614746094 1036.38232421875 1031.31298828125 1018.5546875 1017.50006103516 1013.67346191406 1004.56756591797 1008.72729492188 1011.74530029297 1008.38995361328 1003.13165283203 1004.39447021484 1003.90106201172 997.751159667969 995.234130859375 975.620849609375 970.822631835938 971.930786132812 958.363098144531 957.702270507812 954.319946289062 954.797424316406 963.729736328125 976.489135742188 980.454406738281 998.128112792969 1011.38275146484 1013.73327636719 1019.94464111328 1026.41857910156 1025.72265625 1041.87805175781 1053.46484375 1045.55786132812 1039.93859863281 1035.22058105469 1034.62768554688 1030.02465820312 1034.46630859375 1035.2509765625 1035.71362304688 1042.67028808594 1049.0498046875 1049.19689941406 1056.49462890625 1074.294921875 1067.63525390625 1068.51354980469 1074.15515136719 1073.24157714844 1075.353515625 1086.59875488281 1087.31762695312 1090.47778320312 1095.13989257812 1089.63000488281
955.464172363281 961.262268066406 953.284301757812 957.094604492188 962.619201660156 954.367492675781 952.40185546875 957.711364746094 959.466430664062 959.924072265625 957.84765625 955.993408203125 966.203369140625 979.994323730469 972.972045898438 981.089294433594 974.675048828125 989.583068847656 993.046813964844 987.293212890625 985.519897460938 983.171325683594 992.0732421875 1003.50378417969 995.148376464844 992.992431640625 984.13330078125 994.07958984375 987.406616210938 985.586242675781 991.518371582031 991.21044921875 991.570007324219 988.15087890625 989.652709960938 988.799926757812 990.174560546875 983.811462402344 981.761901855469 985.51806640625 978.404541015625 994.451049804688 990.990783691406 997.494018554688 990.715148925781 1001.94158935547 995.552001953125 999.214172363281 1000.90686035156 995.72802734375 995.377075195312 990.396301269531 985.692138671875 989.460266113281 990.968566894531 987.394592285156 984.835327148438 997.900024414062 992.091064453125 989.591857910156 990.962341308594 1002.71069335938 1001.33477783203 1000.26037597656 1006.61993408203 996.514526367188 1001.88128662109 1004.94268798828 1007.81311035156 1007.7373046875 1003.17633056641 1001.19171142578 1000.03839111328 999.609130859375 995.99072265625 995.592041015625 997.133666992188 995.043090820312 988.306335449219 986.651428222656 989.946411132812 987.592712402344 996.322692871094 1007.07244873047 1017.09844970703 1015.25445556641 1021.35076904297 1021.15765380859 1010.41644287109 1024.03466796875 1033.37866210938 1020.64880371094 1030.05529785156 1029.9541015625 1028.77600097656 1028.826171875 1027.88171386719 1020.56927490234 1010.89935302734 1016.64074707031 1011.24896240234 1013.18853759766 1013.10327148438 1010.68981933594 1018.45843505859 1006.85723876953 998.167602539062 987.229919433594 982.134521484375 971.433288574219 958.719482421875 963.991516113281 955.676208496094 939.693298339844 943.643371582031 955.701782226562 970.184204101562 982.897827148438 991.327270507812 994.37890625 1003.3173828125 1013.61712646484 1016.2216796875 1024.52880859375 1028.505859375 1036.55249023438 1048.08435058594 1044.84997558594 1027.95239257812 1033.70959472656 1031.40563964844 1033.76257324219 1028.35083007812 1029.36926269531 1024.04858398438 1030.10290527344 1045.30969238281 1043.0263671875 1054.00866699219 1068.64562988281 1070.49072265625 1075.37390136719 1076.29357910156 1081.52783203125 1084.73107910156 1085.25537109375 1088.43359375 1088.50695800781 1090.78405761719 1092.87854003906
961.044189453125 956.321838378906 965.743713378906 960.87646484375 958.838439941406 964.579772949219 963.527404785156 963.340454101562 965.358642578125 962.633178710938 953.413452148438 965.533325195312 973.094970703125 976.515625 976.443054199219 981.901611328125 982.874572753906 984.619201660156 988.63671875 984.755126953125 980.627624511719 983.047058105469 987.04296875 991.589599609375 992.487487792969 989.327758789062 986.095764160156 984.003295898438 982.282287597656 987.870544433594 981.833312988281 974.226440429688 984.726013183594 989.829223632812 993.328125 986.725769042969 989.783813476562 982.359619140625 980.205932617188 982.209228515625 978.207824707031 988.267639160156 991.079467773438 987.424682617188 994.750122070312 998.979187011719 989.663757324219 996.493347167969 1001.80035400391 987.166564941406 982.507568359375 985.003234863281 985.533874511719 981.193908691406 984.369445800781 975.929626464844 982.18408203125 981.527282714844 984.784729003906 986.985107421875 991.010131835938 998.030090332031 1000.67919921875 996.016174316406 995.247619628906 995.182739257812 997.141662597656 996.278503417969 997.666809082031 1002.95544433594 1005.18743896484 996.776306152344 996.639831542969 993.028259277344 994.862182617188 997.448608398438 991.496337890625 984.020751953125 986.271118164062 984.89794921875 982.445495605469 988.597839355469 994.438354492188 1007.87994384766 1012.80718994141 1012.96612548828 1009.29833984375 1010.27008056641 1006.06219482422 1021.35150146484 1025.93005371094 1019.63317871094 1019.40618896484 1013.12860107422 1022.48345947266 1025.73229980469 1024.70751953125 1020.37213134766 1007.41082763672 1012.16528320312 1015.17352294922 1020.82403564453 1019.90649414062 1020.97161865234 1009.23315429688 1004.01672363281 1002.13525390625 990.972595214844 981.843811035156 979.716613769531 966.434631347656 966.111755371094 953.619934082031 944.104431152344 945.843811035156 951.668090820312 972.687805175781 977.87548828125 983.018676757812 990.4970703125 996.216918945312 1004.56793212891 1011.11761474609 1015.46984863281 1020.00396728516 1025.07775878906 1026.52502441406 1036.07397460938 1030.904296875 1030.7255859375 1024.56469726562 1033.21228027344 1031.79333496094 1024.76135253906 1026.48388671875 1033.31311035156 1034.8681640625 1041.76782226562 1053.40930175781 1071.41003417969 1071.24816894531 1076.72839355469 1076.44104003906 1077.30737304688 1090.90002441406 1098.84228515625 1102.55480957031 1102.01196289062 1095.47814941406 1097.94738769531
952.002014160156 956.778259277344 953.071594238281 968.564697265625 970.250427246094 973.350830078125 973.531066894531 976.019958496094 964.802490234375 962.635498046875 958.98388671875 966.256652832031 975.544006347656 984.622680664062 977.953491210938 978.659973144531 972.302490234375 981.142395019531 979.211059570312 981.468566894531 992.182006835938 983.936828613281 987.165893554688 986.557983398438 981.978454589844 981.6591796875 986.692932128906 982.614013671875 978.38916015625 985.438720703125 989.923278808594 982.917541503906 979.691345214844 983.122802734375 989.598815917969 987.052673339844 994.731506347656 988.779724121094 984.156494140625 986.000366210938 982.833251953125 988.735046386719 997.831237792969 992.2607421875 992.767150878906 994.259399414062 991.934020996094 994.184143066406 986.394470214844 982.914306640625 978.614990234375 978.043823242188 976.930603027344 981.467895507812 977.015808105469 971.509216308594 978.919189453125 979.068786621094 978.386474609375 982.636352539062 988.151794433594 990.228515625 1000.06158447266 994.191711425781 995.161315917969 991.750793457031 991.020690917969 994.439514160156 994.088256835938 989.85546875 996.858642578125 993.306213378906 991.275085449219 992.358276367188 997.799560546875 981.746948242188 978.833068847656 979.507507324219 980.564880371094 976.647155761719 992.832275390625 995.351745605469 995.638916015625 1016.86547851562 1016.28552246094 1015.15368652344 1019.52893066406 1010.38208007812 1011.17950439453 1015.51782226562 1019.99768066406 1021.54644775391 1023.28277587891 1016.99304199219 1014.29187011719 1017.70452880859 1014.16821289062 1008.49926757812 1016.15411376953 1021.10394287109 1018.40649414062 1026.73315429688 1017.69494628906 1016.83929443359 1014.12487792969 1005.67541503906 996.863586425781 990.756591796875 989.769592285156 978.872131347656 974.358642578125 965.290771484375 967.554992675781 953.355712890625 953.549499511719 960.277465820312 972.584289550781 977.000061035156 980.054992675781 986.062377929688 995.220703125 1005.65032958984 1009.30969238281 1014.69512939453 1013.1328125 1023.90313720703 1026.43920898438 1022.8623046875 1030.55102539062 1028.82873535156 1022.83410644531 1031.33435058594 1020.93389892578 1019.40277099609 1019.77728271484 1024.58605957031 1035.26391601562 1031.20080566406 1055.93054199219 1062.13732910156 1070.42517089844 1069.12316894531 1076.91284179688 1085.41918945312 1100.29833984375 1107.63500976562 1103.22448730469 1102.17126464844 1100.96838378906 1110.46850585938
958.048156738281 955.175048828125 953.049987792969 964.637023925781 974.129699707031 970.996398925781 972.357238769531 976.90380859375 967.920715332031 959.123596191406 962.02978515625 962.589782714844 979.652160644531 978.614501953125 983.267517089844 984.853393554688 983.525329589844 973.605773925781 975.460266113281 983.981323242188 979.250671386719 980.2939453125 986.390258789062 982.638916015625 983.164245605469 983.104553222656 979.320922851562 985.052551269531 980.722839355469 985.062744140625 982.278991699219 987.997497558594 986.374328613281 989.067260742188 991.888671875 986.714538574219 982.060302734375 989.862121582031 995.141479492188 983.369079589844 980.5380859375 988.703735351562 997.908874511719 993.315063476562 992.729858398438 988.103576660156 985.600952148438 987.291748046875 992.553100585938 987.77734375 981.992065429688 977.88916015625 980.119934082031 973.845947265625 973.368896484375 974.401489257812 977.212036132812 981.798706054688 977.726867675781 975.098999023438 983.507751464844 983.307922363281 993.995300292969 994.062194824219 986.080749511719 996.277954101562 990.346923828125 995.148010253906 1001.94744873047 988.760192871094 994.322937011719 989.269165039062 991.43310546875 992.681945800781 988.043640136719 981.864013671875 976.92822265625 981.667297363281 976.420532226562 977.040832519531 989.973815917969 1002.43865966797 1010.06549072266 1019.23040771484 1018.82147216797 1017.47332763672 1015.96441650391 1009.53094482422 1010.87158203125 1013.08013916016 1019.27868652344 1024.38354492188 1019.70733642578 1020.10803222656 1017.37524414062 1024.61779785156 1018.3701171875 1017.5615234375 1024.392578125 1035.47961425781 1019.04351806641 1017.41735839844 1017.18591308594 1014.63049316406 1005.93640136719 992.660278320312 994.819274902344 999.276184082031 995.684753417969 987.797546386719 985.796630859375 974.322937011719 960.812805175781 957.804992675781 957.959899902344 960.454467773438 972.674560546875 982.778137207031 980.305969238281 980.147094726562 985.415710449219 1001.06140136719 1002.81195068359 1014.75256347656 1023.634765625 1018.58135986328 1021.64422607422 1021.10784912109 1023.50714111328 1027.42138671875 1021.53381347656 1015.00506591797 1011.076171875 1013.62347412109 1016.07135009766 1018.79473876953 1021.96771240234 1026.91040039062 1038.18762207031 1051.57189941406 1061.42175292969 1069.27331542969 1081.67077636719 1097.42138671875 1108.69165039062 1104.78991699219 1100.93090820312 1102.72265625 1112.37109375 1115.38330078125
950.622314453125 958.447875976562 963.900573730469 959.057434082031 970.336975097656 972.143798828125 972.297973632812 969.8251953125 974.446533203125 965.337768554688 966.960021972656 970.633178710938 969.417297363281 976.283996582031 977.385314941406 985.728759765625 975.249694824219 977.685668945312 976.631958007812 977.510925292969 975.071472167969 982.466857910156 984.697021484375 983.667114257812 991.446655273438 982.456359863281 982.436462402344 979.187927246094 980.805419921875 980.115600585938 992.928466796875 992.569396972656 989.737365722656 986.712890625 981.432800292969 980.520080566406 988.291320800781 978.318969726562 983.93896484375 984.369812011719 980.308776855469 992.704040527344 1002.39508056641 1000.037109375 990.623413085938 986.204956054688 982.918151855469 983.314575195312 988.139404296875 985.17138671875 983.63134765625 976.615356445312 977.798950195312 970.083374023438 987.741638183594 976.940307617188 974.579895019531 975.667419433594 983.446594238281 978.496826171875 973.951232910156 985.804565429688 984.962890625 996.660766601562 988.335266113281 991.692077636719 986.628112792969 997.124328613281 1001.39923095703 1001.70178222656 989.841247558594 983.409851074219 984.127868652344 987.538330078125 981.469970703125 982.617431640625 972.039428710938 978.677001953125 994.177917480469 993.040344238281 999.740051269531 1000.32775878906 1009.57562255859 1009.03173828125 1009.74493408203 1007.72216796875 1004.81744384766 1009.35394287109 1017.23968505859 1015.23742675781 1021.77117919922 1028.09265136719 1022.74151611328 1027.55920410156 1023.82946777344 1016.39178466797 1021.24853515625 1025.91174316406 1026.45690917969 1020.34442138672 1020.95892333984 1018.33807373047 1007.798828125 1010.92022705078 1004.90490722656 992.371032714844 997.309753417969 995.490966796875 998.347534179688 995.144653320312 983.331726074219 977.746154785156 974.698547363281 968.291381835938 960.141052246094 962.87255859375 967.557983398438 981.128356933594 988.795959472656 986.758239746094 993.282104492188 995.796752929688 1003.44671630859 1011.31030273438 1021.5439453125 1023.61950683594 1020.03759765625 1014.79943847656 1017.87280273438 1021.73345947266 1022.37451171875 1014.7275390625 1015.90960693359 1021.34741210938 1018.38537597656 1017.35919189453 1014.25299072266 1023.35534667969 1036.67553710938 1043.16418457031 1059.65051269531 1070.54943847656 1077.68811035156 1095.82043457031 1092.67858886719 1104.39111328125 1101.49157714844 1099.13916015625 1108.53356933594 1109.66979980469
947.670288085938 953.959716796875 960.347778320312 956.752990722656 969.031372070312 971.309448242188 970.426452636719 973.229370117188 976.350280761719 975.925598144531 974.861145019531 973.4541015625 971.002868652344 976.290466308594 982.963134765625 978.392150878906 975.253112792969 978.494812011719 975.81689453125 977.887268066406 979.32177734375 974.503967285156 992.373352050781 991.596862792969 990.314636230469 994.661315917969 981.018005371094 986.568298339844 976.974182128906 979.524719238281 981.486328125 991.010314941406 989.238098144531 990.150939941406 985.372375488281 984.544799804688 980.813781738281 984.480529785156 981.806823730469 979.894714355469 981.986633300781 994.173645019531 1000.173828125 992.876647949219 991.888122558594 986.773498535156 981.431518554688 974.699096679688 980.70751953125 982.742126464844 979.414672851562 973.733581542969 980.289733886719 969.261657714844 980.565979003906 977.953491210938 975.647033691406 978.694519042969 979.841003417969 982.605285644531 977.70751953125 980.372619628906 986.838073730469 985.177917480469 992.607727050781 999.07373046875 988.55908203125 988.225646972656 988.803649902344 984.492797851562 978.461486816406 980.856628417969 977.891906738281 991.12109375 979.039733886719 983.760437011719 984.079345703125 993.223266601562 1000.57238769531 999.717895507812 1003.35681152344 1000.68103027344 1016.82629394531 1009.75451660156 1003.76544189453 998.390991210938 1002.65325927734 1005.52850341797 1020.88586425781 1023.63647460938 1020.09002685547 1021.19207763672 1031.5869140625 1028.16687011719 1020.50445556641 1022.39593505859 1017.42553710938 1020.68701171875 1007.21496582031 1005.14379882812 1002.80718994141 1003.61395263672 1003.95306396484 1003.75531005859 998.942016601562 995.795593261719 997.261108398438 994.969909667969 995.284851074219 991.3603515625 997.967468261719 989.041809082031 976.637329101562 967.441162109375 965.383178710938 966.401550292969 971.548889160156 980.002014160156 987.438659667969 995.500549316406 1000.03881835938 997.126586914062 998.892395019531 1014.67309570312 1003.65832519531 1014.31323242188 1015.54412841797 1008.58221435547 1009.30389404297 1013.77252197266 1015.30438232422 1012.23638916016 1018.10052490234 1019.98120117188 1012.068359375 1017.59014892578 1015.16394042969 1022.51483154297 1036.78833007812 1048.88659667969 1061.15051269531 1070.05053710938 1080.59716796875 1098.22766113281 1104.14562988281 1103.6962890625 1102.669921875 1108.03771972656 1117.63610839844 1123.20886230469
949.778503417969 962.904846191406 955.581604003906 962.937072753906 973.530944824219 975.663635253906 967.211853027344 972.675109863281 980.55859375 980.409851074219 974.988159179688 972.150085449219 968.874145507812 969.263427734375 973.402648925781 976.140380859375 974.248901367188 976.383178710938 974.513122558594 977.731750488281 980.313903808594 983.530212402344 984.306640625 995.775695800781 994.185974121094 987.667236328125 982.649719238281 983.698608398438 971.449157714844 974.525085449219 987.055725097656 996.571716308594 993.8798828125 995.069396972656 984.470153808594 984.896728515625 985.77978515625 974.103210449219 976.212646484375 973.835693359375 979.087219238281 987.970275878906 985.60693359375 980.503967285156 980.438415527344 983.2548828125 981.464050292969 981.213073730469 980.554138183594 976.095825195312 973.025451660156 973.679931640625 971.358276367188 970.929016113281 977.085388183594 975.401550292969 967.461608886719 967.455200195312 969.088012695312 983.929077148438 983.802062988281 990.890930175781 985.757385253906 985.294738769531 985.649841308594 988.543212890625 991.875183105469 988.705322265625 982.465515136719 972.55810546875 976.342590332031 977.476928710938 978.736877441406 985.619934082031 977.568664550781 986.823608398438 986.646240234375 990.315673828125 997.078186035156 1001.43121337891 999.729309082031 998.239379882812 1010.23913574219 1002.681640625 1003.88677978516 1000.61590576172 991.876525878906 1002.98760986328 1014.18878173828 1019.33148193359 1012.24151611328 1026.20336914062 1031.62072753906 1024.19641113281 1014.76043701172 1000.26409912109 1006.73907470703 1005.02716064453 1004.88671875 993.822998046875 992.929809570312 995.96728515625 992.242614746094 1007.05975341797 1000.17730712891 993.529235839844 997.61279296875 993.719970703125 985.716674804688 993.972717285156 995.360107421875 986.637634277344 986.542724609375 982.493103027344 981.210388183594 974.247680664062 975.51806640625 977.729248046875 985.089416503906 1001.15954589844 1007.26684570312 1005.85803222656 1004.20892333984 1004.40368652344 1003.92028808594 1009.06213378906 1010.24652099609 1004.36791992188 1008.353515625 1005.22161865234 1014.45709228516 1011.52209472656 1015.02465820312 1017.06237792969 1018.93762207031 1026.44787597656 1030.40991210938 1029.73583984375 1036.84326171875 1047.10290527344 1070.32702636719 1078.3935546875 1082.7177734375 1094.64343261719 1100.81335449219 1110.07543945312 1110.60400390625 1120.21325683594 1123.68627929688 1131.09326171875
956.281921386719 960.806335449219 959.438049316406 965.94970703125 961.379577636719 968.560791015625 972.108154296875 972.393371582031 970.181091308594 978.333374023438 973.000305175781 968.325256347656 973.958374023438 972.872436523438 979.67236328125 978.353149414062 976.437438964844 978.846618652344 974.302124023438 976.041137695312 976.685546875 982.417602539062 985.243103027344 986.496948242188 991.358276367188 983.271362304688 980.255432128906 973.174133300781 973.4326171875 977.096740722656 981.816345214844 993.736755371094 994.674194335938 995.355102539062 989.053466796875 985.85009765625 979.520751953125 979.277587890625 974.190551757812 979.148681640625 975.998229980469 985.954711914062 981.18603515625 976.804626464844 979.907043457031 984.682373046875 997.286254882812 990.292907714844 980.096496582031 973.893737792969 976.8017578125 963.920593261719 975.05322265625 970.442810058594 970.303955078125 971.577453613281 962.777099609375 967.870666503906 971.180969238281 978.677429199219 979.270385742188 982.891906738281 982.544677734375 983.335815429688 977.060607910156 973.86474609375 975.574829101562 978.110778808594 971.400268554688 968.039184570312 973.120361328125 980.639831542969 979.764892578125 978.197326660156 984.091125488281 972.984619140625 983.010925292969 1000.97045898438 997.110290527344 996.667053222656 999.468627929688 994.60693359375 1005.51556396484 993.514831542969 992.385131835938 995.317932128906 992.722778320312 1006.58575439453 1007.23065185547 1014.68157958984 1010.51580810547 1022.72833251953 1021.39611816406 1013.48059082031 1001.40307617188 1010.77648925781 993.957153320312 983.688781738281 993.816162109375 987.088745117188 985.537902832031 992.847778320312 1004.95391845703 1004.76721191406 996.46875 993.956481933594 1001.18756103516 989.264282226562 981.35009765625 987.132141113281 993.003356933594 988.962768554688 993.566833496094 997.607849121094 995.653076171875 988.447631835938 982.806030273438 980.573791503906 984.866882324219 1002.96118164062 1006.95849609375 999.463684082031 996.563232421875 1001.38226318359 1001.46441650391 1002.12683105469 1008.42681884766 1008.83361816406 1005.79125976562 1006.84661865234 1007.42694091797 1009.55987548828 1014.37121582031 1025.86596679688 1024.68017578125 1028.701171875 1036.767578125 1044.36889648438 1041.67919921875 1055.5693359375 1071.91833496094 1072.75500488281 1090.79724121094 1092.41247558594 1109.32690429688 1118.92980957031 1121.3623046875 1125.82885742188 1129.17102050781 1127.57653808594
954.177612304688 957.635131835938 953.885864257812 960.068664550781 962.975891113281 968.106323242188 975.029296875 972.557678222656 975.567260742188 973.588684082031 974.890930175781 972.601867675781 972.118103027344 971.5390625 972.481506347656 975.115844726562 978.991882324219 980.257263183594 969.675842285156 966.8583984375 968.093078613281 976.911315917969 980.663757324219 973.236999511719 984.405700683594 978.2451171875 972.164001464844 963.264831542969 965.807922363281 976.988586425781 982.79345703125 994.389587402344 993.286254882812 990.153686523438 985.571533203125 979.283630371094 981.13427734375 978.216796875 973.059509277344 973.88037109375 974.014587402344 974.748657226562 969.52587890625 975.771240234375 973.363403320312 974.087768554688 979.373779296875 986.463806152344 979.439697265625 985.683166503906 976.518798828125 968.820922851562 973.592956542969 969.607360839844 965.837280273438 965.807495117188 974.88134765625 974.948669433594 979.155883789062 978.699584960938 973.787170410156 976.428100585938 971.926513671875 980.759338378906 975.126708984375 967.898010253906 971.352844238281 970.3701171875 962.365661621094 970.510925292969 973.803100585938 984.717346191406 982.455078125 974.388549804688 967.690612792969 978.364685058594 988.654968261719 990.887512207031 992.947082519531 994.248840332031 998.672546386719 999.292785644531 994.108947753906 990.127075195312 985.675903320312 992.940063476562 996.252258300781 1000.56787109375 1004.06121826172 1012.20275878906 1011.31384277344 1012.61572265625 1011.02679443359 1009.24078369141 1006.66479492188 1004.69268798828 995.796997070312 986.225891113281 983.244140625 980.1484375 982.010437011719 983.331420898438 995.559814453125 994.006958007812 986.739562988281 991.262390136719 998.917907714844 991.488830566406 988.466857910156 990.306213378906 988.019836425781 991.296447753906 994.793334960938 1002.49658203125 1003.59088134766 984.866333007812 982.623291015625 984.220581054688 996.035278320312 1001.60791015625 999.601257324219 1002.59686279297 1008.60162353516 1006.20562744141 1004.99493408203 1005.49285888672 1010.76208496094 1003.10675048828 997.911193847656 999.397644042969 1006.06872558594 1000.73937988281 1015.43194580078 1014.19110107422 1029.4814453125 1040.82104492188 1044.68298339844 1041.61376953125 1052.02368164062 1056.6962890625 1074.90112304688 1077.83959960938 1080.20373535156 1100.05639648438 1106.38342285156 1115.92944335938 1123.99731445312 1132.88000488281 1132.6416015625 1136.6767578125
962.663269042969 962.318176269531 961.031066894531 970.347778320312 967.800964355469 975.051513671875 970.923767089844 972.188354492188 960.742980957031 968.219421386719 970.929260253906 972.596008300781 979.24462890625 970.567138671875 963.845581054688 978.37255859375 978.069519042969 976.267639160156 974.651916503906 982.030212402344 974.255554199219 981.080810546875 979.661071777344 971.772521972656 979.344909667969 968.109680175781 963.238037109375 964.411437988281 971.727783203125 966.760986328125 973.858337402344 980.480651855469 982.9404296875 982.053833007812 981.864074707031 983.2587890625 982.715637207031 982.978210449219 980.328552246094 974.266296386719 967.954650878906 963.182739257812 969.544738769531 967.692687988281 965.629943847656 970.554138183594 969.800964355469 978.468139648438 981.914245605469 984.262451171875 977.317565917969 975.950561523438 968.574829101562 969.371459960938 965.346008300781 964.272399902344 975.58056640625 974.91064453125 969.688537597656 965.153015136719 970.932250976562 977.035522460938 975.61474609375 980.9814453125 975.595458984375 972.733154296875 976.382995605469 967.794738769531 962.84130859375 976.646789550781 973.376037597656 975.289001464844 974.161254882812 975.10546875 975.014038085938 980.785949707031 982.202026367188 984.323669433594 990.103393554688 986.360229492188 988.247314453125 995.092407226562 989.63330078125 982.429504394531 984.791076660156 992.4365234375 996.887878417969 1005.06567382812 1003.14678955078 1004.54827880859 1006.28387451172 1008.62518310547 1013.65576171875 1007.37683105469 1002.29498291016 1002.37738037109 995.697631835938 983.816650390625 976.089233398438 983.294616699219 975.218078613281 988.119262695312 995.759216308594 988.926086425781 985.505798339844 992.721069335938 1002.5966796875 996.848083496094 990.532958984375 985.7958984375 988.623901367188 998.215270996094 991.528991699219 999.948364257812 992.499084472656 997.551452636719 991.809265136719 992.797973632812 998.140014648438 998.180725097656 994.148010253906 1008.08642578125 1008.09808349609 1003.49694824219 1009.54803466797 1007.88580322266 1011.20190429688 999.39111328125 996.4189453125 1003.61413574219 1015.13336181641 1023.16314697266 1023.78558349609 1020.88488769531 1034.02648925781 1036.51904296875 1044.22570800781 1046.06701660156 1061.23388671875 1066.35278320312 1079.87194824219 1080.25549316406 1089.83239746094 1107.45068359375 1115.20275878906 1126.9990234375 1140.41101074219 1140.83776855469 1142.14147949219 1146.88012695312
959.002258300781 961.74609375 968.300048828125 965.711547851562 966.928833007812 968.11376953125 980.019409179688 960.064880371094 960.948181152344 956.241821289062 971.888244628906 970.664733886719 972.557861328125 973.391540527344 973.406311035156 974.615173339844 984.880187988281 979.404968261719 977.191772460938 983.993041992188 980.362976074219 978.508605957031 983.815795898438 975.305786132812 972.701599121094 975.040954589844 981.420837402344 971.366394042969 973.36572265625 971.390075683594 979.593566894531 966.876342773438 971.960754394531 972.742004394531 975.896728515625 985.117126464844 977.01806640625 979.940185546875 980.2724609375 980.791198730469 967.973999023438 970.522583007812 966.842346191406 962.381164550781 963.174743652344 970.349548339844 967.059692382812 978.043029785156 980.81103515625 980.54638671875 971.079895019531 977.204833984375 971.374572753906 974.052917480469 968.218627929688 977.400085449219 977.362060546875 970.296691894531 971.12353515625 959.515197753906 963.086547851562 978.2373046875 979.036315917969 978.289367675781 980.388671875 982.748107910156 971.095458984375 972.14892578125 969.865966796875 976.789855957031 973.29736328125 971.642272949219 966.387756347656 971.492797851562 976.319885253906 973.18359375 979.975341796875 985.179077148438 986.563354492188 986.8857421875 988.293029785156 991.19775390625 987.946411132812 981.948120117188 979.652465820312 989.055725097656 981.686950683594 992.183227539062 991.277648925781 1006.09838867188 998.489807128906 996.407165527344 1001.41217041016 1000.98931884766 1004.17468261719 991.264282226562 992.361572265625 991.835754394531 980.343566894531 979.489990234375 979.559997558594 987.1669921875 989.2353515625 993.90673828125 983.430480957031 992.455810546875 997.387756347656 993.752746582031 997.780578613281 987.827209472656 980.862915039062 996.798400878906 1003.30847167969 999.417724609375 999.486022949219 995.083984375 1003.82720947266 993.705322265625 987.080505371094 987.024108886719 995.527221679688 1007.21484375 1006.60174560547 1005.35589599609 996.46044921875 999.432373046875 995.033081054688 996.951171875 995.193176269531 1007.69464111328 1018.94879150391 1023.94189453125 1022.97583007812 1028.869140625 1028.39514160156 1042.44677734375 1050.59289550781 1054.04235839844 1066.19750976562 1074.79370117188 1078.86547851562 1087.14794921875 1101.84973144531 1108.98657226562 1120.80529785156 1134.37609863281 1148.94323730469 1147.68859863281 1154.70983886719 1156.59191894531
