NCOLS 150
NROWS 37
XLLCORNER 7394249
YLLCORNER 4842029
CELLSIZE 30
NODATA_VALUE -9999
960.283813476562 964.503540039062 966.483337402344 959.812072753906 965.701232910156 959.395812988281 965.158386230469 973.700988769531 962.174438476562 963.001708984375 957.3544921875 953.476684570312 944.763610839844 947.523864746094 945.766296386719 941.947937011719 945.507873535156 944.570617675781 950.622985839844 954.815673828125 966.479614257812 962.185180664062 957.928527832031 950.863952636719 940.612731933594 940.149597167969 939.063171386719 937.406799316406 944.815795898438 957.680725097656 955.999206542969 956.960510253906 953.075622558594 953.701171875 955.247802734375 951.484069824219 948.030395507812 946.453857421875 947.813232421875 945.859802246094 944.302856445312 941.604675292969 943.684936523438 953.577819824219 952.226623535156 943.195251464844 952.94580078125 949.274780273438 944.50830078125 950.370910644531 952.7685546875 952.105895996094 947.402770996094 953.520446777344 953.994201660156 968.76318359375 976.8056640625 973.740295410156 963.240295410156 965.237731933594 968.869445800781 963.623291015625 966.503723144531 962.007385253906 967.383728027344 961.732055664062 960.293395996094 964.251220703125 963.671325683594 972.474670410156 964.111389160156 962.847717285156 976.284484863281 974.041381835938 973.156311035156 978.661804199219 971.462585449219 960.358154296875 962.025146484375 963.466491699219 968.720092773438 973.033569335938 972.831787109375 984.090454101562 981.165954589844 973.303161621094 975.579956054688 972.823852539062 971.980285644531 976.128051757812 971.229187011719 970.006164550781 967.654602050781 961.871459960938 970.924560546875 974.761474609375 974.805297851562 976.402099609375 991.140808105469 1000.66540527344 991.348937988281 985.216247558594 987.779968261719 984.855651855469 975.673461914062 969.697937011719 970.893371582031 989.433959960938 997.510986328125 996.398681640625 990.277770996094 998.859375 1005.61968994141 1021.96624755859 1023.97064208984 1030.86755371094 1024.09936523438 1017.56500244141 1010.07165527344 1013.46002197266 1013.82641601562 1004.935546875 1009.28155517578 1013.11157226562 1020.66937255859 1013.64105224609 1018.98736572266 1023.30908203125 1011.94055175781 1020.41839599609 1037.47595214844 1049.0537109375 1049.97338867188 1042.6025390625 1055.50720214844 1051.21264648438 1046.69592285156 1045.54382324219 1043.833984375 1038.2080078125 1025.06628417969 1018.92138671875 1018.77203369141 1027.10864257812 1020.85461425781 1032.81506347656 1039.30212402344 1039.37536621094 1043.29284667969 1039.90686035156
967.852172851562 960.999267578125 959.583862304688 953.601928710938 958.561584472656 956.636779785156 956.488464355469 962.129943847656 969.550048828125 961.687194824219 957.717590332031 953.588256835938 943.24755859375 942.273681640625 941.970397949219 939.796447753906 938.126892089844 939.190734863281 939.7861328125 945.359436035156 953.410339355469 955.769897460938 954.365600585938 949.470153808594 941.435485839844 945.709594726562 945.489196777344 941.087097167969 943.981079101562 949.508178710938 948.113220214844 953.898498535156 952.988342285156 945.624328613281 942.229736328125 942.866577148438 949.675598144531 952.381469726562 945.588012695312 952.240234375 947.228942871094 957.039489746094 955.26611328125 956.499206542969 959.964111328125 960.584228515625 959.441772460938 950.796325683594 951.126281738281 952.50537109375 957.303466796875 951.3056640625 957.584899902344 963.258117675781 970.789367675781 975.209411621094 984.579040527344 975.706665039062 975.683227539062 968.231506347656 971.169128417969 965.133483886719 968.134826660156 972.365905761719 971.203125 962.320251464844 957.265502929688 961.726745605469 970.64501953125 968.6513671875 962.832214355469 963.366333007812 969.643249511719 968.120727539062 971.451904296875 969.122985839844 975.486267089844 970.721557617188 961.948974609375 963.406372070312 970.63427734375 970.468505859375 969.575317382812 985.190307617188 981.714050292969 977.094055175781 986.904357910156 977.870422363281 977.584350585938 981.231750488281 973.365295410156 966.558898925781 976.483154296875 973.669616699219 970.087280273438 976.532958984375 979.848571777344 986.696594238281 991.710083007812 995.593627929688 995.183166503906 994.966064453125 988.364929199219 985.280517578125 980.510009765625 972.957580566406 976.205017089844 987.314147949219 1003.76690673828 999.372436523438 995.003601074219 1000.01812744141 1003.82897949219 1019.52746582031 1020.98638916016 1025.48010253906 1018.66162109375 1009.71942138672 1014.26812744141 1010.91491699219 1007.76013183594 1013.42156982422 1008.65325927734 1016.8193359375 1026.19897460938 1019.58941650391 1023.17761230469 1017.04473876953 1024.56713867188 1025.28747558594 1032.38073730469 1037.80603027344 1044.78564453125 1050.69689941406 1049.90051269531 1048.99194335938 1049.33581542969 1042.72155761719 1034.35729980469 1036.58227539062 1024.63818359375 1026.09265136719 1015.39831542969 1013.34643554688 1014.30615234375 1028.28967285156 1031.16235351562 1024.38940429688 1024.173828125 1031.60205078125
958.893798828125 957.062805175781 948.784118652344 957.518676757812 949.145751953125 946.108581542969 946.290222167969 947.467529296875 947.267578125 951.861267089844 949.842895507812 941.767761230469 951.008361816406 950.66650390625 938.785766601562 942.934204101562 941.077819824219 937.396606445312 939.36279296875 953.502868652344 949.909606933594 947.576843261719 949.698303222656 942.898681640625 946.320007324219 949.906433105469 948.198303222656 940.236328125 946.492492675781 942.07177734375 938.363403320312 938.685607910156 939.600158691406 949.8212890625 944.14697265625 943.946350097656 946.7314453125 957.22900390625 955.896789550781 955.802856445312 950.345642089844 958.185852050781 962.09619140625 951.892456054688 964.700134277344 964.18310546875 966.9052734375 955.748413085938 951.977844238281 954.017578125 962.775085449219 961.779052734375 961.133178710938 959.867004394531 972.206604003906 981.596313476562 974.267456054688 972.999694824219 968.535766601562 975.411499023438 974.721984863281 967.410095214844 964.730102539062 972.123474121094 971.691528320312 967.18896484375 960.167175292969 966.820739746094 970.805236816406 970.930725097656 975.491760253906 977.736511230469 983.614868164062 971.028930664062 973.296142578125 974.979125976562 977.103088378906 971.047119140625 964.357666015625 963.419616699219 969.6962890625 969.484252929688 980.648803710938 982.550720214844 982.274719238281 981.28857421875 981.592407226562 984.762634277344 982.159423828125 972.135437011719 972.861328125 960.642578125 973.020874023438 977.009460449219 980.00439453125 984.1572265625 987.461303710938 992.148010253906 992.553466796875 1001.82440185547 996.958923339844 997.448181152344 984.971435546875 990.217529296875 999.371398925781 984.515014648438 986.815185546875 995.97705078125 1004.1220703125 1004.4609375 1002.54650878906 1013.50561523438 1005.39569091797 1023.49987792969 1027.18273925781 1016.79620361328 1013.61492919922 1010.10577392578 1011.97607421875 1011.61260986328 1012.33441162109 1015.78900146484 1016.40826416016 1017.67266845703 1014.87158203125 1019.74920654297 1022.58673095703 1022.61688232422 1022.412109375 1037.064453125 1027.66735839844 1035.58825683594 1038.87194824219 1042.14208984375 1047.17333984375 1040.72912597656 1043.05493164062 1032.19592285156 1031.33288574219 1032.94836425781 1030.72521972656 1030.7470703125 1026.43542480469 1013.64343261719 1018.74359130859 1028.02978515625 1030.16821289062 1023.94219970703 1019.15325927734 1025.17065429688
951.727661132812 951.8525390625 947.069763183594 949.298828125 952.008483886719 951.116943359375 948.824279785156 943.290832519531 945.872619628906 938.014892578125 938.822875976562 943.782165527344 953.017822265625 946.581359863281 941.065551757812 946.035278320312 940.297546386719 945.018127441406 941.789611816406 942.363525390625 949.554931640625 946.79736328125 949.423889160156 952.59765625 947.160583496094 955.35595703125 950.047058105469 951.462463378906 949.40283203125 941.225891113281 935.947448730469 936.927917480469 939.489929199219 942.760925292969 952.965087890625 954.784912109375 951.426086425781 953.726013183594 961.689636230469 959.960754394531 956.230407714844 959.172790527344 961.047058105469 964.533142089844 962.366943359375 973.637634277344 968.099731445312 960.496704101562 970.094421386719 970.491333007812 967.560791015625 969.172973632812 966.45654296875 954.244567871094 962.257446289062 971.724243164062 983.596862792969 978.131469726562 974.3310546875 970.283203125 972.022644042969 969.330261230469 961.632141113281 965.807556152344 966.462890625 963.07763671875 969.655334472656 973.284790039062 966.614929199219 969.570617675781 978.2060546875 979.84912109375 975.22119140625 969.269592285156 973.191650390625 972.967407226562 971.507141113281 963.901489257812 972.577026367188 972.748779296875 975.627807617188 976.182495117188 982.296447753906 988.858459472656 986.031616210938 980.234313964844 980.742370605469 979.451904296875 978.058227539062 975.615539550781 973.847351074219 973.061950683594 971.382751464844 976.983581542969 978.093444824219 981.140808105469 984.938049316406 993.157836914062 996.319519042969 999.243286132812 996.739562988281 995.815185546875 994.144836425781 996.134460449219 999.53857421875 999.279724121094 991.499816894531 1000.50830078125 1004.04650878906 1001.68176269531 1005.21221923828 1014.30413818359 1021.17340087891 1017.56756591797 1012.52825927734 1022.27001953125 1014.14935302734 1014.75164794922 1023.25286865234 1021.46569824219 1018.40277099609 1016.66925048828 1020.75598144531 1022.5234375 1018.44891357422 1020.59497070312 1009.59790039062 1024.01440429688 1031.57165527344 1031.39135742188 1028.28295898438 1035.14965820312 1041.91479492188 1040.52856445312 1049.16735839844 1028.58764648438 1019.17193603516 1023.68902587891 1020.93054199219 1024.38806152344 1028.00793457031 1032.0166015625 1022.85791015625 1027.22998046875 1019.19494628906 1018.16027832031 1013.66143798828 1017.35888671875 1007.57556152344 1013.43609619141
959.204040527344 949.587768554688 941.515930175781 943.927062988281 951.92822265625 955.520751953125 952.431762695312 942.92041015625 945.40185546875 941.204406738281 944.47412109375 946.806762695312 941.955932617188 944.486511230469 945.394409179688 940.95068359375 943.657104492188 942.325866699219 944.428039550781 951.183654785156 955.13623046875 955.34033203125 945.059997558594 949.937683105469 961.271179199219 957.287048339844 952.826232910156 946.679748535156 944.566101074219 942.586303710938 942.640319824219 939.416625976562 943.091186523438 947.718933105469 944.595031738281 957.209777832031 962.695007324219 956.601440429688 956.123046875 969.586364746094 965.7216796875 960.219299316406 964.565185546875 961.943176269531 965.741027832031 961.755920410156 966.836730957031 968.628356933594 968.776000976562 972.451599121094 960.429138183594 964.6962890625 964.824523925781 965.590087890625 961.561889648438 974.080688476562 986.780578613281 975.705749511719 976.321350097656 971.12744140625 974.744995117188 962.665649414062 958.55712890625 964.573486328125 969.681762695312 982.621826171875 974.551147460938 975.627319335938 968.549926757812 975.606323242188 979.609985351562 976.51318359375 983.232971191406 977.505615234375 980.369018554688 975.698486328125 975.805541992188 967.891784667969 976.377075195312 971.017028808594 975.509643554688 977.493835449219 981.647521972656 986.885437011719 978.416198730469 977.167114257812 972.912963867188 965.537414550781 978.099365234375 979.912719726562 966.718811035156 973.185180664062 975.799133300781 972.657836914062 961.820495605469 970.024291992188 977.062744140625 989.169250488281 993.471374511719 1000.77490234375 997.525512695312 998.00244140625 991.635925292969 993.015930175781 989.231384277344 1001.54046630859 999.496643066406 1012.36248779297 1005.97668457031 996.56201171875 1006.03161621094 1017.85559082031 1017.04296875 1013.61236572266 1016.17559814453 1026.73229980469 1024.8564453125 1026.46252441406 1024.68469238281 1028.36755371094 1024.26721191406 1029.75524902344 1032.22644042969 1030.92724609375 1025.82312011719 1023.73199462891 1023.13134765625 1016.80364990234 1026.63354492188 1036.29968261719 1038.74975585938 1043.77551269531 1041.59436035156 1036.98742675781 1035.36450195312 1030.02795410156 1022.29669189453 1034.43908691406 1033.59716796875 1026.060546875 1024.02856445312 1024.14111328125 1021.5927734375 1018.52996826172 1016.47827148438 1012.54425048828 1002.77703857422 1009.42065429688 1002.13470458984 1000.16973876953
958.732788085938 943.895080566406 940.259033203125 946.516723632812 950.851623535156 941.784301757812 939.878967285156 936.57080078125 937.963256835938 939.860473632812 940.095031738281 940.655517578125 938.209655761719 944.255065917969 946.101196289062 948.689147949219 945.827331542969 941.534545898438 950.396240234375 946.208312988281 948.285583496094 951.695190429688 952.29541015625 951.228454589844 956.116516113281 956.136474609375 955.57177734375 947.497802734375 950.196472167969 948.133239746094 952.477722167969 956.194946289062 946.021667480469 934.121765136719 947.206420898438 959.084655761719 954.107238769531 959.714233398438 967.032409667969 971.986511230469 973.280700683594 961.889709472656 962.790283203125 958.677429199219 965.962951660156 971.660339355469 963.562683105469 967.588073730469 974.565673828125 977.787902832031 964.743835449219 962.276794433594 961.410949707031 966.306457519531 971.338745117188 970.382141113281 974.252563476562 977.519714355469 976.030334472656 967.803161621094 973.042358398438 966.703186035156 957.837768554688 963.825256347656 964.905578613281 970.505676269531 971.564758300781 959.421020507812 960.513549804688 969.808227539062 973.772644042969 979.411560058594 971.483520507812 977.87890625 978.225341796875 983.796997070312 973.866516113281 969.526245117188 975.597045898438 970.469909667969 973.958923339844 972.109008789062 986.316833496094 983.073913574219 983.450378417969 983.395141601562 984.200500488281 974.134704589844 977.490600585938 976.979858398438 971.398803710938 974.188354492188 971.448974609375 970.10888671875 968.764343261719 981.799194335938 987.005859375 991.136291503906 993.709106445312 1004.9208984375 994.047973632812 993.377868652344 997.798156738281 993.671875 992.413879394531 996.558654785156 997.52734375 1008.65301513672 1007.79327392578 1003.96160888672 1007.46301269531 1010.24548339844 1004.16217041016 1007.93469238281 1023.29699707031 1027.16723632812 1023.32836914062 1024.89428710938 1036.81091308594 1038.88586425781 1036.24951171875 1034.28039550781 1041.05871582031 1034.62731933594 1029.03918457031 1027.80444335938 1034.24865722656 1024.09545898438 1016.07012939453 1038.28747558594 1048.5009765625 1040.69836425781 1036.24658203125 1032.28295898438 1030.09143066406 1036.16857910156 1021.31457519531 1043.74353027344 1038.86975097656 1030.72106933594 1016.30627441406 1016.38128662109 1020.35949707031 1016.52758789062 1015.01293945312 1010.34014892578 1004.04547119141 1005.79083251953 1015.07604980469 1006.53662109375
950.404052734375 945.446228027344 944.248718261719 943.822509765625 941.062805175781 944.710998535156 933.434020996094 933.945983886719 934.12841796875 938.485900878906 941.760559082031 943.583801269531 945.017578125 954.598999023438 949.562927246094 952.005920410156 949.113342285156 950.127990722656 956.192810058594 949.951232910156 948.749877929688 959.703369140625 954.933044433594 955.221374511719 950.998168945312 953.15478515625 959.356689453125 959.283935546875 960.847290039062 953.582153320312 954.32568359375 953.342529296875 948.37255859375 950.341064453125 957.284790039062 966.189514160156 965.003540039062 961.937194824219 968.280395507812 973.191772460938 962.826477050781 960.792419433594 971.265869140625 964.16943359375 967.824645996094 973.59130859375 966.068298339844 967.114990234375 978.484741210938 981.585205078125 964.80126953125 967.170043945312 968.063110351562 966.772705078125 979.06201171875 974.91357421875 979.53955078125 968.235229492188 974.788330078125 981.942199707031 968.464599609375 967.981506347656 962.016052246094 955.20703125 958.959716796875 964.262634277344 968.197021484375 967.888427734375 961.407409667969 964.101623535156 969.594848632812 974.241516113281 969.597595214844 974.683837890625 975.486572265625 980.337890625 983.550537109375 969.593505859375 969.636413574219 969.277160644531 975.162231445312 977.67724609375 982.454650878906 982.563598632812 984.4384765625 982.670227050781 981.329406738281 979.513305664062 978.154602050781 976.983032226562 967.823181152344 972.818298339844 974.458801269531 978.601928710938 981.722290039062 989.224609375 987.015686035156 997.123718261719 1005.41021728516 997.052612304688 997.789123535156 999.268920898438 993.159545898438 992.470947265625 991.519714355469 1000.041015625 1003.36682128906 1000.68884277344 1006.13604736328 1004.47052001953 1004.61071777344 1003.35949707031 1003.94140625 1012.13525390625 1014.43756103516 1017.419921875 1021.6005859375 1030.83557128906 1035.87219238281 1039.48791503906 1049.5712890625 1052.97045898438 1048.14147949219 1038.46166992188 1037.95251464844 1029.13427734375 1021.98022460938 1017.51574707031 1017.08752441406 1030.34594726562 1031.21484375 1043.69396972656 1036.833984375 1036.95056152344 1032.29333496094 1033.29956054688 1032.31665039062 1026.61474609375 1022.06451416016 1023.48193359375 1022.43542480469 1016.62677001953 1015.14343261719 1011.12017822266 1017.36633300781 1005.939453125 1007.30450439453 1004.35455322266 1008.27850341797 1009.96264648438
956.585571289062 945.362121582031 944.496154785156 946.207458496094 951.380615234375 943.666015625 937.523498535156 930.598022460938 938.308044433594 941.121765136719 935.569702148438 938.377746582031 948.166931152344 958.83740234375 951.562377929688 954.515441894531 962.234375 956.145324707031 959.168762207031 963.119384765625 961.052673339844 964.320678710938 964.734558105469 957.416687011719 959.967834472656 959.421691894531 955.208435058594 968.347778320312 963.581298828125 964.719665527344 967.013427734375 960.936584472656 954.060180664062 951.420837402344 957.014892578125 969.862243652344 968.324890136719 969.851989746094 970.244079589844 964.986145019531 966.703857421875 958.311706542969 956.847351074219 971.061950683594 972.325256347656 980.986328125 978.059936523438 980.145812988281 984.356323242188 979.942321777344 973.211791992188 970.0224609375 967.470092773438 975.274963378906 975.030944824219 976.602355957031 979.255981445312 969.11328125 974.846923828125 975.365905761719 975.117980957031 972.721496582031 968.623840332031 964.91357421875 960.922546386719 966.073120117188 971.994506835938 969.292663574219 958.484741210938 962.574157714844 972.844970703125 978.736145019531 979.20654296875 979.18701171875 985.09716796875 983.258972167969 988.826171875 980.167846679688 974.738342285156 974.139770507812 976.521728515625 980.158874511719 981.653625488281 986.145202636719 989.476745605469 987.361145019531 986.045593261719 988.048156738281 985.571228027344 979.103942871094 975.536682128906 973.726379394531 972.5263671875 978.910278320312 981.452575683594 986.218078613281 993.628784179688 996.911499023438 1002.89453125 999.791442871094 997.269653320312 997.308044433594 998.656921386719 997.221435546875 997.434936523438 1004.76373291016 1008.09289550781 1005.77325439453 1012.73699951172 1003.4736328125 1012.28979492188 1004.03259277344 1009.14978027344 1011.13104248047 1011.27917480469 1020.96057128906 1021.0390625 1027.54345703125 1043.02856445312 1050.55737304688 1049.74633789062 1054.53845214844 1051.58630371094 1042.4716796875 1034.73718261719 1026.24743652344 1028.47485351562 1021.01239013672 1018.43670654297 1023.64874267578 1032.70776367188 1035.03588867188 1039.05505371094 1044.45654296875 1039.44226074219 1033.06799316406 1030.97094726562 1026.34301757812 1016.64038085938 1016.29339599609 1010.06243896484 1011.15814208984 1013.44488525391 1016.39849853516 1008.91845703125 1001.13146972656 997.013244628906 999.8505859375 1004.78857421875 1006.75939941406
951.499084472656 943.766418457031 943.728271484375 938.057495117188 946.898803710938 950.850891113281 944.196655273438 931.52001953125 935.29541015625 940.888244628906 941.921936035156 941.134460449219 948.413452148438 956.247741699219 956.729125976562 958.038513183594 961.935974121094 958.673400878906 965.581176757812 966.217956542969 962.556396484375 967.843811035156 967.321716308594 966.480102539062 962.994812011719 965.292114257812 957.151672363281 969.470764160156 966.106201171875 965.956481933594 967.416015625 974.445617675781 965.663146972656 963.220458984375 970.273864746094 978.257263183594 962.752380371094 968.901550292969 973.419677734375 969.546325683594 966.503967285156 962.798156738281 960.108093261719 965.336059570312 978.001403808594 985.591064453125 984.860961914062 989.844543457031 990.075622558594 992.518920898438 984.954895019531 983.453002929688 987.388366699219 983.485168457031 983.044982910156 985.239379882812 980.72802734375 974.923156738281 972.726501464844 974.374877929688 969.602722167969 973.175048828125 964.009338378906 967.669616699219 969.428588867188 965.124633789062 968.900634765625 969.457092285156 962.94189453125 967.650756835938 972.825988769531 977.618286132812 989.066467285156 980.580993652344 981.754150390625 975.452941894531 981.945251464844 972.89013671875 976.28564453125 974.359680175781 975.637268066406 985.296691894531 984.014099121094 993.810729980469 994.619750976562 991.305419921875 993.480651855469 983.217041015625 988.031494140625 980.199340820312 982.258056640625 973.054504394531 970.49658203125 981.606201171875 982.818359375 980.615356445312 992.346618652344 1002.04943847656 1001.07586669922 996.156616210938 998.23583984375 1004.01336669922 1006.41314697266 1001.22576904297 1005.23999023438 1014.33599853516 1014.66192626953 1009.57055664062 1016.43548583984 1009.36676025391 1015.06701660156 1011.0234375 1009.62237548828 1010.28637695312 1011.14508056641 1021.49127197266 1025.89672851562 1030.52331542969 1039.93908691406 1046.03784179688 1045.79174804688 1042.04895019531 1043.3857421875 1039.9912109375 1036.19006347656 1030.54650878906 1033.94580078125 1021.06146240234 1023.0517578125 1019.48254394531 1031.73486328125 1032.60046386719 1041.44348144531 1044.56909179688 1050.25598144531 1041.77038574219 1021.39135742188 1014.52941894531 1011.57531738281 1014.09747314453 1004.92626953125 1003.06127929688 1006.37481689453 1006.83013916016 1008.3876953125 1005.75219726562 995.452026367188 1001.33093261719 1006.29205322266 1005.97131347656
945.143859863281 938.731689453125 938.793640136719 938.203247070312 939.553344726562 936.214294433594 931.521667480469 938.308227539062 936.197570800781 939.763122558594 941.036376953125 949.817810058594 954.037963867188 967.302795410156 968.440856933594 966.562133789062 965.959106445312 966.974365234375 961.637023925781 971.304931640625 980.884460449219 978.286499023438 982.022338867188 981.113891601562 968.283081054688 957.692565917969 957.494995117188 960.975280761719 969.136779785156 970.317321777344 974.442687988281 967.194702148438 973.449523925781 968.121215820312 967.566650390625 968.465087890625 961.661010742188 970.464721679688 980.005615234375 969.453369140625 961.950012207031 954.646850585938 966.481872558594 974.835876464844 981.819274902344 985.13671875 992.315124511719 999.450317382812 988.852111816406 993.167419433594 996.634643554688 990.207885742188 985.030151367188 989.534423828125 987.310180664062 979.050720214844 977.375061035156 975.104248046875 978.130859375 976.326416015625 969.738647460938 962.483825683594 961.264831542969 970.741088867188 970.328369140625 975.901611328125 982.82275390625 984.368347167969 977.44091796875 973.462097167969 973.244384765625 981.981628417969 986.232116699219 990.960144042969 982.133666992188 978.638488769531 983.313659667969 979.171203613281 993.650817871094 975.310791015625 978.708190917969 985.007019042969 987.790283203125 992.985656738281 996.422546386719 995.345642089844 990.096435546875 980.548767089844 980.590637207031 981.105102539062 984.266296386719 977.329162597656 974.554504394531 986.487121582031 992.213195800781 990.033020019531 993.1015625 998.026672363281 993.730285644531 999.195495605469 996.628234863281 999.005187988281 999.784484863281 1004.15997314453 1007.04156494141 1011.23345947266 1017.22601318359 1011.81024169922 1006.40405273438 1022.52764892578 1017.00201416016 1012.66436767578 1005.30889892578 1022.82672119141 1025.85412597656 1032.91943359375 1028.77197265625 1026.18530273438 1033.66674804688 1031.78881835938 1035.83959960938 1038.5048828125 1043.42639160156 1034.92431640625 1033.67565917969 1035.07165527344 1025.88549804688 1019.55773925781 1019.95086669922 1019.06384277344 1024.43896484375 1032.92932128906 1028.44689941406 1030.45703125 1045.36889648438 1031.07360839844 1020.69195556641 1013.24450683594 999.6435546875 1001.63238525391 994.78857421875 996.90087890625 1009.68530273438 1010.74591064453 1000.43597412109 999.006042480469 1002.60815429688 995.57861328125 999.494262695312 996.059875488281
947.285949707031 944.296020507812 937.41455078125 940.674499511719 930.199584960938 932.652221679688 940.406555175781 937.147155761719 942.677978515625 940.490478515625 953.111267089844 961.37744140625 963.891357421875 975.673400878906 971.955444335938 976.351135253906 964.000366210938 962.473510742188 960.796203613281 971.840209960938 988.143676757812 990.3818359375 989.269775390625 977.260559082031 973.902221679688 965.564575195312 958.039001464844 961.170532226562 970.875366210938 981.184265136719 978.013244628906 985.764404296875 984.086791992188 967.162841796875 971.499145507812 968.114685058594 972.289306640625 972.572387695312 977.614074707031 972.548645019531 972.008056640625 962.392395019531 967.867492675781 981.315368652344 994.213317871094 993.709167480469 994.034973144531 1005.14190673828 998.343383789062 1004.58459472656 1010.12823486328 1001.34252929688 993.3037109375 987.830200195312 980.08447265625 975.521179199219 977.17041015625 973.623229980469 980.08935546875 972.050598144531 978.237548828125 973.894958496094 965.061889648438 973.288696289062 975.979553222656 982.242614746094 978.722778320312 981.142150878906 976.062866210938 975.163452148438 978.034790039062 980.6728515625 990.625 993.779541015625 1000.60974121094 986.224487304688 983.785583496094 984.128356933594 987.2197265625 976.5908203125 984.942993164062 984.994506835938 984.763061523438 988.058776855469 989.179992675781 992.317749023438 982.542724609375 980.317810058594 975.3896484375 976.795593261719 977.843811035156 987.663146972656 979.537780761719 984.6640625 993.645324707031 999.939819335938 1006.62390136719 1000.9560546875 1004.44879150391 994.912292480469 1002.11242675781 1006.24053955078 1011.39758300781 1013.27996826172 1018.06256103516 1012.04278564453 1013.56756591797 1012.61279296875 1007.14758300781 1019.46337890625 1018.12493896484 1016.62219238281 1015.44903564453 1019.73187255859 1021.09588623047 1027.83081054688 1032.38012695312 1035.65026855469 1034.74853515625 1042.21264648438 1036.95141601562 1045.40771484375 1034.06652832031 1035.537109375 1036.75769042969 1025.84167480469 1024.73852539062 1017.98895263672 1016.57598876953 1010.27160644531 1021.39233398438 1024.44702148438 1017.57385253906 1025.70520019531 1033.35656738281 1025.56652832031 1026.65270996094 1011.51788330078 1007.94476318359 1006.16571044922 999.617004394531 1001.56915283203 1014.41278076172 1011.46539306641 1000.68524169922 999.058654785156 1001.90081787109 995.226135253906 995.361694335938 991.925842285156
949.362915039062 944.090026855469 936.668029785156 933.028259277344 932.13037109375 935.802368164062 944.094665527344 942.621948242188 940.604064941406 946.65478515625 962.958435058594 967.814147949219 973.882080078125 977.44189453125 977.850158691406 968.502563476562 971.503479003906 967.864807128906 968.833435058594 970.612670898438 975.778686523438 987.429077148438 983.911376953125 976.355041503906 973.910278320312 970.73779296875 963.595336914062 966.465637207031 978.428161621094 977.334411621094 980.080932617188 967.651733398438 974.629089355469 973.481750488281 964.611694335938 965.027587890625 970.969909667969 970.960754394531 982.600158691406 973.392822265625 973.494689941406 972.629333496094 975.622497558594 984.531982421875 990.262939453125 995.950622558594 1003.984375 1002.81573486328 1002.39483642578 1014.94512939453 1009.18939208984 994.166687011719 993.553283691406 989.050415039062 981.515441894531 975.90576171875 973.146240234375 981.461181640625 981.384948730469 973.619750976562 981.1123046875 975.494995117188 973.732177734375 983.258056640625 974.518188476562 984.739929199219 987.821472167969 990.556335449219 985.013916015625 983.609558105469 978.567138671875 982.64013671875 988.151611328125 996.328552246094 1000.95233154297 988.832885742188 985.719055175781 982.140258789062 992.035339355469 992.60791015625 985.735168457031 978.889343261719 978.960083007812 983.206237792969 993.301391601562 996.953735351562 987.260009765625 983.580200195312 986.198608398438 979.119567871094 983.445129394531 989.757019042969 985.844848632812 989.726867675781 995.507568359375 999.244323730469 1009.51434326172 1002.22125244141 1000.18762207031 990.727478027344 996.614074707031 997.420288085938 1007.16821289062 1010.57250976562 1016.03729248047 1006.46624755859 1012.611328125 1007.67834472656 1011.7255859375 1013.98431396484 1027.7373046875 1027.84436035156 1025.55786132812 1025.19836425781 1016.31243896484 1026.74340820312 1029.58374023438 1030.04272460938 1031.38049316406 1031.87976074219 1037.21044921875 1033.15551757812 1039.80078125 1037.84973144531 1025.49914550781 1018.68493652344 1016.68237304688 1009.55981445312 1012.89636230469 1008.56060791016 1014.73828125 1020.97052001953 1014.94201660156 1027.25256347656 1022.33557128906 1023.43176269531 1025.54248046875 1020.29229736328 1009.93444824219 1000.26940917969 995.368469238281 1000.2939453125 1008.00689697266 997.174377441406 997.331481933594 994.361145019531 996.15771484375 993.015075683594 993.876953125 993.952453613281
948.9130859375 941.644104003906 938.153259277344 932.644104003906 928.610534667969 930.64892578125 938.105529785156 943.719055175781 942.183166503906 956.805603027344 959.337829589844 969.766174316406 975.683715820312 979.498229980469 970.594848632812 964.525573730469 969.244873046875 965.276550292969 976.875305175781 977.488952636719 976.82958984375 977.833923339844 981.517639160156 979.680297851562 977.325561523438 984.759704589844 974.879943847656 970.430114746094 970.695129394531 974.9287109375 965.754150390625 969.1669921875 968.064025878906 974.151977539062 965.567993164062 962.510986328125 960.706726074219 969.707946777344 976.610168457031 975.295349121094 978.317749023438 985.558471679688 979.653015136719 989.083435058594 997.684265136719 1002.03674316406 999.064147949219 999.116149902344 1002.14501953125 1006.70593261719 1009.21038818359 994.1142578125 997.298522949219 991.358825683594 980.778137207031 982.670532226562 982.463073730469 982.49365234375 979.263732910156 967.662475585938 972.761352539062 972.910400390625 978.954284667969 977.180480957031 981.794555664062 986.843811035156 982.520202636719 992.845031738281 993.607849121094 992.361145019531 985.266967773438 990.061279296875 995.656555175781 998.224548339844 997.532531738281 987.412170410156 986.951843261719 977.776000976562 993.702575683594 989.656799316406 980.074645996094 980.136901855469 980.156127929688 985.943176269531 989.590637207031 991.826904296875 982.424926757812 986.762268066406 982.189758300781 989.196655273438 981.908813476562 989.390502929688 982.89990234375 985.555847167969 996.307312011719 1003.94702148438 1000.24597167969 997.614562988281 1002.29315185547 1000.10192871094 996.780212402344 996.967407226562 1008.33026123047 1004.34741210938 1017.81994628906 1019.08154296875 1012.99151611328 1014.34460449219 1016.96313476562 1023.42999267578 1030.29016113281 1026.69946289062 1026.62145996094 1023.03430175781 1022.23370361328 1023.05041503906 1025.12023925781 1027.33056640625 1023.15515136719 1024.7978515625 1020.63421630859 1027.37023925781 1032.99279785156 1041.3466796875 1038.47631835938 1017.56195068359 1015.0947265625 1008.68475341797 1006.03228759766 1008.48431396484 1011.88708496094 1014.04931640625 1022.95111083984 1024.4833984375 1025.04138183594 1025.21008300781 1018.12249755859 1010.45062255859 1004.88885498047 1003.99401855469 998.681091308594 1007.19885253906 1003.68884277344 996.576293945312 988.728332519531 991.264892578125 995.934143066406 991.564636230469 992.506408691406 1000.29187011719
936.503234863281 935.053771972656 934.801330566406 945.202270507812 934.49267578125 930.379028320312 936.121887207031 942.685119628906 953.224670410156 949.612976074219 956.391052246094 959.165344238281 973.093627929688 976.68408203125 974.478759765625 967.79296875 968.741149902344 973.244750976562 975.590393066406 975.852233886719 982.054565429688 982.391540527344 985.395568847656 989.756774902344 987.171630859375 981.018676757812 970.862060546875 976.831665039062 976.963073730469 977.174865722656 978.237487792969 966.447143554688 965.934204101562 970.139282226562 971.861022949219 963.122741699219 976.107177734375 978.395202636719 984.4150390625 981.194152832031 989.383422851562 988.022155761719 987.638427734375 988.296020507812 993.897583007812 998.813415527344 1000.77520751953 1008.47442626953 1003.75946044922 1005.40777587891 1005.49420166016 998.322814941406 1000.75653076172 993.337646484375 988.548095703125 985.616577148438 984.320495605469 980.455749511719 977.977966308594 971.809265136719 968.895690917969 980.754516601562 982.349792480469 978.007873535156 981.486511230469 986.581420898438 982.863952636719 993.561950683594 993.220153808594 989.273559570312 988.731201171875 987.073974609375 994.92919921875 1001.84228515625 993.478820800781 993.775146484375 996.376953125 987.27490234375 987.946594238281 995.106384277344 989.3427734375 989.406372070312 998.860290527344 998.544311523438 994.119323730469 990.874206542969 991.26611328125 988.327819824219 988.820739746094 985.426086425781 988.242858886719 977.486389160156 980.652587890625 984.644653320312 1002.03851318359 995.876037597656 999.276489257812 999.993408203125 998.865417480469 1002.00079345703 999.064270019531 998.8798828125 1007.60504150391 1008.07702636719 1016.11676025391 1018.6396484375 1011.82733154297 1010.42565917969 1005.58465576172 1021.67230224609 1023.46014404297 1027.83776855469 1025.89245605469 1023.12670898438 1029.79858398438 1028.20153808594 1027.07434082031 1015.84924316406 1016.59460449219 1014.93823242188 1009.67211914062 1021.25952148438 1030.95642089844 1038.92333984375 1031.66625976562 1020.00170898438 1017.84246826172 999.628173828125 1003.31500244141 1003.44329833984 1010.25024414062 1019.46002197266 1023.19598388672 1025.21545410156 1021.9716796875 1013.40991210938 1009.77490234375 1012.45745849609 1006.27264404297 1001.14166259766 999.202697753906 999.34912109375 1002.31030273438 995.22607421875 990.794189453125 1001.65014648438 993.277282714844 996.532287597656 995.632995605469 1006.88067626953
938.993530273438 932.595825195312 935.754638671875 930.320068359375 931.877136230469 931.254699707031 942.7783203125 942.032653808594 943.627136230469 941.986022949219 945.588562011719 954.928894042969 970.003784179688 977.762084960938 978.111206054688 976.453857421875 973.777038574219 972.325744628906 968.154541015625 970.2568359375 973.369995117188 971.807678222656 987.836364746094 991.130310058594 987.106018066406 979.276916503906 981.763671875 978.152404785156 974.540405273438 976.220092773438 977.91162109375 977.154052734375 977.501892089844 968.098693847656 975.102294921875 978.698059082031 978.564453125 979.384216308594 982.998474121094 986.279846191406 1001.68524169922 991.295959472656 995.220031738281 992.017639160156 997.552490234375 1011.88891601562 1014.38342285156 1014.91284179688 1012.35809326172 998.238037109375 994.234008789062 998.483825683594 996.089416503906 990.237182617188 990.684692382812 992.167053222656 982.766296386719 979.49609375 973.76171875 973.209533691406 973.846801757812 978.317687988281 981.002136230469 977.163024902344 976.444458007812 982.280883789062 984.675598144531 986.147644042969 978.482360839844 978.521240234375 983.195007324219 988.349487304688 992.025024414062 992.321838378906 987.98681640625 979.228942871094 990.567138671875 1001.70135498047 984.973266601562 994.066223144531 993.736755371094 992.627258300781 995.246276855469 1007.44897460938 1004.02673339844 997.654418945312 1000.52850341797 993.203002929688 990.7158203125 984.716918945312 987.027160644531 976.144775390625 980.163391113281 988.399108886719 998.838073730469 994.379760742188 994.05419921875 997.678527832031 998.554992675781 995.689819335938 995.587951660156 1001.890625 1006.04895019531 1004.97277832031 1009.92901611328 1003.42211914062 1007.91296386719 1015.47912597656 1015.89990234375 1025.99072265625 1030.09411621094 1033.59729003906 1029.23291015625 1022.59234619141 1027.45068359375 1024.68017578125 1021.80059814453 1016.1201171875 1015.98773193359 1000.80633544922 999.020080566406 1016.36212158203 1027.38342285156 1031.54821777344 1031.16528320312 1024.16455078125 1022.21038818359 1015.43829345703 1002.83209228516 1008.14544677734 1007.41552734375 1014.6865234375 1022.26422119141 1015.53387451172 1006.69366455078 1018.53753662109 1005.38720703125 1000.99517822266 989.638793945312 988.928955078125 986.412841796875 991.056335449219 985.781860351562 987.071350097656 997.077514648438 995.748962402344 991.826782226562 988.62841796875 994.0107421875 1006.67401123047
938.610046386719 936.345031738281 939.944702148438 931.023559570312 931.715881347656 930.1884765625 937.2099609375 945.127014160156 945.762512207031 942.821044921875 946.582885742188 954.410278320312 957.097595214844 982.959411621094 982.042541503906 975.26904296875 974.60400390625 970.528442382812 972.07861328125 978.519104003906 975.75830078125 981.323120117188 994.105895996094 992.172912597656 996.113037109375 984.199035644531 983.264404296875 978.147766113281 975.404357910156 973.968566894531 974.521240234375 974.53955078125 980.282958984375 976.526550292969 982.288940429688 980.3740234375 980.515625 992.0048828125 1000.65814208984 992.235046386719 989.186340332031 1001.18865966797 999.023620605469 1002.27331542969 998.361450195312 1009.31658935547 1009.38586425781 1018.00823974609 1007.15234375 996.944091796875 1001.19421386719 999.376037597656 993.044921875 991.92431640625 989.76806640625 983.548889160156 985.042907714844 980.481079101562 980.853759765625 972.4423828125 969.519165039062 982.350708007812 981.136474609375 977.876281738281 978.2275390625 978.705810546875 982.8603515625 991.07958984375 983.762573242188 984.133056640625 986.459167480469 989.786010742188 998.280944824219 990.171447753906 979.68115234375 977.291687011719 978.863647460938 991.077758789062 991.379760742188 996.981384277344 997.492065429688 999.459899902344 1003.76940917969 1008.45373535156 1013.68292236328 999.289245605469 989.478881835938 992.141540527344 985.978454589844 985.996765136719 978.672119140625 977.266967773438 985.786254882812 990.681335449219 991.197265625 993.347534179688 999.96337890625 1003.06726074219 998.910339355469 998.089599609375 1006.24768066406 1003.82574462891 1003.62426757812 1007.02758789062 1015.04699707031 1014.1591796875 1009.84313964844 1015.49157714844 1025.18920898438 1030.28527832031 1034.76098632812 1041.4970703125 1036.11950683594 1030.87573242188 1025.83715820312 1021.32794189453 1022.39233398438 1014.6943359375 1017.42309570312 1006.12530517578 1003.06433105469 1010.06256103516 1015.41400146484 1020.21197509766 1027.61877441406 1026.31750488281 1025.93835449219 1013.75225830078 1008.68188476562 1003.48718261719 1009.76477050781 1009.98809814453 1015.11218261719 1007.32604980469 1002.78948974609 1011.70202636719 1003.69342041016 997.693115234375 1001.28540039062 981.636657714844 980.200561523438 982.679992675781 977.217041015625 976.317260742188 988.981872558594 985.894104003906 991.6435546875 986.697204589844 983.863464355469 996.254150390625
948.639465332031 941.724426269531 934.942016601562 934.248229980469 931.763366699219 930.783203125 932.921997070312 950.406066894531 949.174194335938 946.831848144531 950.870239257812 962.632751464844 960.882934570312 976.123657226562 989.572143554688 977.634643554688 977.32861328125 970.601684570312 973.803466796875 978.280700683594 979.083557128906 985.246704101562 994.438110351562 995.467163085938 994.868957519531 984.811706542969 988.077575683594 992.000244140625 987.022216796875 980.055236816406 971.339111328125 982.779296875 983.687561035156 986.739135742188 986.699340820312 978.504455566406 988.703918457031 995.557922363281 1004.89276123047 1005.21319580078 997.28076171875 1001.62463378906 1010.17370605469 1008.58172607422 1008.25610351562 1010.98040771484 1016.09265136719 1002.08489990234 1002.537109375 993.458923339844 1000.43621826172 992.645324707031 981.680969238281 987.420471191406 985.646118164062 976.84326171875 976.651000976562 981.460510253906 983.090087890625 974.653686523438 975.85986328125 973.898864746094 980.010681152344 978.950561523438 975.290222167969 976.974487304688 977.868347167969 987.093627929688 980.07275390625 988.720764160156 987.285766601562 985.344665527344 986.865112304688 980.989013671875 981.870300292969 982.095520019531 988.408386230469 990.133422851562 998.9775390625 1004.41571044922 1011.14544677734 1006.16711425781 1008.13586425781 1014.41455078125 1004.26739501953 996.969970703125 985.990966796875 988.385314941406 991.79052734375 991.694213867188 981.860107421875 985.304382324219 980.230041503906 983.955078125 998.641784667969 997.871826171875 997.072387695312 1004.28210449219 996.935913085938 1005.23815917969 1011.623046875 1013.78680419922 1008.13049316406 1011.71209716797 1009.86737060547 1020.31280517578 1012.72412109375 1026.13354492188 1034.31665039062 1038.04370117188 1045.22412109375 1044.80993652344 1038.58166503906 1036.67065429688 1032.70715332031 1025.44982910156 1016.30444335938 1015.50634765625 1020.26098632812 1006.74835205078 1008.09710693359 1013.53656005859 1010.73974609375 1022.57647705078 1023.15942382812 1025.07470703125 1022.11383056641 1011.06262207031 1007.14385986328 1008.21368408203 1004.92022705078 1002.84320068359 1000.13531494141 1009.81701660156 1004.72497558594 1012.80151367188 998.937805175781 1002.23937988281 996.114196777344 990.847229003906 984.55419921875 971.377868652344 990.412719726562 982.845703125 988.084777832031 989.9091796875 994.501220703125 986.906311035156 994.667358398438 994.25830078125
947.005065917969 940.791687011719 944.379089355469 944.864868164062 935.742553710938 943.499389648438 940.0087890625 944.470886230469 950.072998046875 947.766174316406 952.956115722656 957.04638671875 968.509521484375 968.674377441406 973.971557617188 983.498962402344 979.544799804688 981.644287109375 978.767333984375 980.800170898438 996.475708007812 987.96923828125 992.850524902344 988.542053222656 983.5830078125 992.426025390625 987.43359375 995.213439941406 984.643920898438 974.715270996094 973.111022949219 982.395324707031 986.923461914062 984.7744140625 980.765319824219 983.469543457031 984.122375488281 994.776306152344 1003.79193115234 995.460266113281 993.808227539062 998.074157714844 1001.48498535156 1010.75909423828 1019.23327636719 1018.39514160156 1011.76800537109 1002.20391845703 989.755554199219 998.625915527344 996.906372070312 996.250305175781 991.568115234375 995.936462402344 998.102233886719 991.222778320312 981.613952636719 978.8232421875 978.986267089844 980.078063964844 975.527404785156 971.500549316406 971.550659179688 973.590698242188 976.983581542969 978.370361328125 975.038940429688 977.228759765625 981.88330078125 983.797973632812 984.677368164062 983.709777832031 991.266723632812 983.892211914062 979.269653320312 995.604187011719 990.889709472656 994.34912109375 1005.08135986328 1007.96905517578 1011.39874267578 1004.43353271484 1007.74584960938 1004.0869140625 1005.6943359375 997.989013671875 989.418823242188 989.065002441406 997.442993164062 993.887634277344 991.284301757812 991.884948730469 991.846984863281 980.642639160156 986.309997558594 995.513427734375 1003.24841308594 995.703002929688 1001.00006103516 1005.77380371094 1016.95086669922 1013.76062011719 1003.40264892578 1008.39123535156 1012.18975830078 1015.27319335938 1013.33471679688 1024.20227050781 1039.19641113281 1036.10656738281 1042.40246582031 1052.45153808594 1053.42639160156 1038.13391113281 1038.78625488281 1035.12512207031 1027.79772949219 1016.48583984375 1028.72875976562 1015.70782470703 1005.45178222656 1008.17388916016 1005.97674560547 1021.89251708984 1016.87591552734 1020.78735351562 1012.08660888672 1012.87493896484 1005.51428222656 1004.84906005859 996.976989746094 995.971496582031 996.297180175781 1000.486328125 1002.65307617188 1006.58782958984 993.602111816406 995.785034179688 994.893249511719 1005.26013183594 990.970825195312 977.239318847656 982.490295410156 983.149169921875 986.905395507812 984.337890625 984.589965820312 990.711853027344 991.007690429688 996.238952636719
940.637023925781 938.985778808594 947.418090820312 948.163696289062 931.601989746094 937.367553710938 935.481872558594 945.517395019531 961.0205078125 956.102294921875 953.492614746094 956.359252929688 967.211547851562 979.666259765625 975.615234375 972.615844726562 981.927612304688 979.601928710938 976.640014648438 978.810180664062 988.91748046875 985.014892578125 978.533508300781 982.440979003906 981.869079589844 991.470031738281 993.193054199219 1002.91998291016 987.338500976562 977.640502929688 978.679748535156 980.664245605469 988.790710449219 984.5185546875 983.802856445312 982.093627929688 980.194580078125 987.524353027344 982.735778808594 988.007446289062 994.880004882812 1000.9375 1004.21728515625 999.087707519531 1002.01531982422 1007.27191162109 1009.48419189453 1004.61730957031 989.539916992188 986.200256347656 989.061401367188 990.311157226562 999.502075195312 993.537170410156 1002.28930664062 992.603271484375 978.871826171875 974.774108886719 975.964782714844 985.570495605469 977.876831054688 976.155517578125 969.60400390625 978.190002441406 977.404602050781 975.527526855469 978.969604492188 975.248352050781 984.642517089844 982.264953613281 982.315612792969 985.796630859375 990.825378417969 985.412658691406 994.453674316406 1001.32080078125 999.165649414062 1001.02044677734 1006.84771728516 1007.45928955078 1009.58312988281 1008.17425537109 1013.189453125 1006.89569091797 1008.82312011719 1009.29968261719 999.303039550781 1000.20843505859 994.911682128906 998.1240234375 994.417602539062 987.806640625 986.921142578125 987.100402832031 987.555908203125 999.507751464844 995.843444824219 997.383239746094 994.369079589844 1005.96295166016 1007.50140380859 1004.00994873047 1003.46459960938 1013.20635986328 1006.61022949219 1018.75775146484 1011.52972412109 1018.62115478516 1035.2333984375 1039.87744140625 1046.75170898438 1053.88793945312 1054.06103515625 1047.82690429688 1046.06188964844 1043.92944335938 1033.28381347656 1031.14538574219 1033.27282714844 1023.97967529297 1007.83111572266 1000.84161376953 1009.46343994141 1013.15447998047 1014.66931152344 1008.091796875 1013.78594970703 1008.28125 1008.83319091797 996.242553710938 1003.43090820312 994.638610839844 993.443115234375 999.133972167969 1007.56591796875 1007.35552978516 999.749145507812 994.664367675781 994.560424804688 998.808166503906 993.187133789062 984.808227539062 977.694030761719 982.830322265625 984.120666503906 980.325927734375 983.14501953125 983.387023925781 991.736389160156 984.129943847656
940.269592285156 929.549621582031 943.356567382812 948.285034179688 942.284729003906 940.763488769531 932.149108886719 945.7314453125 957.734008789062 959.064697265625 957.373046875 962.478332519531 970.438171386719 974.152465820312 974.982360839844 975.186218261719 968.155151367188 974.020568847656 978.023986816406 969.402282714844 980.092590332031 978.085693359375 982.225036621094 978.728332519531 986.491882324219 994.335205078125 992.468200683594 988.62548828125 978.488037109375 981.498413085938 979.479614257812 984.671081542969 986.700561523438 978.850036621094 977.972717285156 977.192749023438 987.335266113281 985.390625 985.994506835938 996.501159667969 991.518432617188 1007.48565673828 996.753540039062 987.98486328125 990.148010253906 989.215148925781 993.029296875 999.388488769531 993.817077636719 982.776672363281 988.807373046875 996.213256835938 1001.81524658203 999.426635742188 998.808532714844 992.217712402344 978.19189453125 979.684326171875 978.677734375 981.071594238281 983.529541015625 982.4169921875 968.311401367188 974.621704101562 973.721008300781 977.518737792969 979.445495605469 982.64990234375 985.290344238281 987.277526855469 983.262756347656 986.388610839844 985.307739257812 989.215148925781 986.535034179688 991.618347167969 996.752197265625 1002.19696044922 1001.20288085938 1009.826171875 1008.12890625 1008.98327636719 1012.94317626953 1011.00646972656 1004.92803955078 1007.88330078125 998.814392089844 1001.61370849609 989.506896972656 994.845397949219 1000.42950439453 990.9609375 988.800048828125 981.805847167969 992.8310546875 989.711181640625 997.983154296875 994.417358398438 999.468322753906 998.366088867188 999.327575683594 999.93017578125 995.341979980469 998.290649414062 1010.06622314453 1021.96716308594 1026.9033203125 1025.11083984375 1029.32214355469 1038.75732421875 1049.33032226562 1052.97387695312 1049.74768066406 1051.12719726562 1049.47399902344 1048.65930175781 1045.27001953125 1045.03100585938 1039.04919433594 1028.9931640625 1012.49047851562 1009.06164550781 1009.68109130859 997.729797363281 1005.54760742188 1001.80938720703 994.685180664062 992.209899902344 993.700561523438 991.628112792969 996.53662109375 995.509521484375 994.760925292969 983.851928710938 995.017028808594 998.090148925781 997.332641601562 994.759399414062 991.662658691406 986.602966308594 983.697998046875 969.203491210938 974.571716308594 965.849914550781 969.622924804688 974.782165527344 979.462280273438 989.5732421875 987.260131835938 987.077758789062
943.595336914062 934.128356933594 942.769775390625 951.015869140625 946.450317382812 934.276062011719 941.194396972656 949.896545410156 957.735717773438 961.140502929688 966.417907714844 966.7294921875 966.643859863281 974.491333007812 980.022155761719 971.85302734375 970.766418457031 977.839111328125 975.60693359375 969.086059570312 972.305114746094 963.788635253906 960.740112304688 968.726135253906 974.793334960938 978.2041015625 981.563598632812 973.92041015625 976.055114746094 975.794372558594 973.533081054688 974.277282714844 981.287170410156 985.49951171875 987.834899902344 987.590087890625 989.768249511719 994.745361328125 988.4150390625 1000.53521728516 996.450500488281 1003.40521240234 997.357604980469 984.680297851562 992.239562988281 993.103576660156 996.964050292969 998.459899902344 997.460021972656 992.775207519531 999.397338867188 1003.20233154297 996.719787597656 1001.56365966797 994.574157714844 1000.95623779297 993.742919921875 985.609619140625 982.133178710938 983.272094726562 981.84423828125 972.038330078125 971.410217285156 977.330505371094 979.248107910156 975.927185058594 980.372375488281 978.614013671875 987.385925292969 988.914428710938 996.852478027344 992.89892578125 990.838073730469 981.775390625 980.494445800781 984.508666992188 992.573059082031 994.671142578125 1001.87457275391 1007.81414794922 1011.10858154297 1016.56256103516 1016.42932128906 1017.57611083984 1015.50726318359 1011.55316162109 1009.07159423828 999.667175292969 995.69140625 1001.0576171875 993.934692382812 1001.1484375 990.865905761719 984.364868164062 985.410888671875 995.936462402344 994.386413574219 994.593872070312 996.109802246094 1000.54797363281 991.709777832031 1000.291015625 1001.94226074219 1000.72137451172 1015.62829589844 1022.63092041016 1024.82788085938 1031.53942871094 1035.77722167969 1036.87194824219 1042.69555664062 1057.52722167969 1063.89270019531 1052.58618164062 1052.58032226562 1048.17236328125 1049.7138671875 1049.29968261719 1045.03649902344 1030.07788085938 1021.93395996094 1025.560546875 1000.80438232422 998.016479492188 999.50732421875 998.237487792969 989.763854980469 988.204650878906 978.525268554688 979.947998046875 991.818542480469 989.593933105469 988.958618164062 991.431701660156 981.244201660156 990.425476074219 989.151794433594 986.410034179688 981.650756835938 978.133666992188 976.208251953125 977.613342285156 969.566345214844 964.951416015625 965.473449707031 967.598754882812 980.158569335938 974.772766113281 985.791381835938 977.090759277344
943.7119140625 941.408630371094 946.707641601562 941.719604492188 945.740600585938 936.744079589844 945.091857910156 940.196105957031 954.768737792969 953.563415527344 966.079833984375 963.334716796875 968.575378417969 965.439392089844 962.803466796875 962.834167480469 961.511840820312 972.527587890625 964.380310058594 959.473876953125 960.81103515625 966.334899902344 966.488159179688 968.965026855469 972.1494140625 969.380065917969 969.760314941406 968.501220703125 974.294006347656 972.835388183594 977.828002929688 970.041625976562 978.615173339844 979.688171386719 982.246398925781 983.079772949219 983.759460449219 979.292541503906 986.045227050781 989.430786132812 999.108337402344 999.572814941406 994.293518066406 986.338806152344 990.297668457031 989.695495605469 996.666870117188 996.724548339844 991.081604003906 994.196655273438 997.763122558594 999.595031738281 990.624328613281 994.889709472656 998.693359375 996.826416015625 999.777404785156 989.830810546875 987.318786621094 974.176025390625 982.4033203125 980.700988769531 981.174011230469 981.987976074219 976.808471679688 978.642028808594 972.773986816406 981.554016113281 984.027709960938 985.107604980469 992.400512695312 992.482727050781 980.174682617188 982.706604003906 985.102416992188 986.997009277344 987.17236328125 995.654541015625 1000.04656982422 1007.79486083984 1014.07971191406 1010.85754394531 1012.28558349609 1011.75646972656 1013.13482666016 1016.22302246094 1012.59539794922 1000.70513916016 992.717163085938 997.99365234375 994.494812011719 997.3564453125 995.834777832031 991.191833496094 988.033142089844 999.547790527344 997.668579101562 998.133239746094 1006.33911132812 1000.55859375 1001.46136474609 1001.25402832031 1003.41162109375 1003.98181152344 1013.49908447266 1024.73083496094 1030.22058105469 1035.21936035156 1034.20751953125 1036.44128417969 1036.47900390625 1056.23461914062 1068.40307617188 1056.60717773438 1060.73706054688 1045.68688964844 1043.90026855469 1046.98303222656 1042.20446777344 1037.12927246094 1027.09204101562 1018.08679199219 1013.11657714844 1006.06964111328 994.064270019531 994.485107421875 987.40771484375 987.24658203125 977.46533203125 980.652770996094 985.555114746094 984.237060546875 978.195434570312 981.723266601562 981.691284179688 987.795166015625 988.710205078125 985.670959472656 979.149353027344 978.660522460938 981.292846679688 974.335266113281 976.663635253906 963.533325195312 970.273498535156 975.844848632812 979.976501464844 976.935119628906 983.651977539062 983.519470214844
954.573120117188 942.425964355469 933.640686035156 941.769348144531 942.57275390625 942.925048828125 940.416748046875 939.421447753906 949.151489257812 955.289794921875 945.597778320312 957.911071777344 965.134033203125 958.443969726562 956.916320800781 959.079956054688 959.281433105469 961.676879882812 964.366638183594 954.110412597656 959.302612304688 969.894714355469 956.03125 964.208740234375 960.181762695312 965.940979003906 964.903442382812 960.600646972656 966.980163574219 967.9482421875 970.904235839844 970.548217773438 979.09375 980.44140625 977.161193847656 969.399230957031 975.01708984375 977.344421386719 978.057189941406 991.008422851562 984.650573730469 988.943237304688 983.408813476562 982.970092773438 990.752685546875 994.349426269531 993.88916015625 998.969970703125 994.182678222656 994.831665039062 991.718811035156 1000.224609375 989.238525390625 995.357604980469 993.782470703125 1006.13195800781 997.425720214844 994.351867675781 995.553771972656 990.668151855469 982.403198242188 983.73388671875 988.964477539062 986.224182128906 984.096252441406 986.869079589844 984.297241210938 989.653137207031 981.647888183594 988.941650390625 985.232421875 978.677062988281 980.039367675781 988.027038574219 993.176086425781 983.067321777344 987.53076171875 992.41357421875 990.613159179688 1000.64916992188 1005.98541259766 1011.75646972656 1020.34320068359 1015.51141357422 1015.65728759766 1019.37878417969 1009.37945556641 1012.05676269531 1005.54412841797 1000.35388183594 1005.42822265625 1008.66088867188 997.30419921875 986.990905761719 999.487121582031 1005.400390625 1002.32330322266 1002.44799804688 1006.22009277344 1005.67926025391 1008.42736816406 1009.36297607422 1014.79241943359 1006.12945556641 1016.13305664062 1026.75708007812 1037.93579101562 1044.23596191406 1040.2470703125 1048.20495605469 1055.32995605469 1059.22265625 1072.53051757812 1068.583984375 1059.75024414062 1058.4599609375 1051.91430664062 1049.20141601562 1047.25415039062 1042.36401367188 1029.78173828125 1017.64703369141 1009.50720214844 1006.29913330078 992.644104003906 984.369323730469 980.396545410156 983.440734863281 977.667053222656 979.373718261719 976.110778808594 974.02783203125 977.389892578125 981.982299804688 974.909851074219 977.94287109375 983.60107421875 980.819396972656 983.57177734375 978.840087890625 977.036499023438 986.022033691406 975.046875 970.118286132812 967.141357421875 969.208190917969 975.260620117188 979.965637207031 984.589416503906 980.79345703125
958.384521484375 944.507019042969 931.784545898438 939.151733398438 942.554565429688 939.111083984375 944.367858886719 940.680969238281 948.850830078125 955.808776855469 953.986694335938 951.5205078125 954.240356445312 949.417419433594 951.625854492188 953.328857421875 954.476806640625 954.613098144531 959.719360351562 952.814819335938 952.691223144531 954.3330078125 957.849853515625 960.4443359375 955.434020996094 958.581420898438 953.913269042969 954.911865234375 954.632263183594 956.217041015625 964.956970214844 972.538208007812 971.185668945312 975.288513183594 974.535888671875 970.879333496094 971.324157714844 970.636169433594 963.968505859375 972.831848144531 976.875854492188 985.263244628906 985.616516113281 981.475158691406 981.879760742188 991.747009277344 987.024475097656 993.695434570312 992.630798339844 998.091125488281 996.393432617188 996.396789550781 995.684936523438 998.661071777344 997.963684082031 994.294006347656 998.222595214844 1004.46514892578 999.237060546875 1001.43176269531 995.424560546875 990.700622558594 992.692260742188 984.850524902344 990.466979980469 986.129638671875 987.212768554688 989.597595214844 983.139038085938 988.979614257812 986.132507324219 987.300964355469 978.559997558594 986.389770507812 981.902587890625 987.723876953125 985.768310546875 992.417114257812 993.567504882812 990.284362792969 997.342834472656 1015.86938476562 1022.76885986328 1017.32019042969 1020.24078369141 1015.71325683594 999.351806640625 1002.66973876953 998.086547851562 1001.54382324219 997.645202636719 993.389465332031 996.3876953125 998.517639160156 1005.47814941406 1007.59979248047 1002.61016845703 1003.73980712891 1010.34167480469 1009.00915527344 1021.03521728516 1024.37927246094 1021.66198730469 1019.04742431641 1015.42297363281 1023.68243408203 1040.630859375 1034.60852050781 1041.99768066406 1045.13977050781 1050.259765625 1057.16662597656 1065.95629882812 1075.4638671875 1069.99084472656 1057.83081054688 1059.72143554688 1057.01635742188 1056.44812011719 1042.69738769531 1031.82897949219 1015.04010009766 1011.04565429688 997.397338867188 1000.19873046875 994.173645019531 988.546508789062 981.169921875 978.376586914062 978.044494628906 973.135864257812 979.750244140625 979.874328613281 975.064819335938 982.333862304688 972.990539550781 970.207641601562 974.215759277344 979.859436035156 986.596130371094 982.266174316406 981.649780273438 972.308898925781 969.304016113281 961.741333007812 968.209594726562 979.060546875 980.2626953125 971.345825195312 976.991760253906
956.135498046875 951.701171875 940.751342773438 935.939147949219 933.539367675781 942.116516113281 934.7578125 939.102783203125 947.578857421875 960.621032714844 959.217407226562 944.208435058594 942.672668457031 951.78955078125 953.58544921875 948.350708007812 951.699890136719 953.640197753906 951.721801757812 959.245422363281 948.342468261719 949.842529296875 958.041687011719 954.263793945312 950.391540527344 959.9365234375 956.712341308594 955.844665527344 953.914367675781 957.595764160156 957.619323730469 968.890563964844 967.532043457031 962.846130371094 963.598876953125 966.387451171875 963.497436523438 968.283264160156 975.295349121094 976.35205078125 980.022521972656 980.9033203125 980.734191894531 978.575744628906 982.609252929688 988.5849609375 993.612854003906 984.208557128906 992.511169433594 1003.39904785156 1006.05383300781 1003.59210205078 998.769409179688 997.003662109375 993.30517578125 990.425659179688 994.269714355469 995.051086425781 997.397583007812 997.841979980469 994.690734863281 996.114868164062 983.222839355469 975.740539550781 976.646667480469 991.678344726562 987.062133789062 984.082824707031 981.819885253906 982.249206542969 988.263549804688 976.059631347656 991.536315917969 986.889953613281 987.840148925781 1000.50372314453 990.226440429688 988.425903320312 986.480285644531 992.798950195312 999.406799316406 1004.18713378906 1015.71069335938 1014.61566162109 1012.21380615234 1010.50659179688 1004.09094238281 1009.96032714844 1002.35675048828 1003.28759765625 999.590942382812 999.283325195312 1006.51165771484 1003.09600830078 1011.59332275391 1009.08892822266 1004.54998779297 1006.69793701172 1015.03173828125 1018.30139160156 1015.88018798828 1030.82922363281 1022.82189941406 1025.10803222656 1020.71307373047 1025.10766601562 1034.42126464844 1045.03662109375 1048.86791992188 1041.51745605469 1050.36169433594 1052.9248046875 1068.271484375 1074.88232421875 1066.93029785156 1063.43383789062 1065.01196289062 1062.45825195312 1057.40075683594 1046.39489746094 1038.33081054688 1031.86962890625 1012.02081298828 1004.39202880859 1003.32873535156 999.855102539062 1001.06298828125 991.046569824219 982.759216308594 978.388916015625 981.594787597656 988.29541015625 980.082763671875 970.836791992188 979.353515625 971.683715820312 966.2197265625 970.034912109375 970.913024902344 981.628295898438 978.196716308594 982.505676269531 972.466979980469 967.025512695312 961.388610839844 964.869506835938 976.232543945312 977.08544921875 975.325805664062 972.039428710938
960.823181152344 950.710510253906 937.70947265625 941.461059570312 943.500061035156 936.531799316406 940.674865722656 939.248474121094 938.888305664062 949.630249023438 946.068908691406 949.292724609375 945.209167480469 941.618286132812 956.784912109375 955.131713867188 951.329223632812 957.795471191406 953.240234375 956.582275390625 951.62060546875 960.778930664062 961.948669433594 953.219787597656 952.860595703125 966.293884277344 966.899597167969 964.693176269531 960.058532714844 958.18359375 967.882080078125 963.318481445312 970.907775878906 965.774536132812 964.979736328125 966.046142578125 961.017150878906 959.955444335938 969.369079589844 975.181030273438 974.689208984375 972.312194824219 974.795043945312 979.595947265625 986.594848632812 987.826843261719 988.467651367188 988.006774902344 998.75244140625 1009.29040527344 1009.28771972656 1004.94775390625 1000.75354003906 1000.07476806641 995.330627441406 990.326416015625 997.632568359375 1001.39862060547 998.202575683594 992.531677246094 990.554016113281 990.645690917969 985.023071289062 985.838623046875 986.664184570312 985.992919921875 983.806213378906 985.3837890625 984.405395507812 988.377380371094 999.595275878906 984.943054199219 992.357177734375 988.42041015625 992.186706542969 1004.01354980469 1010.06854248047 1004.18786621094 991.239196777344 997.616271972656 999.330200195312 1005.08990478516 1007.93725585938 1008.70642089844 1008.90161132812 1007.64923095703 1007.29461669922 1006.92333984375 1010.44866943359 1006.51580810547 1006.21398925781 1004.41485595703 999.822570800781 1009.78436279297 1008.12384033203 998.788146972656 1007.49359130859 1007.65173339844 1013.22973632812 1021.83673095703 1023.9853515625 1030.10229492188 1029.24365234375 1026.03405761719 1024.04016113281 1031.57849121094 1033.21838378906 1040.19177246094 1037.82299804688 1047.45666503906 1047.72021484375 1053.21667480469 1064.04895019531 1062.09936523438 1068.65026855469 1062.97705078125 1060.95141601562 1063.94494628906 1055.3505859375 1051.470703125 1040.34765625 1035.38708496094 1025.21997070312 1014.25903320312 1013.43688964844 1013.78356933594 1004.95635986328 984.831176757812 980.232360839844 988.008056640625 993.456237792969 986.001708984375 975.205688476562 976.247131347656 978.116149902344 975.653747558594 969.339965820312 972.788879394531 975.292724609375 977.059631347656 976.225769042969 977.840515136719 968.122497558594 961.367248535156 952.706115722656 959.562744140625 975.668151855469 977.25146484375 974.619262695312 963.202026367188
963.2236328125 959.562194824219 952.465942382812 947.707336425781 951.253784179688 945.137329101562 943.608520507812 941.830444335938 946.667175292969 944.865600585938 946.694702148438 946.385131835938 951.359191894531 949.610900878906 949.364013671875 950.0048828125 958.939819335938 964.827514648438 958.772888183594 963.769897460938 957.636535644531 966.245788574219 963.681579589844 961.519714355469 960.759582519531 961.798767089844 967.152099609375 970.261291503906 968.059753417969 963.399780273438 962.672485351562 961.106628417969 963.095092773438 966.177124023438 975.008483886719 976.656555175781 973.1962890625 972.2490234375 972.207641601562 972.992492675781 971.163757324219 970.490905761719 971.343017578125 971.413879394531 981.523620605469 982.219665527344 986.609252929688 988.7216796875 996.697021484375 1000.662109375 999.440246582031 998.351379394531 997.307250976562 989.054321289062 992.346130371094 992.36083984375 996.780517578125 1000.5458984375 1002.04107666016 994.118225097656 992.944152832031 992.420837402344 988.566833496094 996.135437011719 994.194030761719 988.424499511719 994.581481933594 987.980712890625 996.515380859375 979.886169433594 991.136169433594 993.179992675781 992.149230957031 1001.35540771484 1002.197265625 1004.80743408203 1013.52813720703 1010.60754394531 1004.32531738281 999.837585449219 995.954956054688 1001.64642333984 1002.32672119141 1012.56683349609 1008.44177246094 1014.80053710938 1013.27520751953 1019.77368164062 1010.75134277344 1008.115234375 1011.22326660156 1006.76379394531 1003.45104980469 1008.79211425781 996.783081054688 1000.90612792969 1011.16241455078 1009.41571044922 1014.2451171875 1018.14208984375 1024.22802734375 1030.63244628906 1026.54650878906 1023.9736328125 1025.14953613281 1038.99108886719 1036.16796875 1037.87951660156 1037.91394042969 1038.98986816406 1047.0126953125 1053.43676757812 1065.24145507812 1065.57934570312 1054.6005859375 1064.82531738281 1065.39379882812 1063.86804199219 1065.56298828125 1051.44311523438 1051.96618652344 1041.37768554688 1030.41772460938 1028.27734375 1027.5869140625 1014.78106689453 1007.79174804688 991.585144042969 987.184387207031 990.764831542969 987.090942382812 983.253967285156 977.577575683594 973.186950683594 976.672180175781 981.384887695312 979.728637695312 981.16455078125 977.663208007812 977.53759765625 961.303833007812 959.712036132812 973.425415039062 967.054992675781 961.668029785156 962.393737792969 969.584838867188 977.531555175781 976.747436523438 975.167053222656
968.14599609375 961.000610351562 958.9296875 958.536865234375 946.783569335938 943.604064941406 936.050109863281 944.35888671875 945.455688476562 945.18994140625 949.345703125 944.0546875 950.754638671875 959.74560546875 953.697631835938 955.516296386719 951.228271484375 961.790588378906 958.320922851562 958.341552734375 958.412963867188 965.790588378906 964.805236816406 969.676940917969 970.106079101562 963.161437988281 968.116577148438 963.275939941406 963.024047851562 963.265014648438 950.975646972656 960.187377929688 966.012573242188 966.095581054688 970.374816894531 972.051574707031 978.768432617188 985.171691894531 983.387756347656 974.569213867188 973.318481445312 973.234558105469 967.744445800781 975.329711914062 976.451599121094 985.87744140625 987.423706054688 984.420349121094 991.8603515625 988.597534179688 990.128356933594 992.440185546875 984.409423828125 987.369018554688 990.453430175781 998.090881347656 1006.86126708984 998.354125976562 997.286376953125 1000.85125732422 998.857604980469 998.260925292969 995.646240234375 997.183715820312 999.421875 999.906860351562 999.378234863281 995.798583984375 998.422607421875 984.822509765625 983.411254882812 987.416015625 996.254028320312 1001.21929931641 999.189453125 1003.77215576172 1009.16943359375 1008.20007324219 999.067810058594 999.454284667969 995.350952148438 996.4560546875 997.341369628906 1005.24517822266 1002.95538330078 1013.97918701172 1014.08380126953 1013.87084960938 1007.24530029297 1003.75921630859 1006.05377197266 1011.47821044922 1002.71466064453 1006.56408691406 1007.15460205078 1002.51953125 1003.09692382812 1016.20220947266 1024.8173828125 1019.16821289062 1030.31530761719 1028.53125 1025.36779785156 1024.07409667969 1027.86450195312 1037.37280273438 1040.50756835938 1040.30395507812 1044.27380371094 1041.00134277344 1049.22192382812 1058.30615234375 1067.34289550781 1063.75793457031 1058.98303222656 1058.49340820312 1060.50610351562 1063.45654296875 1058.65869140625 1052.259765625 1049.34790039062 1041.52502441406 1037.60339355469 1034.63598632812 1025.99816894531 1015.53692626953 1005.6484375 993.549743652344 984.41259765625 996.902709960938 986.96044921875 979.528015136719 977.538940429688 984.268005371094 983.141479492188 980.817504882812 976.159057617188 975.251647949219 973.407409667969 967.546020507812 955.967468261719 950.431274414062 962.937377929688 966.231567382812 962.24853515625 965.884582519531 978.499328613281 978.1240234375 975.055419921875 971.206848144531
961.836303710938 968.704162597656 961.284606933594 954.071044921875 954.224670410156 942.5234375 947.096618652344 944.85205078125 946.60986328125 942.205383300781 948.538818359375 957.307556152344 962.119018554688 955.695617675781 954.557250976562 944.74169921875 952.581848144531 951.943054199219 961.791076660156 959.300598144531 962.900268554688 958.853454589844 961.227111816406 965.375915527344 963.7470703125 973.042541503906 970.979187011719 961.370849609375 965.814392089844 957.571594238281 960.853332519531 962.133483886719 967.729553222656 965.260620117188 978.325622558594 980.686340332031 981.952026367188 982.677368164062 992.74267578125 986.29296875 980.103210449219 970.213500976562 969.460510253906 970.969970703125 977.21337890625 985.0009765625 978.6513671875 981.22705078125 995.25634765625 983.876770019531 980.754943847656 984.145202636719 982.430358886719 990.031372070312 992.766479492188 1003.13470458984 1007.19641113281 1009.39111328125 1000.69317626953 998.794738769531 1003.62524414062 1003.81182861328 995.105407714844 993.898620605469 997.273193359375 997.605651855469 1000.80749511719 998.567321777344 997.761596679688 989.382934570312 985.665893554688 991.733947753906 994.796203613281 999.436401367188 1002.20849609375 1000.89025878906 999.518310546875 987.886840820312 991.774841308594 995.806213378906 990.932250976562 991.561401367188 997.718994140625 1001.29925537109 1001.572265625 1006.95550537109 1023.00091552734 1007.91540527344 1009.75720214844 1006.87097167969 1002.20050048828 1011.86389160156 1009.76293945312 1008.53399658203 1015.45733642578 1015.50067138672 1015.71966552734 1018.54669189453 1007.32659912109 1019.29809570312 1016.76641845703 1019.07983398438 1019.90258789062 1020.27264404297 1028.67346191406 1034.224609375 1037.40856933594 1040.49829101562 1044.04626464844 1043.66821289062 1045.8515625 1052.88195800781 1059.32568359375 1059.00476074219 1062.20751953125 1062.63891601562 1060.82666015625 1052.04821777344 1045.30834960938 1043.08825683594 1043.49279785156 1044.22387695312 1036.79309082031 1031.11560058594 1025.48803710938 1017.11462402344 1006.58581542969 996.067199707031 1006.10241699219 1000.52716064453 993.568481445312 987.357727050781 984.619506835938 989.489318847656 987.55126953125 974.650817871094 970.265197753906 972.093933105469 964.73193359375 960.564697265625 957.824462890625 952.668579101562 962.163818359375 964.132873535156 972.430236816406 986.056030273438 978.760437011719 984.168762207031 973.924560546875 969.663513183594
970.443786621094 960.120056152344 962.836059570312 950.7880859375 949.296997070312 948.757263183594 948.030700683594 943.669250488281 945.011840820312 949.362426757812 961.23779296875 967.730651855469 973.458679199219 966.704345703125 964.336730957031 951.983154296875 952.674743652344 953.511596679688 958.473571777344 965.790222167969 962.596496582031 961.73828125 959.529479980469 963.00732421875 962.715637207031 966.465393066406 969.8642578125 961.685546875 966.539916992188 960.549560546875 966.727722167969 961.773681640625 965.013366699219 967.589660644531 976.538146972656 983.1904296875 983.581848144531 982.721252441406 976.61474609375 982.107482910156 976.449768066406 976.843444824219 966.375732421875 968.840026855469 976.73046875 975.326293945312 977.096618652344 973.029235839844 981.283508300781 986.898315429688 984.821594238281 981.432067871094 980.306335449219 974.422180175781 989.699951171875 993.923217773438 1004.38360595703 1011.33947753906 1004.92687988281 1008.03979492188 1001.42718505859 1004.34735107422 996.520629882812 997.682678222656 1001.484375 1000.77551269531 1000.62255859375 994.900756835938 992.084655761719 992.4970703125 992.662475585938 993.382873535156 1004.20385742188 1003.2490234375 1001.07458496094 997.175720214844 1001.68859863281 985.3984375 985.088195800781 989.926391601562 992.022033691406 999.253479003906 994.602905273438 1001.94970703125 1008.23870849609 1006.70550537109 1006.86804199219 1008.79943847656 999.7861328125 1009.28765869141 1005.63146972656 1008.51568603516 1013.44171142578 1018.61431884766 1015.65295410156 1011.60375976562 1016.42340087891 1019.88690185547 1013.53369140625 1001.66125488281 1012.42315673828 1011.48065185547 1008.54351806641 1017.43719482422 1022.06164550781 1029.1142578125 1040.22204589844 1040.90515136719 1045.38671875 1042.50085449219 1044.10949707031 1051.24267578125 1046.25109863281 1048.1650390625 1056.10314941406 1064.18603515625 1049.01586914062 1047.740234375 1046.58337402344 1049.73193359375 1041.16052246094 1041.75622558594 1040.14721679688 1035.5517578125 1028.68322753906 1020.24548339844 1018.56329345703 1009.48309326172 999.925903320312 999.622741699219 989.67333984375 986.434936523438 986.390319824219 986.570007324219 985.876647949219 978.744018554688 963.458129882812 967.310607910156 971.641052246094 966.686401367188 957.64013671875 953.758605957031 956.697204589844 970.107116699219 976.244262695312 982.032104492188 982.946044921875 980.763061523438 978.058532714844 976.063842773438
972.862731933594 965.070068359375 957.185546875 957.724182128906 960.681335449219 953.955444335938 953.260986328125 940.361511230469 948.325317382812 949.380493164062 959.865661621094 967.483520507812 979.100891113281 976.8564453125 968.789428710938 967.54150390625 962.758850097656 955.1552734375 958.500427246094 960.880126953125 958.81689453125 961.485961914062 966.958068847656 967.303283691406 950.495971679688 952.737609863281 966.224548339844 960.462036132812 961.931396484375 962.372131347656 965.083618164062 963.563598632812 968.370544433594 965.999328613281 970.546936035156 976.181518554688 981.308776855469 978.921325683594 975.493469238281 973.557006835938 973.613952636719 968.607238769531 967.904541015625 964.029296875 972.623962402344 974.189147949219 970.65283203125 974.961059570312 981.689208984375 980.794738769531 982.870788574219 986.82958984375 984.443237304688 982.389099121094 989.1064453125 993.775695800781 1010.82220458984 1015.63909912109 1015.08227539062 1019.16204833984 1011.77032470703 1002.13958740234 1001.59759521484 998.814208984375 1000.60479736328 1003.11444091797 994.002990722656 999.905456542969 1004.29461669922 1004.86071777344 990.380737304688 991.689697265625 1004.56726074219 1006.16735839844 1000.68695068359 1009.78723144531 1001.06793212891 995.931396484375 996.325561523438 991.026184082031 996.38916015625 993.514465332031 993.752319335938 999.698669433594 1006.57873535156 1005.02734375 1006.45849609375 1007.87261962891 1006.55932617188 1014.26818847656 1004.80584716797 1015.14282226562 1013.42413330078 1025.18920898438 1013.19036865234 1017.09606933594 1022.18591308594 1020.94586181641 1011.29364013672 1010.84851074219 1006.59478759766 1014.14080810547 1013.31976318359 1015.46832275391 1027.14025878906 1034.6005859375 1037.1826171875 1041.38293457031 1044.00915527344 1043.42797851562 1051.23413085938 1051.27978515625 1044.72839355469 1050.65148925781 1052.30163574219 1053.21826171875 1042.3232421875 1037.25732421875 1047.15417480469 1043.31372070312 1042.66247558594 1046.6416015625 1040.25817871094 1030.20495605469 1028.25732421875 1028.609375 1014.60241699219 1005.14105224609 1000.083984375 990.734497070312 988.749145507812 985.077941894531 979.201782226562 991.996520996094 982.891784667969 974.177490234375 973.019104003906 970.58837890625 970.78369140625 958.269653320312 959.681213378906 958.957397460938 952.559509277344 963.206481933594 970.188293457031 974.46044921875 976.1181640625 978.181640625 972.833374023438 973.219482421875
962.777526855469 958.488647460938 958.031311035156 960.001647949219 963.028198242188 967.697692871094 966.243957519531 947.806274414062 951.6875 955.157348632812 955.51220703125 968.777526855469 981.018798828125 980.017883300781 972.088195800781 961.961303710938 959.668762207031 958.886474609375 958.566345214844 960.737915039062 960.393676757812 962.833801269531 966.535034179688 968.766662597656 955.666381835938 959.780212402344 960.800964355469 959.150695800781 959.863342285156 961.186767578125 959.639404296875 971.500732421875 967.209167480469 970.037963867188 970.106384277344 975.054077148438 968.476196289062 973.359558105469 967.208557128906 977.657958984375 971.088134765625 972.8076171875 968.56201171875 965.880920410156 972.686950683594 976.5849609375 974.676208496094 976.589050292969 982.193176269531 986.824096679688 987.121032714844 986.24951171875 989.087646484375 985.467346191406 994.884948730469 990.755615234375 1009.05285644531 1018.09790039062 1018.02142333984 1019.30426025391 1014.74353027344 1011.69110107422 1002.98236083984 1007.78643798828 1002.66528320312 1009.40893554688 1004.13751220703 1006.40496826172 1003.69055175781 1006.48797607422 1001.72045898438 997.220642089844 1008.46936035156 1003.75616455078 1010.59954833984 1008.85095214844 1004.75988769531 999.46044921875 999.671447753906 989.83935546875 1002.39031982422 998.776916503906 996.880615234375 998.132690429688 1008.44708251953 1009.93981933594 1009.72271728516 1007.27557373047 996.548583984375 1004.89111328125 1013.15100097656 1008.75988769531 1015.83740234375 1024.92712402344 1018.10620117188 1013.82849121094 1020.37445068359 1019.86431884766 1014.95330810547 1015.93566894531 1010.13342285156 1016.61712646484 1017.95080566406 1017.41632080078 1020.71032714844 1029.40625 1044.04614257812 1033.86499023438 1035.86401367188 1047.15478515625 1047.76953125 1049.34741210938 1049.56005859375 1046.84497070312 1052.00646972656 1045.43212890625 1037.73254394531 1046.26635742188 1046.44189453125 1047.82299804688 1043.76245117188 1038.78234863281 1039.87805175781 1030.89575195312 1026.19592285156 1023.78063964844 1012.54119873047 1008.92144775391 1005.61676025391 994.663757324219 999.552001953125 990.155944824219 982.797973632812 981.006958007812 973.695739746094 966.035583496094 973.269348144531 964.057250976562 965.750366210938 953.762756347656 956.564086914062 959.064392089844 953.911376953125 957.597045898438 965.977478027344 966.384826660156 968.095703125 971.264465332031 964.541625976562 971.798828125
969.423706054688 962.884094238281 962.263732910156 964.759643554688 959.873107910156 962.052490234375 960.348205566406 955.346496582031 949.370666503906 948.791687011719 957.395568847656 965.683532714844 978.979614257812 979.123474121094 978.380249023438 971.1591796875 969.172973632812 969.320190429688 973.405151367188 968.304992675781 967.743591308594 966.320617675781 973.503967285156 965.180480957031 964.104797363281 961.213134765625 957.962829589844 966.28369140625 965.560424804688 960.965698242188 967.503112792969 969.517333984375 963.725646972656 964.048156738281 966.45263671875 970.483947753906 967.1435546875 979.204040527344 974.330810546875 978.644775390625 977.73095703125 980.639465332031 974.451416015625 971.087646484375 972.929870605469 978.600341796875 969.479797363281 971.609191894531 975.795471191406 980.767456054688 981.713317871094 984.877807617188 991.613037109375 992.911437988281 1002.28894042969 999.241760253906 1015.12133789062 1020.93341064453 1014.90765380859 1008.21594238281 1021.58636474609 1015.87719726562 1005.71624755859 1005.89086914062 1014.27911376953 1017.08605957031 1007.81481933594 1001.06555175781 995.342102050781 1002.73657226562 1007.74139404297 1005.54138183594 1006.65002441406 1001.26989746094 1005.52886962891 1009.22149658203 997.095764160156 997.523010253906 998.493713378906 991.262390136719 997.720520019531 996.540344238281 1004.25701904297 1003.72918701172 1003.41821289062 1004.52337646484 1002.78338623047 999.237487792969 995.312194824219 1005.81793212891 1011.37615966797 1004.02398681641 1016.55822753906 1024.98742675781 1019.22125244141 1021.17889404297 1034.54272460938 1032.37731933594 1034.82495117188 1029.40112304688 1030.80859375 1031.18676757812 1022.31860351562 1024.10693359375 1020.24426269531 1032.36242675781 1029.77258300781 1030.40246582031 1039.326171875 1034.12072753906 1038.57946777344 1047.16833496094 1041.15649414062 1041.18725585938 1045.5107421875 1042.70751953125 1036.47509765625 1043.18395996094 1042.41748046875 1043.46459960938 1036.29077148438 1036.71228027344 1037.04577636719 1023.13793945312 1022.36846923828 1021.78265380859 1016.30615234375 1004.27630615234 1002.77270507812 999.6484375 988.4306640625 990.752624511719 979.393676757812 969.981994628906 973.658630371094 968.576293945312 966.921936035156 955.7685546875 960.720397949219 955.847045898438 957.504577636719 964.075561523438 949.659423828125 953.309631347656 960.353881835938 964.93115234375 960.788391113281 952.520629882812 954.098754882812 964.178466796875
977.442016601562 968.335815429688 970.755859375 962.065185546875 960.17236328125 957.849731445312 961.279663085938 953.567443847656 947.272277832031 952.956726074219 957.877624511719 962.844177246094 981.703125 997.10888671875 987.993835449219 985.823974609375 977.684265136719 977.589233398438 974.971557617188 968.65625 970.705505371094 963.856018066406 975.896301269531 979.160095214844 971.216552734375 972.000915527344 964.234924316406 966.227172851562 967.977478027344 962.968688964844 961.712341308594 960.754516601562 961.3779296875 966.703979492188 967.283508300781 963.533935546875 964.357421875 972.706970214844 971.695373535156 974.708374023438 981.407897949219 977.280334472656 975.755126953125 972.703369140625 976.790588378906 975.742858886719 971.824584960938 972.401306152344 976.927429199219 985.531311035156 988.635437011719 994.393920898438 990.409423828125 993.746643066406 1000.97198486328 1003.89196777344 1012.625 1010.86462402344 1010.68017578125 1004.69616699219 1017.59838867188 1014.80456542969 1009.57403564453 1018.84222412109 1022.73156738281 1017.64245605469 1007.03479003906 1000.34002685547 1000.55334472656 1009.99560546875 1003.79968261719 1000.64636230469 996.222534179688 1006.78826904297 1006.29034423828 1002.39001464844 1002.21459960938 1001.09039306641 999.325622558594 1004.55126953125 1003.86694335938 1002.92132568359 1000.16357421875 1003.94616699219 1009.09497070312 1005.24273681641 1002.56536865234 1003.7587890625 994.715637207031 996.536560058594 1010.26574707031 1021.47210693359 1023.83935546875 1035.76745605469 1033.736328125 1028.44104003906 1027.76110839844 1039.16748046875 1035.97973632812 1033.16625976562 1041.27685546875 1039.44506835938 1034.53161621094 1028.46789550781 1031.33288574219 1037.11828613281 1026.07287597656 1026.9375 1031.46594238281 1035.61608886719 1031.14916992188 1035.92956542969 1041.43383789062 1038.47302246094 1039.39196777344 1038.83703613281 1036.11999511719 1043.66662597656 1037.71960449219 1039.91040039062 1036.61938476562 1036.84387207031 1027.77172851562 1021.04943847656 1020.65087890625 1015.8515625 1016.75598144531 1003.97961425781 997.606323242188 1000.14953613281 995.689636230469 988.651550292969 981.157836914062 974.739074707031 976.013671875 970.9921875 969.849792480469 954.821228027344 956.2578125 953.010559082031 951.711486816406 962.686828613281 953.803833007812 964.532592773438 955.489562988281 952.722778320312 947.632263183594 941.789367675781 944.792907714844 949.736083984375
964.332763671875 970.768127441406 963.305114746094 958.586547851562 957.503295898438 950.978759765625 959.987854003906 954.34619140625 949.332397460938 962.998229980469 969.62255859375 975.067199707031 983.166748046875 999.245361328125 998.795776367188 996.339660644531 981.28759765625 974.392700195312 980.012451171875 973.851684570312 970.7158203125 966.847961425781 984.203002929688 982.204162597656 981.529235839844 979.54052734375 965.74560546875 967.036743164062 964.607055664062 965.200744628906 970.33642578125 970.24560546875 961.781555175781 969.654602050781 969.1171875 968.078552246094 974.228515625 973.3759765625 971.480163574219 980.483581542969 980.271850585938 975.811584472656 974.4296875 979.384643554688 981.365844726562 978.953918457031 977.673217773438 984.765441894531 990.843872070312 986.579406738281 993.85498046875 988.100769042969 984.888549804688 988.06494140625 985.946533203125 994.024780273438 1002.88702392578 1001.83013916016 1003.03350830078 1002.76898193359 1013.28472900391 1016.14556884766 1022.26068115234 1025.75305175781 1020.21533203125 1017.14422607422 1011.04534912109 1005.91680908203 994.967590332031 1007.99102783203 1003.46954345703 997.839782714844 1000.62536621094 1005.58032226562 1007.22613525391 1006.84832763672 999.750610351562 1000.91198730469 1001.79498291016 998.715759277344 1004.54998779297 999.16650390625 1004.87036132812 998.387084960938 1005.68920898438 1006.26739501953 1006.27337646484 1005.42810058594 996.0498046875 987.457580566406 1003.26959228516 1014.54284667969 1027.40441894531 1038.60168457031 1042.80358886719 1036.23510742188 1034.59729003906 1030.8359375 1034.13073730469 1033.75305175781 1043.38793945312 1042.19128417969 1039.24487304688 1033.20263671875 1025.48217773438 1028.39392089844 1031.34838867188 1032.61669921875 1031.30712890625 1029.25903320312 1023.29949951172 1032.10363769531 1026.57556152344 1034.37414550781 1037.3359375 1031.18737792969 1042.46398925781 1038.7607421875 1031.81103515625 1023.46411132812 1025.65051269531 1026.34704589844 1027.46264648438 1022.25561523438 1021.81848144531 1013.55395507812 1016.73919677734 1003.39599609375 996.59228515625 997.892517089844 993.540405273438 987.665344238281 993.674194335938 981.087219238281 969.657531738281 965.415954589844 973.713439941406 966.508605957031 964.349548339844 959.485473632812 960.749877929688 951.085571289062 952.529479980469 948.608154296875 954.548461914062 950.765625 950.359680175781 946.099304199219 943.700256347656 943.747619628906
972.897583007812 969.220886230469 972.923645019531 951.53662109375 952.9912109375 950.938903808594 950.709045410156 953.722778320312 959.219299316406 958.589111328125 955.055297851562 982.587341308594 984.884338378906 1005.74981689453 991.13134765625 986.583312988281 972.428039550781 982.637512207031 979.143249511719 971.752014160156 980.025146484375 973.831909179688 976.145385742188 974.515991210938 970.036193847656 977.72119140625 963.820678710938 971.117797851562 972.91552734375 972.110046386719 976.640930175781 969.868286132812 958.23046875 962.086242675781 971.462341308594 975.804992675781 975.134216308594 979.071960449219 975.364379882812 973.314575195312 980.567626953125 982.188781738281 979.525573730469 984.443237304688 985.634643554688 981.625366210938 973.783874511719 988.430725097656 981.6064453125 992.819213867188 993.172302246094 987.298767089844 982.724792480469 984.084045410156 987.824401855469 985.152648925781 997.737365722656 998.757568359375 999.711364746094 1000.81512451172 1003.40026855469 1010.83654785156 1012.07464599609 1019.36505126953 1028.06127929688 1015.94396972656 1003.20428466797 1003.66168212891 1007.07202148438 1008.40142822266 1004.62268066406 1007.68682861328 1003.64733886719 1009.05474853516 1011.26025390625 1007.35003662109 1006.00256347656 994.674621582031 994.579406738281 994.487548828125 995.537719726562 1002.18511962891 997.95068359375 1004.53338623047 1002.83758544922 1009.69494628906 1006.18463134766 1005.47174072266 1004.65441894531 1001.57757568359 1002.08532714844 1014.59295654297 1032.78356933594 1035.86560058594 1041.27111816406 1043.05944824219 1039.22998046875 1034.55383300781 1032.08532714844 1036.5263671875 1035.80908203125 1037.28723144531 1041.13208007812 1042.80932617188 1036.82006835938 1036.44958496094 1030.84118652344 1028.52966308594 1031.22741699219 1025.83654785156 1030.93286132812 1023.04931640625 1028.4580078125 1035.88403320312 1037.10693359375 1034.33178710938 1037.79272460938 1032.65124511719 1031.50634765625 1021.552734375 1019.96832275391 1015.15234375 1012.31164550781 1016.25024414062 1013.99096679688 1009.75897216797 1015.36462402344 1006.34149169922 1002.66864013672 999.73095703125 990.174621582031 990.405700683594 988.816223144531 982.30712890625 983.743408203125 978.415405273438 976.67138671875 967.402648925781 965.922119140625 962.94140625 967.672973632812 956.768615722656 944.252319335938 944.195434570312 944.499328613281 946.976928710938 948.330139160156 951.276977539062 944.094665527344 946.2294921875
967.246337890625 963.931823730469 966.1337890625 958.7841796875 947.039978027344 952.420104980469 951.768493652344 952.776184082031 961.548889160156 965.513793945312 966.792541503906 978.5625 988.082946777344 983.575073242188 984.21435546875 984.190124511719 978.848876953125 990.848815917969 972.226867675781 979.603271484375 989.2958984375 981.721984863281 987.087524414062 978.14990234375 972.585144042969 967.846984863281 961.633117675781 961.669067382812 975.395812988281 972.687377929688 973.698608398438 969.958557128906 960.965393066406 957.943481445312 965.504272460938 977.441223144531 972.276794433594 976.278869628906 974.244995117188 972.258666992188 981.299255371094 981.033142089844 981.063598632812 982.085815429688 972.361511230469 975.469848632812 971.817199707031 981.040893554688 977.417297363281 982.605407714844 987.099792480469 985.630432128906 978.244995117188 992.900817871094 989.470520019531 980.618835449219 980.434997558594 997.897338867188 995.2158203125 1010.09307861328 1006.09838867188 1009.90216064453 1014.75457763672 1019.65264892578 1026.94506835938 1013.56280517578 1012.92053222656 1014.61376953125 1009.33166503906 1007.10284423828 1014.78137207031 1011.00201416016 997.510864257812 1005.26403808594 1011.53637695312 1021.05914306641 1010.38659667969 1002.96771240234 996.728393554688 989.024597167969 998.622497558594 1000.38525390625 1004.69244384766 1000.8955078125 1005.40161132812 1007.478515625 1004.37646484375 1010.22515869141 1006.16571044922 1008.30596923828 1009.11346435547 1012.66589355469 1013.03112792969 1029.41394042969 1034.07788085938 1042.18530273438 1033.8623046875 1038.82043457031 1039.77026367188 1046.63830566406 1038.10888671875 1034.68798828125 1035.38793945312 1038.75476074219 1033.64416503906 1028.97961425781 1029.55712890625 1029.53662109375 1031.80749511719 1034.22668457031 1027.44885253906 1024.00415039062 1021.31048583984 1027.54504394531 1039.095703125 1034.07592773438 1038.24011230469 1027.80407714844 1028.15478515625 1027.83508300781 1018.76434326172 1012.55804443359 1013.45330810547 1003.10595703125 1002.47088623047 1004.85614013672 1011.53582763672 1005.69287109375 999.995361328125 991.070922851562 975.470947265625 973.536987304688 975.771667480469 976.852478027344 977.160888671875 974.241638183594 966.73583984375 968.942260742188 966.498474121094 969.727600097656 967.361694335938 969.124877929688 950.920593261719 942.391174316406 943.649963378906 951.59130859375 948.89453125 937.900207519531 943.172119140625 951.712524414062
