NCOLS 150
NROWS 37
XLLCORNER 7394249
YLLCORNER 4842119
CELLSIZE 30
NODATA_VALUE -9999
950.127746582031 954.649597167969 964.086059570312 966.712341308594 973.321899414062 976.78466796875 968.660705566406 971.332824707031 973.195983886719 964.459228515625 964.367126464844 960.600341796875 964.912841796875 962.486206054688 950.655517578125 957.048522949219 959.466369628906 969.767517089844 954.442504882812 945.162719726562 943.506103515625 938.053894042969 943.263732910156 941.567993164062 943.55615234375 942.392578125 945.501953125 952.969970703125 944.293334960938 950.614929199219 950.544128417969 955.818603515625 962.389465332031 957.57373046875 952.191833496094 945.467041015625 952.985168457031 955.966918945312 963.387634277344 956.921020507812 950.191650390625 952.1318359375 950.058898925781 948.434020996094 947.031494140625 958.152221679688 947.193603515625 956.803588867188 951.286560058594 948.812133789062 943.729187011719 942.464782714844 947.447082519531 955.838562011719 960.52392578125 948.850708007812 951.896484375 955.856994628906 960.320617675781 957.541564941406 966.337585449219 959.003112792969 970.359313964844 962.480407714844 954.595886230469 963.479919433594 968.949035644531 959.647338867188 960.411865234375 960.804443359375 960.46484375 960.351501464844 963.314025878906 958.723022460938 962.139038085938 965.139831542969 960.826110839844 962.958251953125 965.86083984375 967.589477539062 980.640808105469 974.976318359375 968.695373535156 970.457092285156 969.033142089844 964.447387695312 962.696960449219 964.163391113281 973.60595703125 970.856628417969 973.93505859375 966.858947753906 973.658325195312 981.586791992188 984.788757324219 981.744995117188 979.329711914062 974.546020507812 993.327453613281 987.303100585938 990.081665039062 985.833740234375 981.056945800781 983.997985839844 982.288146972656 976.376281738281 978.281066894531 983.94091796875 982.713134765625 994.010498046875 991.704711914062 989.774841308594 999.275573730469 999.342102050781 998.099487304688 995.367919921875 1000.90814208984 994.528747558594 997.571838378906 992.581237792969 994.950317382812 1000.98858642578 1011.6328125 1030.89599609375 1029.1591796875 1030.60241699219 1032.88293457031 1038.96508789062 1043.07604980469 1053.69714355469 1060.36145019531 1057.37268066406 1060.74548339844 1068.337890625 1076.41003417969 1076.21704101562 1069.76440429688 1055.6787109375 1058.79235839844 1055.95910644531 1053.13562011719 1041.10705566406 1033.51953125 1040.0712890625 1045.50439453125 1052.83435058594 1061.62109375 1054.86254882812 1062.171875 1050.73962402344
951.474060058594 953.457092285156 958.755432128906 968.684753417969 977.763793945312 968.322509765625 964.257934570312 972.431945800781 972.289794921875 961.248901367188 969.528869628906 959.237243652344 951.54638671875 946.913513183594 949.680419921875 956.375 952.640502929688 956.974914550781 952.686218261719 952.130676269531 951.885864257812 937.849609375 939.979919433594 931.527648925781 933.420593261719 942.668334960938 953.707641601562 952.306823730469 939.5361328125 950.515075683594 954.204406738281 953.057861328125 954.748046875 949.408081054688 946.565795898438 949.395446777344 954.817687988281 957.787048339844 958.251037597656 951.85302734375 950.732788085938 946.880981445312 946.652893066406 950.275573730469 950.701354980469 951.833190917969 952.492858886719 956.154113769531 952.618530273438 951.318481445312 950.744018554688 945.603271484375 954.475219726562 958.995483398438 960.589721679688 959.21728515625 954.809143066406 957.044128417969 959.966674804688 957.166748046875 966.469787597656 959.765808105469 967.113098144531 966.557312011719 967.972595214844 968.234252929688 971.400512695312 957.688171386719 954.653503417969 956.454650878906 959.5107421875 959.964782714844 959.986022949219 961.43017578125 963.96240234375 966.060668945312 969.14501953125 963.127380371094 965.603515625 966.361206054688 976.669860839844 978.238403320312 964.723937988281 972.219909667969 970.637451171875 966.111572265625 965.484497070312 964.50537109375 969.123168945312 976.471618652344 972.048522949219 972.2255859375 972.160583496094 972.053833007812 981.394226074219 971.070678710938 977.450134277344 972.954650878906 981.969360351562 980.961303710938 980.476867675781 988.015380859375 985.920959472656 988.927062988281 982.268371582031 977.864135742188 981.520202636719 982.5107421875 978.001159667969 983.755004882812 1000.94232177734 1003.95544433594 1000.33172607422 1008.71606445312 1010.46990966797 1007.57397460938 999.0283203125 997.997192382812 1005.99908447266 1004.02368164062 993.060546875 1004.37957763672 1007.54034423828 1013.26641845703 1015.7490234375 1021.04559326172 1030.69018554688 1034.00769042969 1045.5810546875 1043.88513183594 1050.95043945312 1061.087890625 1057.72277832031 1067.46630859375 1061.6064453125 1073.4970703125 1056.70861816406 1054.04272460938 1043.07043457031 1045.03796386719 1041.42883300781 1032.94030761719 1031.1640625 1033.11730957031 1039.16516113281 1047.41137695312 1050.28564453125 1050.22668457031 1053.90515136719 1052.28649902344
947.608642578125 956.607116699219 959.266418457031 965.560302734375 979.9599609375 977.948669433594 965.968444824219 974.542663574219 971.5791015625 966.709350585938 961.897277832031 956.518493652344 952.62109375 951.150634765625 951.665161132812 956.199279785156 950.61474609375 946.975341796875 946.150573730469 946.230773925781 948.285461425781 937.376098632812 933.421569824219 936.23974609375 934.965270996094 942.172302246094 955.893737792969 953.502563476562 951.743957519531 944.391662597656 951.150573730469 950.825317382812 953.063903808594 953.579895019531 950.649536132812 950.498046875 949.148803710938 956.286071777344 951.156311035156 944.907043457031 946.479309082031 943.467651367188 947.54052734375 947.611389160156 942.228881835938 940.856262207031 955.005004882812 955.390075683594 956.395690917969 949.24072265625 952.588684082031 952.476318359375 948.89794921875 954.312866210938 956.092041015625 960.401000976562 957.659729003906 960.455749511719 961.590454101562 959.116333007812 967.429260253906 974.387939453125 971.944213867188 972.670776367188 979.131103515625 974.362121582031 968.088317871094 960.956420898438 963.568298339844 958.9072265625 963.998413085938 966.031372070312 965.474060058594 972.7001953125 967.776672363281 966.510864257812 965.432739257812 971.363037109375 968.684631347656 971.635375976562 971.246154785156 979.578186035156 975.141906738281 981.303771972656 971.076354980469 968.262329101562 968.930419921875 967.783630371094 970.11767578125 972.385314941406 975.810119628906 969.590270996094 974.892395019531 965.089111328125 969.054077148438 967.848571777344 968.856567382812 968.50244140625 968.077209472656 970.876892089844 981.98681640625 982.104553222656 993.199279785156 986.60205078125 980.353576660156 986.369384765625 987.760192871094 991.79541015625 989.500122070312 987.049133300781 998.246520996094 1006.23956298828 1011.90972900391 1006.91333007812 1013.31683349609 1007.01226806641 1002.58752441406 1001.65155029297 1001.95355224609 1006.14935302734 1006.95037841797 1008.79644775391 1010.17706298828 1011.36999511719 1012.73370361328 1015.31597900391 1024.10876464844 1031.12268066406 1038.07165527344 1043.37219238281 1046.3076171875 1051.30261230469 1050.22387695312 1048.88732910156 1051.71228027344 1052.29235839844 1048.52563476562 1040.98388671875 1034.99731445312 1039.85778808594 1038.7392578125 1031.31262207031 1024.63525390625 1033.89697265625 1033.33837890625 1027.52856445312 1035.22583007812 1044.18005371094 1041.53491210938 1037.49694824219
952.435791015625 959.600769042969 965.26806640625 960.622863769531 964.379333496094 972.121826171875 966.321533203125 968.792785644531 965.18115234375 969.18115234375 955.466125488281 954.061462402344 954.977172851562 950.518310546875 957.168884277344 951.59033203125 947.121826171875 947.450988769531 941.195861816406 946.836120605469 952.6181640625 940.791931152344 930.174133300781 933.684631347656 933.925415039062 939.542785644531 943.424743652344 943.739074707031 951.617553710938 947.205993652344 946.231811523438 941.400268554688 945.530639648438 949.216735839844 952.48486328125 953.571533203125 948.707275390625 947.282348632812 950.67724609375 942.693237304688 951.379089355469 946.234619140625 946.915222167969 949.223022460938 943.79443359375 943.080200195312 950.460632324219 951.121215820312 960.192321777344 958.326232910156 952.778564453125 952.494689941406 947.335083007812 953.0400390625 942.346313476562 962.3876953125 960.258361816406 964.754455566406 963.828308105469 970.152893066406 970.472229003906 973.5341796875 983.078063964844 984.305114746094 973.190124511719 978.772155761719 978.592895507812 973.607849121094 971.215759277344 964.845275878906 963.775146484375 969.013488769531 975.277282714844 970.591735839844 971.799560546875 969.966064453125 964.169372558594 958.721984863281 961.216247558594 972.638793945312 982.02880859375 977.025390625 985.285705566406 974.755798339844 972.20751953125 969.683532714844 975.516174316406 972.943664550781 970.413635253906 969.141845703125 968.686096191406 972.102294921875 966.585388183594 967.150512695312 966.685424804688 971.057739257812 973.865844726562 968.056579589844 967.510925292969 963.657897949219 977.254943847656 986.557983398438 987.985290527344 989.835144042969 987.851745605469 985.181457519531 992.3095703125 1000.24176025391 996.240966796875 989.124938964844 1009.32550048828 1017.78039550781 1015.32196044922 1007.30889892578 1015.31262207031 1010.97412109375 997.880187988281 1001.13146972656 1008.93536376953 1001.6630859375 1016.13793945312 1016.31353759766 1009.82330322266 1014.17681884766 1008.51788330078 1013.55023193359 1024.14880371094 1030.21643066406 1029.29162597656 1043.32385253906 1045.76916503906 1043.5224609375 1042.04016113281 1033.08898925781 1039.82019042969 1045.15087890625 1047.80932617188 1041.04748535156 1035.17517089844 1038.40026855469 1040.16186523438 1027.84802246094 1025.93688964844 1020.31677246094 1026.29418945312 1025.96435546875 1022.77349853516 1030.109375 1028.4150390625 1029.96166992188
940.742553710938 944.703674316406 966.873596191406 958.770385742188 951.187255859375 959.251220703125 961.845092773438 960.7529296875 964.844482421875 963.161071777344 962.030517578125 952.434631347656 957.353820800781 954.079772949219 948.090270996094 943.658386230469 942.566467285156 942.794372558594 939.031677246094 949.359680175781 946.701538085938 939.906372070312 933.16259765625 933.408447265625 943.720092773438 934.423034667969 937.864807128906 940.378662109375 946.651000976562 948.929565429688 945.414489746094 945.208374023438 948.575317382812 953.537414550781 952.553771972656 954.801574707031 954.176391601562 957.252685546875 955.481994628906 949.743774414062 954.939270019531 953.320678710938 956.717895507812 959.43017578125 960.115844726562 957.768676757812 949.816528320312 947.507751464844 960.516296386719 957.94677734375 952.950256347656 952.273254394531 944.391235351562 948.244445800781 948.997619628906 959.026000976562 950.110046386719 965.306579589844 964.225769042969 973.30810546875 970.607849121094 965.156372070312 977.74560546875 981.571594238281 974.006286621094 976.821655273438 990.078491210938 982.272216796875 983.312194824219 970.481811523438 976.47705078125 979.576110839844 982.206115722656 969.674621582031 970.510070800781 968.869812011719 954.564880371094 961.533996582031 969.260986328125 973.37060546875 971.850891113281 982.630859375 978.868896484375 975.401672363281 973.106201171875 984.00927734375 976.562744140625 972.680541992188 963.535034179688 961.426452636719 965.171997070312 967.597717285156 963.467956542969 971.666259765625 972.431396484375 981.252746582031 980.791870117188 974.646179199219 968.926879882812 969.876892089844 977.086120605469 987.066772460938 990.401489257812 997.7919921875 998.120727539062 989.979614257812 996.525573730469 1009.21539306641 1000.16937255859 1000.22631835938 1016.43676757812 1029.5849609375 1011.37933349609 1010.97991943359 1009.16625976562 1005.97100830078 1002.07348632812 1009.44598388672 1009.30603027344 1013.42053222656 1013.51251220703 1025.05017089844 1017.61346435547 1016.81896972656 1017.76586914062 1023.33441162109 1027.60559082031 1027.32775878906 1033.32861328125 1041.01416015625 1049.1318359375 1043.16015625 1030.92993164062 1025.91638183594 1033.25354003906 1040.46728515625 1046.02575683594 1038.71704101562 1042.14855957031 1036.916015625 1037.67980957031 1034.88537597656 1022.89556884766 1017.80786132812 1017.47503662109 1018.35504150391 1024.45068359375 1024.02807617188 1023.84307861328 1019.43218994141
949.274963378906 944.238403320312 964.471069335938 953.331176757812 957.225341796875 958.511352539062 956.52099609375 948.224548339844 948.331970214844 949.047058105469 956.599792480469 954.368041992188 949.975646972656 954.450012207031 951.607177734375 947.427551269531 943.967224121094 943.957824707031 939.798461914062 937.606689453125 940.006713867188 938.1318359375 936.799133300781 942.118469238281 940.497253417969 938.836547851562 946.320251464844 939.345825195312 950.202575683594 946.726135253906 947.129211425781 948.776306152344 953.408264160156 951.941650390625 948.88623046875 946.813415527344 953.911437988281 953.183471679688 945.335327148438 950.883972167969 958.913696289062 955.924255371094 961.187927246094 960.839721679688 964.05224609375 956.614624023438 950.016418457031 956.599182128906 960.315002441406 957.28857421875 949.193603515625 948.588928222656 944.024780273438 957.770446777344 952.329833984375 960.701782226562 954.916381835938 956.808349609375 967.568481445312 971.839538574219 968.054382324219 972.461486816406 976.8896484375 982.598876953125 972.201110839844 972.125732421875 974.264343261719 978.693725585938 989.312255859375 972.948425292969 985.016723632812 984.394592285156 981.536499023438 977.736389160156 974.946105957031 959.470642089844 958.897705078125 970.027099609375 968.503845214844 972.548156738281 982.622680664062 987.098083496094 980.102233886719 979.94921875 979.063232421875 978.180419921875 990.4423828125 978.771545410156 982.737731933594 972.657409667969 983.7158203125 983.183044433594 967.276428222656 970.405334472656 978.310607910156 979.609741210938 970.497985839844 978.5537109375 973.350891113281 981.283386230469 978.910278320312 982.71435546875 990.688232421875 997.041137695312 999.9228515625 1002.96051025391 1000.31365966797 999.717712402344 1008.44555664062 1005.13256835938 1010.52496337891 1012.05706787109 1012.99542236328 1014.38610839844 1017.22869873047 1009.59130859375 1011.70953369141 1018.84875488281 1024.86242675781 1024.88916015625 1021.51330566406 1029.6962890625 1030.11291503906 1018.07141113281 1010.79022216797 1021.69952392578 1029.14135742188 1036.17883300781 1031.25988769531 1040.66516113281 1039.87060546875 1028.59252929688 1033.53479003906 1037.56799316406 1042.69970703125 1034.69299316406 1042.28784179688 1036.40466308594 1035.55822753906 1026.30847167969 1039.96618652344 1035.36254882812 1022.21282958984 1010.88507080078 1018.51397705078 1022.49731445312 1018.72125244141 1019.72430419922 1016.99365234375 1019.38708496094
958.166442871094 952.204895019531 954.295959472656 954.105163574219 952.026733398438 951.603454589844 954.92724609375 963.603820800781 952.892272949219 953.619934082031 953.7451171875 949.302185058594 950.389282226562 947.1806640625 941.516723632812 941.609008789062 946.030029296875 941.48193359375 938.462219238281 940.278686523438 942.429809570312 942.561340332031 949.363830566406 942.729309082031 941.430419921875 940.943664550781 943.260925292969 940.249816894531 944.125793457031 945.687377929688 960.02978515625 957.524963378906 956.374450683594 955.72998046875 956.794799804688 959.290771484375 954.164672851562 947.055358886719 954.071472167969 951.347900390625 955.478698730469 955.472229003906 958.2685546875 958.871948242188 964.678955078125 952.890441894531 961.045104980469 967.37939453125 968.560729980469 959.256042480469 955.898376464844 950.4658203125 950.497497558594 964.207397460938 964.181762695312 975.085083007812 962.679565429688 965.570251464844 967.048889160156 973.261840820312 972.778259277344 965.270568847656 967.89697265625 971.501708984375 961.650146484375 967.073486328125 968.398010253906 972.971557617188 978.045288085938 970.032775878906 980.356994628906 987.130004882812 993.671508789062 984.084411621094 978.126403808594 978.548645019531 966.234008789062 961.578308105469 966.335083007812 970.703735351562 973.024291992188 971.808776855469 979.328063964844 973.544921875 982.278564453125 983.231262207031 980.625 983.488464355469 978.30078125 986.372192382812 974.414184570312 976.899963378906 968.532409667969 974.780883789062 975.185546875 980.679382324219 986.4443359375 972.8837890625 974.258850097656 984.198425292969 991.792175292969 986.267028808594 991.976440429688 998.914245605469 999.130798339844 994.021179199219 1000.60711669922 997.552124023438 1006.958984375 1005.52429199219 1007.83477783203 1006.11291503906 1012.47534179688 1013.48645019531 1018.48687744141 1024.11499023438 1018.86010742188 1025.46789550781 1038.61645507812 1028.396484375 1031.68701171875 1029.77197265625 1028.6220703125 1022.31665039062 1011.68249511719 1015.52276611328 1024.28356933594 1031.97595214844 1032.57873535156 1029.029296875 1032.80578613281 1036.79052734375 1036.70288085938 1035.17199707031 1027.4580078125 1027.72338867188 1031.14562988281 1026.53100585938 1033.13635253906 1023.5830078125 1030.77185058594 1026.12426757812 1027.41845703125 1021.58349609375 1019.56451416016 1019.97937011719 1019.31427001953 1013.53857421875 1019.19232177734 1016.74774169922
958.127502441406 958.343566894531 953.262512207031 952.499389648438 951.792053222656 952.560913085938 944.501037597656 943.393493652344 951.430603027344 949.375610351562 952.848388671875 947.309692382812 946.234436035156 941.158630371094 951.138366699219 949.8818359375 943.741638183594 942.894836425781 940.262878417969 946.596801757812 947.802734375 950.358764648438 940.414855957031 953.840881347656 954.185913085938 943.868347167969 939.462463378906 940.689636230469 950.995178222656 943.930969238281 954.268249511719 962.844177246094 951.979187011719 951.69677734375 949.128112792969 955.750671386719 960.033935546875 955.944580078125 945.352172851562 949.356018066406 954.607788085938 956.402587890625 959.838623046875 967.859252929688 968.005065917969 956.149230957031 951.978149414062 974.074035644531 980.304260253906 961.269165039062 963.15478515625 958.959045410156 956.642150878906 961.764526367188 964.20361328125 966.8837890625 973.017639160156 967.386535644531 976.3330078125 975.929321289062 969.555480957031 960.946350097656 960.792785644531 965.476745605469 962.678039550781 958.351501464844 964.526611328125 971.417541503906 976.251098632812 966.954345703125 977.928649902344 987.373107910156 991.007202148438 983.220397949219 974.392150878906 971.554931640625 962.699584960938 969.384765625 972.444580078125 976.193969726562 969.068481445312 967.97265625 975.967224121094 977.413818359375 985.505676269531 986.722900390625 987.108215332031 980.021484375 985.75390625 986.523376464844 974.731506347656 965.736450195312 969.132934570312 975.524047851562 976.672729492188 984.411437988281 982.933959960938 986.09912109375 990.376098632812 982.091430664062 997.457580566406 992.054016113281 1000.75146484375 999.442504882812 993.177490234375 987.360168457031 998.302307128906 1003.50549316406 1003.08734130859 1001.36688232422 1007.90063476562 1015.21142578125 1027.72045898438 1033.46850585938 1029.61511230469 1029.28662109375 1028.8427734375 1034.13415527344 1040.9140625 1038.40539550781 1039.26403808594 1033.72412109375 1038.73461914062 1032.24536132812 1021.86883544922 1016.05944824219 1025.04138183594 1023.37689208984 1029.92102050781 1032.54052734375 1036.82287597656 1030.50646972656 1028.71569824219 1026.28601074219 1032.451171875 1020.00506591797 1022.64532470703 1024.61291503906 1026.56530761719 1032.36315917969 1028.92895507812 1018.74310302734 1013.50030517578 1016.61767578125 1021.05999755859 1013.80297851562 1011.98004150391 1018.90899658203 1013.66784667969 1011.32232666016
957.70849609375 954.04931640625 953.095458984375 954.190490722656 959.458862304688 950.72607421875 938.1982421875 946.143737792969 941.94189453125 941.380249023438 944.493347167969 947.943176269531 949.868469238281 945.229614257812 945.112670898438 945.088134765625 951.118957519531 950.488891601562 950.183044433594 946.704040527344 953.669128417969 953.538696289062 955.604614257812 949.933654785156 947.900268554688 949.384033203125 948.716369628906 954.268493652344 956.895263671875 952.755859375 955.685974121094 957.505493164062 960.793884277344 961.159851074219 948.185180664062 954.879150390625 950.8701171875 953.539855957031 944.182800292969 952.904296875 952.067932128906 959.644348144531 962.664245605469 961.324035644531 972.603942871094 962.244873046875 969.874938964844 975.810302734375 977.231872558594 978.220764160156 977.999938964844 979.717468261719 977.248718261719 965.025085449219 967.848083496094 967.487915039062 974.420166015625 972.723205566406 968.975036621094 973.174438476562 967.699340820312 962.754943847656 960.057495117188 961.643493652344 967.000732421875 967.484497070312 966.403137207031 966.823303222656 979.834045410156 973.786010742188 979.158447265625 989.323791503906 986.971618652344 977.384948730469 984.693603515625 970.322021484375 964.253479003906 964.982299804688 972.752380371094 977.377685546875 975.3427734375 976.037902832031 976.042602539062 983.474243164062 982.828918457031 986.480712890625 984.172058105469 978.686889648438 980.02587890625 979.946533203125 979.158752441406 979.213928222656 974.960998535156 979.282348632812 980.439147949219 982.426330566406 983.289428710938 981.379211425781 995.267150878906 988.159606933594 996.513793945312 1006.67083740234 1009.404296875 1002.69677734375 987.921936035156 990.039123535156 992.864562988281 1005.61535644531 1005.91784667969 1007.77038574219 1016.76129150391 1020.31011962891 1025.71923828125 1024.75695800781 1034.81750488281 1031.89501953125 1029.73474121094 1046.91284179688 1043.28747558594 1038.53894042969 1038.515625 1037.90161132812 1030.71997070312 1033.81335449219 1025.94396972656 1022.35205078125 1022.21710205078 1028.21130371094 1030.17944335938 1023.57366943359 1026.80053710938 1024.34643554688 1031.46887207031 1027.78088378906 1027.39477539062 1025.49731445312 1020.62158203125 1013.30523681641 1023.63793945312 1022.55847167969 1021.57867431641 1020.35662841797 1019.12170410156 1012.36212158203 1009.60089111328 1010.56799316406 1008.85583496094 1003.10827636719 1002.73828125 1008.39715576172
950.0107421875 950.825622558594 946.923095703125 951.828247070312 949.299743652344 941.746826171875 939.653686523438 931.791137695312 936.593872070312 935.331176757812 941.675109863281 938.572998046875 940.887756347656 946.014770507812 942.122680664062 957.380004882812 956.825622558594 949.642578125 956.731384277344 949.677917480469 956.587036132812 955.0146484375 957.112365722656 951.093139648438 952.310974121094 952.286315917969 954.031616210938 956.015930175781 968.167358398438 961.351257324219 953.045715332031 956.721374511719 958.464782714844 953.836975097656 952.0283203125 954.495300292969 951.462097167969 954.476623535156 949.08349609375 950.324340820312 964.036437988281 966.162475585938 959.153198242188 957.993041992188 967.416748046875 970.535766601562 973.756286621094 986.01123046875 983.107604980469 984.081848144531 997.621520996094 987.273010253906 974.407836914062 972.736877441406 967.601257324219 970.210388183594 970.316589355469 973.662719726562 970.01220703125 969.951232910156 968.111328125 967.154113769531 962.547119140625 961.334899902344 970.611877441406 961.775817871094 961.155822753906 965.476440429688 976.692199707031 981.117492675781 983.238037109375 983.318603515625 989.868957519531 983.860412597656 976.5546875 970.249755859375 966.631713867188 972.884094238281 971.402893066406 979.205261230469 974.541259765625 984.279968261719 979.013122558594 977.831237792969 982.350952148438 985.835021972656 980.662231445312 983.06201171875 976.60791015625 978.180419921875 978.422668457031 980.6640625 970.778381347656 992.029418945312 990.09423828125 996.588439941406 996.07568359375 995.128051757812 990.017456054688 987.662353515625 1004.90441894531 1008.55120849609 1006.25616455078 1000.38861083984 998.932373046875 1000.85906982422 1003.26574707031 1007.36865234375 1015.70275878906 1015.20520019531 1010.27514648438 1016.61846923828 1025.54626464844 1027.16125488281 1028.33325195312 1032.00256347656 1037.30126953125 1039.0712890625 1047.59655761719 1044.59130859375 1038.34814453125 1046.23852539062 1036.47399902344 1027.56628417969 1031.09912109375 1026.2822265625 1024.07861328125 1029.85241699219 1030.83093261719 1030.24426269531 1031.587890625 1029.28540039062 1027.2744140625 1031.05004882812 1028.95434570312 1024.48828125 1022.45349121094 1017.20849609375 1016.09143066406 1018.953125 1022.53796386719 1013.98504638672 1013.60943603516 1018.13684082031 1017.583984375 1007.94683837891 1006.24957275391 994.360534667969 998.36181640625 1003.01934814453
948.301452636719 946.367858886719 948.263854980469 949.110534667969 951.111206054688 944.841369628906 933.783386230469 937.741821289062 934.516967773438 936.450622558594 942.395690917969 948.953735351562 944.780456542969 949.448669433594 954.660522460938 966.843078613281 969.223449707031 963.497497558594 963.472595214844 962.285034179688 960.796508789062 958.87744140625 957.189025878906 958.103149414062 969.348571777344 958.421325683594 969.591186523438 967.225036621094 972.649353027344 971.784301757812 957.092529296875 951.139770507812 953.638671875 955.134582519531 950.5908203125 953.048400878906 954.80078125 947.421508789062 954.157165527344 960.350341796875 968.874877929688 970.200073242188 967.50439453125 960.988525390625 966.346313476562 970.286743164062 984.457458496094 991.223754882812 989.240112304688 987.428771972656 992.046691894531 986.048522949219 978.271057128906 973.254272460938 967.737854003906 974.825317382812 977.140991210938 977.349426269531 977.559753417969 971.403991699219 975.834716796875 967.934997558594 970.123046875 962.945068359375 968.8134765625 967.941528320312 971.714721679688 963.438720703125 969.448852539062 973.644592285156 979.193969726562 979.351013183594 983.063842773438 978.826416015625 980.0576171875 980.405029296875 979.988464355469 978.279479980469 977.748352050781 980.821899414062 978.675720214844 983.927368164062 983.933959960938 982.489562988281 984.29296875 986.131896972656 990.192565917969 991.904479980469 982.21240234375 981.052185058594 980.568908691406 984.345458984375 977.789855957031 992.448486328125 993.923828125 991.70849609375 995.919128417969 994.9111328125 993.466369628906 997.408020019531 1002.77331542969 1010.369140625 1008.67974853516 1012.67761230469 1006.75756835938 1012.28051757812 995.789428710938 1007.67211914062 1012.48522949219 1012.04223632812 1012.13623046875 1022.1103515625 1017.46734619141 1033.23901367188 1035.876953125 1035.38439941406 1038.24523925781 1043.46923828125 1039.16064453125 1043.03747558594 1046.04809570312 1052.22827148438 1046.19714355469 1035.19909667969 1041.52722167969 1042.302734375 1030.13049316406 1030.63244628906 1034.47827148438 1020.8759765625 1019.99774169922 1021.71569824219 1023.88928222656 1031.52014160156 1027.04736328125 1024.087890625 1023.86047363281 1014.70111083984 1015.90533447266 1012.92895507812 1014.71765136719 1012.81274414062 1017.90350341797 1018.24859619141 1012.63946533203 1005.59063720703 1005.95166015625 1003.43432617188 1004.03973388672 997.232727050781
950.708374023438 954.400329589844 947.083190917969 942.585815429688 945.448913574219 941.890747070312 942.885314941406 941.752563476562 931.437438964844 933.984741210938 948.220397949219 946.511413574219 947.532409667969 955.087341308594 963.916687011719 969.1982421875 976.162658691406 969.930969238281 968.000793457031 967.196899414062 966.210632324219 966.184448242188 962.450805664062 964.618469238281 962.730651855469 968.606567382812 970.400390625 972.115356445312 972.055297851562 967.090698242188 957.258605957031 955.248596191406 951.028869628906 955.827575683594 958.30517578125 960.715515136719 964.09716796875 960.838012695312 953.776428222656 951.925659179688 976.971862792969 970.325744628906 973.065063476562 974.913635253906 971.606994628906 970.296081542969 991.737915039062 989.798278808594 988.485717773438 978.838256835938 985.180908203125 987.926391601562 978.294860839844 967.965698242188 972.540161132812 981.415832519531 976.313293457031 982.10791015625 978.17724609375 977.632934570312 982.573608398438 971.668884277344 967.772705078125 971.273864746094 964.005126953125 966.915771484375 969.859436035156 967.715698242188 969.640380859375 971.487731933594 975.18701171875 978.077575683594 992.278503417969 978.606994628906 983.152587890625 986.056091308594 985.623291015625 978.536560058594 981.455932617188 979.0498046875 978.45556640625 984.723693847656 992.792541503906 992.214721679688 990.332885742188 987.723388671875 988.938354492188 991.614501953125 980.535095214844 984.924560546875 981.616394042969 978.289123535156 978.268432617188 983.755310058594 982.118774414062 991.580505371094 995.949645996094 996.262329101562 996.1474609375 1001.30389404297 1003.20855712891 1003.19226074219 1012.02301025391 1006.79858398438 1009.84606933594 1012.56561279297 1008.76220703125 1011.2431640625 1008.53387451172 1020.10845947266 1011.2451171875 1017.03472900391 1023.068359375 1032.3466796875 1035.35192871094 1042.447265625 1043.24450683594 1046.84643554688 1042.77026367188 1043.73217773438 1047.79614257812 1039.08874511719 1043.25158691406 1043.10815429688 1037.99340820312 1031.15197753906 1027.24609375 1023.82568359375 1027.83459472656 1020.48754882812 1020.72424316406 1018.1181640625 1017.47509765625 1026.84704589844 1029.26708984375 1028.39099121094 1031.98474121094 1025.73510742188 1014.51208496094 1020.79663085938 1009.38903808594 1007.99163818359 1014.95227050781 1014.68078613281 1018.89428710938 1004.00744628906 1001.80615234375 997.647766113281 1006.64093017578 1004.47436523438
960.002136230469 953.400573730469 949.355834960938 942.026611328125 943.8359375 933.571899414062 940.954406738281 933.339416503906 938.375 934.632385253906 945.460144042969 950.937866210938 958.186340332031 969.927734375 966.003479003906 964.989379882812 972.328430175781 975.8515625 976.584594726562 968.934204101562 966.583679199219 961.549011230469 966.035888671875 959.113525390625 960.106323242188 969.08203125 963.805541992188 965.285766601562 967.433044433594 963.605163574219 959.548767089844 963.954528808594 961.693298339844 961.906982421875 966.994079589844 968.274475097656 968.334899902344 969.885498046875 960.74560546875 971.489562988281 980.472717285156 979.262878417969 973.857849121094 972.594665527344 973.88916015625 977.609069824219 991.783264160156 986.665771484375 990.458679199219 984.711730957031 995.808044433594 994.806457519531 980.199462890625 977.194274902344 968.625854492188 978.3818359375 984.615295410156 977.928771972656 977.976135253906 971.327575683594 976.420715332031 974.191162109375 964.790893554688 961.127136230469 971.166564941406 974.65087890625 972.960021972656 971.004943847656 969.089233398438 971.8564453125 975.664794921875 979.370544433594 980.708679199219 984.754821777344 969.318359375 980.350830078125 990.00146484375 985.0576171875 984.413024902344 982.629638671875 985.356201171875 983.418579101562 991.022399902344 985.416259765625 983.225646972656 973.614440917969 983.289306640625 990.092468261719 989.911987304688 980.462829589844 980.787902832031 979.277221679688 977.9287109375 982.533569335938 981.876586914062 983.122497558594 992.21240234375 988.936218261719 1004.86352539062 1000.88427734375 1005.08282470703 1000.08123779297 1012.14819335938 1017.70666503906 1010.31176757812 1007.30218505859 1012.97253417969 1016.55541992188 1018.82354736328 1017.52197265625 1012.62609863281 1016.20111083984 1028.85778808594 1024.33227539062 1043.76354980469 1040.05065917969 1031.55676269531 1036.14770507812 1040.56970214844 1044.25622558594 1050.1123046875 1044.49951171875 1041.86755371094 1031.10778808594 1022.85308837891 1023.1298828125 1013.27032470703 1013.501953125 1008.31341552734 1011.65881347656 1013.76574707031 1015.58630371094 1012.32678222656 1012.44305419922 1027.15075683594 1025.9921875 1027.48718261719 1025.50659179688 1012.32293701172 1022.9072265625 1010.65643310547 1004.44891357422 1010.83587646484 1009.26147460938 1014.80718994141 1004.01623535156 999.165222167969 996.493225097656 994.779724121094 1006.43560791016
953.314636230469 945.634460449219 945.442565917969 944.470886230469 939.621154785156 934.671813964844 935.230773925781 936.346496582031 943.255859375 949.392578125 960.45947265625 967.057800292969 967.698303222656 972.392150878906 982.424255371094 966.408447265625 971.687561035156 980.360595703125 975.085754394531 969.550415039062 970.180053710938 966.733337402344 971.648254394531 959.250183105469 961.906616210938 965.217834472656 957.226440429688 966.632141113281 965.557861328125 961.205871582031 968.979125976562 968.504699707031 965.7998046875 979.969787597656 974.345153808594 973.838623046875 972.187683105469 969.329162597656 978.287719726562 975.5234375 973.230590820312 978.945739746094 984.515747070312 980.199890136719 983.185119628906 988.332763671875 984.767456054688 986.251892089844 980.981994628906 988.199829101562 992.487121582031 985.129699707031 977.476440429688 970.004638671875 969.205444335938 970.248046875 982.297180175781 985.2041015625 972.863159179688 969.907592773438 975.427795410156 979.322387695312 976.105224609375 972.885131835938 980.705871582031 980.100219726562 976.318054199219 977.015441894531 976.292175292969 967.795471191406 972.667602539062 978.656311035156 977.310180664062 983.341003417969 981.456726074219 980.702331542969 990.864196777344 989.365966796875 989.715393066406 977.534240722656 983.053344726562 982.847961425781 989.343200683594 998.569946289062 988.476623535156 976.661682128906 982.957702636719 978.781494140625 986.649108886719 981.538818359375 984.493530273438 983.095520019531 983.22265625 979.944152832031 981.594970703125 983.306030273438 989.899108886719 993.774536132812 1002.07580566406 1001.73382568359 1000.91021728516 989.648620605469 1006.34674072266 1022.26293945312 1013.82409667969 1013.47833251953 1017.66326904297 1020.00921630859 1021.07781982422 1025.203125 1015.58367919922 1008.61096191406 1020.83477783203 1025.3330078125 1037.83325195312 1025.45043945312 1027.46105957031 1031.5380859375 1032.28515625 1031.01037597656 1040.1875 1051.34936523438 1037.16357421875 1025.45629882812 1024.32678222656 1021.40045166016 1006.72662353516 1016.48303222656 1009.53698730469 1013.16040039062 1005.70452880859 1008.71978759766 1006.41723632812 1018.02606201172 1017.24011230469 1016.01776123047 1019.02471923828 1019.81762695312 1021.20135498047 1018.65014648438 1010.52984619141 1004.05010986328 1009.91015625 1004.11151123047 1004.20758056641 1008.32415771484 1008.32312011719 1005.99969482422 995.031066894531 999.151428222656
953.166259765625 936.283203125 932.080444335938 934.49072265625 931.188293457031 933.001281738281 934.646118164062 941.541625976562 949.986389160156 958.430053710938 965.577026367188 974.177917480469 966.190673828125 976.14404296875 975.809020996094 975.407165527344 972.744750976562 976.670593261719 978.860961914062 981.129333496094 982.830810546875 972.212890625 964.0654296875 967.79052734375 970.536560058594 963.746643066406 956.397521972656 962.197570800781 955.019653320312 970.76708984375 968.820983886719 970.473022460938 970.536376953125 975.758666992188 976.220825195312 978.750183105469 973.688354492188 970.848266601562 973.492736816406 989.267883300781 977.721801757812 981.14501953125 980.601440429688 991.46728515625 990.778259277344 991.346984863281 989.675842285156 987.2294921875 984.970581054688 993.722961425781 988.005187988281 984.903503417969 982.44677734375 982.028381347656 970.953979492188 973.78564453125 976.729614257812 980.441467285156 982.238708496094 972.54736328125 974.021789550781 974.849914550781 976.896301269531 969.775756835938 983.431945800781 992.474487304688 990.231506347656 980.316955566406 985.931823730469 985.380065917969 987.28564453125 985.830749511719 988.619812011719 987.692077636719 983.663940429688 985.41748046875 988.156921386719 990.931701660156 987.001525878906 986.146789550781 979.725830078125 993.753723144531 998.457641601562 999.222229003906 996.225280761719 983.323608398438 985.061218261719 978.495971679688 983.648803710938 976.971984863281 984.82763671875 980.500244140625 984.96826171875 976.052856445312 978.949401855469 987.496765136719 994.5947265625 996.124572753906 997.1865234375 1000.94842529297 996.392700195312 999.504516601562 1005.19519042969 1012.71984863281 1011.67083740234 1018.40942382812 1019.74420166016 1022.31024169922 1022.29345703125 1020.51232910156 1022.22857666016 1023.57055664062 1021.6064453125 1025.27856445312 1028.62170410156 1016.89599609375 1026.25903320312 1029.54345703125 1027.87817382812 1024.76879882812 1027.96130371094 1030.15905761719 1027.83911132812 1018.21911621094 1016.62548828125 1018.49810791016 1010.13745117188 1017.53198242188 1013.44458007812 1020.07153320312 1014.95056152344 1012.89038085938 1007.27313232422 1011.15502929688 1010.40924072266 1013.01831054688 1010.91046142578 1018.67529296875 1017.38006591797 1018.51593017578 1005.34057617188 1000.109375 998.143493652344 994.685668945312 1002.54614257812 1004.69226074219 996.260009765625 998.554260253906 989.882141113281 1002.99328613281
950.411315917969 943.102355957031 928.199340820312 931.595520019531 923.207458496094 929.385498046875 940.954833984375 945.910095214844 953.902221679688 957.447631835938 965.445678710938 970.392028808594 970.321228027344 975.839477539062 979.944458007812 977.767028808594 983.47021484375 979.159301757812 982.973876953125 976.312805175781 976.536437988281 981.181030273438 975.792724609375 964.571899414062 977.402404785156 967.0966796875 969.760620117188 961.8662109375 953.811096191406 966.875732421875 977.608154296875 978.332458496094 981.990600585938 978.089477539062 977.968933105469 976.315063476562 976.27685546875 972.332702636719 974.225036621094 990.781616210938 988.255859375 980.943481445312 988.021484375 995.491760253906 992.359008789062 989.703002929688 994.377502441406 998.774230957031 994.538696289062 988.889221191406 981.479858398438 984.806274414062 987.253845214844 977.434936523438 974.334594726562 979.041564941406 976.929565429688 973.614868164062 981.027893066406 978.311279296875 974.969421386719 976.120239257812 973.260070800781 977.692321777344 980.977966308594 980.322448730469 982.949401855469 990.049987792969 987.639587402344 994.169799804688 996.579528808594 991.285339355469 986.999694824219 995.155029296875 981.435791015625 987.090393066406 990.732238769531 994.057495117188 994.054077148438 991.005310058594 989.441223144531 995.896179199219 999.581237792969 995.427368164062 993.430419921875 992.900695800781 984.214904785156 986.000427246094 983.098754882812 984.50634765625 979.158569335938 983.93408203125 980.148071289062 982.427673339844 981.975891113281 989.998474121094 987.430358886719 987.292358398438 998.791137695312 997.130493164062 1006.63732910156 1005.91674804688 1011.93646240234 1014.27716064453 1008.84582519531 1025.02502441406 1024.20324707031 1022.63812255859 1031.72375488281 1021.0009765625 1025.60852050781 1024.79162597656 1025.74865722656 1034.28515625 1029.37475585938 1027.14733886719 1022.0498046875 1025.88708496094 1024.60205078125 1021.45758056641 1026.02014160156 1017.06005859375 1016.46490478516 1016.05505371094 1015.27380371094 1021.541015625 1005.79870605469 1010.65258789062 1011.87127685547 1017.32720947266 1016.34851074219 1007.24481201172 1007.01165771484 1008.24133300781 1006.88629150391 1016.49597167969 1013.10363769531 1017.73974609375 1015.22546386719 1010.55200195312 998.160766601562 993.117431640625 990.012023925781 994.955749511719 984.249389648438 1001.37780761719 997.051940917969 994.7021484375 993.379516601562 995.094360351562
946.166809082031 934.310913085938 937.928100585938 932.203857421875 919.552001953125 925.8828125 933.286804199219 943.153015136719 947.026245117188 958.680419921875 956.993103027344 963.553039550781 967.969909667969 980.260131835938 974.602600097656 980.481506347656 980.461669921875 974.070922851562 978.008178710938 981.201477050781 979.3193359375 978.357788085938 978.229797363281 976.955932617188 980.980773925781 980.699462890625 974.411315917969 965.595886230469 967.367004394531 977.5283203125 984.271728515625 983.405334472656 990.306762695312 983.943969726562 974.683288574219 977.465454101562 976.688537597656 972.584411621094 981.692565917969 994.256103515625 994.63330078125 992.662536621094 998.638671875 1002.47155761719 996.0810546875 995.035034179688 991.224609375 997.779113769531 1001.55065917969 983.737487792969 986.411010742188 987.502197265625 979.569580078125 971.107360839844 978.910034179688 987.246643066406 980.185791015625 983.9970703125 986.520202636719 979.710693359375 980.166870117188 969.967102050781 972.605041503906 972.775085449219 978.400085449219 979.166137695312 981.601745605469 979.3291015625 985.665405273438 984.339904785156 988.099182128906 1000.14862060547 998.079284667969 990.033081054688 979.311950683594 993.826538085938 998.512268066406 1003.63580322266 995.841613769531 990.490844726562 995.101379394531 1008.59588623047 1003.21795654297 1003.54541015625 993.075744628906 997.726867675781 992.961364746094 993.138305664062 988.91357421875 990.057312011719 983.465087890625 984.04443359375 981.063598632812 975.468017578125 988.8056640625 991.265380859375 992.580993652344 989.376403808594 1000.97686767578 1008.11096191406 1007.01586914062 1007.59887695312 1012.80328369141 1014.71673583984 1004.70153808594 1019.90216064453 1032.51928710938 1031.86706542969 1034.00036621094 1027.48937988281 1026.06127929688 1032.2548828125 1028.00244140625 1034.26770019531 1026.64440917969 1023.32159423828 1020.73327636719 1011.662109375 1020.52581787109 1015.59442138672 1011.51483154297 1011.81164550781 1013.82598876953 1014.40600585938 1016.57385253906 1019.39483642578 1014.27770996094 1005.49591064453 1013.75341796875 1008.64935302734 1009.42437744141 1009.4052734375 1007.08654785156 1008.72528076172 1016.38562011719 1013.67510986328 1022.53851318359 1020.62969970703 1015.83294677734 1012.02624511719 994.950744628906 993.526428222656 988.149841308594 991.340515136719 987.841003417969 988.601440429688 986.052124023438 993.639831542969 1004.9404296875 1004.09997558594
941.788452148438 938.233337402344 929.764343261719 932.036193847656 931.572875976562 922.6181640625 930.952697753906 940.684448242188 943.65771484375 952.713256835938 954.265625 953.644104003906 965.005432128906 972.988891601562 980.637634277344 980.540161132812 970.147888183594 975.984191894531 975.447326660156 978.932312011719 976.848937988281 982.985168457031 979.2783203125 985.873962402344 985.928833007812 983.710083007812 979.521484375 973.967102050781 973.403747558594 979.879821777344 984.899291992188 982.997253417969 990.479614257812 980.731811523438 984.641052246094 983.013244628906 990.100280761719 984.009765625 983.689636230469 993.070129394531 997.179626464844 1001.67126464844 999.325317382812 1001.13995361328 1005.36669921875 996.214660644531 994.707885742188 1003.06591796875 1004.79925537109 990.952026367188 995.560485839844 991.320678710938 980.817810058594 979.374877929688 981.263244628906 984.052978515625 989.127746582031 981.311096191406 981.037536621094 983.78662109375 983.679077148438 976.321411132812 972.954833984375 970.876098632812 976.4130859375 980.366821289062 978.200988769531 978.726806640625 983.085754394531 984.211120605469 994.353271484375 998.299072265625 997.304992675781 988.680480957031 993.113586425781 997.156494140625 1004.21057128906 1005.61517333984 993.549133300781 991.308044433594 998.985290527344 1004.62554931641 1002.66760253906 1001.63092041016 999.217346191406 996.551635742188 995.58837890625 999.190734863281 995.060424804688 993.914489746094 987.97412109375 987.18310546875 988.859558105469 986.483337402344 989.289978027344 990.436950683594 998.619018554688 995.377502441406 1004.07666015625 1005.15222167969 1010.22619628906 1007.45635986328 1015.71038818359 1009.06457519531 1008.81524658203 1014.37091064453 1027.68225097656 1031.89562988281 1039.33947753906 1040.58068847656 1039.78381347656 1038.21740722656 1032.96862792969 1030.85046386719 1026.86413574219 1021.76580810547 1018.51940917969 1009.35333251953 1019.04486083984 1011.84411621094 1004.70831298828 1001.47540283203 1006.61029052734 1009.53039550781 1010.00762939453 1020.85772705078 1014.32275390625 1010.77777099609 1012.47637939453 1004.03112792969 1007.24847412109 1010.98114013672 1007.51330566406 1013.52368164062 1015.81195068359 1012.751953125 1012.65838623047 1016.97106933594 1010.58526611328 1007.19714355469 1007.88970947266 988.593811035156 989.153198242188 984.927307128906 990.287292480469 988.133117675781 992.117431640625 993.522644042969 997.410827636719 995.878479003906
945.176940917969 943.865783691406 934.452087402344 934.719360351562 929.773193359375 930.394958496094 932.357360839844 939.216552734375 942.265014648438 952.886352539062 952.435302734375 957.015563964844 961.6513671875 976.494995117188 977.613159179688 987.449096679688 979.377075195312 975.895935058594 978.184143066406 975.668334960938 971.443176269531 980.337036132812 984.156127929688 987.198669433594 991.620361328125 979.986267089844 975.044921875 979.297058105469 975.287048339844 973.672973632812 980.412292480469 985.321533203125 988.253723144531 983.599243164062 984.152587890625 988.803771972656 985.141357421875 990.47314453125 991.781677246094 993.559265136719 997.852844238281 1006.18518066406 1006.72955322266 1009.88928222656 1011.98309326172 999.295104980469 1007.986328125 1017.62445068359 1013.97357177734 994.139465332031 989.459106445312 995.931335449219 982.952514648438 978.486999511719 980.168762207031 977.483459472656 983.400817871094 979.154418945312 989.182189941406 981.767944335938 977.647094726562 979.129455566406 972.996887207031 974.551635742188 975.834533691406 969.740966796875 980.229248046875 982.911376953125 985.245849609375 992.751953125 988.204284667969 994.305541992188 982.651245117188 985.939147949219 991.407287597656 993.6103515625 997.037292480469 1000.64514160156 993.501708984375 1000.79022216797 1005.78277587891 999.516418457031 1001.59307861328 1006.59948730469 1000.91845703125 997.414672851562 1003.43768310547 1002.80133056641 1000.40563964844 994.839477539062 991.101806640625 994.417419433594 984.624694824219 992.743591308594 993.609558105469 999.998352050781 1001.58923339844 1006.43304443359 1001.24530029297 1005.34118652344 1010.51605224609 1005.49212646484 1005.42279052734 1011.17767333984 1010.96929931641 1012.67059326172 1022.80731201172 1029.73937988281 1037.7998046875 1040.740234375 1047.74279785156 1032.30773925781 1023.55529785156 1020.44061279297 1020.25305175781 1023.77630615234 1014.47760009766 1015.66046142578 1012.38024902344 1010.99951171875 1010.29241943359 1011.52795410156 1007.13403320312 1009.287109375 1011.25128173828 1013.1845703125 1016.76361083984 1010.90545654297 1008.69714355469 1005.24822998047 1006.64416503906 1006.62194824219 1004.40795898438 1012.00128173828 1013.84393310547 1009.55511474609 1011.45941162109 1013.61657714844 1004.78540039062 1007.58740234375 1011.47277832031 998.904602050781 986.029968261719 990.217956542969 985.088928222656 986.469848632812 984.147827148438 978.650329589844 985.598999023438 985.900146484375
943.788818359375 945.53515625 942.753845214844 937.954650878906 938.687072753906 927.053588867188 933.143737792969 943.562561035156 955.59033203125 951.206420898438 958.019592285156 951.799682617188 954.864990234375 972.627197265625 975.596130371094 981.5439453125 981.276062011719 985.583129882812 986.681274414062 977.11962890625 974.429443359375 977.182922363281 979.829406738281 985.80908203125 985.282348632812 996.789123535156 979.183227539062 984.320495605469 977.686584472656 966.489929199219 976.327819824219 980.585266113281 984.920837402344 981.701904296875 990.784118652344 997.172790527344 991.745666503906 991.200561523438 994.069091796875 996.22705078125 995.852355957031 1008.66656494141 1014.64282226562 1009.22485351562 1016.37261962891 1012.63793945312 1012.32470703125 1016.13555908203 1007.1494140625 1003.46649169922 991.026123046875 993.017944335938 1002.12683105469 984.400268554688 978.382690429688 981.726135253906 989.061096191406 984.242614746094 983.110290527344 979.45849609375 975.5986328125 974.548522949219 967.127014160156 976.242797851562 971.045593261719 973.697143554688 976.565673828125 981.441711425781 983.316223144531 990.508666992188 988.873657226562 984.304443359375 984.577575683594 994.014221191406 994.817443847656 1000.64337158203 1004.005859375 1001.68353271484 999.946960449219 1005.08819580078 1008.08294677734 1003.52740478516 1003.51434326172 1003.01275634766 1001.30963134766 1008.29669189453 1001.76934814453 1000.16076660156 995.88623046875 995.372863769531 992.237182617188 998.985900878906 987.731689453125 988.631530761719 991.79541015625 1004.94561767578 1001.279296875 1008.75677490234 1004.73583984375 1002.14422607422 1003.50402832031 1012.99700927734 1010.21484375 1013.28491210938 1015.23193359375 1017.10583496094 1020.71038818359 1026.24975585938 1035.86596679688 1042.1416015625 1045.14221191406 1044.44604492188 1033.75659179688 1028.0478515625 1025.00085449219 1031.00122070312 1016.29052734375 1021.94091796875 1013.71405029297 1012.30017089844 1011.84606933594 1016.02630615234 1003.98626708984 1010.1357421875 1009.71350097656 1011.91119384766 1017.99291992188 1017.40740966797 1011.22338867188 1008.94903564453 1002.68469238281 1004.73138427734 1004.33843994141 1008.60638427734 1016.52221679688 1005.81237792969 1004.37335205078 1001.62615966797 1000.43444824219 999.378784179688 1000.62786865234 993.446716308594 993.434814453125 985.966796875 981.157836914062 989.273681640625 982.252807617188 969.454284667969 970.847839355469 979.442810058594
944.473449707031 942.887817382812 951.030700683594 955.964599609375 949.156616210938 944.293334960938 943.267822265625 951.118835449219 947.955017089844 954.853881835938 950.604553222656 955.950744628906 959.552612304688 971.395202636719 976.191711425781 979.037841796875 980.52099609375 984.58837890625 990.534912109375 984.0361328125 977.711608886719 979.127563476562 977.256408691406 979.714172363281 986.018310546875 984.336242675781 980.015380859375 983.164855957031 975.286743164062 982.510620117188 985.321594238281 982.483703613281 977.500244140625 974.943359375 994.391418457031 997.013610839844 999.577758789062 997.675109863281 997.649230957031 996.820434570312 1001.37567138672 1006.83349609375 1002.47064208984 1003.92053222656 1013.14349365234 1017.43518066406 1015.05688476562 1012.23492431641 1007.18682861328 1005.80200195312 994.002624511719 993.795471191406 1004.25262451172 995.411254882812 986.834106445312 981.793884277344 982.646057128906 994.122436523438 987.586120605469 985.474365234375 970.375793457031 977.062805175781 980.069641113281 974.891723632812 976.601867675781 971.673583984375 977.868835449219 979.549743652344 978.730895996094 984.623229980469 989.395385742188 983.837158203125 995.472717285156 990.990905761719 996.473693847656 1005.25537109375 1007.34637451172 1007.15948486328 1001.66204833984 1005.44055175781 1009.29797363281 1007.32556152344 1009.79449462891 1008.10943603516 1006.72192382812 1010.94610595703 1006.69116210938 1001.89855957031 993.087158203125 987.317138671875 986.080627441406 987.10400390625 988.418823242188 990.850341796875 994.896362304688 991.387512207031 1005.99908447266 1005.38629150391 1002.92456054688 996.530090332031 999.69873046875 1008.36560058594 1008.30328369141 1006.85290527344 1012.12310791016 1018.44207763672 1032.08935546875 1029.31323242188 1031.76953125 1043.89074707031 1041.84423828125 1050.83251953125 1041.81811523438 1033.85217285156 1026.31420898438 1032.06298828125 1031.27648925781 1027.98950195312 1010.68634033203 1017.16479492188 1011.76501464844 1002.99505615234 997.573608398438 1005.78625488281 1004.85021972656 1005.52514648438 1011.85485839844 1017.32348632812 1012.58551025391 1008.61083984375 1011.47424316406 1003.2666015625 1005.57604980469 1005.92468261719 1011.30322265625 997.788024902344 1005.10571289062 999.713500976562 991.706787109375 989.139892578125 984.1650390625 988.433288574219 985.852172851562 989.667846679688 975.335388183594 983.542053222656 973.344970703125 970.722473144531 971.339599609375 973.85107421875
951.758422851562 950.784973144531 954.138549804688 951.500732421875 947.608825683594 940.3515625 941.990905761719 944.311950683594 950.160461425781 956.050476074219 956.407104492188 956.145263671875 965.672241210938 967.549255371094 984.938598632812 982.116882324219 980.245788574219 977.259094238281 968.890014648438 970.972717285156 983.75830078125 977.077026367188 988.61474609375 983.347351074219 988.479858398438 991.131286621094 991.832153320312 984.768615722656 980.518371582031 981.145446777344 983.469299316406 980.982788085938 979.895080566406 985.057495117188 987.375 996.173400878906 998.805541992188 1002.48046875 1002.72619628906 997.523742675781 994.702514648438 990.946655273438 997.588012695312 1000.19995117188 1007.32946777344 1022.73364257812 1016.24786376953 1002.29168701172 1012.64056396484 1008.46246337891 995.910705566406 987.936279296875 997.015075683594 996.875915527344 987.527648925781 983.395874023438 983.917358398438 980.947448730469 981.798034667969 977.705444335938 980.085266113281 976.812255859375 979.984985351562 978.802734375 975.926086425781 971.042663574219 980.629516601562 986.438232421875 979.600708007812 982.230346679688 980.357360839844 984.12744140625 988.059936523438 988.362243652344 996.568359375 998.7021484375 1006.74969482422 1012.81414794922 1006.55828857422 1008.48767089844 1003.06005859375 1005.00250244141 1010.34826660156 1007.75115966797 1006.44689941406 1003.09222412109 1006.54339599609 998.968933105469 994.315612792969 993.072509765625 989.635131835938 991.213684082031 989.885437011719 984.575256347656 987.394897460938 988.074096679688 996.27685546875 1004.39178466797 1001.70007324219 1000.29400634766 1012.34112548828 1005.42010498047 1000.66119384766 1008.49975585938 1013.77807617188 1016.58154296875 1025.94177246094 1030.14392089844 1040.02490234375 1038.88525390625 1042.42810058594 1051.98950195312 1048.1181640625 1047.51293945312 1038.03942871094 1044.830078125 1047.52319335938 1031.70556640625 1017.38751220703 1014.48260498047 1013.04498291016 1011.04675292969 1005.86138916016 995.808898925781 993.138305664062 985.870483398438 1006.55944824219 1010.08605957031 1000.78509521484 998.05908203125 998.227661132812 998.991333007812 996.36962890625 998.405029296875 1002.78674316406 1001.06604003906 996.736877441406 1001.62805175781 994.580078125 993.939331054688 982.078430175781 982.93212890625 987.306335449219 979.885986328125 978.030090332031 980.562072753906 975.998229980469 973.884948730469 973.426513671875 973.298950195312
942.289611816406 953.26611328125 949.991394042969 947.229858398438 935.390014648438 942.478454589844 945.368225097656 943.798278808594 949.643737792969 957.101867675781 965.127563476562 968.305847167969 964.003356933594 974.392456054688 971.255798339844 975.279357910156 973.676391601562 974.396911621094 969.873962402344 972.625183105469 978.932861328125 976.358764648438 983.703857421875 990.22265625 991.270629882812 995.308044433594 989.891418457031 982.094787597656 968.542114257812 979.647094726562 979.554626464844 982.259643554688 979.786987304688 974.551025390625 989.667541503906 994.100036621094 999.25830078125 993.671630859375 996.260437011719 999.046691894531 993.600219726562 996.151794433594 992.448852539062 1001.08203125 1013.05755615234 1010.47674560547 1016.98541259766 1018.19659423828 1016.53155517578 1016.68780517578 1002.99517822266 992.560546875 993.613586425781 991.878784179688 999.8310546875 987.681518554688 988.834228515625 980.182556152344 986.822082519531 978.7890625 991.916381835938 983.132446289062 980.470581054688 980.92724609375 979.283874511719 974.070495605469 973.030151367188 979.83642578125 980.741333007812 979.763244628906 991.330078125 985.285278320312 979.608154296875 981.237609863281 987.2509765625 995.217346191406 1010.50769042969 1006.56072998047 999.186096191406 1005.46502685547 1011.63745117188 1012.00457763672 1010.42309570312 999.697143554688 995.788696289062 995.864624023438 1001.22399902344 1001.52203369141 998.641418457031 993.533447265625 996.533447265625 991.530517578125 995.812316894531 989.494812011719 987.194091796875 993.041015625 993.283569335938 998.56005859375 997.032104492188 996.357604980469 998.981628417969 1004.65844726562 1003.00677490234 1004.85290527344 1009.95349121094 1010.57861328125 1022.73162841797 1028.27880859375 1033.5859375 1041.59094238281 1052.74475097656 1056.58801269531 1051.29956054688 1044.80603027344 1047.12854003906 1034.31628417969 1035.21142578125 1038.33044433594 1032.69165039062 1025.69067382812 1018.33245849609 1004.95843505859 1005.33459472656 992.8583984375 989.274536132812 988.367492675781 1004.19775390625 998.393798828125 989.291687011719 992.346618652344 992.619567871094 992.508361816406 992.273986816406 995.173034667969 996.640930175781 994.274780273438 997.067016601562 993.357482910156 993.054870605469 986.582702636719 987.697448730469 990.573181152344 984.03369140625 981.220336914062 983.919555664062 978.846435546875 973.687194824219 978.801696777344 978.284545898438 971.120178222656
948.145812988281 948.252014160156 954.8525390625 945.448181152344 939.217102050781 934.631958007812 941.041931152344 951.310241699219 953.427001953125 960.841247558594 970.318725585938 971.964965820312 977.304260253906 967.502014160156 970.1474609375 967.179748535156 964.936462402344 964.723571777344 966.4931640625 968.131286621094 964.63671875 967.86181640625 973.241638183594 988.712707519531 986.392761230469 980.119873046875 979.301086425781 973.512756347656 963.508605957031 962.429992675781 976.341979980469 981.418884277344 977.826354980469 982.951782226562 986.079956054688 983.567749023438 994.894287109375 992.011840820312 989.968994140625 996.697875976562 988.188903808594 991.963928222656 992.344482421875 997.354553222656 1002.44793701172 1002.13757324219 1002.99035644531 1019.06201171875 1015.78649902344 1015.77062988281 1001.81304931641 988.296203613281 988.38720703125 991.674194335938 1002.24383544922 992.045959472656 995.43798828125 987.49560546875 990.907043457031 987.9931640625 983.293090820312 983.013000488281 985.245910644531 983.248962402344 979.416442871094 970.386291503906 968.457275390625 982.293579101562 986.7021484375 980.291870117188 981.3779296875 988.5390625 981.303039550781 988.545471191406 983.822631835938 997.052734375 999.100952148438 1000.36340332031 996.037536621094 1008.61761474609 1005.48638916016 1000.53265380859 998.156921386719 1000.52386474609 1000.88604736328 994.119506835938 996.983337402344 1001.8779296875 999.479797363281 1005.60540771484 1000.400390625 989.617309570312 986.523254394531 990.049682617188 1000.39538574219 999.535522460938 997.943237304688 995.376281738281 1004.94128417969 1006.11431884766 1006.77856445312 1003.74487304688 1011.31921386719 1008.17028808594 1018.44812011719 1016.92712402344 1028.60205078125 1029.90576171875 1044.68200683594 1038.25024414062 1047.34216308594 1047.04345703125 1052.40307617188 1057.26354980469 1044.11315917969 1038.88671875 1041.33068847656 1036.07629394531 1030.51782226562 1032.70483398438 1019.21392822266 1007.83746337891 998.582214355469 1002.71936035156 991.955139160156 994.904846191406 995.757141113281 992.16162109375 981.039672851562 991.245727539062 990.810180664062 982.828979492188 989.376586914062 988.701782226562 996.338806152344 993.179992675781 994.015991210938 988.434143066406 990.121276855469 983.833557128906 987.542175292969 980.126281738281 972.86279296875 969.630310058594 976.609497070312 975.903747558594 976.974060058594 967.784912109375 974.404113769531 981.374816894531
960.113952636719 959.148193359375 951.100219726562 945.771118164062 954.387756347656 940.780334472656 943.411804199219 955.368469238281 957.096618652344 957.280944824219 963.984619140625 966.747192382812 971.508666992188 967.23876953125 964.146301269531 970.868408203125 968.283935546875 961.01513671875 959.159729003906 961.913208007812 965.176391601562 964.908386230469 967.413452148438 972.1171875 976.342712402344 968.811157226562 970.646484375 964.137878417969 960.926086425781 965.053466796875 972.364074707031 977.955322265625 974.955871582031 979.773742675781 982.783081054688 991.519287109375 979.238220214844 982.293762207031 993.218444824219 993.635192871094 986.9453125 988.894226074219 992.262084960938 989.350524902344 994.698913574219 1001.39752197266 999.440246582031 999.035278320312 1009.91186523438 1000.98168945312 1003.18707275391 990.842224121094 990.005920410156 987.311462402344 992.702697753906 994.086853027344 986.677856445312 987.761291503906 990.430908203125 987.006286621094 982.79833984375 985.869812011719 987.584899902344 984.79931640625 979.941101074219 975.337585449219 975.995544433594 979.864929199219 982.430603027344 981.44580078125 983.649597167969 984.762329101562 989.15576171875 993.63916015625 990.280334472656 988.366394042969 997.606994628906 992.486633300781 995.475463867188 1001.33477783203 997.12890625 995.710388183594 987.065734863281 985.457824707031 993.707946777344 996.356323242188 996.279541015625 1002.36810302734 1003.20440673828 1007.19470214844 1004.1142578125 994.929931640625 1000.88226318359 996.200866699219 1004.64208984375 999.247131347656 994.033203125 995.648376464844 998.453552246094 1005.65356445312 1002.70721435547 1001.43792724609 1008.68005371094 1010.66558837891 1009.33355712891 1016.80645751953 1022.50866699219 1032.54968261719 1041.92822265625 1045.52331542969 1052.95727539062 1054.86474609375 1049.73864746094 1059.40209960938 1053.43969726562 1046.52563476562 1047.92260742188 1043.345703125 1031.38696289062 1034.76879882812 1029.42126464844 1010.87591552734 996.789794921875 996.733764648438 993.466125488281 1000.52484130859 996.254150390625 985.50146484375 974.544799804688 975.209655761719 984.759643554688 980.313354492188 988.386413574219 987.570739746094 985.540771484375 988.205444335938 985.019592285156 985.011901855469 985.63916015625 980.111938476562 979.716796875 976.461120605469 970.91943359375 959.544921875 968.664428710938 968.134155273438 972.503601074219 971.330444335938 973.538452148438 981.232177734375
956.012939453125 956.989562988281 955.534973144531 951.293762207031 951.104858398438 942.318603515625 944.793273925781 950.212951660156 955.420349121094 954.720031738281 947.644897460938 961.056518554688 965.328979492188 958.24658203125 954.635314941406 960.814025878906 962.610473632812 955.392211914062 957.564819335938 963.481018066406 964.690002441406 962.197509765625 957.105651855469 968.432373046875 974.311157226562 968.6298828125 962.8115234375 958.945739746094 962.098083496094 962.663879394531 963.123291015625 971.362915039062 975.62646484375 973.579711914062 977.703002929688 982.243408203125 970.606323242188 976.17529296875 985.592163085938 982.4677734375 989.771911621094 984.334533691406 987.403503417969 983.763977050781 992.084716796875 989.820251464844 997.943298339844 993.415100097656 1004.53771972656 1004.67260742188 997.563781738281 991.512756347656 991.892578125 985.154418945312 993.287292480469 994.209594726562 997.139831542969 995.575988769531 995.721374511719 988.578430175781 985.904235839844 987.656433105469 981.320007324219 980.600402832031 983.844604492188 976.700378417969 984.951904296875 979.826293945312 985.773864746094 983.998229980469 983.683959960938 987.701965332031 988.823852539062 983.778137207031 984.188598632812 988.723083496094 988.711059570312 995.630004882812 990.201416015625 998.190490722656 1004.30432128906 989.031372070312 995.684814453125 991.729553222656 999.776916503906 1000.71044921875 1002.70104980469 1001.44946289062 1000.26202392578 1006.94506835938 1002.09716796875 1000.07244873047 1000.77349853516 1004.77368164062 1009.83618164062 1003.72320556641 998.913513183594 1005.09429931641 997.2861328125 1008.95471191406 1017.02313232422 1012.69262695312 1009.19195556641 1010.76538085938 1000.94213867188 1008.72833251953 1023.45434570312 1028.57946777344 1043.96923828125 1050.4228515625 1061.21350097656 1066.25231933594 1059.97631835938 1061.43408203125 1063.0126953125 1062.49426269531 1054.90344238281 1047.92333984375 1040.64721679688 1034.56726074219 1020.57086181641 1009.5693359375 1006.29302978516 1001.80920410156 1006.02423095703 1000.54559326172 998.074279785156 989.230773925781 980.751342773438 981.644409179688 992.378356933594 984.745727539062 985.972290039062 985.421875 987.390625 987.262817382812 980.52685546875 985.045227050781 978.156860351562 978.148254394531 974.185424804688 967.055236816406 967.797119140625 970.406433105469 969.313903808594 960.199523925781 966.952331542969 970.114013671875 978.64404296875 979.421875
962.643188476562 954.225341796875 950.35205078125 945.375732421875 942.210021972656 938.228820800781 943.369873046875 945.290771484375 944.743835449219 943.167358398438 943.360961914062 957.828002929688 962.469970703125 958.310180664062 953.951721191406 956.993408203125 958.378479003906 963.955627441406 968.240478515625 963.683166503906 955.83984375 952.150695800781 955.470397949219 960.040893554688 958.943786621094 962.27294921875 957.302490234375 953.823608398438 958.706726074219 956.251708984375 966.906127929688 968.092651367188 970.251953125 971.971313476562 963.92822265625 966.196105957031 960.287109375 968.090454101562 980.233093261719 988.567626953125 987.106201171875 974.323547363281 984.850158691406 982.260925292969 981.000244140625 989.268310546875 994.377014160156 998.023498535156 994.859436035156 999.696472167969 1005.05212402344 1000.53186035156 1003.82348632812 992.814819335938 995.27490234375 1001.93194580078 996.215942382812 998.0341796875 1004.69018554688 990.818969726562 992.1552734375 993.169250488281 988.5087890625 980.819763183594 973.276000976562 976.462646484375 990.639953613281 995.187438964844 995.3173828125 992.452026367188 981.756652832031 986.779418945312 986.445922851562 983.641174316406 988.6533203125 991.69189453125 988.912963867188 986.291931152344 998.084289550781 1002.25134277344 997.095886230469 986.405456542969 988.677368164062 1003.10363769531 1003.44805908203 1003.33929443359 1001.97399902344 998.436462402344 1005.07885742188 1004.07440185547 1004.45275878906 1012.38250732422 996.651733398438 1012.49468994141 1010.41882324219 1004.25158691406 1003.16003417969 1008.12445068359 1008.45715332031 1012.16687011719 1025.67797851562 1024.37524414062 1025.0400390625 1020.81378173828 1013.05255126953 1018.83850097656 1019.75 1027.99914550781 1041.62768554688 1045.20812988281 1065.54614257812 1066.41918945312 1067.55249023438 1062.9365234375 1057.25854492188 1061.44128417969 1053.12951660156 1046.88732910156 1046.56994628906 1038.30615234375 1033.044921875 1018.80364990234 1006.71057128906 1001.34191894531 989.740478515625 994.423706054688 992.529235839844 993.221557617188 993.080200195312 987.562438964844 988.357482910156 989.360534667969 986.852172851562 981.524475097656 990.235778808594 984.859375 981.596801757812 985.095153808594 983.833251953125 979.757690429688 966.960510253906 963.428771972656 964.541137695312 964.907165527344 965.27294921875 961.139343261719 964.514404296875 974.449340820312 976.594360351562 974.899536132812
957.720642089844 953.088439941406 959.4541015625 944.371520996094 939.688293457031 943.501098632812 945.090087890625 946.052185058594 942.823303222656 939.281005859375 940.496948242188 957.680908203125 952.11962890625 952.886413574219 951.919067382812 957.886657714844 958.53369140625 953.242553710938 960.804870605469 961.440063476562 956.823181152344 949.037658691406 947.992126464844 947.124206542969 948.525207519531 962.189636230469 956.826232910156 953.856201171875 960.478942871094 958.296691894531 965.592102050781 957.977233886719 967.868408203125 962.952087402344 960.619934082031 965.273620605469 963.752746582031 968.785339355469 970.415344238281 977.060485839844 976.533203125 976.199645996094 981.029968261719 979.689392089844 990.510559082031 985.134033203125 992.438415527344 994.00927734375 991.336303710938 994.111022949219 1001.31530761719 996.977233886719 1003.58947753906 998.638610839844 997.5888671875 1001.52557373047 990.036071777344 997.321655273438 999.099914550781 998.793334960938 995.90966796875 985.016357421875 989.71337890625 983.113403320312 985.429748535156 989.40478515625 994.578491210938 989.487731933594 986.267700195312 991.461364746094 986.437133789062 981.716369628906 989.685363769531 976.119995117188 979.528869628906 991.973815917969 985.246337890625 986.600158691406 995.163513183594 997.107482910156 995.150512695312 990.973388671875 989.088317871094 985.285339355469 996.702209472656 1001.84112548828 1004.50134277344 1002.42083740234 1004.20867919922 1012.69195556641 1009.41595458984 999.180786132812 1000.04681396484 998.591979980469 1009.87249755859 1007.97772216797 1010.85803222656 1026.23156738281 1016.94671630859 1019.96472167969 1022.76049804688 1023.5830078125 1031.59069824219 1030.68481445312 1023.63763427734 1013.39758300781 1023.49743652344 1035.34936523438 1044.26184082031 1049.54968261719 1054.75964355469 1064.0712890625 1056.73046875 1062.21740722656 1067.05810546875 1059.57580566406 1056.81982421875 1057.60559082031 1046.85986328125 1043.27490234375 1032.17163085938 1027.86791992188 1008.03826904297 1003.66674804688 988.48974609375 989.456848144531 987.085021972656 984.703979492188 984.204406738281 988.415710449219 993.174865722656 983.056823730469 981.560302734375 979.973510742188 983.551452636719 980.269653320312 980.479309082031 980.369567871094 976.92529296875 962.944091796875 966.15234375 962.745788574219 963.989868164062 971.535766601562 970.522216796875 970.09033203125 970.539916992188 970.953857421875 984.020690917969 984.735168457031
955.940124511719 958.991821289062 951.053039550781 949.975646972656 942.911193847656 941.581481933594 946.526672363281 947.904479980469 936.09765625 932.880920410156 936.869506835938 948.791564941406 953.250366210938 953.209350585938 954.781860351562 958.511474609375 955.632568359375 958.543884277344 957.555053710938 963.067199707031 958.340698242188 954.770324707031 949.800354003906 950.712341308594 956.320434570312 967.263427734375 965.365539550781 958.241394042969 958.4970703125 966.020385742188 957.55419921875 961.756896972656 961.016967773438 961.710144042969 956.974731445312 960.923461914062 958.03466796875 960.693603515625 971.316162109375 973.951293945312 974.202270507812 977.372436523438 971.216186523438 977.280090332031 989.986328125 982.232116699219 987.493286132812 993.161010742188 987.107666015625 985.631164550781 992.319946289062 994.716918945312 1000.92199707031 996.126281738281 998.527221679688 1001.66632080078 992.777587890625 997.495178222656 990.994018554688 992.556823730469 990.901062011719 992.705078125 989.839111328125 992.662048339844 989.51025390625 994.323974609375 996.257019042969 991.148620605469 983.521850585938 984.959655761719 992.772644042969 990.800659179688 992.669982910156 985.668701171875 983.365783691406 999.144409179688 985.242614746094 983.5693359375 988.520263671875 994.232543945312 989.441345214844 986.151245117188 980.72021484375 988.364990234375 997.319519042969 1010.58825683594 1008.62591552734 1012.12884521484 1010.23663330078 1005.05859375 1007.94097900391 992.338012695312 995.447875976562 999.714233398438 998.389709472656 1002.20678710938 1016.24597167969 1015.80187988281 1018.25341796875 1021.47906494141 1018.86529541016 1022.35986328125 1033.9189453125 1033.10144042969 1026.47827148438 1023.82836914062 1029.97802734375 1040.04162597656 1049.75024414062 1047.25390625 1058.59265136719 1054.66979980469 1057.69091796875 1063.6669921875 1070.59130859375 1064.77734375 1062.78405761719 1058.52282714844 1054.69921875 1047.52465820312 1042.19812011719 1026.12927246094 1009.55737304688 1002.80090332031 992.25537109375 981.910461425781 984.950378417969 989.832092285156 984.663146972656 993.28857421875 991.555786132812 977.295837402344 972.582885742188 978.388977050781 982.385192871094 981.765991210938 981.734252929688 978.165954589844 961.963012695312 959.036560058594 961.648315429688 960.281616210938 957.199401855469 963.363342285156 979.085021972656 973.416381835938 974.125610351562 974.930236816406 985.149536132812 982.135131835938
960.670043945312 960.794067382812 955.380065917969 953.069763183594 943.474975585938 944.806335449219 939.79736328125 940.776123046875 934.938781738281 936.655395507812 944.601867675781 943.988891601562 949.989074707031 951.386047363281 943.268249511719 951.939270019531 955.040649414062 962.442199707031 964.207946777344 962.361633300781 967.900695800781 969.69140625 956.532043457031 964.031127929688 960.94189453125 962.293823242188 961.197875976562 956.762512207031 952.943542480469 959.642517089844 967.722412109375 960.488159179688 962.332336425781 961.615173339844 957.283447265625 957.206665039062 959.324890136719 959.420776367188 964.871704101562 969.226623535156 966.733459472656 957.294616699219 962.259826660156 971.582397460938 981.316223144531 987.412658691406 985.507202148438 982.320251464844 984.045837402344 980.902221679688 986.920959472656 995.763549804688 1005.70245361328 1007.21215820312 998.903137207031 999.162536621094 999.934753417969 1002.01818847656 1005.84265136719 998.875244140625 992.131042480469 994.063842773438 997.459777832031 990.311462402344 998.710327148438 994.502624511719 995.097900390625 996.797058105469 983.514221191406 989.077392578125 990.452270507812 986.219421386719 997.603088378906 995.257019042969 987.543518066406 984.19091796875 991.486328125 992.3271484375 989.27197265625 996.283813476562 987.474914550781 979.527770996094 981.055358886719 989.595825195312 1002.31488037109 1015.23034667969 1009.98999023438 1005.78155517578 1007.28564453125 1005.75604248047 1004.03887939453 1004.39855957031 1003.54809570312 995.982421875 1002.79388427734 1005.47198486328 1014.42956542969 1022.29455566406 1024.9404296875 1012.47015380859 1020.53356933594 1022.00622558594 1024.78955078125 1022.19573974609 1025.00817871094 1028.25964355469 1035.13537597656 1041.44213867188 1052.05676269531 1053.53088378906 1052.53869628906 1057.20544433594 1060.38757324219 1061.22021484375 1065.68957519531 1066.20544433594 1064.00146484375 1052.55017089844 1053.32971191406 1049.37902832031 1046.47668457031 1026.59143066406 1010.94793701172 1009.23919677734 1001.10772705078 986.550048828125 989.577270507812 991.911315917969 989.342895507812 996.023193359375 993.820434570312 978.064331054688 981.294921875 978.936950683594 985.217346191406 981.743103027344 977.856811523438 971.283813476562 972.339233398438 968.872497558594 961.102661132812 966.851501464844 963.617309570312 966.346130371094 966.64404296875 971.231506347656 973.271240234375 977.613525390625 980.183349609375 973.026184082031
971.202270507812 964.354553222656 955.319702148438 947.747985839844 943.784301757812 935.336853027344 927.9267578125 933.000427246094 942.496337890625 952.588623046875 948.001708984375 950.032775878906 949.594787597656 952.282836914062 945.0263671875 952.844360351562 961.272827148438 965.609313964844 966.196594238281 968.468933105469 969.332458496094 970.273376464844 964.782592773438 962.55029296875 966.863647460938 964.928283691406 961.818115234375 960.040283203125 965.940795898438 954.106811523438 960.328369140625 961.393981933594 967.164123535156 963.15869140625 964.186645507812 965.320068359375 963.553955078125 964.435485839844 968.506774902344 973.223266601562 962.999816894531 960.841735839844 961.27783203125 965.553771972656 970.051208496094 983.368347167969 973.245178222656 983.36962890625 982.768920898438 981.4140625 996.1845703125 1005.81903076172 1009.01812744141 1015.75262451172 1008.52056884766 1003.90002441406 1000.01599121094 998.30712890625 1005.54205322266 998.342102050781 988.499755859375 985.519836425781 985.248291015625 994.309997558594 999.279541015625 993.074645996094 997.409973144531 996.227355957031 992.314453125 989.857727050781 992.017395019531 994.464050292969 992.01318359375 988.557678222656 992.287292480469 988.086853027344 983.059753417969 980.538208007812 984.766784667969 997.657409667969 986.963684082031 984.759887695312 983.810302734375 992.736694335938 994.3427734375 1009.38409423828 1009.32861328125 1007.23712158203 1001.79577636719 1010.66448974609 1011.77874755859 1009.68286132812 1007.66467285156 1005.70861816406 997.690246582031 1011.76702880859 1011.58074951172 1012.93487548828 1007.25238037109 1008.43054199219 1019.53302001953 1013.08032226562 1017.41125488281 1022.39929199219 1032.77062988281 1030.22375488281 1036.73889160156 1044.56750488281 1053.58972167969 1051.82751464844 1050.5185546875 1050.36950683594 1053.26611328125 1059.39501953125 1055.00732421875 1057.83215332031 1052.34643554688 1060.06677246094 1055.62609863281 1052.99169921875 1036.63903808594 1031.4619140625 1022.74957275391 1026.58605957031 1011.68713378906 1001.33294677734 990.1015625 993.453674316406 992.672302246094 1001.14306640625 994.17333984375 992.502380371094 989.283264160156 987.431213378906 979.338684082031 974.084838867188 969.942687988281 972.435607910156 974.719055175781 971.823791503906 961.014953613281 967.478881835938 965.200378417969 964.341247558594 972.909057617188 973.342651367188 966.833618164062 978.367980957031 970.731506347656 970.447143554688
978.472290039062 965.144165039062 954.122314453125 946.253967285156 938.889892578125 934.336486816406 936.098327636719 932.099975585938 949.794128417969 949.800598144531 949.786376953125 955.263977050781 964.337097167969 965.545837402344 957.627624511719 960.726928710938 961.634094238281 965.486022949219 966.312316894531 970.095092773438 967.072143554688 971.126342773438 966.042114257812 963.979187011719 965.274719238281 965.586059570312 967.142028808594 963.687255859375 963.314514160156 967.174438476562 963.223693847656 963.840454101562 964.029174804688 966.833435058594 966.397155761719 969.050720214844 969.247497558594 968.459228515625 967.142272949219 971.616271972656 967.831481933594 968.273132324219 973.822448730469 970.835510253906 974.03271484375 977.866882324219 979.322326660156 976.510620117188 974.257080078125 982.207458496094 1004.08178710938 1010.74517822266 1012.51721191406 1017.13116455078 1015.12396240234 1012.24035644531 1005.05804443359 1008.37518310547 1001.67907714844 994.504638671875 989.253784179688 986.326599121094 987.597229003906 996.554931640625 1000.73284912109 1002.67663574219 998.33154296875 1001.14605712891 995.300720214844 993.167541503906 995.090515136719 990.370788574219 984.495544433594 989.6142578125 993.063720703125 995.624267578125 990.610778808594 988.1708984375 989.666687011719 994.306701660156 994.537902832031 987.577453613281 991.856018066406 993.180236816406 995.8671875 1011.88482666016 1009.44506835938 1018.09240722656 1008.44598388672 1014.53869628906 1017.46270751953 1012.29260253906 1006.82012939453 996.342895507812 996.370056152344 1003.01666259766 1016.09661865234 1016.0107421875 1011.9443359375 1011.14227294922 1013.91137695312 1012.26983642578 1013.54302978516 1020.70947265625 1025.6396484375 1023.94256591797 1022.41491699219 1037.59436035156 1049.42517089844 1046.50805664062 1037.20751953125 1052.12377929688 1046.25891113281 1050.15576171875 1047.86999511719 1053.09106445312 1058.23107910156 1051.60546875 1053.66760253906 1047.10363769531 1045.68688964844 1041.67016601562 1033.71984863281 1027.28698730469 1023.60833740234 1011.12121582031 1010.40289306641 996.246276855469 998.652893066406 999.37451171875 995.080871582031 985.286865234375 980.755004882812 978.181945800781 980.161560058594 973.034606933594 970.32470703125 976.479736328125 974.767456054688 964.224670410156 954.64990234375 957.31787109375 956.959533691406 968.258483886719 972.688415527344 982.12060546875 977.127563476562 976.990844726562 974.330383300781 967.964782714844
968.631713867188 964.754638671875 957.575256347656 949.580200195312 939.496154785156 938.499450683594 940.767150878906 940.083312988281 945.12939453125 958.23974609375 958.953247070312 958.451477050781 962.799743652344 970.583129882812 964.19970703125 963.130187988281 976.073364257812 974.845092773438 975.625244140625 969.413391113281 964.204956054688 967.979736328125 964.901794433594 962.75244140625 968.972412109375 964.123962402344 962.007019042969 962.949035644531 966.01220703125 967.817749023438 969.541259765625 965.167663574219 964.915222167969 974.681457519531 966.391906738281 962.24560546875 969.460998535156 970.975646972656 968.82177734375 977.330139160156 972.44482421875 970.182922363281 965.505493164062 966.716247558594 975.04541015625 971.382934570312 980.194641113281 979.063293457031 978.682006835938 985.539978027344 995.405883789062 1005.92932128906 1018.57513427734 1017.13055419922 1016.91302490234 1009.66137695312 1004.90240478516 1001.43365478516 1008.04467773438 1000.86065673828 997.711181640625 989.875854492188 1005.88610839844 1003.68493652344 1009.84497070312 1002.65148925781 997.145324707031 997.708557128906 995.287048339844 997.415710449219 1004.63726806641 1005.64654541016 997.594299316406 998.44287109375 989.448791503906 994.782043457031 1005.95391845703 1002.48425292969 994.655334472656 997.920104980469 986.576843261719 991.93798828125 997.465087890625 993.123840332031 994.962219238281 1000.34320068359 1004.06665039062 1007.04339599609 1005.92327880859 1017.48773193359 1015.60693359375 1014.22406005859 1006.50994873047 1006.04113769531 1005.93884277344 1010.64624023438 1017.82476806641 1016.94146728516 1022.86810302734 1018.97241210938 1013.35192871094 1018.60028076172 1019.49932861328 1020.65710449219 1022.97918701172 1020.64508056641 1029.05480957031 1023.142578125 1037.25988769531 1035.5341796875 1034.36193847656 1027.77600097656 1038.86767578125 1035.8466796875 1043.26037597656 1045.51428222656 1045.03918457031 1043.84729003906 1036.44738769531 1042.70434570312 1043.22875976562 1038.30017089844 1029.46752929688 1032.32092285156 1026.490234375 1012.08520507812 1006.595703125 996.186950683594 997.890747070312 999.011108398438 988.0654296875 970.548156738281 975.214538574219 972.656372070312 967.606994628906 964.782897949219 973.723327636719 977.06884765625 969.280334472656 959.411254882812 962.286560058594 957.789489746094 966.698059082031 967.793029785156 976.3095703125 982.2802734375 984.771179199219 982.893432617188 970.338134765625 959.823120117188
967.433166503906 963.213562011719 959.343566894531 955.039794921875 949.831665039062 951.232360839844 949.459655761719 953.957641601562 949.355163574219 954.779907226562 954.214294433594 960.007080078125 959.645568847656 970.252197265625 968.357543945312 972.502075195312 977.37109375 978.725891113281 978.099975585938 964.792297363281 961.028686523438 968.270874023438 971.797668457031 961.020935058594 963.745422363281 963.040344238281 961.125549316406 960.96875 964.219604492188 963.932006835938 960.604125976562 963.620849609375 965.452819824219 962.374206542969 970.951416015625 967.762145996094 980.694152832031 972.992004394531 966.735107421875 974.782409667969 972.929321289062 974.601196289062 966.894104003906 967.830505371094 968.18310546875 972.380310058594 981.255249023438 973.954223632812 976.967529296875 980.377685546875 990.678405761719 996.515197753906 1004.39215087891 1005.97698974609 1008.47412109375 1004.80749511719 1008.77416992188 1013.39324951172 1013.31011962891 995.669921875 1004.17987060547 1001.31353759766 1007.82501220703 1008.14477539062 1009.47601318359 1008.86480712891 1008.40515136719 1008.60003662109 997.89599609375 1001.05841064453 1000.5546875 998.345947265625 996.038208007812 995.321228027344 996.357055664062 997.946960449219 990.700866699219 994.262939453125 991.388000488281 989.309265136719 992.228454589844 989.915588378906 998.052978515625 999.232116699219 999.223388671875 998.544677734375 1002.34588623047 1006.66510009766 1007.74786376953 1014.07037353516 1004.47308349609 1007.41265869141 1011.25885009766 1008.97918701172 1012.21691894531 1023.62841796875 1019.02239990234 1022.94549560547 1023.484375 1025.2822265625 1016.35504150391 1014.84265136719 1017.01904296875 1028.42993164062 1026.11840820312 1021.67309570312 1027.48596191406 1031.6708984375 1035.37573242188 1031.22546386719 1030.95373535156 1043.73669433594 1036.04956054688 1041.13293457031 1040.28674316406 1037.87585449219 1039.791015625 1035.69360351562 1040.77416992188 1042.75793457031 1046.61901855469 1037.09216308594 1037.42810058594 1030.28442382812 1031.13037109375 1024.86682128906 1010.56616210938 999.418273925781 994.713745117188 991.990173339844 991.256408691406 972.60791015625 970.822937011719 971.433471679688 971.474426269531 966.388305664062 970.358032226562 976.747741699219 981.6630859375 966.535705566406 954.734619140625 965.057312011719 972.982788085938 965.124267578125 973.683898925781 975.472534179688 973.134460449219 974.976623535156 972.147216796875 960.695495605469
969.49853515625 963.123596191406 970.315612792969 975.133422851562 960.731872558594 950.529968261719 948.827026367188 948.636657714844 963.511535644531 967.044372558594 960.315795898438 964.049194335938 967.874450683594 974.558898925781 972.083557128906 969.963745117188 975.348754882812 980.154907226562 979.900512695312 975.874816894531 970.177062988281 970.162414550781 963.744018554688 962.491882324219 960.960632324219 958.367858886719 954.620849609375 949.363525390625 963.861267089844 960.2041015625 963.430908203125 970.024108886719 970.232727050781 966.327026367188 974.261169433594 975.690246582031 975.077087402344 977.879638671875 983.452819824219 976.692565917969 966.645080566406 970.217468261719 965.724182128906 972.307250976562 974.018981933594 967.885375976562 980.121520996094 978.283935546875 974.550109863281 977.3828125 979.514099121094 990.796752929688 992.7919921875 1000.48834228516 1009.31115722656 1008.24304199219 1011.81536865234 1018.7783203125 1017.75921630859 1018.93322753906 1011.42962646484 1015.88641357422 1011.02722167969 1004.51257324219 1012.13568115234 1009.96575927734 1007.30108642578 1005.51489257812 999.612854003906 1000.27844238281 1006.88024902344 996.384704589844 995.871887207031 1004.72412109375 1002.43084716797 1003.54974365234 1000.05944824219 1003.04522705078 1000.10748291016 998.991516113281 1004.17340087891 994.0537109375 998.865539550781 997.724548339844 996.754577636719 1004.80969238281 1007.49322509766 1012.07452392578 1007.98596191406 1008.54150390625 1011.25836181641 1016.47827148438 1006.76702880859 1015.30041503906 1016.66424560547 1029.5390625 1028.56188964844 1031.837890625 1023.48785400391 1024.86474609375 1017.10589599609 1023.23004150391 1022.46783447266 1021.57019042969 1028.19262695312 1028.44189453125 1028.74291992188 1028.12292480469 1034.10888671875 1033.91259765625 1034.55615234375 1034.44079589844 1034.99475097656 1045.35290527344 1037.17834472656 1039.72802734375 1040.23010253906 1039.955078125 1035.38928222656 1038.47534179688 1043.43566894531 1040.48156738281 1040.57543945312 1036.14489746094 1030.38696289062 1024.8857421875 1016.98303222656 1000.41851806641 1001.876953125 991.224975585938 981.856872558594 976.195861816406 978.067687988281 972.404602050781 967.23779296875 971.560302734375 974.659423828125 976.366821289062 977.615356445312 966.049926757812 961.071350097656 961.019958496094 965.119323730469 961.275024414062 958.618713378906 960.788818359375 960.990478515625 962.421447753906 960.760925292969 955.502258300781
978.87548828125 973.228271484375 971.298095703125 971.61962890625 960.171020507812 952.490051269531 939.908264160156 942.899169921875 962.550659179688 957.342834472656 961.070983886719 968.612854003906 971.611267089844 978.130004882812 977.476501464844 972.024841308594 969.348266601562 979.082885742188 983.240417480469 969.985473632812 974.856018066406 965.514892578125 956.292236328125 965.727844238281 963.213806152344 956.348327636719 967.524475097656 969.486999511719 966.421936035156 969.664367675781 968.96728515625 976.793701171875 977.296325683594 966.15283203125 972.64892578125 980.530578613281 977.937805175781 976.849304199219 983.48486328125 984.941101074219 979.40576171875 966.931579589844 979.477355957031 975.590393066406 981.317260742188 982.56591796875 979.249938964844 965.839477539062 965.955749511719 973.707153320312 981.047302246094 981.031494140625 998.688049316406 996.997741699219 998.30419921875 1007.05651855469 1011.84515380859 1013.080078125 1025.01770019531 1020.6220703125 1021.52685546875 1018.31463623047 1021.52429199219 1018.30413818359 1022.14190673828 1016.66217041016 1020.17742919922 1006.37176513672 999.630676269531 997.428405761719 1000.74951171875 997.591186523438 1005.85955810547 1009.15887451172 1006.79724121094 1006.46771240234 1001.01904296875 996.035034179688 1003.91900634766 996.350830078125 998.376953125 995.08740234375 994.83740234375 1000.62872314453 998.420043945312 999.337341308594 1003.40228271484 1009.46453857422 1009.53857421875 1010.64886474609 1004.56652832031 1013.64276123047 1016.53106689453 1024.06518554688 1027.53125 1033.17602539062 1029.80773925781 1029.88903808594 1028.66052246094 1022.46557617188 1028.28430175781 1033.15209960938 1024.03161621094 1025.68518066406 1033.45300292969 1029.43005371094 1032.98620605469 1030.70727539062 1043.95007324219 1031.57482910156 1040.69006347656 1041.72399902344 1032.57958984375 1041.21520996094 1044.41247558594 1048.96691894531 1044.83923339844 1035.77758789062 1028.67724609375 1032.23181152344 1035.11791992188 1036.22033691406 1038.16882324219 1036.82092285156 1027.96899414062 1018.05108642578 1012.31610107422 1003.84289550781 1002.00012207031 999.146911621094 981.183898925781 983.236572265625 977.622497558594 970.672180175781 970.809814453125 968.076171875 976.840698242188 974.959228515625 978.024230957031 969.204284667969 960.579467773438 957.0830078125 951.584289550781 954.107177734375 960.068420410156 951.840270996094 955.520202636719 957.260620117188 955.304260253906 947.645446777344
976.839965820312 972.458801269531 976.268005371094 963.681213378906 944.951354980469 955.552490234375 951.287963867188 947.683349609375 951.915893554688 948.135437011719 957.423889160156 959.274658203125 967.298278808594 976.331298828125 970.325134277344 968.361572265625 970.857116699219 984.181823730469 987.231750488281 974.950988769531 966.674072265625 970.866638183594 972.802917480469 966.648559570312 969.978759765625 967.379516601562 977.433837890625 968.921875 973.343505859375 967.359619140625 972.921813964844 974.071228027344 976.248229980469 970.783203125 975.610534667969 985.951599121094 988.843627929688 981.708251953125 985.854187011719 983.0263671875 982.510375976562 980.097351074219 983.803833007812 981.777648925781 982.937927246094 976.706298828125 978.46728515625 969.194274902344 965.898803710938 962.880187988281 976.285888671875 980.028869628906 987.102966308594 997.463989257812 996.492797851562 1012.08343505859 1013.47338867188 1017.10906982422 1023.90393066406 1032.564453125 1028.64770507812 1023.28698730469 1017.78662109375 1023.83673095703 1017.04840087891 1011.01409912109 1013.15655517578 1018.83770751953 1015.46502685547 1007.08618164062 1003.11224365234 997.285827636719 1003.67572021484 1010.69836425781 1003.6318359375 1006.12542724609 998.37451171875 999.318969726562 1001.82476806641 1002.86462402344 998.691589355469 1002.79156494141 996.248291015625 993.956787109375 1004.64404296875 1007.15222167969 1001.47845458984 1008.94470214844 1005.87744140625 1008.40521240234 1014.15338134766 1007.42010498047 1015.16998291016 1028.67883300781 1031.490234375 1036.95874023438 1041.66967773438 1034.8671875 1025.71142578125 1030.44995117188 1036.61218261719 1038.18920898438 1031.1689453125 1021.78479003906 1029.78796386719 1023.97338867188 1031.40258789062 1028.29956054688 1030.92163085938 1030.763671875 1033.36669921875 1033.97668457031 1033.98889160156 1029.53271484375 1050.18615722656 1052.91271972656 1041.26025390625 1042.79260253906 1032.40771484375 1027.13000488281 1022.10711669922 1029.45520019531 1032.85583496094 1030.92163085938 1031.37829589844 1022.93975830078 1007.04486083984 1008.25512695312 1008.75036621094 993.344970703125 985.94873046875 981.795471191406 974.635070800781 972.531066894531 961.883117675781 960.019226074219 967.836364746094 973.223571777344 976.547729492188 966.832946777344 956.001098632812 946.081787109375 951.741027832031 956.829467773438 951.821166992188 948.195007324219 958.142395019531 956.40283203125 955.3935546875 952.8037109375
