NCOLS 150
NROWS 37
XLLCORNER 7394249
YLLCORNER 4842479
CELLSIZE 30
NODATA_VALUE -9999
951.67578125 948.313415527344 946.594970703125 951.191772460938 954.292663574219 966.171081542969 966.648193359375 962.367797851562 965.002502441406 964.697998046875 966.962341308594 971.06494140625 974.298278808594 975.256469726562 968.046447753906 976.040344238281 972.346435546875 968.802307128906 970.928344726562 972.470092773438 971.108520507812 969.407653808594 968.910705566406 970.7177734375 961.445068359375 967.690612792969 969.335815429688 971.870056152344 974.123474121094 973.00244140625 972.348693847656 966.451171875 964.379455566406 971.853210449219 968.406005859375 960.425354003906 962.257080078125 964.577392578125 962.080627441406 962.486083984375 972.089782714844 968.5849609375 970.496887207031 964.010498046875 968.680297851562 961.033874511719 966.417236328125 972.086364746094 977.882263183594 966.962036132812 968.024475097656 960.866882324219 960.31494140625 954.988159179688 963.391906738281 962.058837890625 965.139282226562 967.721923828125 972.593383789062 968.376037597656 967.484985351562 964.628662109375 959.238708496094 968.412109375 966.534362792969 973.837219238281 969.022399902344 969.124755859375 963.453063964844 961.530456542969 967.427856445312 960.096496582031 974.486877441406 972.527770996094 982.404418945312 978.004028320312 973.304321289062 965.85595703125 966.489196777344 972.40673828125 962.173034667969 974.517272949219 969.036499023438 962.192626953125 969.878234863281 976.257629394531 969.189636230469 964.927307128906 965.02734375 959.587097167969 968.553283691406 973.724792480469 974.336059570312 977.212890625 985.723693847656 982.570861816406 986.00927734375 983.795959472656 976.058349609375 987.760559082031 982.760925292969 984.110412597656 977.96044921875 987.870422363281 987.404418945312 992.097412109375 987.755554199219 997.954223632812 996.481628417969 1012.05865478516 1007.75128173828 1009.78497314453 999.563598632812 1005.27667236328 995.530578613281 1003.48052978516 1006.22131347656 1005.25225830078 1003.77227783203 1013.59478759766 1014.12670898438 1019.85577392578 1032.25549316406 1035.99243164062 1034.87316894531 1034.23046875 1028.734375 1031.71008300781 1046.24768066406 1041.97521972656 1055.85522460938 1056.21240234375 1051.26000976562 1070.03955078125 1075.97314453125 1082.8359375 1074.81518554688 1075.26940917969 1074.2001953125 1084.86242675781 1095.9521484375 1105.94677734375 1119.92199707031 1121.93896484375 1131.20532226562 1136.0556640625 1140.16003417969 1138.59521484375 1151.98510742188 1150.38525390625
945.733764648438 956.369140625 949.948791503906 949.349670410156 953.777893066406 956.406311035156 958.589416503906 963.393371582031 963.541931152344 966.110107421875 969.339111328125 968.639038085938 967.604614257812 971.628784179688 977.92236328125 978.895690917969 983.677001953125 979.103637695312 983.018371582031 975.953063964844 974.202087402344 969.153930664062 968.391967773438 966.783325195312 964.127685546875 965.609497070312 971.078735351562 968.281372070312 968.223693847656 967.328247070312 967.373657226562 966.675537109375 968.271667480469 971.956359863281 968.710571289062 964.421264648438 962.716979980469 958.92236328125 963.58203125 963.839111328125 969.249694824219 966.834106445312 963.474487304688 960.876892089844 961.127014160156 959.682067871094 964.192749023438 971.329711914062 967.735961914062 963.56591796875 966.783020019531 959.491455078125 964.480590820312 963.048034667969 952.815551757812 955.497619628906 958.068237304688 968.629699707031 970.176147460938 975.00537109375 965.852661132812 968.235107421875 962.003784179688 966.744384765625 973.491027832031 980.918518066406 972.74169921875 964.411254882812 963.61328125 963.426025390625 961.015258789062 956.996032714844 967.144653320312 976.543884277344 982.582824707031 975.98095703125 973.354248046875 965.027648925781 970.74169921875 965.565673828125 966.656921386719 971.190673828125 974.69140625 972.504089355469 968.587707519531 965.766479492188 970.421752929688 969.096130371094 970.524841308594 960.083435058594 961.587768554688 970.269836425781 975.602478027344 974.836975097656 982.391906738281 982.444702148438 976.732604980469 975.515075683594 974.7373046875 976.335876464844 975.612670898438 984.401672363281 987.249206542969 988.437377929688 987.818420410156 987.927673339844 988.775817871094 994.501525878906 1001.52899169922 1008.82763671875 995.85546875 1007.619140625 1004.20922851562 1006.65875244141 1005.49456787109 1004.93762207031 1014.56182861328 1009.51501464844 1005.31182861328 1010.34802246094 1015.06433105469 1022.2236328125 1029.73754882812 1037.19592285156 1028.65661621094 1035.85400390625 1035.30078125 1041.2509765625 1047.61083984375 1050.94921875 1052.92895507812 1062.11999511719 1062.83911132812 1066.97680664062 1083.94421386719 1079.64453125 1087.58435058594 1081.75207519531 1083.52478027344 1094.51159667969 1096.46752929688 1105.90673828125 1121.41931152344 1126.31616210938 1129.63586425781 1134.98510742188 1139.04553222656 1141.18994140625 1146.47314453125 1141.16577148438
954.016052246094 956.350708007812 956.171997070312 956.393310546875 957.217468261719 950.150756835938 956.471252441406 968.753356933594 969.134582519531 969.374816894531 967.02783203125 969.817260742188 967.021484375 978.884216308594 971.913513183594 977.187133789062 974.169738769531 974.3876953125 979.294311523438 972.707763671875 972.056518554688 961.299377441406 965.848999023438 962.722412109375 962.023620605469 971.181457519531 964.962951660156 961.335510253906 960.943237304688 962.198120117188 981.281921386719 980.907958984375 978.101379394531 970.51220703125 969.128356933594 964.653991699219 957.155090332031 959.214111328125 963.617919921875 963.601196289062 958.590270996094 957.839782714844 959.242370605469 962.670227050781 969.713073730469 970.553955078125 968.504638671875 974.478210449219 959.649963378906 962.536682128906 972.435241699219 963.177734375 959.757080078125 961.393981933594 961.942749023438 962.37451171875 965.422180175781 970.031616210938 973.332641601562 973.241088867188 979.439331054688 975.39892578125 970.316345214844 972.302551269531 972.751098632812 970.703430175781 974.609558105469 968.578002929688 959.816162109375 957.470336914062 965.195007324219 961.992370605469 965.578735351562 988.611206054688 988.444763183594 971.317199707031 967.390319824219 970.753051757812 963.62841796875 966.567993164062 967.307250976562 971.784851074219 977.683532714844 967.737915039062 967.556213378906 967.348571777344 972.044372558594 966.359680175781 961.375183105469 963.646301269531 972.148376464844 969.303649902344 968.288879394531 976.973693847656 978.711059570312 973.296630859375 982.216003417969 983.314758300781 974.025695800781 970.337036132812 973.369873046875 979.914611816406 987.246337890625 988.957153320312 992.537231445312 989.637817382812 991.301025390625 997.148376464844 998.059753417969 1007.255859375 1001.43017578125 1006.24993896484 997.414001464844 1003.97131347656 1013.92163085938 1007.79901123047 1012.64831542969 1007.55871582031 1002.72149658203 1010.08868408203 1013.09552001953 1022.69049072266 1032.61462402344 1025.91662597656 1026.75109863281 1028.86242675781 1036.32788085938 1037.2802734375 1049.37841796875 1045.60961914062 1057.07983398438 1062.54956054688 1072.02392578125 1067.64135742188 1082.69506835938 1088.1767578125 1088.02661132812 1087.71740722656 1093.78784179688 1102.45422363281 1099.55578613281 1111.767578125 1116.61499023438 1119.23083496094 1134.44506835938 1129.76098632812 1138.9638671875 1145.09423828125 1143.71459960938 1138.79089355469
958.994812011719 960.836059570312 959.07568359375 955.645080566406 956.856201171875 958.764404296875 960.637451171875 970.998291015625 968.193420410156 977.65234375 966.998962402344 979.285278320312 982.948425292969 983.612182617188 977.378662109375 978.754272460938 973.370910644531 971.131958007812 970.313537597656 980.657287597656 977.907409667969 971.532165527344 967.113891601562 970.639831542969 961.418151855469 965.435424804688 958.452453613281 956.950439453125 965.434509277344 966.04052734375 974.513549804688 983.412780761719 983.096984863281 969.36669921875 968.622802734375 968.598388671875 965.393005371094 963.04296875 958.979064941406 955.096557617188 962.338684082031 961.783447265625 963.8095703125 966.503967285156 972.849670410156 969.047424316406 966.623657226562 967.356567382812 964.142883300781 958.572998046875 969.222351074219 966.380798339844 967.723876953125 963.157958984375 966.468627929688 968.055114746094 958.810729980469 969.589477539062 968.076477050781 979.723815917969 972.381042480469 974.141845703125 966.427917480469 966.852111816406 970.692077636719 972.601196289062 975.302673339844 964.098937988281 958.466247558594 966.334533691406 969.158935546875 970.564331054688 974.053039550781 976.900573730469 979.622192382812 964.483764648438 964.091552734375 967.083190917969 962.265502929688 967.949157714844 966.840148925781 967.278747558594 973.362609863281 971.357727050781 967.452514648438 966.291198730469 971.532775878906 972.088439941406 963.442077636719 969.872802734375 973.437866210938 966.090026855469 972.7138671875 978.600158691406 978.028381347656 976.67822265625 982.697387695312 984.33251953125 974.050903320312 970.45263671875 976.251098632812 987.546447753906 991.223937988281 986.333374023438 991.7822265625 994.352844238281 982.100219726562 986.716979980469 1000.11218261719 1007.18884277344 999.54931640625 992.015319824219 991.713806152344 1002.32330322266 1004.81561279297 1018.97039794922 1007.65753173828 1011.42260742188 1011.685546875 1018.75134277344 1021.78771972656 1024.19165039062 1026.87023925781 1029.04528808594 1027.353515625 1022.55969238281 1029.30590820312 1036.99780273438 1050.03833007812 1054.03015136719 1054.05981445312 1066.82531738281 1071.45202636719 1071.30944824219 1087.40234375 1095.89318847656 1090.3525390625 1092.984375 1102.2275390625 1102.65234375 1100.26782226562 1108.28698730469 1108.31872558594 1110.51403808594 1128.4990234375 1126.93640136719 1131.32434082031 1137.93957519531 1132.17175292969 1131.18041992188
950.689575195312 955.132934570312 958.863098144531 955.464416503906 963.871337890625 964.510009765625 956.564453125 965.092468261719 966.717956542969 971.510131835938 969.164672851562 975.906799316406 982.818908691406 973.246948242188 977.022155761719 978.137084960938 978.196960449219 965.829895019531 974.022644042969 974.626403808594 977.547729492188 972.609741210938 968.987915039062 967.604614257812 971.388366699219 965.318176269531 958.808776855469 957.858032226562 966.532104492188 967.124084472656 971.933227539062 982.879455566406 975.996887207031 968.58837890625 968.037048339844 962.976013183594 957.753112792969 957.979187011719 951.012084960938 957.839599609375 957.072204589844 956.986572265625 963.928100585938 959.053894042969 970.177001953125 965.0380859375 964.818176269531 964.053955078125 954.356079101562 954.244506835938 954.589172363281 955.158325195312 955.109802246094 965.845703125 969.937255859375 965.725952148438 959.640441894531 964.051513671875 966.413208007812 970.723999023438 966.483215332031 956.507690429688 961.724304199219 970.204406738281 969.378295898438 964.060485839844 968.561889648438 970.819458007812 958.816284179688 958.727478027344 964.158386230469 967.829467773438 971.271057128906 969.914672851562 965.097595214844 964.361389160156 959.333190917969 970.086791992188 968.447448730469 967.874694824219 963.710876464844 966.704956054688 966.094299316406 971.858703613281 975.709045410156 972.273986816406 960.034484863281 969.504638671875 970.670532226562 971.456176757812 970.988647460938 973.602783203125 974.107543945312 976.48486328125 979.772888183594 978.67236328125 981.144897460938 978.990539550781 973.132995605469 975.825317382812 981.826354980469 985.993041992188 976.123596191406 978.455627441406 989.320068359375 984.885925292969 983.856262207031 980.455505371094 999.853515625 1006.29345703125 1000.36437988281 992.350158691406 999.82763671875 1006.09289550781 1005.49291992188 1002.17266845703 1006.70727539062 1010.86480712891 1023.28747558594 1012.63299560547 1016.58843994141 1014.29632568359 1024.44946289062 1026.45166015625 1030.29638671875 1027.92700195312 1028.73754882812 1033.4169921875 1045.92102050781 1053.1005859375 1063.8369140625 1068.66088867188 1068.943359375 1084.05737304688 1092.85473632812 1099.99694824219 1101.9736328125 1090.5458984375 1091.91552734375 1096.29223632812 1091.91394042969 1098.47729492188 1099.10473632812 1105.14099121094 1113.81701660156 1121.87719726562 1131.21398925781 1135.41027832031 1124.38146972656 1127.234375
967.617553710938 971.045471191406 957.734497070312 961.656188964844 966.42236328125 965.170043945312 966.748168945312 978.011047363281 976.439636230469 971.14306640625 973.761108398438 974.266357421875 973.841186523438 971.513061523438 979.225158691406 981.5439453125 976.419128417969 972.859558105469 972.274780273438 978.568298339844 967.617980957031 967.357055664062 965.164794921875 965.603393554688 967.875244140625 968.108093261719 963.349914550781 953.570861816406 962.144958496094 973.081237792969 969.837829589844 973.932006835938 963.442199707031 956.378479003906 969.288879394531 957.992614746094 962.370788574219 957.24755859375 954.81689453125 960.624694824219 951.587219238281 954.874755859375 955.05908203125 959.281494140625 972.287658691406 969.203186035156 956.341064453125 950.768859863281 954.726501464844 962.490783691406 956.011047363281 960.381591796875 956.157592773438 963.507263183594 967.93603515625 968.17041015625 969.331481933594 958.137451171875 966.511413574219 959.01123046875 954.9169921875 961.844787597656 960.525634765625 967.601501464844 958.920959472656 962.980651855469 969.10205078125 965.115783691406 955.73291015625 956.067443847656 951.859130859375 956.03857421875 958.717041015625 966.974426269531 966.522094726562 963.718688964844 960.263122558594 958.410034179688 969.212707519531 969.619140625 962.072937011719 960.61328125 960.977661132812 969.674194335938 966.978637695312 967.893859863281 954.114013671875 959.306823730469 966.190124511719 965.690551757812 974.634704589844 978.362609863281 977.438049316406 973.340026855469 975.701782226562 975.628234863281 978.708801269531 974.496948242188 976.272705078125 978.083129882812 979.835510253906 977.537536621094 973.826049804688 979.18896484375 974.35205078125 982.339721679688 985.505187988281 988.27197265625 993.388244628906 993.430236816406 990.029357910156 997.093139648438 999.447509765625 1003.271484375 997.558166503906 998.642272949219 1000.75793457031 1002.50311279297 1014.76434326172 1008.30493164062 1010.81781005859 1007.90747070312 1014.21575927734 1016.60748291016 1029.24560546875 1022.87603759766 1027.48571777344 1033.53405761719 1042.86340332031 1053.17578125 1064.19274902344 1064.30798339844 1072.51965332031 1086.06481933594 1089.625 1093.17102050781 1095.21228027344 1099.07800292969 1088.68676757812 1090.23046875 1085.71228027344 1100.39794921875 1107.22717285156 1115.89233398438 1113.75610351562 1108.43127441406 1126.91162109375 1130.24987792969 1131.17626953125 1125.02868652344
971.136535644531 974.457092285156 971.162170410156 974.17578125 972.982788085938 968.16015625 969.712646484375 969.5263671875 979.114501953125 977.356201171875 976.813598632812 965.903686523438 972.100708007812 973.8056640625 977.156616210938 971.033203125 973.386108398438 969.53564453125 972.518310546875 971.663513183594 970.22998046875 965.122192382812 967.134033203125 968.284790039062 963.227355957031 967.142517089844 960.904968261719 959.416015625 961.091796875 967.442932128906 961.821960449219 973.163146972656 967.686767578125 957.1845703125 964.781677246094 967.536437988281 960.430480957031 960.607116699219 962.1904296875 961.471557617188 960.945739746094 949.042846679688 955.088500976562 960.896057128906 963.719787597656 971.652404785156 962.044067382812 949.504455566406 956.168090820312 956.690673828125 958.400451660156 957.05419921875 958.769409179688 964.653625488281 962.974609375 963.436889648438 958.277038574219 960.770751953125 960.669128417969 957.352233886719 952.134704589844 957.813171386719 956.556701660156 956.037658691406 958.717956542969 958.671508789062 966.832397460938 957.731079101562 961.543090820312 963.8583984375 961.381408691406 961.445556640625 963.365783691406 962.368469238281 972.338623046875 971.817626953125 961.6201171875 957.782043457031 962.509643554688 956.591064453125 960.032775878906 970.578308105469 958.976501464844 963.633117675781 970.085144042969 968.486999511719 961.471374511719 967.905700683594 976.933410644531 975.142944335938 971.944458007812 976.875061035156 975.334350585938 974.876708984375 976.882446289062 971.464965820312 972.995849609375 976.114990234375 969.861083984375 966.470031738281 971.707946777344 977.27099609375 980.921325683594 977.512573242188 973.634216308594 978.319396972656 985.976318359375 987.591857910156 981.907104492188 983.258544921875 990.872192382812 995.769714355469 991.260803222656 999.3427734375 992.542541503906 995.777526855469 998.108642578125 993.008178710938 1002.98211669922 1000.05303955078 999.879760742188 1003.28826904297 1005.52154541016 1007.54254150391 1013.16973876953 1014.18634033203 1023.76379394531 1027.0751953125 1035.66149902344 1045.33264160156 1049.22253417969 1058.81945800781 1070.26293945312 1077.31091308594 1084.99255371094 1094.9521484375 1093.30871582031 1094.81311035156 1085.748046875 1085.55688476562 1088.40966796875 1092.33239746094 1096.49609375 1110.70007324219 1104.83081054688 1110.1728515625 1116.52575683594 1125.57019042969 1120.37133789062 1118.31433105469
965.347900390625 972.401184082031 980.364135742188 975.802307128906 973.042907714844 971.36083984375 977.719421386719 970.908630371094 969.378479003906 974.154052734375 971.393920898438 968.315856933594 969.696228027344 978.918884277344 974.580261230469 974.541320800781 972.698913574219 965.112426757812 969.637817382812 974.287292480469 965.826599121094 967.56787109375 961.612487792969 968.465637207031 970.860473632812 962.496459960938 958.158752441406 956.991943359375 962.337341308594 961.6845703125 963.822326660156 968.3720703125 961.466552734375 955.213684082031 962.203308105469 966.407043457031 960.359191894531 962.254760742188 959.918518066406 964.520935058594 959.554931640625 958.495544433594 951.747802734375 952.476196289062 952.661743164062 958.766540527344 958.130065917969 955.488403320312 953.847045898438 959.1005859375 958.940734863281 948.712707519531 948.755920410156 955.955688476562 962.251281738281 956.005676269531 952.299865722656 962.8359375 964.173034667969 957.474792480469 952.644165039062 954.5458984375 955.736572265625 960.107604980469 954.710754394531 960.621887207031 950.471252441406 955.090270996094 957.142700195312 960.8955078125 958.956970214844 966.406616210938 963.575561523438 963.018798828125 966.868591308594 965.544555664062 965.033142089844 955.007568359375 961.1875 953.395385742188 956.07080078125 959.51416015625 961.559875488281 961.871520996094 965.691650390625 969.304138183594 962.174011230469 966.345642089844 968.499877929688 974.333679199219 972.37548828125 966.402954101562 969.681030273438 967.773864746094 971.6689453125 975.440063476562 963.297668457031 969.788208007812 970.734924316406 972.850036621094 974.306030273438 971.877563476562 977.344665527344 977.366516113281 967.179260253906 970.157897949219 982.815612792969 974.944519042969 980.909118652344 983.411499023438 990.704528808594 993.006591796875 988.899597167969 989.412231445312 980.391296386719 994.675354003906 987.900024414062 996.140319824219 987.745056152344 994.705810546875 997.967590332031 1000.17132568359 999.063293457031 1004.46295166016 1003.96118164062 1013.25018310547 1015.88488769531 1020.75317382812 1035.26123046875 1045.9462890625 1047.24255371094 1063.96105957031 1067.50244140625 1065.69738769531 1069.43859863281 1079.86877441406 1086.37231445312 1084.24816894531 1091.08081054688 1085.68591308594 1078.15002441406 1094.66845703125 1104.09423828125 1104.791015625 1102.02160644531 1110.00427246094 1118.14428710938 1115.80871582031 1114.76220703125 1112.28967285156
960.263488769531 977.555114746094 973.493103027344 975.375366210938 973.996826171875 983.472900390625 975.250061035156 969.421569824219 970.822204589844 965.650939941406 973.069580078125 976.690856933594 979.748229980469 979.152160644531 967.493041992188 969.644470214844 968.130432128906 969.257568359375 972.774353027344 983.058349609375 969.353637695312 960.96875 952.741027832031 964.033447265625 966.127563476562 959.65771484375 955.739135742188 965.198791503906 961.628601074219 960.32373046875 960.009643554688 957.139282226562 957.809448242188 956.212768554688 961.583435058594 969.583862304688 965.952331542969 954.8505859375 958.496643066406 950.828369140625 954.247802734375 962.899353027344 959.168334960938 958.8017578125 957.073303222656 955.162475585938 963.857238769531 946.092529296875 945.872436523438 963.089538574219 954.722473144531 954.836303710938 959.281066894531 951.969421386719 961.263122558594 956.302001953125 948.109558105469 959.965454101562 964.466247558594 960.969299316406 952.246276855469 957.024230957031 962.410583496094 966.432250976562 955.0673828125 954.318969726562 955.872314453125 950.749877929688 952.53271484375 957.083740234375 958.093139648438 962.301025390625 965.631652832031 966.5908203125 964.325805664062 961.642944335938 958.60791015625 962.97021484375 954.209411621094 956.943298339844 957.694152832031 962.351684570312 964.00390625 956.106506347656 966.985290527344 960.507934570312 963.005004882812 964.93115234375 958.18798828125 972.005432128906 969.038452148438 963.946350097656 969.221801757812 966.027099609375 964.505798339844 963.826049804688 961.292053222656 968.806823730469 971.060180664062 968.707580566406 971.217590332031 978.89111328125 972.163940429688 974.132019042969 980.333984375 976.751342773438 975.265319824219 975.712951660156 981.427001953125 989.845764160156 998.603759765625 1000.47467041016 1000.34454345703 983.6796875 983.987243652344 984.6162109375 987.789184570312 991.060485839844 989.375549316406 987.613525390625 987.196838378906 991.203430175781 998.4951171875 1006.55407714844 993.069213867188 1005.47326660156 1010.71325683594 1018.17742919922 1031.72802734375 1035.39526367188 1045.51965332031 1064.46643066406 1071.2216796875 1069.962890625 1074.78393554688 1081.16333007812 1090.04541015625 1085.96997070312 1086.57067871094 1082.18298339844 1077.65771484375 1087.44104003906 1101.72009277344 1102.48364257812 1100.60107421875 1108.78991699219 1104.27502441406 1109.19506835938 1105.9384765625 1100.0498046875
963.4951171875 953.995666503906 966.189636230469 980.436767578125 970.093994140625 977.5732421875 977.255859375 969.830993652344 964.796020507812 962.992919921875 967.0263671875 982.269958496094 978.932312011719 977.565734863281 978.4697265625 967.245178222656 974.298767089844 979.642150878906 974.246276855469 975.462707519531 966.47314453125 949.704833984375 942.051147460938 949.991882324219 955.758361816406 957.171203613281 958.4462890625 967.510864257812 970.81982421875 962.038879394531 953.686157226562 959.148742675781 958.277587890625 956.285705566406 960.400268554688 969.889526367188 969.385070800781 956.578186035156 948.612121582031 954.633361816406 954.613586425781 957.44580078125 961.083374023438 952.977661132812 962.357116699219 964.532775878906 955.529541015625 959.033325195312 964.80029296875 956.593811035156 955.785278320312 954.842346191406 953.359619140625 958.029846191406 952.917663574219 950.47509765625 944.656311035156 954.857299804688 963.270324707031 961.576049804688 955.629699707031 960.596801757812 962.034606933594 964.555053710938 959.716186523438 952.822021484375 949.350341796875 947.832458496094 950.044372558594 962.442687988281 956.297607421875 951.233032226562 960.53125 964.332885742188 957.411254882812 955.886169433594 960.250366210938 954.41162109375 959.832397460938 959.913391113281 962.862915039062 964.989135742188 961.679260253906 963.976379394531 959.927551269531 961.989562988281 960.557495117188 963.311950683594 958.939636230469 953.053771972656 961.620178222656 965.357482910156 964.942932128906 978.670166015625 970.775146484375 969.154357910156 970.24462890625 972.332336425781 980.686218261719 978.761413574219 975.864501953125 978.803955078125 973.37548828125 978.441772460938 974.157287597656 983.129821777344 986.703491210938 984.11669921875 985.616333007812 1000.84918212891 993.149047851562 991.232116699219 998.447143554688 989.939025878906 985.27734375 986.038269042969 986.843017578125 992.6435546875 989.470581054688 977.456909179688 976.191711425781 975.186950683594 990.248291015625 993.118469238281 988.007446289062 1003.66595458984 1018.61016845703 1019.75299072266 1032.17553710938 1038.64526367188 1042.36938476562 1057.74560546875 1063.28295898438 1064.76342773438 1081.65673828125 1089.87585449219 1089.11071777344 1080.4951171875 1085.81262207031 1083.20532226562 1077.44372558594 1074.80578613281 1083.69458007812 1081.8193359375 1090.02941894531 1091.60961914062 1093.56066894531 1097.44775390625 1094.36364746094 1100.03381347656
962.213317871094 958.901977539062 962.893920898438 967.995849609375 969.427124023438 976.911560058594 975.383850097656 975.546142578125 969.32080078125 967.741027832031 957.403137207031 970.062927246094 975.799255371094 969.402160644531 970.522399902344 974.148315429688 969.297302246094 968.732666015625 966.776977539062 960.398376464844 957.797729492188 952.290161132812 948.984741210938 951.68701171875 954.662902832031 944.755249023438 953.295654296875 954.26025390625 965.260986328125 955.444152832031 944.356140136719 950.673461914062 957.379455566406 957.75439453125 964.214904785156 969.674438476562 966.623840332031 951.155151367188 944.664855957031 948.95703125 953.352478027344 949.726196289062 954.610656738281 961.779968261719 958.494567871094 956.621520996094 956.749694824219 950.545166015625 957.754699707031 967.01708984375 952.727905273438 951.092956542969 955.475036621094 948.768859863281 943.380798339844 950.400207519531 951.952758789062 957.438781738281 960.114074707031 961.846740722656 963.155822753906 965.822143554688 962.203918457031 957.286499023438 954.485168457031 952.563171386719 955.526000976562 959.637512207031 960.826232910156 955.908569335938 959.577209472656 957.515930175781 959.490295410156 956.969909667969 957.363891601562 957.542907714844 953.507080078125 955.248413085938 957.672973632812 959.303039550781 960.020141601562 957.845886230469 957.604614257812 964.009765625 962.562744140625 958.337158203125 964.969848632812 962.269348144531 957.490966796875 953.553527832031 958.216125488281 962.071105957031 971.511596679688 975.153930664062 975.39208984375 979.09619140625 970.170471191406 977.046508789062 972.184997558594 981.87646484375 980.989929199219 990.802612304688 979.762451171875 978.231262207031 970.72705078125 976.440856933594 994.818054199219 995.328491210938 996.557922363281 996.549926757812 984.11181640625 996.5771484375 999.565124511719 995.024169921875 994.956481933594 987.489318847656 987.401306152344 989.449829101562 991.191711425781 970.890625 981.205749511719 977.356384277344 988.700073242188 984.766418457031 986.780578613281 996.732482910156 1007.12762451172 1013.94305419922 1025.61730957031 1042.61889648438 1055.00427246094 1057.267578125 1056.61706542969 1063.23950195312 1073.74060058594 1084.6953125 1083.21765136719 1081.68090820312 1083.77807617188 1081.44470214844 1077.99499511719 1068.36633300781 1074.30786132812 1075.33898925781 1070.27099609375 1080.18676757812 1087.56896972656 1081.81774902344 1079.05603027344 1079.87805175781
956.571166992188 963.090026855469 958.340576171875 965.593017578125 966.566162109375 971.151916503906 965.935302734375 973.946350097656 969.211486816406 965.902221679688 958.129455566406 956.903991699219 972.706115722656 967.687255859375 974.026733398438 968.594909667969 963.099487304688 962.454284667969 958.148681640625 960.721801757812 958.656433105469 953.333129882812 951.712829589844 955.083312988281 950.814453125 945.265014648438 948.824951171875 950.475708007812 951.821533203125 950.821838378906 947.495971679688 958.611694335938 953.38818359375 947.623352050781 948.192993164062 963.421508789062 952.249633789062 945.475524902344 937.258056640625 941.504760742188 947.589050292969 951.019348144531 960.016296386719 956.875671386719 958.73974609375 961.178161621094 949.152099609375 949.802917480469 949.945495605469 957.304260253906 956.643615722656 946.209838867188 946.852172851562 951.41259765625 955.844543457031 954.522033691406 946.46044921875 953.801208496094 967.186096191406 960.628662109375 955.528198242188 964.90478515625 964.604187011719 953.894409179688 965.269226074219 956.3544921875 957.070434570312 956.029357910156 951.8583984375 961.806335449219 953.667846679688 958.650634765625 958.826416015625 964.311218261719 957.976989746094 944.255554199219 948.988464355469 954.447509765625 954.524536132812 967.117736816406 962.284912109375 958.959899902344 959.021301269531 958.604736328125 961.220336914062 968.8720703125 967.810485839844 962.338012695312 956.975402832031 959.833740234375 957.862548828125 961.265197753906 967.640869140625 967.141052246094 974.543029785156 984.048767089844 974.892456054688 976.139221191406 975.279113769531 975.776245117188 995.910461425781 987.97412109375 975.261962890625 976.888427734375 986.301208496094 976.186767578125 991.769287109375 1001.07775878906 1006.11010742188 993.135620117188 994.034973144531 1002.95043945312 997.039672851562 995.146545410156 995.391784667969 988.8037109375 989.331481933594 986.640991210938 986.742858886719 984.518005371094 988.892395019531 989.341613769531 987.741027832031 980.662841796875 984.82666015625 995.422119140625 1010.92431640625 1016.91900634766 1027.98315429688 1044.30871582031 1053.92785644531 1054.630859375 1058.18579101562 1056.40014648438 1055.33642578125 1073.71533203125 1076.39135742188 1070.38208007812 1071.47790527344 1072.27551269531 1064.14916992188 1051.48522949219 1057.09692382812 1058.09924316406 1057.18432617188 1067.75024414062 1071.73315429688 1072.15686035156 1074.21545410156 1074.77758789062
950.288146972656 964.196228027344 959.234436035156 964.236267089844 960.107482910156 965.696166992188 970.686218261719 964.39892578125 965.22607421875 959.938171386719 959.302734375 963.428955078125 962.561401367188 969.330505371094 971.638488769531 964.860046386719 964.876342773438 963.273864746094 955.258239746094 960.293701171875 959.025573730469 955.168029785156 958.145874023438 952.447204589844 956.744689941406 953.826843261719 946.443725585938 935.798156738281 941.569946289062 939.381530761719 943.4619140625 949.182189941406 950.1630859375 948.993469238281 949.244567871094 950.860473632812 951.289794921875 948.112670898438 946.05419921875 953.538940429688 950.231018066406 955.633972167969 954.829406738281 953.975952148438 963.656494140625 955.975952148438 955.307189941406 948.973571777344 957.7783203125 950.988647460938 947.142272949219 952.190063476562 946.002990722656 955.214782714844 954.176635742188 950.8486328125 948.644836425781 953.13330078125 960.089233398438 955.779479980469 959.473205566406 954.696838378906 966.817932128906 964.674255371094 961.367309570312 959.877380371094 955.724731445312 955.640197753906 955.676635742188 956.208801269531 960.452026367188 970.958679199219 969.7900390625 966.5576171875 957.912841796875 957.328491210938 960.430908203125 960.433776855469 956.2666015625 961.330322265625 961.255676269531 960.483825683594 965.202087402344 962.17138671875 963.375671386719 964.0537109375 967.822998046875 965.664611816406 954.981567382812 953.6162109375 954.935729980469 963.698547363281 968.903259277344 973.408264160156 979.156860351562 974.649169921875 976.260070800781 979.7392578125 985.637512207031 981.535217285156 997.254028320312 990.400268554688 975.2431640625 979.984924316406 995.722106933594 991.567810058594 1001.36694335938 1008.21594238281 1001.85998535156 1004.25476074219 1002.13916015625 1006.5615234375 997.380004882812 998.6962890625 1001.35961914062 997.344116210938 993.207946777344 991.509582519531 991.6455078125 991.059509277344 994.3935546875 989.63037109375 997.85888671875 999.145141601562 992.514770507812 995.076538085938 999.651245117188 1013.3212890625 1021.32495117188 1033.39379882812 1046.19213867188 1048.31115722656 1053.39575195312 1058.73352050781 1061.97521972656 1065.22387695312 1061.20178222656 1059.06848144531 1068.330078125 1065.98107910156 1055.36572265625 1040.88000488281 1044.91540527344 1050.44201660156 1057.19458007812 1059.90905761719 1061.30651855469 1068.67687988281 1068.15856933594 1065.93041992188
952.398864746094 962.716430664062 960.557312011719 959.544006347656 963.846008300781 961.511535644531 958.217407226562 963.045349121094 960.343933105469 972.315612792969 960.362487792969 959.731811523438 963.142639160156 971.164611816406 968.258972167969 967.367858886719 963.815307617188 954.449951171875 960.138427734375 961.125244140625 954.691589355469 955.254150390625 951.840881347656 962.71826171875 958.939147949219 956.751953125 949.907592773438 945.516174316406 939.557739257812 940.445739746094 943.117126464844 951.3203125 947.833068847656 951.546691894531 951.0380859375 954.851989746094 955.409606933594 951.475646972656 953.195983886719 954.552551269531 954.781005859375 950.985595703125 953.5615234375 952.112548828125 948.486083984375 956.56201171875 955.988220214844 954.500732421875 951.516784667969 952.142272949219 947.330810546875 949.964233398438 956.780578613281 955.862182617188 959.351013183594 954.006652832031 952.837768554688 957.943359375 969.944213867188 966.220397949219 955.714477539062 972.911865234375 976.71826171875 965.142761230469 959.300415039062 961.796325683594 960.102600097656 966.08740234375 968.049743652344 963.834594726562 962.853637695312 964.476379394531 962.781616210938 966.791870117188 958.044616699219 962.277038574219 962.657409667969 963.97607421875 963.482482910156 965.496704101562 965.849731445312 961.743408203125 964.993041992188 967.708190917969 968.367248535156 971.391723632812 968.760620117188 968.364318847656 957.6865234375 957.575622558594 960.680969238281 967.452758789062 974.836730957031 973.756225585938 976.0029296875 984.929077148438 976.133666992188 980.144714355469 978.580932617188 982.0693359375 986.67529296875 983.729431152344 986.099792480469 977.208862304688 993.376159667969 988.121520996094 994.4033203125 1004.68499755859 1003.69189453125 1002.72711181641 1007.81335449219 1007.94317626953 1003.00274658203 1004.72375488281 1000.38812255859 1002.65130615234 1012.27966308594 1012.81420898438 1005.57360839844 1001.12915039062 1006.67993164062 999.106506347656 1003.84222412109 1012.9287109375 1014.99505615234 1007.50866699219 1013.01342773438 1017.79095458984 1020.23461914062 1036.31030273438 1034.95812988281 1029.64379882812 1036.83410644531 1042.87487792969 1052.75537109375 1055.54016113281 1053.84692382812 1050.93957519531 1050.77014160156 1049.83166503906 1037.36279296875 1027.64904785156 1029.54113769531 1039.54614257812 1049.99108886719 1048.58251953125 1045.41796875 1055.39770507812 1046.15588378906 1056.74426269531
952.422302246094 956.458923339844 965.127319335938 967.39990234375 964.988464355469 970.546630859375 963.158508300781 965.561950683594 975.991455078125 967.618957519531 961.914428710938 961.997009277344 962.414978027344 975.068420410156 971.411804199219 964.685302734375 951.3740234375 954.925842285156 961.22265625 955.522827148438 956.203979492188 955.017944335938 952.665954589844 969.954711914062 966.905700683594 965.079223632812 951.493103027344 949.744750976562 944.405212402344 950.512451171875 953.040344238281 955.885375976562 950.37158203125 951.25732421875 958.475402832031 955.603515625 941.187805175781 951.35400390625 962.522827148438 960.606201171875 950.848327636719 941.92578125 953.051147460938 953.445861816406 956.842529296875 945.825744628906 957.438354492188 955.654479980469 955.208801269531 947.130737304688 954.875854492188 945.593139648438 958.326354980469 950.314758300781 948.223571777344 955.963806152344 960.449035644531 959.340087890625 962.341247558594 964.057861328125 963.903076171875 964.559997558594 967.814270019531 966.668823242188 963.736633300781 961.1025390625 953.75732421875 960.737548828125 966.702026367188 965.435668945312 972.542236328125 955.576232910156 968.126708984375 967.176208496094 964.869995117188 967.478393554688 963.061157226562 958.189819335938 964.073486328125 971.0400390625 974.417602539062 965.477294921875 962.815246582031 970.799438476562 975.703674316406 971.30126953125 973.534851074219 973.859191894531 978.000915527344 967.451049804688 967.335510253906 973.06884765625 972.145202636719 982.008972167969 986.632202148438 979.262329101562 971.834838867188 972.905517578125 969.174987792969 975.846801757812 975.827270507812 974.900390625 983.280334472656 997.059143066406 986.719177246094 990.61669921875 1000.5400390625 1003.74987792969 1000.52172851562 1003.47229003906 1009.37908935547 1008.35473632812 1012.59710693359 1010.61956787109 998.920959472656 1014.78076171875 1020.35101318359 1023.36053466797 1008.50207519531 1002.9541015625 1001.60406494141 1013.275390625 1012.1767578125 1012.62213134766 1011.65228271484 1019.38336181641 1014.53118896484 1026.68859863281 1031.09631347656 1022.11077880859 1032.76489257812 1029.60461425781 1043.94592285156 1043.09619140625 1034.83935546875 1040.96057128906 1044.794921875 1044.12780761719 1046.01733398438 1041.03979492188 1022.86694335938 1020.59936523438 1027.79907226562 1025.935546875 1036.9423828125 1043.63842773438 1044.52612304688 1044.86047363281 1050.6494140625 1050.90173339844
950.483581542969 957.658630371094 958.54833984375 957.825073242188 968.603515625 966.012573242188 966.712036132812 965.387817382812 965.488586425781 965.096618652344 959.146789550781 958.971618652344 960.394470214844 968.916137695312 959.956115722656 958.25048828125 961.759582519531 948.518615722656 953.182800292969 960.241088867188 957.994140625 950.986328125 958.866760253906 958.211853027344 964.1552734375 954.957214355469 948.879516601562 945.749633789062 947.183776855469 948.471740722656 944.574829101562 959.753051757812 954.2900390625 958.632934570312 954.615600585938 951.065673828125 952.3681640625 955.710510253906 957.163757324219 954.228149414062 947.669555664062 954.48095703125 950.235473632812 944.812866210938 947.194213867188 950.371704101562 951.517272949219 954.771728515625 955.240112304688 953.356506347656 958.903930664062 958.073120117188 955.292846679688 946.114990234375 952.132568359375 952.521362304688 954.94482421875 959.34765625 971.226257324219 969.2841796875 960.695007324219 963.277282714844 958.940795898438 955.446166992188 959.922241210938 962.186706542969 971.147766113281 964.632873535156 972.047607421875 970.131225585938 966.975646972656 972.811706542969 980.008239746094 973.160522460938 971.499389648438 960.683227539062 962.913513183594 965.170593261719 963.688171386719 970.014587402344 965.745300292969 978.934692382812 975.62353515625 972.044006347656 985.073303222656 978.400573730469 981.306274414062 984.043029785156 980.861206054688 972.236389160156 968.387390136719 973.590026855469 977.439819335938 978.875610351562 976.3974609375 979.591064453125 973.84423828125 975.401611328125 969.181396484375 972.223388671875 971.876159667969 982.436889648438 986.668640136719 990.357604980469 989.954345703125 994.549987792969 1001.15606689453 1009.27404785156 1002.23669433594 997.373046875 999.817626953125 1014.72192382812 1002.365234375 1007.68646240234 1011.03106689453 1019.24462890625 1023.52697753906 1025.90625 1012.18481445312 1005.15142822266 1010.60980224609 1011.48126220703 1005.56018066406 1012.71368408203 1016.88153076172 1023.32196044922 1016.99243164062 1024.64697265625 1025.1572265625 1022.17108154297 1028.47448730469 1031.50598144531 1046.23352050781 1046.70739746094 1035.76989746094 1040.21337890625 1037.87829589844 1039.70141601562 1033.52612304688 1045.09252929688 1033.27075195312 1030.02075195312 1018.21099853516 1024.90991210938 1029.23815917969 1032.43322753906 1031.88391113281 1028.7578125 1037.99719238281 1042.11193847656
948.598693847656 962.771484375 958.820068359375 952.804321289062 955.401428222656 951.408142089844 957.576049804688 969.450805664062 964.015502929688 963.307373046875 960.697204589844 960.159912109375 955.878112792969 956.077453613281 951.958312988281 952.722412109375 944.711791992188 949.127990722656 956.865417480469 957.254699707031 953.248962402344 946.324584960938 950.626159667969 950.672485351562 956.687255859375 953.128051757812 951.568420410156 942.401245117188 944.017211914062 949.508666992188 946.369323730469 949.710266113281 949.950988769531 948.428588867188 958.113220214844 952.11572265625 952.829772949219 943.164184570312 950.089477539062 947.426086425781 961.72021484375 953.64306640625 954.692138671875 949.337463378906 959.304077148438 951.198852539062 950.663513183594 959.318054199219 954.268005371094 958.314147949219 961.566528320312 960.445861816406 955.687927246094 952.860534667969 949.661926269531 960.713684082031 961.567077636719 963.758605957031 971.10498046875 968.257019042969 967.127685546875 950.527465820312 947.214782714844 958.737182617188 958.912292480469 967.213562011719 976.289794921875 973.952392578125 974.6435546875 976.420532226562 974.500183105469 975.70947265625 979.48095703125 968.678649902344 964.942749023438 968.915893554688 963.635864257812 963.288757324219 970.321350097656 971.782836914062 970.479125976562 974.888061523438 972.123962402344 975.395874023438 982.657165527344 979.599304199219 979.922424316406 979.09326171875 974.2802734375 970.300537109375 958.593933105469 968.607971191406 971.398742675781 975.665283203125 968.613098144531 966.515869140625 973.529357910156 984.16943359375 980.983276367188 988.5107421875 982.566528320312 986.619262695312 987.272521972656 995.041381835938 1000.01428222656 996.846374511719 1005.537109375 1010.74426269531 1000.46008300781 998.514709472656 1000.974609375 1011.58135986328 1009.33941650391 1007.92584228516 1021.68481445312 1028.78454589844 1026.35363769531 1025.59265136719 1019.20690917969 1019.85180664062 1019.30773925781 1012.82238769531 1005.93695068359 1009.92565917969 1007.68859863281 1013.96771240234 1018.50128173828 1021.00805664062 1036.92993164062 1024.29968261719 1029.7080078125 1036.8828125 1045.12036132812 1043.65734863281 1038.85717773438 1030.9619140625 1033.93579101562 1034.478515625 1031.5712890625 1035.84521484375 1031.17041015625 1027.84594726562 1024.97106933594 1028.80712890625 1030.85205078125 1025.822265625 1022.76684570312 1022.66961669922 1021.19732666016 1027.70739746094
944.581787109375 952.446716308594 951.165405273438 951.332336425781 951.6669921875 944.648315429688 957.531616210938 964.126892089844 960.985595703125 950.875183105469 953.000610351562 952.707763671875 953.137756347656 951.006896972656 951.832153320312 942.344055175781 948.570007324219 941.269165039062 952.706787109375 939.977355957031 943.637268066406 947.272583007812 950.797180175781 949.892150878906 955.003784179688 945.885925292969 952.271606445312 948.556213378906 945.210510253906 944.56591796875 942.9521484375 947.179138183594 946.939270019531 950.800842285156 951.888671875 956.263549804688 948.441223144531 945.80859375 952.736389160156 951.350402832031 952.052917480469 962.635925292969 957.015747070312 951.056091308594 962.137512207031 954.984558105469 952.919067382812 961.729309082031 966.544128417969 961.28662109375 966.319458007812 960.14697265625 960.998596191406 964.509826660156 956.307312011719 952.461242675781 974.002502441406 974.404663085938 979.726257324219 971.207275390625 968.825988769531 965.800354003906 951.394104003906 962.094970703125 966.884094238281 969.3427734375 976.767333984375 971.625366210938 972.945190429688 974.521728515625 978.521911621094 977.34619140625 971.3056640625 971.236999511719 967.603759765625 963.350219726562 955.47998046875 961.503173828125 969.946228027344 973.092102050781 971.798767089844 977.754516601562 978.170227050781 973.550903320312 975.953002929688 967.325744628906 974.043395996094 982.489013671875 975.049926757812 984.738525390625 973.126403808594 971.556762695312 968.912841796875 971.884094238281 966.77490234375 971.878845214844 979.87890625 983.674499511719 991.700561523438 994.851440429688 991.303283691406 987.87548828125 994.927368164062 995.79638671875 993.869934082031 986.699401855469 997.265319824219 1001.81555175781 1002.87036132812 994.54931640625 1000.35217285156 1006.00842285156 1012.04956054688 1019.63775634766 1021.77960205078 1032.39794921875 1032.2138671875 1023.77398681641 1016.87780761719 1019.92388916016 1017.89776611328 1008.05078125 1002.51147460938 1005.00152587891 1013.15393066406 1019.39691162109 1022.37341308594 1028.26904296875 1031.14697265625 1032.25439453125 1030.67736816406 1037.09350585938 1032.240234375 1027.08618164062 1028.25769042969 1022.38861083984 1029.50256347656 1039.20336914062 1044.09643554688 1036.66760253906 1029.57983398438 1026.96154785156 1022.24841308594 1033.3603515625 1025.34912109375 1025.42395019531 1019.44848632812 1014.97613525391 1017.66253662109 1026.37353515625
950.551208496094 954.656555175781 951.073852539062 956.163696289062 955.663940429688 955.014099121094 957.467346191406 963.712097167969 955.320922851562 955.548583984375 952.62109375 956.787109375 954.093811035156 943.403869628906 950.980712890625 943.418212890625 951.3779296875 944.742004394531 946.464538574219 942.678588867188 943.517578125 944.807861328125 952.564819335938 942.760375976562 948.548828125 942.754821777344 946.93603515625 953.748718261719 949.148193359375 942.3515625 946.459228515625 941.6982421875 943.765869140625 948.784423828125 948.523986816406 954.158813476562 956.18115234375 954.939208984375 956.720886230469 956.481018066406 962.024169921875 959.505920410156 958.690002441406 956.009338378906 948.5478515625 951.523559570312 964.556518554688 973.982604980469 969.883911132812 970.017944335938 977.643127441406 973.754821777344 972.542358398438 968.797058105469 966.609252929688 967.856018066406 969.637634277344 972.936462402344 973.836547851562 971.828369140625 963.744079589844 966.665649414062 960.133972167969 954.534057617188 965.704772949219 973.360778808594 980.974609375 974.960754394531 978.154052734375 975.474487304688 980.304931640625 975.508911132812 973.768493652344 968.739074707031 973.307250976562 970.214111328125 970.063354492188 965.773559570312 969.256103515625 971.437561035156 980.238891601562 982.93505859375 983.136047363281 976.933837890625 979.792114257812 984.623107910156 982.015014648438 977.549743652344 987.159301757812 979.998718261719 960.533264160156 963.392883300781 963.484130859375 960.964111328125 977.445373535156 981.839050292969 990.254455566406 999.667907714844 1007.47888183594 999.810607910156 995.65283203125 1000.27856445312 1000.76739501953 995.208740234375 991.323425292969 991.79931640625 986.387939453125 1001.56140136719 1005.74865722656 1005.73034667969 1010.73718261719 1009.44158935547 1011.00006103516 1015.115234375 1034.28857421875 1040.69714355469 1040.28967285156 1043.08166503906 1030.44714355469 1026.26000976562 1020.05035400391 1020.75189208984 1016.51782226562 1015.07159423828 1016.2431640625 1007.84149169922 1025.85302734375 1030.93225097656 1030.89123535156 1042.02783203125 1035.83374023438 1035.62133789062 1026.21020507812 1016.56481933594 1021.87451171875 1024.31164550781 1028.54736328125 1036.41540527344 1036.35473632812 1030.92565917969 1025.29357910156 1022.43267822266 1021.62280273438 1018.83020019531 1023.31018066406 1020.07086181641 1023.99688720703 1016.24633789062 1016.09930419922 1016.10186767578
963.115112304688 953.828186035156 946.538452148438 949.334899902344 951.584533691406 958.487426757812 956.374938964844 953.674377441406 943.658813476562 949.336120605469 955.67578125 954.350708007812 956.631103515625 950.312255859375 957.698486328125 950.946166992188 952.015991210938 938.658447265625 941.993713378906 944.767700195312 955.366455078125 952.769104003906 957.752197265625 954.191467285156 948.730529785156 945.255737304688 943.868713378906 952.045288085938 949.699951171875 941.161560058594 949.623168945312 939.503356933594 944.820678710938 948.1474609375 951.216003417969 961.153503417969 962.44384765625 956.662658691406 960.043029785156 958.641662597656 959.480285644531 952.339050292969 957.110778808594 956.733947753906 952.600830078125 965.735717773438 974.604736328125 975.664001464844 976.544189453125 977.662475585938 985.098754882812 977.088317871094 971.539184570312 966.944519042969 964.441589355469 960.533874511719 971.108581542969 979.81298828125 973.598449707031 968.495239257812 965.788757324219 976.531860351562 971.3740234375 971.616516113281 970.447998046875 972.93359375 968.936706542969 974.843627929688 978.69921875 977.45947265625 978.3271484375 979.626525878906 978.171447753906 974.915466308594 977.988464355469 980.14306640625 974.002563476562 966.254150390625 971.962036132812 973.040405273438 980.150939941406 989.066711425781 991.171691894531 986.96484375 990.067993164062 983.548583984375 985.058715820312 980.823425292969 988.933227539062 979.705261230469 963.200988769531 966.483520507812 967.199951171875 966.039306640625 983.251220703125 987.915283203125 1005.63775634766 1003.41394042969 1002.62622070312 999.489501953125 998.981689453125 1001.15753173828 998.428527832031 992.3232421875 990.096557617188 989.463806152344 997.221557617188 1001.73718261719 1011.96868896484 1011.29309082031 1012.67303466797 1005.09210205078 1015.60845947266 1024.80334472656 1033.07885742188 1044.81286621094 1044.13549804688 1034.05773925781 1033.00708007812 1030.5849609375 1025.77587890625 1027.97082519531 1025.92395019531 1024.18408203125 1022.91558837891 1021.00610351562 1023.96105957031 1027.28637695312 1037.712890625 1037.26208496094 1032.62561035156 1033.04162597656 1028.94128417969 1024.91247558594 1023.96014404297 1024.53356933594 1024.23034667969 1034.37475585938 1028.74011230469 1023.60522460938 1020.46862792969 1028.44812011719 1022.70751953125 1013.49029541016 1018.24389648438 1017.15380859375 1011.06774902344 1007.90203857422 1014.23974609375 1009.11267089844
950.486755371094 952.300720214844 952.406005859375 946.515197753906 958.461975097656 954.045043945312 946.632263183594 949.803649902344 944.154663085938 944.808410644531 950.1220703125 962.2822265625 957.322692871094 964.195373535156 955.105163574219 953.130187988281 953.688110351562 943.69580078125 953.462341308594 953.448547363281 950.530029296875 959.008911132812 952.78466796875 947.67529296875 946.300598144531 945.062622070312 942.023498535156 951.649047851562 953.743225097656 946.171508789062 941.802185058594 943.738037109375 950.096496582031 957.384094238281 954.140869140625 953.49365234375 958.272155761719 964.664489746094 965.035949707031 965.943969726562 963.291381835938 956.54638671875 957.148681640625 959.489196777344 962.57470703125 972.044494628906 979.003295898438 980.284057617188 977.20166015625 980.641296386719 983.611572265625 986.179626464844 980.941162109375 975.112243652344 969.822326660156 963.782592773438 971.573791503906 972.153259277344 975.486511230469 972.041870117188 968.394409179688 967.958251953125 976.984313964844 974.646118164062 976.057312011719 964.923034667969 962.037536621094 964.682556152344 976.912048339844 979.63525390625 985.517028808594 986.591003417969 981.791137695312 985.536071777344 974.307067871094 977.967712402344 975.179382324219 977.280578613281 974.060485839844 981.772766113281 980.653869628906 985.899169921875 983.615966796875 988.356750488281 981.650756835938 984.547485351562 977.85498046875 981.851318359375 979.03076171875 972.79052734375 969.678894042969 975.12255859375 969.872375488281 974.144409179688 982.983520507812 997.474060058594 993.167297363281 1007.95361328125 1001.66271972656 1000.30975341797 1002.72515869141 999.556213378906 1000.86676025391 992.538879394531 984.922973632812 992.77001953125 999.21826171875 999.80615234375 1004.63537597656 1003.04797363281 1012.89654541016 1010.53332519531 1022.04577636719 1021.21868896484 1037.72241210938 1041.65612792969 1032.41821289062 1033.74621582031 1036.43762207031 1027.09338378906 1037.32019042969 1044.95361328125 1037.81787109375 1035.68432617188 1040.24951171875 1026.56909179688 1030.44934082031 1032.40979003906 1030.13122558594 1038.21166992188 1036.36193847656 1038.72302246094 1025.18408203125 1036.07312011719 1028.41809082031 1028.63696289062 1030.94702148438 1031.48034667969 1032.20947265625 1030.97937011719 1027.64294433594 1019.68292236328 1017.29962158203 1013.37274169922 1012.67736816406 1013.69848632812 1008.71520996094 1009.94348144531 1003.22564697266 1003.82354736328
949.837158203125 943.294555664062 946.4306640625 956.10595703125 952.457763671875 947.997253417969 950.356018066406 945.919982910156 939.325622558594 934.209838867188 951.327880859375 961.996337890625 968.465881347656 963.6591796875 972.328857421875 974.66015625 953.677795410156 949.330017089844 955.9228515625 951.619567871094 958.357666015625 958.424865722656 957.014892578125 948.534423828125 943.1943359375 944.2783203125 945.0615234375 950.569274902344 956.948425292969 954.150024414062 948.958251953125 952.791320800781 954.387329101562 960.199768066406 954.212585449219 958.974975585938 960.834167480469 965.343139648438 966.636901855469 971.256042480469 971.4384765625 963.014831542969 962.613830566406 970.59619140625 973.457458496094 973.71728515625 982.827697753906 986.919189453125 985.393005371094 984.411804199219 991.0986328125 980.507507324219 976.730102539062 970.365661621094 966.982482910156 972.94677734375 971.19970703125 982.864501953125 977.470886230469 975.41015625 967.522338867188 976.695068359375 981.4609375 980.425170898438 975.752746582031 973.733764648438 969.39306640625 969.062438964844 973.633361816406 977.717956542969 984.365966796875 980.130981445312 985.904663085938 979.267272949219 974.522399902344 975.448425292969 973.303283691406 981.627380371094 982.857788085938 980.061828613281 983.441589355469 989.321350097656 988.4814453125 989.7939453125 986.759521484375 980.966552734375 978.629760742188 984.638610839844 977.346496582031 973.884399414062 968.822875976562 972.983276367188 973.875061035156 975.10009765625 980.146728515625 993.7001953125 992.478332519531 1005.17791748047 997.441467285156 997.798400878906 998.726867675781 1002.40118408203 993.521728515625 993.948486328125 995.644165039062 1002.63543701172 1000.49816894531 1005.57098388672 1001.36016845703 1009.11981201172 1010.61041259766 1013.47686767578 1017.28112792969 1026.88061523438 1039.43859863281 1030.07421875 1024.26013183594 1025.21228027344 1034.4970703125 1040.06188964844 1049.00061035156 1044.89929199219 1040.97631835938 1038.43249511719 1033.38049316406 1026.86889648438 1027.64636230469 1022.22235107422 1021.71942138672 1034.38134765625 1028.38439941406 1032.42529296875 1027.14929199219 1033.00817871094 1026.91931152344 1026.50500488281 1023.60003662109 1020.48303222656 1020.71899414062 1025.04296875 1018.24743652344 1011.73248291016 1016.36419677734 1009.97015380859 1007.46765136719 1010.74395751953 1010.42016601562 1002.41827392578 1003.22857666016 1004.44323730469
945.720336914062 945.614440917969 946.893676757812 950.760131835938 946.5400390625 942.793029785156 941.342834472656 943.286560058594 936.196105957031 941.908874511719 948.3232421875 955.462219238281 965.838745117188 970.079895019531 970.305725097656 966.241577148438 956.550476074219 958.088195800781 962.602844238281 958.486267089844 955.981079101562 958.89404296875 967.507690429688 955.285034179688 953.721069335938 953.94287109375 956.783142089844 953.6376953125 950.216796875 952.880615234375 947.754821777344 945.861450195312 949.259887695312 953.522521972656 953.464233398438 956.615417480469 959.2939453125 970.89794921875 972.142639160156 976.004943847656 968.479125976562 963.173034667969 966.824157714844 983.497497558594 985.146118164062 984.558166503906 989.364074707031 992.115966796875 990.693176269531 990.668518066406 986.055358886719 979.629150390625 974.923034667969 976.186218261719 976.437377929688 975.788940429688 985.605346679688 975.296020507812 975.506958007812 973.128234863281 966.208923339844 973.430725097656 975.592956542969 973.393737792969 968.796630859375 967.9287109375 969.408264160156 968.796081542969 972.681396484375 978.241027832031 980.728698730469 985.567749023438 979.964294433594 981.978576660156 982.056884765625 977.996459960938 977.604858398438 986.893981933594 985.185913085938 982.891540527344 983.236083984375 991.719177246094 991.268737792969 994.187622070312 992.61572265625 990.779296875 991.856506347656 988.270080566406 982.96923828125 976.985900878906 976.69287109375 976.900939941406 985.473693847656 982.69287109375 992.474731445312 995.519592285156 996.779724121094 999.309814453125 1001.56182861328 1002.80346679688 999.177551269531 997.01318359375 995.8603515625 993.827758789062 998.316284179688 1000.22198486328 1002.62689208984 1005.44750976562 1008.13940429688 1011.55749511719 1015.22564697266 1014.61981201172 1023.58880615234 1023.56890869141 1027.93444824219 1035.84899902344 1033.63391113281 1027.50512695312 1041.89367675781 1041.03173828125 1042.06896972656 1041.94299316406 1039.87109375 1039.95947265625 1038.88732910156 1030.29150390625 1022.58599853516 1013.85803222656 1021.14916992188 1024.9541015625 1024.74011230469 1028.90222167969 1027.8779296875 1023.24261474609 1019.82922363281 1021.60260009766 1010.09979248047 1007.57495117188 1020.45495605469 1015.89105224609 1014.39556884766 1011.33172607422 1011.05303955078 1006.03704833984 1007.48858642578 1000.00946044922 1000.64709472656 994.8837890625 998.020324707031 1001.75927734375
951.351806640625 948.971557617188 951.762939453125 948.583068847656 951.719177246094 946.491943359375 940.30029296875 947.453735351562 939.546203613281 939.758972167969 946.830444335938 962.752990722656 963.674682617188 969.028442382812 971.997436523438 962.604736328125 963.825927734375 962.985900878906 970.250244140625 964.770874023438 967.926452636719 959.863464355469 961.592224121094 967.786865234375 971.957702636719 962.048889160156 958.002807617188 955.621276855469 952.57958984375 948.094299316406 953.153686523438 961.448791503906 951.391235351562 958.428405761719 959.496459960938 965.759033203125 966.933654785156 974.185607910156 976.499816894531 982.215759277344 974.855407714844 968.106750488281 974.333618164062 979.839904785156 984.156677246094 992.74072265625 987.414489746094 990.402465820312 986.401245117188 997.237548828125 989.05908203125 985.720153808594 982.295593261719 986.176452636719 983.12841796875 978.917053222656 979.143615722656 967.318420410156 974.647827148438 972.465393066406 969.410461425781 982.630187988281 983.417785644531 974.914978027344 969.503540039062 966.794860839844 971.496643066406 978.319274902344 979.373474121094 979.106201171875 978.17919921875 978.561889648438 977.232849121094 984.213928222656 978.971008300781 976.964233398438 982.414123535156 979.046997070312 982.871765136719 982.258056640625 979.286254882812 993.015258789062 982.273864746094 990.913635253906 987.829528808594 987.699340820312 995.002319335938 994.781005859375 989.759399414062 978.274230957031 979.0888671875 981.761047363281 978.131713867188 985.506286621094 988.6240234375 990.272827148438 991.630249023438 997.0068359375 1000.04010009766 995.592712402344 987.24853515625 993.490844726562 987.510620117188 1001.41339111328 997.240966796875 1005.14086914062 1017.71862792969 1009.84051513672 1009.35125732422 1011.70709228516 1013.67272949219 1016.38702392578 1026.04370117188 1023.47094726562 1035.1416015625 1036.93432617188 1036.08544921875 1034.88806152344 1030.07250976562 1042.95446777344 1049.84069824219 1038.59326171875 1050.27844238281 1041.90734863281 1039.33776855469 1033.02111816406 1018.87060546875 1012.47265625 1014.49291992188 1015.46960449219 1018.42651367188 1021.27642822266 1026.04089355469 1019.61254882812 1024.72375488281 1014.21124267578 1009.60693359375 1004.85546875 1011.09686279297 1001.70733642578 1011.55712890625 1004.01031494141 1011.98077392578 1005.60095214844 999.623718261719 992.68603515625 999.081909179688 991.984252929688 996.626647949219 1000.41400146484
940.286376953125 950.644653320312 949.228332519531 951.052001953125 948.422058105469 941.199951171875 935.126037597656 940.903930664062 941.59375 947.072204589844 956.701477050781 956.311340332031 964.692321777344 973.713989257812 973.258911132812 965.959167480469 971.837585449219 970.434265136719 973.345397949219 975.936279296875 979.449523925781 968.15478515625 961.278381347656 966.114624023438 971.025512695312 957.965148925781 959.746948242188 947.984741210938 956.705932617188 951.898132324219 962.409423828125 957.166931152344 961.029113769531 955.192565917969 963.909912109375 961.583801269531 963.987426757812 966.472229003906 976.041809082031 980.800476074219 974.9423828125 969.173278808594 971.67724609375 980.567016601562 989.181335449219 986.27392578125 990.008911132812 987.277221679688 993.306579589844 998.569030761719 994.3408203125 985.88916015625 982.167236328125 980.685180664062 979.674194335938 974.166442871094 977.041564941406 974.512573242188 973.735229492188 971.369140625 971.026794433594 980.101867675781 974.565063476562 972.777770996094 968.262023925781 974.810180664062 969.194763183594 976.6875 979.100158691406 976.29541015625 978.815246582031 980.361999511719 976.209838867188 975.277282714844 976.193542480469 977.664672851562 988.830810546875 983.337951660156 983.973815917969 983.268188476562 979.363342285156 981.731872558594 983.116027832031 988.119873046875 983.405334472656 989.657775878906 993.642211914062 987.712158203125 986.845092773438 978.566040039062 977.7119140625 978.800537109375 987.528015136719 989.854370117188 986.321533203125 985.899230957031 995.071105957031 1004.09332275391 991.755676269531 998.850708007812 989.172119140625 989.828430175781 996.290832519531 1008.05108642578 1008.03179931641 1007.41296386719 1007.88800048828 1009.49237060547 1019.15643310547 1023.5615234375 1022.79144287109 1019.34759521484 1032.72412109375 1027.76831054688 1028.51110839844 1029.63659667969 1041.26953125 1037.8125 1033.16625976562 1036.92431640625 1041.94836425781 1041.12829589844 1039.71105957031 1037.71179199219 1041.27844238281 1031.283203125 1024.46667480469 1023.66088867188 1021.81341552734 1016.50347900391 1016.28509521484 1010.39300537109 1018.75305175781 1015.66204833984 1016.24914550781 1013.46166992188 1012.5380859375 1008.75054931641 1004.58288574219 1005.27410888672 1006.17205810547 1002.48461914062 1003.28674316406 1001.53601074219 996.830261230469 1000.02416992188 993.899047851562 989.4033203125 993.260986328125 1002.35205078125
934.319702148438 940.593994140625 948.129211425781 949.138305664062 940.68408203125 927.410217285156 924.42333984375 937.813415527344 946.162780761719 950.300354003906 956.498901367188 963.031005859375 963.758850097656 968.256958007812 965.080627441406 966.806213378906 976.313598632812 972.558349609375 980.852783203125 981.083190917969 980.064392089844 972.815979003906 969.004089355469 965.705932617188 957.512023925781 959.105041503906 955.640747070312 953.815368652344 954.425048828125 952.994567871094 961.0478515625 965.491271972656 969.005065917969 961.974243164062 966.517150878906 965.747985839844 967.712524414062 965.368286132812 973.134582519531 977.602478027344 975.8486328125 977.099548339844 973.028076171875 984.464294433594 983.986389160156 995.589477539062 994.465087890625 997.712158203125 998.379333496094 1005.46221923828 992.700561523438 987.247924804688 973.208190917969 982.366638183594 981.174011230469 979.1865234375 972.866455078125 984.904357910156 980.438842773438 974.377807617188 966.360107421875 965.408569335938 966.97216796875 969.437377929688 967.55224609375 971.236938476562 977.902587890625 976.348388671875 980.572631835938 982.273498535156 978.577941894531 983.663818359375 985.289916992188 985.375305175781 988.7490234375 984.161315917969 986.238342285156 987.892883300781 983.523559570312 981.220336914062 984.046203613281 975.000793457031 977.687194824219 971.870666503906 972.515930175781 990.336547851562 985.633056640625 985.099487304688 988.123229980469 984.747314453125 985.055236816406 971.776123046875 978.133728027344 976.589416503906 988.408752441406 993.488525390625 1011.70959472656 1006.28295898438 1003.06329345703 1001.00396728516 991.527587890625 997.391845703125 993.544067382812 1012.08288574219 1019.59973144531 1006.9736328125 1014.33056640625 1021.45910644531 1015.45013427734 1018.29461669922 1020.95111083984 1018.63513183594 1032.00524902344 1023.44653320312 1028.27770996094 1031.60705566406 1030.5068359375 1032.49182128906 1030.92895507812 1037.29455566406 1040.07458496094 1046.67529296875 1042.9443359375 1044.74743652344 1041.16931152344 1034.63525390625 1036.12023925781 1031.03491210938 1028.71850585938 1016.09265136719 1005.46026611328 1016.50842285156 1014.18353271484 1012.39898681641 1016.37274169922 1008.33966064453 1013.515625 1012.1201171875 1008.45935058594 1008.72442626953 1002.908203125 998.9228515625 1003.36517333984 997.698181152344 990.629211425781 985.087097167969 994.138427734375 990.740295410156 986.458557128906 989.388549804688
922.262634277344 940.696105957031 939.329467773438 941.282470703125 935.516906738281 924.100708007812 924.84228515625 938.34521484375 942.773803710938 947.125854492188 950.84423828125 957.381164550781 954.614318847656 967.803344726562 967.6708984375 972.393737792969 971.424072265625 980.65771484375 978.386352539062 987.347534179688 985.668518066406 974.152404785156 979.96484375 965.335815429688 955.819702148438 956.383361816406 956.243347167969 951.801025390625 951.396606445312 950.364929199219 966.644775390625 971.112854003906 966.746643066406 965.493957519531 973.229553222656 960.496826171875 969.511169433594 968.782287597656 973.136474609375 978.585876464844 976.31103515625 978.850280761719 982.266174316406 993.626708984375 995.39013671875 1002.11743164062 998.235900878906 1009.16900634766 1006.82165527344 997.898193359375 990.207885742188 982.058044433594 977.425354003906 982.806579589844 982.166564941406 981.048583984375 986.411437988281 984.552551269531 981.220520019531 967.234008789062 968.400024414062 969.163452148438 971.797424316406 971.900329589844 971.971313476562 974.409118652344 978.514221191406 983.096618652344 978.718444824219 978.825500488281 981.36865234375 986.527648925781 989.156005859375 987.360290527344 989.344177246094 987.639221191406 994.863708496094 985.955444335938 986.898742675781 978.7939453125 973.524963378906 979.322021484375 978.769836425781 968.812805175781 988.438110351562 985.784851074219 986.476013183594 983.621887207031 995.933715820312 985.073913574219 981.18408203125 974.936828613281 978.522094726562 981.064880371094 985.745239257812 997.025817871094 1003.73278808594 1003.34936523438 1009.77966308594 1005.37652587891 1007.94329833984 1018.96783447266 1008.74438476562 1003.01135253906 1009.91778564453 1019.79681396484 1013.56243896484 1020.64807128906 1019.185546875 1009.56011962891 1018.68176269531 1025.03283691406 1029.80615234375 1024.38195800781 1028.62573242188 1024.767578125 1024.25317382812 1030.05004882812 1027.14709472656 1031.146484375 1039.5478515625 1043.75939941406 1044.92529296875 1041.56079101562 1030.25463867188 1033.21362304688 1037.56860351562 1027.74475097656 1021.49682617188 1008.79949951172 998.171569824219 1004.65734863281 1000.83215332031 1001.65704345703 1000.93353271484 1008.87707519531 1016.38092041016 1011.08557128906 1012.9580078125 1007.84362792969 1004.51208496094 1000.99291992188 1005.6884765625 1005.20721435547 1000.78094482422 998.107788085938 991.1435546875 1001.45263671875 991.15283203125 989.199523925781
934.70068359375 933.040100097656 937.334594726562 931.841979980469 932.499633789062 938.367919921875 931.579650878906 932.431579589844 933.819702148438 937.8525390625 947.886413574219 952.011352539062 969.729675292969 976.514465332031 979.248107910156 977.324645996094 974.000122070312 978.593933105469 984.062622070312 986.024291992188 984.698303222656 981.309020996094 971.075073242188 968.146179199219 967.943298339844 960.531127929688 963.060119628906 959.737976074219 957.685974121094 955.533935546875 967.274169921875 969.606567382812 972.706481933594 977.817626953125 977.718078613281 973.449523925781 977.651916503906 978.2978515625 978.948059082031 984.737487792969 979.871826171875 982.126953125 995.084228515625 996.753051757812 1000.59692382812 1011.00830078125 1005.61431884766 1004.39239501953 1003.69390869141 1001.78088378906 989.383178710938 975.434814453125 971.009765625 979.051330566406 984.892395019531 975.60888671875 981.963806152344 984.549438476562 981.760375976562 977.283020019531 979.771850585938 972.890319824219 977.411865234375 971.133178710938 969.814880371094 973.179138183594 986.391357421875 982.430541992188 982.910217285156 979.806579589844 981.627319335938 989.024597167969 983.378540039062 984.654357910156 987.348571777344 992.427978515625 992.855834960938 995.306823730469 992.579162597656 988.921997070312 988.916748046875 981.538269042969 978.783142089844 979.474670410156 991.525329589844 991.495239257812 986.631408691406 988.526306152344 995.845458984375 992.491943359375 982.242858886719 979.033752441406 977.429565429688 976.363708496094 978.816711425781 984.392822265625 994.956726074219 1004.75500488281 1004.46453857422 1004.48791503906 1014.03527832031 1014.45391845703 1011.34442138672 1005.84197998047 1006.55981445312 1016.658203125 1019.68762207031 1023.25756835938 1023.22796630859 1019.86944580078 1027.95397949219 1025.60192871094 1025.45556640625 1030.07104492188 1035.06860351562 1026.73352050781 1018.50402832031 1016.41986083984 1018.17333984375 1021.08166503906 1028.64526367188 1031.26721191406 1038.68322753906 1041.57482910156 1034.52319335938 1024.80407714844 1037.41064453125 1026.6484375 1013.14685058594 1008.93524169922 997.015502929688 1011.03619384766 1005.40509033203 1001.65570068359 1008.90374755859 1014.28839111328 1015.48608398438 1016.39154052734 1005.94708251953 1006.68048095703 997.463073730469 1003.17999267578 987.895568847656 996.113098144531 1007.07000732422 999.859313964844 998.334716796875 1005.490234375 1000.92584228516 1009.52722167969
933.208312988281 921.970825195312 936.635986328125 935.081848144531 929.805480957031 928.188781738281 933.146179199219 933.964599609375 934.840515136719 941.072875976562 935.672607421875 950.376159667969 962.168212890625 974.480712890625 982.932189941406 986.344543457031 977.736755371094 985.110961914062 985.994445800781 994.896362304688 989.604919433594 985.189697265625 978.940368652344 983.795776367188 978.222290039062 971.187805175781 966.793395996094 961.734802246094 970.446716308594 973.038818359375 968.631896972656 968.89990234375 982.022277832031 986.085021972656 981.940856933594 993.11767578125 990.065612792969 993.237915039062 985.557067871094 985.873168945312 993.852966308594 983.202270507812 993.596252441406 988.879638671875 1003.451171875 1013.10693359375 1007.943359375 1009.27819824219 1013.984375 997.658813476562 983.651733398438 982.676940917969 984.528137207031 992.597961425781 983.756164550781 977.915893554688 979.549438476562 978.984130859375 986.168884277344 981.406860351562 978.503845214844 981.941650390625 975.029296875 984.319641113281 975.591857910156 978.914489746094 974.291198730469 978.645751953125 979.67578125 985.246704101562 991.409545898438 988.683227539062 988.784790039062 995.034912109375 994.791015625 998.2275390625 995.38427734375 993.83935546875 1000.92730712891 990.74951171875 989.1005859375 984.311340332031 985.232604980469 985.797973632812 991.836853027344 995.058288574219 985.870910644531 984.869323730469 989.792358398438 993.832153320312 983.455993652344 981.844421386719 987.945068359375 984.411499023438 983.394836425781 989.898315429688 995.519836425781 1003.64105224609 1010.71856689453 1016.4111328125 1017.47698974609 1010.12121582031 1004.77014160156 1008.8330078125 1006.09405517578 1008.62182617188 1019.14520263672 1023.93841552734 1029.20959472656 1027.0654296875 1036.0341796875 1035.33850097656 1024.4228515625 1033.56811523438 1033.98608398438 1028.54602050781 1016.23107910156 1009.87133789062 1014.48962402344 1020.79376220703 1027.80053710938 1026.88073730469 1029.857421875 1035.78747558594 1020.87976074219 1020.82025146484 1029.09216308594 1017.74945068359 1009.79888916016 1007.10296630859 1004.80987548828 1010.58203125 1006.02709960938 1000.70581054688 1013.26916503906 1010.31298828125 1013.24176025391 1004.01104736328 998.317016601562 997.801879882812 997.690124511719 992.330688476562 984.088256835938 984.450134277344 987.556701660156 992.99169921875 993.173278808594 1004.61926269531 1004.1728515625 1008.59002685547
932.656372070312 926.550598144531 923.479125976562 934.746459960938 936.605712890625 931.599914550781 931.609069824219 934.523742675781 941.828674316406 946.212768554688 944.502563476562 953.69140625 960.689636230469 969.506103515625 983.227478027344 981.002807617188 980.051818847656 980.143188476562 986.426574707031 995.98681640625 997.116455078125 991.304321289062 986.392272949219 995.299438476562 985.967468261719 981.136474609375 977.89697265625 971.919128417969 985.044494628906 984.422302246094 982.127685546875 984.220458984375 976.459777832031 984.295288085938 991.419250488281 991.094970703125 985.308349609375 989.989868164062 988.951599121094 992.428039550781 995.875915527344 1003.11853027344 1000.35437011719 1004.98059082031 998.869262695312 1005.57696533203 1006.78216552734 1010.77844238281 1012.08685302734 1002.06829833984 984.424499511719 996.065673828125 995.557312011719 991.954650878906 989.331420898438 979.166198730469 979.997009277344 986.196899414062 979.133850097656 981.555480957031 976.591003417969 980.955688476562 974.927551269531 977.869812011719 979.098937988281 973.071838378906 970.295288085938 970.819641113281 989.989807128906 980.068603515625 987.352600097656 993.99560546875 986.552185058594 992.726806640625 990.495727539062 999.922729492188 995.449035644531 994.79345703125 995.872131347656 995.949340820312 1000.33770751953 997.685363769531 995.590209960938 998.544982910156 1000.94464111328 998.990661621094 992.2822265625 989.597473144531 985.722045898438 986.150451660156 986.592712402344 985.400573730469 982.35400390625 979.483032226562 980.353149414062 996.877197265625 1008.24938964844 1003.85797119141 1016.28839111328 1012.25469970703 1015.05377197266 1003.80249023438 1001.01556396484 1010.69500732422 1012.52368164062 1023.07147216797 1018.33630371094 1019.32904052734 1032.85827636719 1031.60070800781 1026.95947265625 1037.02795410156 1027.81018066406 1030.65563964844 1032.98962402344 1025.51220703125 1020.57061767578 1015.80700683594 1012.97882080078 1012.26879882812 1009.47082519531 1020.48156738281 1022.92864990234 1024.71179199219 1024.19006347656 1020.37054443359 1013.55700683594 1010.01989746094 1007.78656005859 1001.72369384766 1004.80261230469 1014.48364257812 1013.62750244141 1010.7958984375 1016.18121337891 1018.64245605469 1013.61492919922 999.892517089844 996.160278320312 991.718017578125 993.26708984375 993.075439453125 992.253051757812 990.178405761719 991.439697265625 990.566955566406 983.693725585938 986.511291503906 998.376525878906 999.004089355469
921.516479492188 923.417846679688 923.415832519531 936.868225097656 943.815795898438 930.624755859375 931.985473632812 932.377197265625 940.784240722656 950.399658203125 949.949645996094 955.356994628906 960.790283203125 969.813049316406 976.460571289062 979.530090332031 987.938110351562 986.11572265625 983.749877929688 995.181396484375 996.892211914062 995.787109375 994.531005859375 994.348876953125 997.932556152344 987.630554199219 980.816284179688 988.705993652344 985.47265625 986.606201171875 980.799011230469 987.400146484375 984.966125488281 979.654052734375 987.432800292969 989.58740234375 985.626708984375 990.885437011719 987.784973144531 993.528991699219 997.507019042969 1004.04522705078 1002.65905761719 1009.33117675781 1013.42706298828 1011.28204345703 1013.78533935547 1017.47131347656 1008.51184082031 1005.70233154297 994.114318847656 991.201904296875 993.568481445312 980.409057617188 985.126037597656 981.848388671875 979.152282714844 979.28564453125 978.095825195312 979.9091796875 973.111328125 977.069458007812 984.499755859375 977.435791015625 979.458129882812 970.331970214844 966.063598632812 977.413635253906 986.500061035156 976.482238769531 986.992065429688 983.625427246094 989.09033203125 994.782104492188 996.031066894531 1000.18481445312 995.296142578125 996.618408203125 996.256774902344 997.789306640625 1004.64086914062 1006.61108398438 1004.15472412109 1008.67889404297 996.305236816406 999.813781738281 998.364379882812 985.873962402344 987.881591796875 980.928161621094 984.957458496094 990.301452636719 987.261840820312 986.015625 989.933959960938 1002.04052734375 1003.37152099609 1011.40362548828 1013.16967773438 1009.33923339844 1007.2138671875 1001.28424072266 1003.83795166016 1021.91674804688 1018.89349365234 1022.29418945312 1021.17376708984 1024.87377929688 1030.27062988281 1035.42126464844 1030.70629882812 1041.24230957031 1040.75183105469 1038.080078125 1036.38244628906 1026.74597167969 1024.28430175781 1014.73120117188 1009.84997558594 1008.76416015625 1005.65679931641 1011.76452636719 1012.73968505859 1018.10113525391 1010.81420898438 1011.00134277344 1004.06646728516 1010.03259277344 1002.46478271484 1003.96636962891 1014.62194824219 1013.29327392578 1008.23132324219 1019.43365478516 1014.41357421875 1012.15057373047 1006.29064941406 1000.95715332031 992.469360351562 987.559448242188 992.230895996094 993.897644042969 986.802673339844 986.595642089844 991.8623046875 987.04345703125 982.559143066406 981.404907226562 988.0771484375 983.079895019531
930.253723144531 931.745178222656 934.588806152344 942.795654296875 936.198547363281 933.488586425781 939.081115722656 933.085876464844 944.860168457031 959.478820800781 958.214599609375 969.856872558594 971.743408203125 979.738647460938 971.697509765625 978.23583984375 979.760620117188 977.97021484375 985.324279785156 977.602111816406 978.595458984375 985.971862792969 989.072937011719 988.965270996094 986.475769042969 991.544738769531 993.888671875 992.305847167969 986.8984375 985.876281738281 983.033142089844 984.347534179688 989.042236328125 985.161926269531 986.399658203125 987.832458496094 979.052185058594 982.999145507812 982.491638183594 985.368347167969 998.217590332031 1005.02044677734 1000.44500732422 1011.29486083984 1016.18048095703 1008.92327880859 1007.06225585938 1008.07293701172 1014.51989746094 998.722412109375 998.456726074219 1003.08990478516 1000.23181152344 983.75146484375 982.078552246094 980.916870117188 977.112609863281 982.548522949219 981.171020507812 971.534362792969 973.4716796875 975.456115722656 971.139892578125 976.266906738281 978.423461914062 978.305053710938 967.486328125 975.629760742188 975.307678222656 979.153930664062 979.523071289062 985.891784667969 986.751953125 990.598571777344 991.591186523438 989.54052734375 997.820739746094 997.490844726562 1006.03631591797 1002.19592285156 1007.58642578125 1008.36798095703 1016.57061767578 1015.36004638672 1005.07513427734 998.161926269531 998.893371582031 998.760070800781 992.265075683594 991.166015625 991.293212890625 988.664611816406 982.309020996094 980.811462402344 989.342651367188 993.520324707031 995.387145996094 1003.29412841797 1005.96820068359 1003.91693115234 1001.73791503906 1006.26525878906 1007.12908935547 1003.92657470703 1016.47229003906 1016.00366210938 1021.21215820312 1017.10650634766 1030.06066894531 1035.63171386719 1026.71325683594 1040.09301757812 1039.76477050781 1032.44396972656 1035.65100097656 1030.22985839844 1025.52673339844 1014.29107666016 1008.50549316406 1005.15472412109 997.325988769531 1010.62426757812 1015.56115722656 1006.81750488281 1002.08410644531 1003.04266357422 1002.87896728516 1006.23846435547 1006.66876220703 1004.89984130859 1002.14056396484 1001.13714599609 1004.40356445312 1012.71600341797 1007.25054931641 1000.20819091797 992.562927246094 986.891540527344 993.912109375 994.356018066406 989.230224609375 989.047668457031 988.479553222656 990.167297363281 994.387512207031 980.121215820312 964.024169921875 978.466674804688 973.632202148438 984.661071777344
939.994262695312 935.8642578125 937.402221679688 944.263122558594 937.718627929688 936.636840820312 938.569885253906 941.294311523438 953.227478027344 961.234680175781 965.483215332031 962.381652832031 968.91796875 974.167419433594 976.836547851562 977.674133300781 983.297729492188 979.915100097656 980.909729003906 978.458374023438 975.171752929688 976.609497070312 986.399108886719 982.419494628906 986.289978027344 990.619140625 996.365234375 983.627807617188 991.310241699219 984.779235839844 981.82177734375 985.970458984375 984.251403808594 986.367431640625 984.675048828125 980.82421875 983.18798828125 981.762756347656 992.044860839844 986.661743164062 993.550415039062 996.707946777344 1009.66619873047 1002.84539794922 1003.83734130859 1013.40643310547 1009.43853759766 1011.81036376953 1009.30859375 1008.19641113281 1001.39361572266 1003.22869873047 1006.20300292969 994.967163085938 984.3935546875 982.409973144531 978.914123535156 986.481750488281 983.866638183594 983.011779785156 972.621887207031 975.071350097656 983.302673339844 982.187561035156 981.942687988281 973.298706054688 978.239074707031 977.709899902344 971.943176269531 982.266052246094 976.703552246094 990.060668945312 989.999633789062 990.736328125 987.570678710938 996.43896484375 996.284240722656 1006.02398681641 1008.05859375 1018.44152832031 1012.79522705078 1008.08270263672 1016.20056152344 1017.06793212891 1006.15283203125 1001.69580078125 1007.1044921875 1005.47875976562 999.026489257812 988.806274414062 996.200744628906 977.949951171875 988.121337890625 988.707275390625 994.75 996.099304199219 993.949157714844 992.776733398438 997.474853515625 1001.40338134766 1004.67877197266 1004.40063476562 1002.0009765625 1007.86682128906 1013.13208007812 1016.45892333984 1016.21759033203 1013.44799804688 1021.84399414062 1031.3486328125 1035.03247070312 1032.97192382812 1032.9560546875 1035.64916992188 1027.02514648438 1024.46533203125 1025.56579589844 1024.01147460938 1004.93157958984 997.604614257812 999.081298828125 996.418273925781 1008.53875732422 1005.23016357422 1000.34155273438 1005.091796875 1007.54949951172 1001.1005859375 1000.66625976562 996.504272460938 999.507202148438 998.9580078125 1000.18255615234 1003.58520507812 1014.53576660156 1001.66491699219 994.936706542969 989.700927734375 989.978881835938 995.247436523438 981.003173828125 979.116516113281 994.427917480469 996.195739746094 987.981018066406 983.024230957031 965.435485839844 966.518920898438 965.507873535156 972.267456054688
944.282653808594 949.9912109375 957.169494628906 950.543640136719 947.961730957031 937.532165527344 939.10107421875 949.967468261719 956.068237304688 963.3056640625 963.183654785156 968.221862792969 973.673767089844 982.560668945312 975.096496582031 982.776550292969 983.766784667969 975.461242675781 979.221740722656 988.405883789062 979.665466308594 975.150756835938 981.3125 980.645568847656 985.641174316406 988.394836425781 984.703186035156 987.578491210938 981.7685546875 978.684448242188 981.647644042969 980.801086425781 975.557495117188 978.362915039062 981.738342285156 983.63037109375 982.484191894531 988.008666992188 993.912841796875 984.725219726562 982.332336425781 989.321960449219 998.998657226562 1008.19775390625 998.198913574219 1009.09155273438 1010.70062255859 1006.46105957031 1011.43176269531 1010.84252929688 1006.29919433594 1010.94091796875 1001.8291015625 997.697021484375 987.226623535156 984.203674316406 986.981323242188 979.882995605469 984.629943847656 972.729675292969 977.312194824219 977.317199707031 977.490600585938 978.707458496094 976.507507324219 980.09423828125 967.405822753906 979.473815917969 975.665344238281 978.03173828125 974.786071777344 988.345458984375 989.446716308594 988.544006347656 992.212036132812 999.516906738281 1004.19665527344 1000.32183837891 1006.39483642578 1013.20489501953 1016.08587646484 1010.01531982422 1013.60662841797 1018.55316162109 1008.88903808594 1006.62133789062 1004.98065185547 998.239685058594 996.022399902344 985.950866699219 988.13525390625 984.098937988281 993.684509277344 992.471984863281 996.332702636719 991.128173828125 992.402770996094 982.044799804688 991.04052734375 1001.62872314453 1006.97235107422 1010.83288574219 1012.80291748047 1010.94970703125 1005.28619384766 1008.81231689453 1011.11877441406 1023.8330078125 1013.75036621094 1033.2880859375 1038.59448242188 1037.86315917969 1040.99182128906 1037.58154296875 1035.25134277344 1031.94873046875 1033.27954101562 1025.95227050781 1008.58276367188 1005.81817626953 1008.61431884766 999.172607421875 1000.59368896484 997.427307128906 998.80517578125 993.117431640625 998.610046386719 997.833435058594 1002.77319335938 1000.46917724609 1006.27471923828 990.548034667969 988.485961914062 984.947204589844 993.541381835938 996.626281738281 1002.32202148438 992.260131835938 990.966491699219 992.630676269531 987.43359375 982.10107421875 993.473022460938 993.617919921875 986.694763183594 975.08203125 964.1494140625 959.127868652344 951.426696777344 970.240783691406
949.460388183594 954.605651855469 957.582458496094 952.186889648438 941.969360351562 943.702331542969 938.130798339844 941.530578613281 941.151794433594 954.173400878906 961.7744140625 965.702514648438 972.332702636719 965.560180664062 971.454895019531 976.83349609375 971.557067871094 972.442687988281 973.31005859375 977.296997070312 973.007934570312 975.850219726562 973.65087890625 985.772521972656 980.528198242188 990.787048339844 989.047729492188 992.456176757812 982.678527832031 980.098693847656 989.562072753906 980.423522949219 972.757141113281 974.096069335938 977.087646484375 986.700439453125 994.263549804688 989.326049804688 988.645385742188 986.162170410156 980.7421875 985.124450683594 999.694458007812 995.808654785156 998.314331054688 1000.24755859375 1015.79956054688 1013.25958251953 1015.12060546875 1005.81823730469 1004.19757080078 1004.99780273438 997.736206054688 997.175720214844 991.280700683594 990.779357910156 992.070678710938 986.578674316406 982.9111328125 971.914245605469 970.832641601562 977.392883300781 975.075256347656 977.438232421875 976.967590332031 983.149169921875 978.466613769531 976.393981933594 978.087158203125 977.010314941406 974.77392578125 987.740600585938 988.687561035156 989.162841796875 999.047546386719 1003.13482666016 1005.02600097656 995.707153320312 999.282287597656 1010.75073242188 1005.53326416016 1014.52972412109 1007.85498046875 1010.12170410156 1005.01739501953 1007.28167724609 1001.03924560547 988.622375488281 999.013610839844 1002.46600341797 990.454711914062 992.364135742188 993.022216796875 994.546813964844 995.954956054688 998.455139160156 990.183471679688 984.540588378906 992.590576171875 1002.34100341797 1012.56811523438 1009.76818847656 1007.16735839844 1006.69396972656 1011.16540527344 1008.74450683594 1013.17932128906 1017.97290039062 1025.0107421875 1028.18432617188 1036.92321777344 1041.4443359375 1052.29760742188 1050.48901367188 1048.02514648438 1041.529296875 1035.57202148438 1028.68017578125 1013.43713378906 1013.47216796875 1004.73071289062 1001.36071777344 994.29638671875 991.563415527344 995.367126464844 1003.50109863281 989.547180175781 982.947631835938 997.295837402344 997.991638183594 1005.57983398438 992.108459472656 987.120544433594 987.49755859375 990.582763671875 992.349182128906 997.556091308594 993.375122070312 978.155212402344 983.200561523438 981.252075195312 982.903991699219 978.777465820312 984.102172851562 979.646179199219 973.856079101562 958.238525390625 954.982604980469 957.602722167969 967.858276367188
950.162536621094 955.245361328125 951.690368652344 941.142517089844 935.514282226562 939.795288085938 934.72216796875 938.591857910156 953.083557128906 953.98876953125 964.810913085938 966.085998535156 958.986511230469 959.407043457031 969.628173828125 976.361755371094 969.459289550781 965.515441894531 971.569580078125 968.484436035156 968.885559082031 968.069458007812 975.863525390625 980.866821289062 982.340087890625 988.670104980469 985.299072265625 986.324951171875 982.907836914062 976.058532714844 972.550415039062 982.345458984375 974.670104980469 977.740966796875 979.508422851562 988.108947753906 980.946899414062 988.175903320312 979.001220703125 976.498352050781 975.858642578125 986.403686523438 1004.00616455078 1005.26104736328 1003.76293945312 1000.94793701172 1010.63439941406 1008.43927001953 1009.58404541016 1000.52465820312 1000.814453125 1001.59698486328 994.258178710938 990.825012207031 993.608337402344 983.475830078125 991.828308105469 990.6484375 990.783996582031 990.788146972656 976.819213867188 978.222106933594 979.858215332031 988.819763183594 995.360046386719 977.3623046875 980.768615722656 978.281616210938 977.519470214844 973.326599121094 972.827270507812 986.742980957031 990.971801757812 996.552551269531 988.676391601562 994.842224121094 993.374206542969 988.949035644531 997.84716796875 1001.85028076172 1006.48638916016 1003.38189697266 1004.54779052734 1003.20684814453 1007.12396240234 998.446105957031 995.706970214844 999.871643066406 994.404418945312 1003.05383300781 1000.19195556641 997.691101074219 1001.47302246094 993.935913085938 989.593444824219 995.754150390625 998.371276855469 988.899536132812 992.453002929688 997.2021484375 1007.59613037109 1012.23779296875 1005.81799316406 996.473571777344 1000.90423583984 1007.11181640625 1011.41448974609 1017.38800048828 1021.36138916016 1024.19360351562 1038.2529296875 1050.53784179688 1056.62145996094 1052.22729492188 1053.39233398438 1050.29028320312 1042.12048339844 1030.13195800781 1018.85662841797 1014.74261474609 1012.28314208984 1005.59112548828 1001.36407470703 993.643798828125 991.436828613281 990.112426757812 985.850646972656 992.362670898438 995.984985351562 1000.69299316406 1000.36175537109 992.173461914062 987.355529785156 985.644165039062 983.3896484375 990.493408203125 985.199951171875 983.386413574219 982.303283691406 984.886840820312 984.541137695312 976.151611328125 972.229919433594 983.8427734375 979.363342285156 974.959899902344 960.405029296875 948.943115234375 958.263854980469 967.875915527344
940.973205566406 950.175109863281 955.374877929688 942.009033203125 940.362426757812 942.040710449219 940.476623535156 948.098388671875 949.366149902344 962.724487304688 957.561767578125 957.424987792969 956.767028808594 956.225891113281 955.99462890625 964.732360839844 966.611938476562 967.168029785156 972.500732421875 972.65625 966.879577636719 963.696533203125 977.82958984375 975.47021484375 977.340942382812 973.965209960938 979.394104003906 976.551086425781 978.697326660156 970.074035644531 975.965087890625 979.826538085938 979.841552734375 984.127258300781 981.595642089844 980.740356445312 982.291625976562 977.698364257812 974.19189453125 975.723510742188 978.21875 993.09228515625 996.528381347656 1005.95233154297 1001.40222167969 1001.65771484375 1007.87170410156 1000.28045654297 1009.52081298828 1003.56945800781 1000.33612060547 1002.81481933594 999.649169921875 998.7626953125 999.362365722656 991.195983886719 987.718017578125 986.223693847656 991.523864746094 985.599365234375 978.021362304688 984.724426269531 987.009826660156 989.832275390625 991.688354492188 983.900817871094 982.986999511719 989.434753417969 982.851257324219 986.410339355469 981.956481933594 986.237548828125 987.829040527344 993.933898925781 988.339660644531 992.092529296875 988.851806640625 993.296264648438 1004.8076171875 998.965698242188 996.0751953125 992.049865722656 1001.00695800781 994.571533203125 1006.86547851562 997.60009765625 998.124206542969 1000.57281494141 997.339721679688 1003.59545898438 1005.07690429688 1002.08148193359 998.870483398438 993.87158203125 1000.94525146484 1000.2958984375 1005.38226318359 1002.24334716797 1003.34381103516 1001.66668701172 1004.21887207031 1014.33605957031 1006.14471435547 999.381103515625 1007.62725830078 1007.13171386719 1018.60534667969 1021.70599365234 1027.29968261719 1025.88830566406 1039.23522949219 1050.70434570312 1053.87951660156 1051.65661621094 1052.06274414062 1047.49145507812 1046.9150390625 1036.34887695312 1026.45825195312 1023.39849853516 1010.66809082031 1004.88098144531 996.815246582031 992.813049316406 984.688354492188 987.284484863281 986.570129394531 988.836303710938 992.386840820312 993.573486328125 991.874694824219 990.735595703125 994.4912109375 992.165100097656 988.353332519531 981.512939453125 987.703308105469 990.7412109375 987.803894042969 976.0009765625 984.481750488281 976.239379882812 979.892028808594 979.233093261719 971.559814453125 974.779846191406 964.940612792969 961.392700195312 970.40869140625 969.849548339844
