NCOLS 150
NROWS 37
XLLCORNER 7394249
YLLCORNER 4843499
CELLSIZE 30
NODATA_VALUE -9999
990.801147460938 983.22265625 989.21875 989.10400390625 981.219360351562 976.999389648438 990.045715332031 994.284606933594 988.400268554688 980.639526367188 980.292541503906 972.848510742188 977.689880371094 983.889892578125 993.131469726562 994.09423828125 1000.80358886719 1000.16259765625 1006.88879394531 999.245056152344 1001.07757568359 994.828308105469 989.407470703125 991.299865722656 984.51904296875 988.10107421875 988.420166015625 995.482543945312 1002.52563476562 1008.32250976562 1015.71362304688 1024.607421875 1025.92565917969 1028.6591796875 1037.58837890625 1039.11743164062 1025.45239257812 1031.2373046875 1036.08520507812 1037.51037597656 1034.08203125 1024.65563964844 1036.2802734375 1029.12182617188 1019.904296875 1014.99475097656 1008.88409423828 1010.66375732422 1010.83239746094 1013.01025390625 1006.80651855469 1002.00354003906 1005.41741943359 1009.78265380859 1009.69183349609 1014.57452392578 1007.98895263672 1016.81799316406 1016.79302978516 1013.1611328125 1012.39276123047 1011.13232421875 1005.98486328125 1020.49597167969 1011.30865478516 1012.08093261719 1010.58575439453 1014.96215820312 1010.96716308594 1003.130859375 996.412658691406 995.602355957031 1000.12426757812 1011.32238769531 1024.18676757812 1024.33264160156 1024.30981445312 1029.34301757812 1028.36767578125 1027.72900390625 1028.62561035156 1023.21282958984 1025.56970214844 1018.18859863281 1012.04962158203 997.6552734375 987.194274902344 979.704162597656 967.304504394531 957.945251464844 948.341735839844 948.856506347656 938.669860839844 942.564697265625 941.86767578125 935.604370117188 939.929992675781 940.508911132812 948.628051757812 943.265747070312 951.07177734375 945.487365722656 947.17041015625 946.142639160156 949.557922363281 951.362670898438 954.744934082031 955.598999023438 957.800537109375 953.31005859375 945.334411621094 936.41064453125 930.669921875 925.8056640625 915.938903808594 915.435913085938 915.559631347656 924.721618652344 929.55029296875 938.876525878906 950.238403320312 948.106262207031 961.010864257812 965.413330078125 977.039611816406 982.55224609375 987.889770507812 997.526550292969 1002.06549072266 1012.30181884766 1024.26110839844 1029.50964355469 1032.67224121094 1033.03210449219 1052.95861816406 1053.76623535156 1061.22497558594 1081.32006835938 1085.17395019531 1091.59655761719 1095.57922363281 1102.54663085938 1110.32250976562 1122.62683105469 1122.44860839844 1119.166015625 1116.0205078125 1113.36853027344 1112.54455566406 1115.36279296875
991.012023925781 987.870178222656 986.990417480469 994.093383789062 981.693054199219 983.547241210938 982.211181640625 985.763549804688 984.058410644531 982.3408203125 979.742553710938 974.680053710938 983.282653808594 984.834777832031 988.470275878906 984.152404785156 993.960571289062 992.194702148438 996.076721191406 995.132263183594 993.917785644531 982.681823730469 985.847229003906 984.442749023438 983.455444335938 987.750305175781 993.10986328125 988.01611328125 996.292358398438 1011.48754882812 1011.39727783203 1013.95672607422 1024.87878417969 1022.97857666016 1025.20910644531 1034.41540527344 1031.4921875 1033.90612792969 1036.01428222656 1044.60607910156 1036.54553222656 1039.09350585938 1037.94750976562 1033.80969238281 1022.53894042969 1021.86145019531 1019.40447998047 1012.88128662109 1007.75476074219 1011.33264160156 1011.19482421875 1004.68304443359 1006.49481201172 1008.7099609375 1011.00823974609 1018.38531494141 1010.71905517578 1015.43096923828 1015.04791259766 1021.69909667969 1017.89202880859 1014.03179931641 1021.07928466797 1020.65466308594 1021.22821044922 1026.19323730469 1029.59057617188 1021.84063720703 1010.74078369141 1006.60467529297 989.429077148438 997.224243164062 1002.17279052734 1009.84527587891 1016.05609130859 1030.27111816406 1036.53515625 1032.33752441406 1035.05505371094 1028.14221191406 1030.13549804688 1031.98205566406 1025.23608398438 1018.24475097656 1011.87353515625 1003.90612792969 986.109191894531 983.359191894531 979.036926269531 957.016052246094 946.983215332031 948.261596679688 946.348083496094 944.642822265625 945.151611328125 936.321411132812 946.369750976562 946.788818359375 950.99267578125 954.252868652344 954.979553222656 957.706420898438 948.764099121094 954.893493652344 958.535888671875 957.162475585938 954.205200195312 968.001647949219 962.365112304688 960.115112304688 956.950988769531 946.312622070312 938.204650878906 923.829284667969 919.97705078125 909.33349609375 909.0732421875 919.774841308594 938.347534179688 943.871154785156 948.353271484375 952.545837402344 965.706970214844 969.431396484375 977.972534179688 990.689575195312 996.053588867188 1003.58172607422 1012.51806640625 1014.16668701172 1029.31909179688 1029.89343261719 1030.29455566406 1035.93359375 1055.11340332031 1056.49365234375 1067.97607421875 1078.66540527344 1087.41662597656 1079.94360351562 1094.34423828125 1101.35400390625 1102.76391601562 1102.48425292969 1112.41784667969 1112.95336914062 1112.8623046875 1114.59130859375 1106.67468261719 1112.21813964844
985.310913085938 987.648376464844 984.035400390625 991.445617675781 986.827453613281 985.024108886719 996.978820800781 990.310668945312 991.904235839844 984.48974609375 981.753479003906 968.747619628906 976.005859375 980.20068359375 986.299560546875 982.59765625 980.122741699219 982.56494140625 989.029235839844 980.674011230469 968.370849609375 971.764953613281 978.288818359375 980.237426757812 982.3447265625 983.673461914062 993.956481933594 995.182678222656 997.493957519531 1012.80914306641 1023.74462890625 1021.18792724609 1023.94329833984 1030.43505859375 1030.3798828125 1036.61364746094 1034.58642578125 1040.2119140625 1039.21154785156 1038.07165527344 1041.498046875 1032.619140625 1041.70520019531 1033.59057617188 1023.21032714844 1021.60229492188 1016.59228515625 1019.69812011719 1016.86071777344 1008.34509277344 1011.21514892578 1013.92993164062 1011.89508056641 1015.25885009766 1009.34368896484 1007.98950195312 1018.23321533203 1012.13562011719 1023.88677978516 1020.85076904297 1027.35046386719 1023.69226074219 1026.21313476562 1028.04406738281 1025.76696777344 1027.87512207031 1034.02990722656 1025.33776855469 1024.11682128906 1017.70104980469 1003.62805175781 996.448120117188 1004.43334960938 1013.48992919922 1031.87622070312 1027.95483398438 1024.96484375 1034.54272460938 1035.41796875 1027.69897460938 1029.58569335938 1031.70385742188 1027.24353027344 1031.82409667969 1015.68988037109 1005.20123291016 1006.06842041016 982.767150878906 974.171691894531 957.779052734375 933.973571777344 945.135009765625 949.259338378906 954.321655273438 950.541198730469 948.762451171875 957.93603515625 965.174865722656 965.064147949219 971.7939453125 961.432312011719 959.919006347656 960.318481445312 957.376953125 953.214477539062 959.355163574219 962.243530273438 972.76220703125 968.873413085938 969.488708496094 964.326110839844 960.806823730469 943.56787109375 936.98974609375 924.841125488281 905.900634765625 910.118408203125 918.690551757812 933.828186035156 942.993469238281 948.475463867188 967.990478515625 969.035766601562 984.627014160156 987.873046875 1000.30291748047 999.852416992188 1012.38122558594 1024.31604003906 1020.47375488281 1029.83435058594 1033.98193359375 1030.4208984375 1039.31115722656 1056.80615234375 1059.51647949219 1071.61657714844 1076.90783691406 1083.46057128906 1077.70581054688 1087.50939941406 1096.32946777344 1101.83557128906 1101.93774414062 1102.10693359375 1110.81420898438 1121.1171875 1108.4228515625 1105.35437011719 1106.70068359375
987.555969238281 980.698913574219 976.803283691406 982.098571777344 983.415344238281 980.539672851562 978.144897460938 984.398620605469 987.44580078125 989.60009765625 979.279602050781 969.397827148438 977.241760253906 977.68896484375 966.088928222656 967.223327636719 975.569030761719 972.266967773438 971.311584472656 970.137023925781 965.137084960938 965.709411621094 971.273864746094 976.013427734375 977.663024902344 983.710510253906 995.379699707031 996.223693847656 1003.83679199219 1008.61737060547 1026.49768066406 1022.94354248047 1027.29638671875 1031.28955078125 1035.70947265625 1044.51049804688 1043.48828125 1043.939453125 1044.32495117188 1045.43566894531 1038.37243652344 1025.58898925781 1033.35095214844 1035.85290527344 1025.02648925781 1026.8310546875 1018.38452148438 1013.50268554688 1008.22650146484 1009.1240234375 1011.5986328125 1014.00805664062 1014.09838867188 1014.43402099609 1013.40496826172 1005.28302001953 1019.61431884766 1024.68115234375 1017.47540283203 1026.11633300781 1031.18884277344 1021.55065917969 1029.90979003906 1015.12872314453 1019.5712890625 1025.18676757812 1025.7626953125 1026.92224121094 1022.09027099609 1017.45599365234 1006.57830810547 1003.85430908203 1006.61260986328 1018.56024169922 1011.49029541016 1024.59936523438 1023.82122802734 1024.25854492188 1035.14013671875 1025.78173828125 1022.39044189453 1025.07922363281 1027.31274414062 1024.58703613281 1022.92913818359 1019.74249267578 1007.75158691406 995.406860351562 974.981079101562 960.328125 952.396240234375 947.845581054688 957.835021972656 960.721862792969 958.550476074219 963.025390625 979.154907226562 977.785949707031 979.74169921875 974.709228515625 964.980590820312 955.058532714844 958.990478515625 950.392944335938 959.856994628906 963.899658203125 972.917175292969 976.57763671875 977.302795410156 972.971130371094 976.91259765625 962.609619140625 950.100402832031 935.136840820312 925.174133300781 917.157043457031 915.036926269531 923.211486816406 937.880615234375 943.272338867188 955.433471679688 963.848327636719 970.912658691406 981.23046875 991.164184570312 1001.36669921875 1012.45355224609 1026.10424804688 1034.31774902344 1029.38513183594 1040.32153320312 1031.08923339844 1033.31872558594 1040.5087890625 1047.77746582031 1070.115234375 1079.17163085938 1081.57495117188 1081.11962890625 1079.74475097656 1087.55932617188 1089.40209960938 1093.98486328125 1091.45483398438 1096.96667480469 1109.02307128906 1112.1044921875 1108.11181640625 1111.60437011719 1109.31481933594
979.391540527344 980.459289550781 974.219482421875 976.8857421875 979.605163574219 977.854858398438 983.577758789062 989.4111328125 986.99951171875 980.968811035156 984.791564941406 972.846008300781 978.054016113281 970.502746582031 963.767517089844 966.296691894531 973.208251953125 971.018310546875 972.268371582031 968.209106445312 961.137023925781 964.140869140625 968.206481933594 976.000244140625 982.108276367188 979.11376953125 985.072814941406 996.056579589844 999.159362792969 1010.87176513672 1013.47253417969 1025.07458496094 1031.20349121094 1044.40515136719 1042.99914550781 1053.02807617188 1057.85693359375 1046.79772949219 1049.05114746094 1049.03356933594 1039.73889160156 1039.00158691406 1031.73571777344 1027.10290527344 1032.86853027344 1020.1005859375 1016.18505859375 1009.12994384766 1005.08380126953 1000.64270019531 1002.07403564453 1011.40850830078 1015.34350585938 1014.16607666016 1012.53765869141 1007.55834960938 1017.42651367188 1013.52917480469 1021.74261474609 1021.20922851562 1023.86462402344 1023.28393554688 1021.63104248047 1015.94622802734 1019.32543945312 1028.859375 1018.95501708984 1024.80029296875 1018.24444580078 1021.12121582031 1015.94732666016 1013.81231689453 1014.07116699219 1014.71398925781 1014.83795166016 1020.39953613281 1023.76049804688 1028.45715332031 1030.31457519531 1024.28381347656 1030.20373535156 1030.56811523438 1020.14141845703 1018.79339599609 1025.181640625 1022.53356933594 1007.53247070312 1001.42785644531 980.772399902344 960.192504882812 954.329345703125 960.076721191406 968.451599121094 963.617126464844 969.730407714844 974.469604492188 974.150634765625 968.685852050781 978.202392578125 971.050231933594 958.46533203125 958.018737792969 955.536926269531 961.723693847656 960.398376464844 969.088562011719 978.671508789062 975.862243652344 977.260864257812 982.804931640625 973.064086914062 969.577514648438 961.399597167969 948.016845703125 940.061889648438 935.396179199219 923.858825683594 937.787841796875 937.191345214844 952.167541503906 966.454467773438 962.565124511719 981.608520507812 991.351196289062 991.531616210938 1009.41394042969 1017.75134277344 1026.90881347656 1031.37915039062 1038.79943847656 1043.52954101562 1035.69775390625 1041.47668457031 1042.45715332031 1048.78491210938 1054.25268554688 1067.2685546875 1074.36291503906 1080.53991699219 1078.41711425781 1086.46301269531 1083.93029785156 1085.232421875 1085.06298828125 1099.54248046875 1105.83850097656 1105.55383300781 1104.21374511719 1103.62927246094 1107.48132324219
974.546203613281 976.055297851562 969.665954589844 977.290222167969 971.71484375 972.845275878906 982.223083496094 987.756164550781 989.205261230469 985.794006347656 979.016845703125 973.539733886719 964.958557128906 962.96337890625 967.171508789062 967.8291015625 977.109680175781 974.313598632812 974.348327636719 971.886840820312 963.353881835938 973.417785644531 973.830078125 985.810546875 986.528442382812 990.200988769531 988.030578613281 1003.77886962891 1004.87902832031 1009.41119384766 1015.57220458984 1028.57971191406 1028.52770996094 1032.93615722656 1033.03662109375 1049.318359375 1050.41186523438 1050.21752929688 1051.81750488281 1042.53527832031 1044.60888671875 1039.05480957031 1036.14794921875 1028.56469726562 1033.68005371094 1016.39337158203 1011.77447509766 1007.90551757812 999.586730957031 1005.24621582031 1008.65936279297 1006.66979980469 1012.80291748047 1016.54418945312 1012.08837890625 1008.31408691406 1011.51666259766 1013.19085693359 1016.16882324219 1012.51800537109 1022.86627197266 1024.77563476562 1020.76965332031 1019.46301269531 1022.38494873047 1026.54187011719 1021.04388427734 1026.28430175781 1025.03588867188 1023.06433105469 1021.07336425781 1024.16149902344 1018.33312988281 1011.91204833984 1010.87750244141 1011.82360839844 1018.07067871094 1019.39947509766 1020.37841796875 1022.53515625 1014.67596435547 1019.92547607422 1019.35113525391 1020.18640136719 1023.60729980469 1018.31372070312 1013.08056640625 1001.62609863281 987.599487304688 976.488525390625 973.103210449219 975.65478515625 970.541259765625 975.85400390625 977.241394042969 977.279357910156 985.477722167969 983.826599121094 970.463195800781 967.640441894531 960.518676757812 962.807800292969 963.241088867188 956.942810058594 962.967102050781 979.249328613281 978.572448730469 976.20068359375 982.587341308594 980.718078613281 970.998229980469 959.609497070312 952.077514648438 946.496765136719 938.273193359375 934.059143066406 932.466491699219 932.359558105469 943.73046875 957.907104492188 968.787170410156 969.659118652344 982.621276855469 984.641418457031 1005.75463867188 1012.22381591797 1017.67944335938 1032.23388671875 1035.07995605469 1031.77661132812 1038.17700195312 1037.08874511719 1048.79370117188 1049.79455566406 1054.32678222656 1059.65966796875 1070.13793945312 1075.63354492188 1081.25 1073.625 1078.40283203125 1085.21948242188 1082.62805175781 1089.12963867188 1099.92114257812 1090.79553222656 1095.29113769531 1089.81689453125 1087.14685058594 1109.54162597656
974.918762207031 972.695129394531 971.860717773438 966.890319824219 968.572998046875 967.905334472656 976.200927734375 977.983825683594 976.637084960938 977.185729980469 971.294677734375 975.288757324219 968.102294921875 961.943420410156 962.257995605469 966.381286621094 966.31005859375 975.257568359375 969.575866699219 971.523193359375 972.707092285156 970.082275390625 975.034240722656 985.075744628906 995.79736328125 1000.24676513672 1002.42248535156 1004.02215576172 1011.65667724609 1013.73815917969 1012.87426757812 1025.21166992188 1024.30517578125 1031.42333984375 1035.65161132812 1039.31286621094 1035.27966308594 1045.68566894531 1043.86743164062 1044.22424316406 1050.06762695312 1043.55822753906 1035.74084472656 1032.21350097656 1030.64086914062 1036.25561523438 1016.88787841797 1007.25762939453 1003.06939697266 1005.31677246094 1000.33319091797 1007.50378417969 1013.81768798828 1011.90661621094 1006.83074951172 1004.96929931641 1008.61193847656 1017.87847900391 1017.42803955078 1015.85815429688 1017.26220703125 1019.06225585938 1026.31237792969 1039.47583007812 1035.73767089844 1030.50634765625 1021.95587158203 1029.52526855469 1034.04016113281 1031.23022460938 1024.466796875 1024.1162109375 1023.52520751953 1016.06787109375 1008.59136962891 1007.98284912109 1010.27301025391 1023.34844970703 1016.67028808594 1009.25366210938 1017.58184814453 1015.9208984375 1022.18371582031 1013.9072265625 1012.80407714844 1014.82147216797 1012.73260498047 996.443786621094 988.991027832031 985.773742675781 977.315551757812 980.253234863281 978.313781738281 987.597473144531 984.551391601562 983.781555175781 1001.05383300781 982.232666015625 975.955261230469 963.14501953125 959.273376464844 974.294982910156 970.8662109375 967.147888183594 969.820190429688 973.880432128906 983.298583984375 988.035461425781 988.756164550781 982.564819335938 971.65087890625 961.423950195312 951.912719726562 943.921691894531 940.475463867188 938.265319824219 927.50244140625 937.45263671875 933.694946289062 957.224243164062 966.5595703125 980.448364257812 985.688842773438 994.428527832031 1013.17657470703 1017.57641601562 1024.37744140625 1037.80529785156 1046.37890625 1037.76904296875 1053.85864257812 1053.06176757812 1045.22961425781 1046.47827148438 1055.51208496094 1056.77209472656 1057.28210449219 1062.81994628906 1069.65185546875 1071.87780761719 1077.32104492188 1084.63549804688 1087.59130859375 1090.62512207031 1087.41064453125 1086.71325683594 1089.14318847656 1089.65734863281 1094.94006347656 1094.88623046875
968.552612304688 966.569763183594 972.131042480469 961.663269042969 962.529479980469 963.342834472656 954.586242675781 958.099792480469 964.869567871094 971.401000976562 962.392028808594 970.942443847656 959.979736328125 955.900573730469 958.649597167969 965.327270507812 962.42529296875 968.817016601562 970.904846191406 969.333984375 973.304260253906 977.963500976562 986.513488769531 997.686096191406 998.693786621094 995.114135742188 1006.50982666016 1002.95123291016 1009.83843994141 1006.33441162109 1010.13287353516 1010.53210449219 1023.08239746094 1025.62316894531 1037.7568359375 1029.20031738281 1031.62609863281 1035.63940429688 1042.11608886719 1048.83020019531 1047.61206054688 1051.50769042969 1047.21484375 1042.30529785156 1037.26867675781 1029.67700195312 1021.95245361328 1013.65863037109 1002.74060058594 999.55419921875 998.3671875 999.854248046875 1000.00177001953 1006.01440429688 1005.91314697266 1008.03814697266 1016.21276855469 1010.74810791016 1014.41296386719 1013.49432373047 1016.75946044922 1025.54919433594 1021.08917236328 1027.15026855469 1037.64050292969 1032.15966796875 1026.30639648438 1022.48394775391 1029.10668945312 1029.03735351562 1021.44775390625 1016.75183105469 1019.71075439453 1015.16314697266 1013.39111328125 1007.77545166016 1008.76336669922 1009.2412109375 1012.18524169922 1004.33862304688 1007.07257080078 1015.93426513672 1020.666015625 1018.15393066406 1012.67419433594 1013.88391113281 1007.14471435547 995.276000976562 993.359252929688 995.340881347656 989.370178222656 988.306823730469 979.472229003906 990.392700195312 998.687377929688 999.974731445312 999.860656738281 985.863525390625 979.344177246094 975.307250976562 970.537902832031 982.719421386719 972.905029296875 971.513488769531 970.892272949219 982.900207519531 989.810913085938 991.932556152344 984.524169921875 971.847717285156 965.159606933594 949.201721191406 941.283142089844 940.559265136719 936.195129394531 932.319885253906 939.932922363281 934.711242675781 938.527893066406 955.884155273438 969.757690429688 993.007873535156 991.408020019531 999.304138183594 1005.98626708984 1028.85339355469 1034.89526367188 1041.8271484375 1038.39184570312 1034.55493164062 1049.82482910156 1046.19482421875 1043.12658691406 1045.89050292969 1045.96606445312 1054.95593261719 1054.34680175781 1061.93151855469 1065.4140625 1069.1748046875 1078.67810058594 1078.38537597656 1079.87084960938 1080.50842285156 1077.78002929688 1086.70812988281 1096.52990722656 1098.86267089844 1087.13232421875 1094.26318359375
959.853515625 969.922973632812 960.351745605469 959.410034179688 952.408447265625 959.540222167969 945.391784667969 953.109313964844 958.23193359375 963.010131835938 964.765380859375 958.505798339844 955.029052734375 961.253601074219 959.763671875 965.32958984375 972.252136230469 963.115905761719 972.841857910156 979.28271484375 978.57958984375 988.842895507812 994.312561035156 998.662719726562 1004.68280029297 1002.10540771484 1007.18762207031 992.881103515625 995.791870117188 1000.68225097656 999.637939453125 1004.96771240234 1009.87921142578 1016.64801025391 1028.20349121094 1026.21118164062 1031.64965820312 1035.60241699219 1028.50512695312 1046.46362304688 1041.8720703125 1049.33349609375 1042.73229980469 1047.28747558594 1038.67260742188 1030.51965332031 1017.71533203125 1014.39282226562 995.782165527344 999.083312988281 998.658508300781 995.521850585938 989.363159179688 993.3720703125 1005.26007080078 1009.69738769531 1013.9228515625 1007.22937011719 1011.86584472656 1016.44091796875 1015.90856933594 1027.61730957031 1021.99078369141 1022.89428710938 1023.61340332031 1026.7529296875 1017.60400390625 1024.08935546875 1024.03137207031 1018.55065917969 1014.96051025391 1013.09326171875 1016.95758056641 1015.55017089844 1011.88586425781 1007.05920410156 1009.44769287109 1003.74975585938 999.23095703125 1006.04943847656 1014.27984619141 1014.65173339844 1017.49578857422 1015.47515869141 1012.17065429688 1011.46875 1006.57250976562 1007.01806640625 996.459655761719 1001.37835693359 992.446228027344 996.078918457031 995.413940429688 1005.03045654297 1004.59545898438 1002.90643310547 1008.19616699219 992.034362792969 979.939636230469 979.347351074219 980.403991699219 982.886657714844 980.182067871094 979.829406738281 989.266296386719 990.877746582031 992.776000976562 986.280883789062 984.312622070312 978.659484863281 959.443115234375 954.118408203125 940.960998535156 943.153564453125 934.332885742188 935.044799804688 936.938720703125 942.955749511719 942.490539550781 959.319396972656 972.368408203125 984.451965332031 994.737060546875 1007.32971191406 1025.27478027344 1026.70373535156 1026.25598144531 1031.15356445312 1030.57641601562 1026.32348632812 1037.91735839844 1036.66333007812 1044.09228515625 1058.13293457031 1048.60241699219 1052.74047851562 1056.2265625 1061.32690429688 1065.51721191406 1073.82238769531 1082.72180175781 1080.39392089844 1079.19140625 1081.29992675781 1089.08032226562 1089.396484375 1098.47241210938 1101.41796875 1096.63732910156 1094.36328125
967.226135253906 959.889953613281 957.253967285156 952.4697265625 952.902954101562 951.746643066406 942.753845214844 944.297302246094 959.116088867188 955.593933105469 957.832641601562 964.848754882812 960.884094238281 955.255737304688 970.865051269531 957.68212890625 960.445129394531 952.139221191406 958.6357421875 975.660766601562 971.074584960938 990.554870605469 997.149658203125 1006.84515380859 1007.05499267578 1009.67852783203 1002.71759033203 999.649963378906 991.520568847656 996.113525390625 998.473999023438 992.445556640625 1003.62438964844 1010.99719238281 1019.08807373047 1029.27893066406 1018.38537597656 1022.19274902344 1024.68615722656 1033.39440917969 1035.40270996094 1038.31860351562 1042.24792480469 1040.68078613281 1039.22143554688 1036.31762695312 1021.92742919922 1012.26275634766 1000.33544921875 993.284240722656 996.614440917969 988.521728515625 985.068054199219 989.323120117188 996.089965820312 1003.06701660156 1016.00317382812 1009.27642822266 1015.47125244141 1009.21771240234 1007.03112792969 1017.576171875 1012.79675292969 1021.22491455078 1025.0634765625 1024.04772949219 1023.26794433594 1024.82299804688 1020.06567382812 1019.20727539062 1019.47137451172 1020.87384033203 1022.49786376953 1017.37274169922 1012.37860107422 1005.8134765625 1004.61090087891 1004.78118896484 997.46484375 1001.99310302734 1002.10168457031 1006.7861328125 1014.96014404297 1021.26751708984 1010.24993896484 1016.91088867188 1011.35363769531 1007.66821289062 1008.10809326172 1009.470703125 1003.08843994141 997.260620117188 999.311645507812 1013.41851806641 1019.673828125 1021.25805664062 1009.21496582031 1010.28265380859 992.376708984375 987.505432128906 984.174255371094 989.553405761719 989.726013183594 991.508422851562 996.607543945312 996.086608886719 997.107482910156 995.999267578125 983.26708984375 977.306823730469 963.163879394531 956.246520996094 949.359191894531 945.671020507812 930.121826171875 931.122314453125 935.115600585938 948.000915527344 954.120788574219 974.830261230469 987.147521972656 1006.970703125 1018.57781982422 1027.49548339844 1030.52966308594 1031.14233398438 1032.75317382812 1032.94738769531 1019.400390625 1031.08093261719 1036.94616699219 1036.90600585938 1038.86010742188 1050.27551269531 1053.57897949219 1050.74035644531 1051.84741210938 1058.29760742188 1053.65869140625 1062.67541503906 1083.27465820312 1088.74560546875 1096.14538574219 1088.00805664062 1086.31481933594 1087.76391601562 1095.79479980469 1091.01489257812 1093.51110839844 1096.78588867188
955.073547363281 956.482177734375 950.373168945312 946.708984375 954.615295410156 947.770568847656 935.831665039062 946.41845703125 958.728088378906 959.195373535156 961.677734375 961.082946777344 956.586242675781 960.450622558594 955.942321777344 953.69580078125 952.546630859375 945.205322265625 956.074523925781 967.63330078125 970.551818847656 993.151306152344 998.478881835938 1002.33630371094 1006.57989501953 1016.2958984375 1001.0068359375 996.869995117188 998.8125 1002.35980224609 1001.96441650391 990.703247070312 997.234313964844 1005.61987304688 1014.47161865234 1023.14141845703 1024.39489746094 1021.72924804688 1022.3359375 1016.74237060547 1021.04235839844 1027.00268554688 1031.98132324219 1032.42211914062 1030.83325195312 1027.77709960938 1017.36480712891 1009.47821044922 996.948669433594 990.321044921875 986.379638671875 989.067443847656 989.986938476562 990.39697265625 986.143920898438 995.257141113281 1001.88317871094 1010.66064453125 1012.27655029297 1012.68499755859 1012.06768798828 1016.07727050781 1016.66735839844 1009.890625 1019.61828613281 1025.28039550781 1016.82501220703 1021.65643310547 1018.79351806641 1020.31652832031 1012.34161376953 1010.12579345703 1011.53680419922 1007.98107910156 999.405090332031 1006.65130615234 1001.4931640625 1003.73101806641 1011.50939941406 1001.98052978516 1004.68634033203 1002.18121337891 1007.9990234375 1010.453125 1007.78002929688 1008.15167236328 1010.97540283203 1013.64770507812 1011.91516113281 1013.96820068359 1012.96978759766 1017.00970458984 1008.25244140625 1014.24865722656 1023.00085449219 1030.4541015625 1023.95739746094 1006.93273925781 995.3974609375 986.15185546875 990.602294921875 986.320068359375 1005.45239257812 998.762817382812 1006.69366455078 1006.01641845703 1009.11370849609 997.854309082031 979.937561035156 968.780212402344 958.156433105469 956.513671875 948.10546875 939.106201171875 931.275939941406 934.710266113281 945.496154785156 950.604736328125 964.602905273438 983.687805175781 994.912719726562 1009.3291015625 1018.75671386719 1027.87487792969 1031.4013671875 1025.68762207031 1039.26501464844 1037.01257324219 1035.07678222656 1036.67321777344 1040.62292480469 1044.11840820312 1047.46801757812 1057.76550292969 1054.14672851562 1051.15478515625 1059.27465820312 1054.30639648438 1049.11547851562 1067.65124511719 1082.61315917969 1091.42846679688 1095.68725585938 1080.70153808594 1089.13244628906 1085.45080566406 1083.69494628906 1090.41174316406 1089.84533691406 1100.23327636719
955.462097167969 956.350341796875 948.974731445312 948.006652832031 949.726379394531 953.035522460938 948.501281738281 954.417419433594 958.581848144531 968.091064453125 967.008972167969 969.524169921875 965.488830566406 968.173767089844 960.946899414062 957.845947265625 960.43017578125 952.141479492188 959.593017578125 962.438110351562 980.516052246094 989.406066894531 1000.91625976562 999.319702148438 1006.62225341797 1006.16009521484 1003.89477539062 1002.38061523438 1000.93981933594 997.224792480469 995.527038574219 992.79443359375 997.928405761719 997.182312011719 1002.47387695312 1010.08258056641 1020.99658203125 1018.25830078125 1023.40661621094 1012.50158691406 1013.80163574219 1014.85272216797 1022.61206054688 1011.97668457031 1019.88952636719 1014.06787109375 1004.95654296875 999.052551269531 991.666564941406 989.602478027344 999.025329589844 989.624633789062 1000.07354736328 994.050170898438 988.935607910156 981.416320800781 1002.73388671875 1006.57202148438 1007.56872558594 1012.40863037109 1011.01422119141 1008.61712646484 1014.09069824219 1012.40631103516 1004.91363525391 1019.54461669922 1019.33911132812 1013.13214111328 1007.41375732422 1010.85443115234 1006.86700439453 997.286987304688 1001.61059570312 1005.06945800781 1005.02490234375 1014.00323486328 1012.30895996094 1008.42712402344 1008.47155761719 1000.57989501953 1003.18084716797 1009.10046386719 1007.14001464844 1005.03533935547 1007.52941894531 1007.21978759766 1004.40368652344 1014.20623779297 1014.72888183594 1014.50567626953 1016.53314208984 1027.32238769531 1029.69604492188 1021.94750976562 1025.05822753906 1018.78900146484 1024.73510742188 1008.37707519531 1005.14654541016 1007.47296142578 987.8818359375 993.117797851562 1002.96862792969 1004.05511474609 1008.46203613281 1013.02612304688 1013.10668945312 994.72607421875 983.654968261719 973.906188964844 956.485717773438 952.432006835938 945.608276367188 930.836120605469 937.355773925781 948.530395507812 954.13671875 966.177062988281 976.054443359375 988.230712890625 1002.49908447266 1012.13928222656 1019.82482910156 1022.83117675781 1024.10314941406 1031.29833984375 1043.7607421875 1043.01867675781 1037.93591308594 1036.98657226562 1044.123046875 1049.5546875 1054.01379394531 1056.23266601562 1054.62829589844 1054.39074707031 1055.15856933594 1053.58032226562 1049.57629394531 1069.96630859375 1086.03967285156 1090.759765625 1089.77075195312 1091.00244140625 1088.80920410156 1091.85144042969 1088.75317382812 1089.57775878906 1088.55346679688 1093.48022460938
958.846557617188 950.596984863281 950.813781738281 952.561157226562 949.770080566406 955.530639648438 959.756103515625 963.7421875 962.775817871094 973.398986816406 981.600341796875 969.718688964844 971.403564453125 973.339721679688 967.999938964844 970.090026855469 975.222412109375 965.953308105469 960.839477539062 968.758422851562 971.646362304688 982.784729003906 987.515625 987.509948730469 986.958190917969 991.041564941406 994.415466308594 1000.51904296875 994.902099609375 997.263366699219 1001.73260498047 999.954772949219 996.099365234375 993.603576660156 1004.21936035156 1012.55450439453 1020.32891845703 1018.07263183594 1027.36853027344 1026.32849121094 1017.85046386719 1016.51898193359 1012.09246826172 1003.58850097656 1006.36553955078 1008.51477050781 994.511352539062 991.104125976562 994.518249511719 993.111267089844 994.7197265625 989.820861816406 997.838256835938 988.783203125 991.105834960938 993.549072265625 998.169982910156 998.909545898438 1002.28692626953 999.520690917969 997.7978515625 1002.12963867188 1003.97863769531 1010.91864013672 1015.81042480469 1023.23529052734 1016.97119140625 999.22021484375 997.54345703125 995.423217773438 1001.01446533203 997.182373046875 1004.62219238281 1004.19659423828 1010.15832519531 1012.05767822266 1017.32495117188 1007.71716308594 1004.21325683594 1001.97839355469 1006.38555908203 1001.59368896484 1004.21124267578 1006.51647949219 1002.12335205078 1015.06524658203 1000.92102050781 1007.42974853516 1015.27703857422 1021.78881835938 1029.34008789062 1039.99096679688 1036.27514648438 1027.37805175781 1017.16912841797 1021.44360351562 1018.06341552734 1004.42498779297 1004.52319335938 1009.59106445312 998.182312011719 995.220947265625 1007.12347412109 1003.62353515625 1007.94329833984 1013.22320556641 1003.05932617188 998.564697265625 989.584594726562 974.018615722656 960.792846679688 955.619934082031 943.943725585938 935.64453125 942.596618652344 952.243103027344 959.850280761719 969.783630371094 983.967102050781 985.927673339844 1002.16668701172 1006.65936279297 1016.55450439453 1018.9892578125 1024.10131835938 1037.83056640625 1038.630859375 1046.81665039062 1032.61877441406 1034.57397460938 1039.287109375 1042.60607910156 1055.54431152344 1058.82934570312 1058.76281738281 1062.31518554688 1053.95336914062 1060.17248535156 1063.28967285156 1071.6484375 1082.06115722656 1086.73754882812 1093.66564941406 1099.05249023438 1096.84020996094 1091.43115234375 1092.05358886719 1089.50085449219 1097.17956542969 1087.07214355469
948.201232910156 950.927612304688 955.728210449219 954.864196777344 946.031127929688 952.901794433594 957.271362304688 965.453735351562 971.408020019531 975.47314453125 975.643127441406 972.512512207031 984.412719726562 982.397277832031 982.271606445312 972.875854492188 970.336120605469 963.374572753906 960.0400390625 967.620056152344 979.044799804688 985.907897949219 983.233703613281 983.338500976562 979.320068359375 977.856323242188 989.533020019531 995.035461425781 988.075744628906 992.421264648438 992.439086914062 995.761779785156 1000.0712890625 998.396789550781 1007.20483398438 1012.55749511719 1011.23760986328 1017.87817382812 1025.26599121094 1018.19775390625 1018.45440673828 1016.01885986328 1009.48138427734 1000.14001464844 999.811096191406 1004.86437988281 994.180786132812 991.531494140625 983.680236816406 988.405334472656 991.203918457031 986.679748535156 986.189208984375 983.751037597656 986.608215332031 989.335815429688 993.615295410156 992.596862792969 995.303649902344 995.601806640625 995.139770507812 993.640380859375 998.794494628906 1001.05810546875 1008.79962158203 1011.73626708984 1006.42401123047 1002.8935546875 1003.03814697266 1001.41864013672 990.89697265625 995.617797851562 997.509216308594 990.717163085938 1001.06469726562 1008.33807373047 1006.55694580078 1006.80047607422 992.967956542969 992.630798339844 996.239929199219 1005.4482421875 1006.76800537109 1000.07299804688 1004.01519775391 1013.88995361328 1010.74816894531 1024.48461914062 1017.45129394531 1029.99365234375 1029.21948242188 1040.73315429688 1038.97314453125 1026.37377929688 1026.08752441406 1033.28820800781 1025.41027832031 1007.85290527344 1006.81005859375 1016.17138671875 1002.37847900391 994.866027832031 999.622985839844 1002.45928955078 1000.13397216797 1005.67114257812 998.947509765625 990.54736328125 983.246520996094 971.637878417969 957.581115722656 949.810302734375 950.421264648438 941.364501953125 934.206115722656 941.513488769531 954.481689453125 972.961303710938 977.5390625 983.372619628906 999.403686523438 1006.66986083984 1012.94775390625 1015.50036621094 1026.18762207031 1034.21923828125 1041.556640625 1043.18920898438 1031.32336425781 1039.69909667969 1042.43188476562 1046.732421875 1053.82641601562 1048.31616210938 1051.50415039062 1056.37109375 1063.51000976562 1062.71911621094 1060.52087402344 1069.67443847656 1075.10998535156 1074.71105957031 1086.24084472656 1089.88305664062 1093.98095703125 1093.50598144531 1092.71691894531 1099.83190917969 1096.84094238281 1098.46618652344
954.375549316406 945.772338867188 953.394653320312 954.894409179688 955.876586914062 953.999633789062 957.21728515625 957.181640625 966.699157714844 965.181518554688 970.671752929688 975.050903320312 980.63916015625 982.581420898438 974.532287597656 968.16455078125 962.835632324219 964.272766113281 966.276489257812 973.589111328125 974.811401367188 983.379943847656 980.153015136719 978.326293945312 978.442932128906 987.671813964844 986.740417480469 989.507873535156 987.234375 986.391357421875 982.43994140625 982.105041503906 986.1845703125 985.525268554688 995.441467285156 1005.87420654297 1001.29718017578 1012.58404541016 1010.35992431641 1012.11260986328 1007.80297851562 1000.79638671875 1015.04583740234 995.46923828125 999.258605957031 998.146606445312 994.90087890625 990.72119140625 988.030944824219 981.760986328125 991.173217773438 989.889343261719 987.517211914062 991.510131835938 988.873474121094 988.210754394531 982.19921875 978.859313964844 984.365661621094 984.642700195312 983.763671875 993.136840820312 995.167053222656 1003.3974609375 1011.45153808594 1003.23370361328 1001.34918212891 1008.880859375 1010.24780273438 1007.76104736328 1006.13604736328 992.94140625 1002.38812255859 996.10595703125 1001.03540039062 1003.44165039062 996.793273925781 997.911682128906 996.648071289062 993.684448242188 990.683776855469 1003.94378662109 1002.1201171875 1003.58740234375 1006.44671630859 1010.00036621094 1022.00415039062 1032.58337402344 1038.99865722656 1032.65844726562 1026.60290527344 1028.37475585938 1035.748046875 1027.45092773438 1024.69689941406 1021.02551269531 1015.56213378906 1015.47808837891 1018.01837158203 1030.78784179688 1023.20111083984 1015.462890625 998.138244628906 995.213500976562 995.714721679688 994.791687011719 995.611572265625 987.921569824219 967.123474121094 969.717102050781 954.858032226562 956.977844238281 947.153381347656 949.370178222656 937.868225097656 945.564758300781 961.595153808594 968.176696777344 974.070068359375 979.011596679688 1001.05151367188 1007.19573974609 1017.12689208984 1017.76251220703 1032.6630859375 1030.31689453125 1031.73596191406 1041.23046875 1043.84497070312 1042.03454589844 1045.21118164062 1048.505859375 1050.11999511719 1050.66027832031 1053.5517578125 1052.80603027344 1053.41625976562 1056.537109375 1071.35852050781 1066.10803222656 1076.48205566406 1076.19750976562 1084.39611816406 1096.37268066406 1087.90197753906 1090.98229980469 1095.41662597656 1102.01281738281 1096.11547851562 1100.51232910156
961.534118652344 955.350524902344 951.668090820312 952.63427734375 959.801086425781 960.844116210938 953.290832519531 951.326721191406 957.1064453125 955.882507324219 970.776428222656 976.093383789062 983.25634765625 980.091186523438 969.906433105469 963.76806640625 961.722106933594 962.502380371094 971.352661132812 970.438354492188 981.985534667969 983.325988769531 982.921264648438 988.067199707031 988.388000488281 996.394714355469 995.535888671875 992.651794433594 986.045227050781 984.701354980469 986.213439941406 986.9765625 987.804138183594 987.238586425781 987.392761230469 998.7978515625 991.785827636719 993.335571289062 995.350219726562 1004.61383056641 997.586669921875 1000.22686767578 1003.51287841797 1003.20306396484 999.55810546875 997.272827148438 1001.69543457031 1000.63665771484 986.935546875 978.441528320312 989.566345214844 991.698852539062 991.184387207031 986.881408691406 991.473876953125 991.078002929688 979.642456054688 980.25390625 986.349304199219 975.509033203125 978.810302734375 992.176025390625 1001.12561035156 1010.15899658203 1005.38287353516 1000.88891601562 999.823669433594 1011.48516845703 1016.59454345703 1006.44769287109 1001.52380371094 1004.57580566406 997.080688476562 990.669616699219 995.793579101562 988.633178710938 982.364074707031 991.704345703125 994.263122558594 998.615234375 992.393493652344 994.737182617188 1003.537109375 999.503662109375 1008.34613037109 1019.77734375 1021.71417236328 1031.55883789062 1038.52990722656 1023.55975341797 1024.009765625 1027.50048828125 1034.55822753906 1030.2431640625 1026.49072265625 1023.85974121094 1021.81616210938 1019.76312255859 1019.42895507812 1029.49951171875 1030.3125 1015.50445556641 1004.35461425781 1006.17993164062 1008.65069580078 1010.57952880859 1004.88415527344 987.14013671875 974.779235839844 970.321105957031 955.864868164062 952.053039550781 948.162780761719 951.416198730469 945.197509765625 940.609436035156 953.717407226562 967.1416015625 969.631408691406 983.81591796875 994.185241699219 1009.73699951172 1015.75628662109 1018.09405517578 1026.49340820312 1026.7333984375 1039.93310546875 1050.28552246094 1048.00866699219 1040.90209960938 1043.82543945312 1046.1669921875 1042.45727539062 1038.720703125 1050.03515625 1052.82055664062 1058.25280761719 1054.16479492188 1058.94152832031 1058.19189453125 1063.20874023438 1076.98754882812 1090.59399414062 1095.57263183594 1099.71594238281 1088.236328125 1102.07897949219 1099.92077636719 1094.634765625 1106.83557128906
961.167053222656 962.080871582031 948.357116699219 953.105346679688 954.894592285156 961.119384765625 952.626281738281 957.97802734375 962.957458496094 969.663391113281 969.651428222656 971.455078125 974.132507324219 972.906494140625 968.675476074219 969.7080078125 972.150268554688 971.497497558594 970.17626953125 977.318298339844 984.101989746094 981.941711425781 981.504638671875 984.631713867188 983.751953125 986.129211425781 995.140625 994.279663085938 986.886596679688 986.708068847656 988.115478515625 987.002380371094 994.405700683594 993.316589355469 985.52197265625 996.017456054688 988.313049316406 988.198974609375 998.790100097656 1002.74981689453 994.205749511719 996.502258300781 993.302612304688 1002.72387695312 997.676452636719 994.103088378906 994.619079589844 987.416015625 977.973754882812 978.164916992188 987.360961914062 983.739074707031 993.630310058594 989.510498046875 988.512573242188 991.55029296875 978.3076171875 986.926513671875 984.741577148438 976.384033203125 977.714904785156 997.636840820312 1000.39587402344 1000.9365234375 1000.85321044922 1004.70227050781 996.095336914062 1003.95812988281 1003.39007568359 1001.34625244141 998.250244140625 998.994995117188 1002.65087890625 1001.57312011719 996.181579589844 984.483703613281 984.704956054688 987.640258789062 992.900390625 990.548034667969 992.701477050781 993.911926269531 1002.16326904297 997.141479492188 1003.87310791016 1005.85369873047 1022.71002197266 1024.6162109375 1028.11987304688 1023.14617919922 1028.97094726562 1013.19213867188 1018.22845458984 1023.12432861328 1032.56591796875 1018.70867919922 1027.34057617188 1020.83880615234 1025.42932128906 1027.32421875 1028.41796875 1024.29174804688 1012.12841796875 1008.61657714844 1016.58142089844 1004.34631347656 1005.03210449219 986.265930175781 989.073120117188 973.602661132812 967.720825195312 957.270202636719 945.550231933594 941.135131835938 938.183227539062 948.550415039062 954.659423828125 959.63671875 969.373901367188 983.163391113281 996.273498535156 1002.70520019531 1009.26751708984 1011.18426513672 1020.24694824219 1027.76635742188 1034.34716796875 1045.26794433594 1044.67016601562 1045.32080078125 1039.55261230469 1046.43676757812 1029.67248535156 1034.79809570312 1028.61877441406 1043.44274902344 1048.00939941406 1046.76599121094 1051.2998046875 1054.29504394531 1069.58276367188 1079.73193359375 1087.15356445312 1095.16784667969 1092.05859375 1095.43981933594 1102.27319335938 1102.18896484375 1099.05432128906 1108.80529785156
956.5185546875 954.970031738281 949.766235351562 953.464233398438 964.345336914062 963.1083984375 963.802917480469 967.683227539062 965.600280761719 969.185424804688 969.235595703125 967.835754394531 974.68310546875 975.2197265625 982.679077148438 978.844177246094 976.46044921875 978.702575683594 982.487365722656 977.705627441406 981.939392089844 985.881042480469 983.354675292969 988.550048828125 998.394714355469 986.923889160156 987.85107421875 992.587951660156 977.767883300781 980.004638671875 984.753967285156 988.242736816406 984.079162597656 989.528076171875 984.780212402344 990.980407714844 990.749267578125 990.513427734375 985.959289550781 993.570678710938 992.580139160156 989.263916015625 991.215148925781 1000.81176757812 990.030151367188 988.206420898438 991.065795898438 982.719909667969 981.474731445312 985.134033203125 980.826416015625 981.107727050781 984.202087402344 984.813232421875 991.230041503906 993.933898925781 987.198303222656 980.580139160156 984.844909667969 977.537719726562 988.146179199219 991.977966308594 995.982299804688 999.651062011719 1001.59954833984 1001.97296142578 987.657409667969 999.208557128906 1003.43170166016 1004.78894042969 999.718078613281 1005.12322998047 994.331848144531 991.466552734375 991.790710449219 983.6591796875 985.560729980469 980.037048339844 986.879150390625 988.652038574219 988.369323730469 998.313537597656 996.463928222656 994.470947265625 999.4951171875 1006.09344482422 1014.21325683594 1019.03704833984 1021.62756347656 1024.57751464844 1021.92785644531 1019.02136230469 1023.24609375 1019.73364257812 1017.63623046875 1021.61077880859 1011.58563232422 1016.37512207031 1013.21002197266 1020.69415283203 1016.64678955078 1018.57647705078 1014.37860107422 1007.66156005859 1005.81781005859 998.447509765625 997.235473632812 989.738952636719 985.999877929688 983.372131347656 973.621887207031 968.411193847656 954.210510253906 942.457458496094 944.680419921875 946.438598632812 956.110473632812 963.857116699219 965.237487792969 980.017639160156 995.403198242188 999.536865234375 1008.92596435547 1009.595703125 1012.50299072266 1026.73071289062 1036.73254394531 1039.392578125 1036.90478515625 1039.1083984375 1033.70947265625 1029.55517578125 1024.4716796875 1024.02954101562 1025.12023925781 1031.78723144531 1033.53393554688 1037.99243164062 1051.03295898438 1056.80493164062 1060.31604003906 1071.89245605469 1075.09997558594 1084.59191894531 1086.21875 1099.0634765625 1096.52136230469 1108.59497070312 1102.30688476562 1108.46008300781
949.569091796875 946.1513671875 950.593994140625 957.326477050781 969.26220703125 964.402648925781 957.333374023438 968.4013671875 970.815979003906 966.887451171875 962.763793945312 967.14794921875 973.427429199219 977.600036621094 977.332824707031 980.881225585938 974.284973144531 975.967651367188 984.742858886719 982.154907226562 980.221801757812 982.375549316406 987.302368164062 990.043762207031 992.591491699219 991.302734375 986.289001464844 979.255126953125 975.2998046875 981.224670410156 981.013610839844 976.141296386719 980.721984863281 984.215698242188 989.072387695312 987.773986816406 991.239013671875 983.97998046875 985.1181640625 985.394714355469 994.072021484375 999.467590332031 997.43701171875 1001.29736328125 993.322082519531 993.492919921875 990.165222167969 990.6513671875 974.714233398438 976.972595214844 985.396667480469 981.056579589844 975.964599609375 978.873413085938 982.838684082031 987.499267578125 983.357666015625 973.722229003906 976.008911132812 989.640075683594 995.4248046875 989.541442871094 990.065490722656 997.817504882812 1001.29119873047 999.064636230469 996.745300292969 1002.20635986328 1002.24645996094 1001.0546875 992.687805175781 989.973937988281 984.970153808594 987.750549316406 987.683776855469 982.08544921875 984.271606445312 986.788269042969 999.396545410156 995.665771484375 997.711608886719 997.759948730469 1003.10864257812 1006.06536865234 1007.65295410156 1008.39483642578 1008.85803222656 1016.21063232422 1017.95776367188 1017.43328857422 1016.64544677734 1024.41088867188 1024.57067871094 1028.24267578125 1017.12878417969 1014.048828125 1015.01251220703 1009.71331787109 1010.396484375 1006.61749267578 1008.47503662109 1013.61889648438 1016.27874755859 1001.21069335938 994.825988769531 998.861083984375 991.201721191406 993.681579589844 991.180114746094 981.647399902344 971.302490234375 961.756896972656 969.552307128906 961.248352050781 955.631164550781 955.211059570312 959.047973632812 963.122802734375 963.294555664062 985.778503417969 992.911254882812 993.581420898438 997.587097167969 1010.09051513672 1015.70751953125 1026.044921875 1025.8017578125 1031.15441894531 1033.89721679688 1035.24475097656 1025.06616210938 1035.02758789062 1021.9853515625 1011.78448486328 1018.82623291016 1015.91577148438 1019.49127197266 1038.96325683594 1039.50061035156 1052.02844238281 1057.787109375 1061.87390136719 1068.08874511719 1075.48181152344 1084.60607910156 1096.83251953125 1097.70324707031 1108.90673828125 1105.34704589844 1100.93725585938
951.094116210938 953.906127929688 956.788146972656 963.3359375 969.990844726562 970.178283691406 963.673828125 967.799743652344 974.016235351562 965.474182128906 964.7626953125 969.262939453125 973.001892089844 978.750549316406 972.730773925781 972.286804199219 978.871154785156 978.860473632812 984.087768554688 976.700805664062 980.166198730469 983.142578125 990.093627929688 993.478454589844 993.514343261719 989.187683105469 984.303833007812 977.21923828125 975.350646972656 985.716979980469 981.094360351562 974.954345703125 974.643676757812 980.013732910156 989.869079589844 987.284912109375 984.734741210938 985.276062011719 984.724426269531 983.217407226562 980.787231445312 986.236572265625 999.207824707031 1000.84954833984 991.344665527344 995.615966796875 985.898681640625 988.304992675781 984.609436035156 981.820617675781 981.69677734375 980.541564941406 972.573791503906 980.722106933594 977.170776367188 981.16943359375 982.756530761719 978.165405273438 984.225769042969 986.792846679688 990.890808105469 988.177856445312 988.847900390625 996.824401855469 1000.82006835938 998.272399902344 994.326782226562 997.673278808594 999.491455078125 998.631896972656 994.452575683594 987.102172851562 988.342895507812 982.87548828125 982.440490722656 981.585266113281 979.265686035156 989.85498046875 997.322326660156 1000.35675048828 999.917053222656 1000.76721191406 1006.14373779297 1006.25653076172 1014.65942382812 1002.70074462891 1011.47979736328 1010.73223876953 1016.40502929688 1011.93334960938 1014.38983154297 1022.65319824219 1025.46960449219 1014.23883056641 1013.43664550781 1009.88793945312 1007.46533203125 1010.57696533203 1012.15533447266 1005.69854736328 1002.98498535156 1000.63452148438 1004.3134765625 1001.79650878906 999.845275878906 990.676452636719 985.932434082031 992.419860839844 982.90771484375 977.921325683594 978.096557617188 969.631958007812 964.655395507812 959.945373535156 952.003967285156 951.589538574219 963.453369140625 970.611267089844 976.365234375 978.509155273438 991.289916992188 999.2685546875 994.756652832031 1009.42993164062 1018.36950683594 1019.92053222656 1023.02880859375 1026.09045410156 1027.03039550781 1018.29632568359 1010.33093261719 1020.06988525391 1028.36242675781 1022.29052734375 1021.29962158203 1012.69445800781 1014.96838378906 1019.61499023438 1033.86499023438 1038.4404296875 1046.80810546875 1059.11706542969 1062.08142089844 1080.40234375 1087.94152832031 1091.7890625 1098.31457519531 1104.50695800781 1112.66882324219 1112.50769042969
952.819458007812 945.033935546875 946.861938476562 955.860229492188 954.297424316406 969.359680175781 975.700378417969 974.955444335938 964.388977050781 963.203247070312 967.87060546875 975.117126464844 972.871704101562 971.082214355469 968.377563476562 973.956970214844 978.309326171875 983.238830566406 984.187255859375 976.996459960938 980.302917480469 987.624816894531 999.066833496094 993.458618164062 990.656127929688 989.899780273438 978.739501953125 974.798034667969 979.530090332031 977.248413085938 982.721801757812 983.639709472656 984.285278320312 982.795654296875 984.231506347656 979.513610839844 977.935607910156 983.362915039062 978.062805175781 971.211975097656 977.496887207031 976.671630859375 987.133544921875 988.168212890625 982.048706054688 978.484985351562 985.017211914062 990.077819824219 994.011840820312 982.631713867188 979.207885742188 977.377563476562 976.904235839844 972.513488769531 974.361999511719 979.095886230469 983.006286621094 987.134948730469 973.939697265625 979.786926269531 986.367126464844 990.367370605469 995.98779296875 999.739562988281 991.180847167969 997.076721191406 986.819091796875 984.942077636719 988.800415039062 991.521667480469 995.468994140625 985.150390625 984.6435546875 980.336486816406 981.451171875 978.718139648438 971.819641113281 984.266723632812 998.211669921875 1004.65539550781 1002.98974609375 996.276428222656 997.817993164062 1002.78253173828 1007.84716796875 1010.73333740234 1009.7744140625 1011.30358886719 1011.90509033203 1010.48516845703 1013.20452880859 1012.76672363281 1016.74438476562 1010.35955810547 1008.34289550781 1008.24865722656 1010.07397460938 1014.61303710938 1005.47009277344 1006.48400878906 1002.91619873047 993.797607421875 1002.54760742188 1001.05078125 996.602600097656 996.990356445312 991.522766113281 998.046264648438 997.233520507812 991.409362792969 990.289123535156 969.486999511719 965.466979980469 965.816223144531 962.149963378906 959.351318359375 966.303527832031 982.334411621094 982.444885253906 988.510925292969 1003.49346923828 1001.56689453125 1002.25329589844 1006.90252685547 1015.84967041016 1018.68023681641 1010.60095214844 1020.65582275391 1022.77099609375 1023.81365966797 1012.73449707031 1015.30194091797 1024.57385253906 1022.20941162109 1025.04077148438 1017.96734619141 1020.33276367188 1025.22644042969 1039.89904785156 1035.14208984375 1043.06896972656 1044.958984375 1057.02685546875 1070.34741210938 1081.71447753906 1091.27746582031 1098.60107421875 1109.56530761719 1108.99438476562 1117.92541503906
943.384094238281 942.164978027344 941.007019042969 956.479797363281 957.652404785156 960.999084472656 969.131774902344 962.189453125 972.87939453125 974.778686523438 967.045349121094 968.896240234375 965.363342285156 962.045532226562 964.327758789062 967.624694824219 976.823059082031 989.422058105469 982.583312988281 978.327941894531 978.571228027344 980.496032714844 996.166442871094 990.711303710938 989.143615722656 995.273498535156 978.8447265625 977.446655273438 976.567077636719 972.320007324219 977.949340820312 990.856079101562 990.435668945312 986.143432617188 984.658264160156 984.63525390625 972.95703125 972.227233886719 976.496032714844 981.379760742188 973.864196777344 975.91748046875 987.566223144531 978.831420898438 976.475891113281 980.672180175781 973.2294921875 979.929138183594 985.370422363281 982.395935058594 968.529113769531 970.65234375 972.021240234375 971.166320800781 975.87060546875 980.056213378906 985.001525878906 987.035583496094 984.020812988281 985.287170410156 981.867797851562 985.0322265625 999.339721679688 994.994018554688 993.02001953125 994.805603027344 993.268493652344 985.301696777344 986.554138183594 988.831970214844 985.372253417969 979.23974609375 982.440368652344 986.4580078125 983.927917480469 982.256225585938 975.639831542969 974.280639648438 990.120483398438 999.253173828125 999.904724121094 1012.28485107422 1013.53643798828 1008.12628173828 1003.36968994141 988.249145507812 997.698791503906 1008.83422851562 1012.22772216797 1012.21429443359 1008.40783691406 1012.60784912109 1011.20709228516 1010.66253662109 1008.45074462891 1005.35784912109 1008.50323486328 1004.64215087891 1009.14709472656 1000.90502929688 998.299011230469 1000.69421386719 992.812255859375 989.103759765625 990.045104980469 991.117248535156 988.862121582031 995.233703613281 993.589538574219 997.730712890625 988.412414550781 986.337585449219 981.143493652344 974.524536132812 976.094848632812 982.710998535156 980.025085449219 987.633911132812 982.132568359375 997.52001953125 1005.54077148438 996.044860839844 1000.93640136719 1002.66101074219 1014.734375 1016.07885742188 1022.80749511719 1020.61645507812 1018.40747070312 1017.814453125 1007.29223632812 1008.55139160156 1004.78155517578 1010.60290527344 1017.54412841797 1023.93395996094 1034.39990234375 1032.09692382812 1046.70263671875 1039.88562011719 1040.00415039062 1049.61169433594 1052.66552734375 1072.81591796875 1079.67163085938 1090.58752441406 1109.97509765625 1117.84252929688 1108.68664550781 1112.67004394531
948.053588867188 950.715393066406 952.429870605469 960.037353515625 966.429138183594 970.395446777344 964.523071289062 965.079650878906 969.583068847656 969.852233886719 968.900329589844 962.088806152344 962.281188964844 955.138000488281 965.782958984375 968.474914550781 979.894775390625 985.329528808594 980.582275390625 984.2919921875 983.718627929688 977.306518554688 986.86669921875 989.327880859375 983.178283691406 988.838073730469 991.158081054688 979.665344238281 970.965209960938 974.191589355469 980.348327636719 986.40966796875 993.347595214844 985.012817382812 986.95458984375 980.745666503906 976.140258789062 972.297241210938 974.10498046875 974.912475585938 976.844909667969 983.328308105469 986.274597167969 978.422485351562 974.609558105469 971.232116699219 976.364929199219 977.202453613281 974.792785644531 980.567443847656 974.51904296875 966.498901367188 969.217712402344 967.09326171875 973.818664550781 974.122375488281 983.562927246094 984.168640136719 983.85791015625 992.433837890625 991.364318847656 987.738342285156 995.617370605469 999.576171875 992.916687011719 988.739379882812 992.930725097656 985.663940429688 987.95166015625 979.930908203125 976.953796386719 983.724365234375 980.991271972656 979.715698242188 987.631103515625 978.868225097656 973.226501464844 980.003479003906 987.704162597656 1004.318359375 1013.04132080078 1002.67431640625 1002.78674316406 1000.98010253906 1001.35046386719 993.815185546875 992.755126953125 1007.02392578125 1009.24365234375 1007.185546875 1010.57653808594 1013.98529052734 1015.10363769531 1008.35845947266 1008.62957763672 1005.04138183594 1001.71276855469 1006.08990478516 997.575561523438 1000.60974121094 998.33544921875 995.364685058594 998.896484375 990.389343261719 984.468811035156 993.798645019531 995.26708984375 998.895874023438 992.314086914062 997.967224121094 1001.59094238281 997.281921386719 992.934631347656 990.86181640625 986.884765625 982.617614746094 980.707641601562 988.636291503906 987.746337890625 1003.25726318359 1009.33673095703 1011.14263916016 1006.3056640625 999.277160644531 1004.25598144531 1017.74035644531 1020.11779785156 1018.62451171875 1017.92742919922 1021.79376220703 1010.02056884766 1008.68811035156 1010.07604980469 1019.48162841797 1018.50079345703 1028.64172363281 1039.18725585938 1050.63879394531 1046.18188476562 1047.39050292969 1041.88024902344 1047.17749023438 1058.90771484375 1072.77038574219 1081.74365234375 1094.94787597656 1104.06359863281 1110.41223144531 1108.46655273438 1113.56225585938
944.272827148438 956.905700683594 960.153442382812 968.519287109375 961.2529296875 962.99462890625 964.350280761719 974.236206054688 972.277465820312 977.057556152344 970.718322753906 959.261535644531 956.967590332031 959.951171875 972.365356445312 974.992492675781 981.420166015625 981.067077636719 981.461181640625 979.442016601562 989.983032226562 993.765319824219 990.980102539062 987.083679199219 975.040832519531 984.0595703125 981.126708984375 985.234985351562 977.055236816406 978.130126953125 980.991149902344 989.013671875 993.0966796875 986.4404296875 993.497924804688 985.280029296875 970.905212402344 978.221069335938 984.163513183594 976.494079589844 980.244934082031 978.843017578125 981.849914550781 978.572998046875 976.208618164062 972.750854492188 977.061218261719 977.498962402344 974.094116210938 982.541687011719 973.814514160156 965.060119628906 967.448669433594 966.43212890625 974.419982910156 969.905395507812 975.022155761719 976.379211425781 982.614929199219 988.3154296875 991.246887207031 987.974426269531 988.431518554688 987.864929199219 987.072265625 991.023010253906 987.98046875 981.014038085938 982.327209472656 969.166809082031 973.230712890625 978.463500976562 973.456909179688 971.768005371094 975.904907226562 975.414672851562 974.861938476562 981.0546875 988.915710449219 993.474609375 1000.51763916016 997.229248046875 1003.48217773438 993.448852539062 994.144897460938 995.693908691406 993.97021484375 999.932861328125 1003.13781738281 1005.81005859375 1007.525390625 1012.72979736328 1012.37310791016 1002.73962402344 1008.27679443359 1007.49627685547 1000.93103027344 995.22998046875 991.490661621094 995.196594238281 994.488586425781 991.066955566406 991.221313476562 990.6015625 991.805480957031 997.966735839844 1000.53198242188 993.148071289062 993.052551269531 995.92529296875 999.745971679688 1001.09942626953 1000.38000488281 999.762084960938 999.012023925781 992.941955566406 994.242248535156 996.173217773438 994.386352539062 1001.90979003906 1009.73541259766 1002.17028808594 1003.44317626953 1004.21636962891 1006.3662109375 1005.63415527344 1012.10070800781 1014.80603027344 1020.23968505859 1020.16870117188 1010.73321533203 1010.3330078125 1011.59265136719 1014.40087890625 1017.36169433594 1026.83251953125 1033.87512207031 1053.27819824219 1050.12243652344 1043.92431640625 1046.91955566406 1046.6767578125 1059.0400390625 1076.26184082031 1081.095703125 1096.34423828125 1098.11254882812 1104.32360839844 1116.88830566406 1123.15063476562
948.489074707031 956.584838867188 964.808837890625 969.964172363281 969.330261230469 971.073547363281 963.465759277344 964.3291015625 970.871032714844 971.018676757812 969.217346191406 969.731018066406 970.012878417969 966.469970703125 970.41015625 972.238464355469 979.804321289062 979.031860351562 974.709533691406 977.378295898438 990.24658203125 979.215270996094 984.415100097656 992.325012207031 967.534973144531 968.728271484375 973.715087890625 982.179382324219 972.072692871094 981.414184570312 982.243835449219 993.19482421875 990.487976074219 972.244018554688 982.434936523438 983.684448242188 975.352722167969 979.478332519531 977.668334960938 971.475524902344 974.091064453125 986.928833007812 980.149353027344 981.293212890625 973.066650390625 980.362731933594 974.938537597656 970.26953125 975.014526367188 979.780090332031 974.367431640625 967.483093261719 966.267456054688 964.978271484375 968.099731445312 978.265869140625 979.989318847656 967.688232421875 979.862609863281 989.070007324219 991.292297363281 987.360656738281 981.5078125 990.434936523438 977.713134765625 985.56005859375 985.657043457031 983.529724121094 976.581726074219 978.848449707031 976.750793457031 979.9072265625 971.586608886719 968.947265625 968.470397949219 961.694030761719 967.722534179688 975.319641113281 989.637939453125 995.485961914062 1002.15270996094 996.146789550781 994.100708007812 997.631896972656 1004.11871337891 996.556762695312 996.305603027344 992.816284179688 994.659118652344 1003.71081542969 1008.60089111328 1011.23223876953 1014.3837890625 1002.30413818359 1010.08734130859 1004.15270996094 1001.67791748047 999.200317382812 995.302124023438 991.040954589844 982.928161621094 983.154663085938 986.752624511719 993.185729980469 999.241333007812 999.474426269531 997.240905761719 994.337646484375 985.752746582031 990.554626464844 998.064514160156 1004.8662109375 1006.85540771484 996.920776367188 1002.91967773438 1004.38555908203 997.371887207031 994.050476074219 996.003295898438 999.018981933594 1000.48718261719 1007.58947753906 1000.54034423828 1010.34796142578 1012.32635498047 1003.94769287109 999.585021972656 1012.35363769531 1014.80810546875 1016.26977539062 1023.03253173828 1015.67022705078 1013.12280273438 1014.72485351562 1016.00708007812 1034.24645996094 1040.31530761719 1053.03161621094 1047.03466796875 1053.05480957031 1054.12329101562 1061.53479003906 1068.76147460938 1078.27551269531 1091.31567382812 1101.96765136719 1116.44006347656 1114.82055664062 1125.36450195312 1129.47045898438
946.892333984375 962.383422851562 963.486511230469 965.640563964844 965.308410644531 969.8369140625 968.374206542969 965.510437011719 969.885681152344 972.371704101562 969.325012207031 970.240844726562 968.259338378906 972.725280761719 970.014587402344 976.137878417969 979.143005371094 977.442443847656 978.658020019531 988.204772949219 983.273742675781 988.197265625 988.955993652344 985.53564453125 972.676513671875 968.31787109375 969.140075683594 972.019287109375 965.330200195312 971.944580078125 982.700073242188 980.668090820312 987.557495117188 975.888610839844 979.549865722656 984.51806640625 977.768615722656 982.782165527344 973.584228515625 972.31591796875 983.062805175781 985.724060058594 988.143493652344 983.790466308594 974.746948242188 972.929382324219 975.207580566406 970.301574707031 976.715942382812 981.391418457031 985.173706054688 972.427978515625 971.898376464844 969.001586914062 977.895141601562 989.254821777344 988.732727050781 977.972045898438 975.303405761719 989.12158203125 998.521484375 991.2275390625 993.881042480469 991.514770507812 988.453491210938 984.007873535156 983.185241699219 980.7978515625 974.967224121094 969.018493652344 969.201904296875 976.610717773438 974.342651367188 970.114562988281 972.692810058594 964.568176269531 963.738525390625 965.478210449219 981.6123046875 992.460388183594 993.369934082031 995.872253417969 991.185119628906 995.700622558594 1003.4912109375 990.551086425781 1003.57678222656 997.511840820312 1000.59600830078 1001.47387695312 1006.8037109375 1005.99554443359 1003.91925048828 1002.47625732422 1003.90850830078 1007.94573974609 1002.54278564453 1003.34429931641 995.498657226562 998.540893554688 999.236511230469 994.052551269531 986.883056640625 997.78466796875 996.60888671875 1001.14086914062 991.872009277344 983.551208496094 996.089538574219 990.964233398438 991.400573730469 992.203430175781 995.1494140625 1000.16680908203 1007.75646972656 1003.822265625 994.993957519531 1001.62457275391 1000.43237304688 1004.33563232422 1002.32623291016 999.460021972656 999.273742675781 1003.64678955078 1013.42614746094 1004.35736083984 1000.892578125 1007.12994384766 1010.16638183594 1019.35510253906 1018.02307128906 1011.67517089844 1019.00103759766 1029.45495605469 1022.14086914062 1031.89196777344 1043.70678710938 1046.48168945312 1050.85192871094 1057.32531738281 1069.18481445312 1069.48852539062 1073.30249023438 1086.91967773438 1101.80407714844 1118.80944824219 1123.89172363281 1129.88916015625 1124.55078125 1124.90881347656
955.59423828125 955.064147949219 958.083557128906 961.565673828125 964.928833007812 976.839782714844 971.086059570312 966.568359375 963.095397949219 967.319641113281 967.422424316406 973.498168945312 975.603088378906 980.385070800781 974.778930664062 974.837463378906 975.763671875 979.398193359375 982.303161621094 981.938232421875 980.775451660156 992.91650390625 993.687927246094 990.108215332031 980.9169921875 969.200256347656 978.615112304688 973.043151855469 968.290649414062 977.675903320312 978.925537109375 974.667053222656 983.492492675781 978.056640625 979.356323242188 975.038452148438 980.971496582031 979.421020507812 976.979614257812 974.892150878906 980.543151855469 984.508422851562 986.018188476562 980.8984375 972.154418945312 968.599853515625 966.81103515625 976.187866210938 977.857055664062 974.621704101562 979.824401855469 974.194702148438 970.41015625 972.439636230469 984.928894042969 990.609985351562 992.395812988281 986.363403320312 987.026184082031 991.467102050781 997.640869140625 990.501342773438 998.763793945312 988.434448242188 992.378662109375 991.967895507812 978.940673828125 972.911499023438 971.132507324219 966.300476074219 963.181396484375 957.384155273438 965.417114257812 967.809326171875 968.49755859375 970.352355957031 964.06298828125 977.907775878906 978.8388671875 985.410400390625 992.90625 984.996276855469 994.976440429688 996.811828613281 996.693725585938 1002.96856689453 1000.41156005859 1003.14410400391 997.208618164062 992.794921875 997.152709960938 995.242126464844 999.261291503906 990.785705566406 994.698974609375 1001.77447509766 1002.70764160156 1003.80499267578 996.664794921875 997.469421386719 988.501342773438 993.863525390625 995.513549804688 997.2470703125 990.290649414062 994.262756347656 981.422607421875 973.555480957031 976.932922363281 980.660827636719 983.927978515625 993.928894042969 1002.43231201172 996.309936523438 1001.60577392578 1003.45599365234 996.327453613281 997.570373535156 997.428344726562 1003.72766113281 998.27685546875 1000.78491210938 1008.44018554688 1014.80194091797 1011.42419433594 1009.99938964844 1010.80487060547 1018.15216064453 1012.84484863281 1013.95129394531 1018.11193847656 1018.49798583984 1029.70495605469 1034.99060058594 1033.787109375 1038.07885742188 1043.65380859375 1049.17236328125 1047.24633789062 1063.26147460938 1066.35961914062 1067.708984375 1072.11755371094 1087.35302734375 1104.88745117188 1116.84729003906 1128.87512207031 1133.21728515625 1131.25646972656 1128.06140136719
947.3759765625 937.756103515625 948.716064453125 955.25927734375 959.675476074219 974.247619628906 966.442993164062 969.400268554688 966.760559082031 963.720886230469 964.644409179688 964.767333984375 975.96728515625 976.043334960938 973.510070800781 974.499572753906 975.261962890625 979.440795898438 982.934020996094 985.193725585938 992.287292480469 997.325927734375 996.416381835938 995.923217773438 983.114807128906 981.741577148438 978.698059082031 966.637145996094 970.676147460938 982.4013671875 988.076232910156 981.912719726562 980.537780761719 979.19384765625 978.840576171875 981.5361328125 980.554321289062 974.853942871094 980.015930175781 980.135620117188 973.775329589844 970.658142089844 976.057006835938 969.457702636719 967.478820800781 968.652038574219 973.708801269531 974.324340820312 973.506774902344 971.300659179688 972.356750488281 972.665832519531 969.347045898438 968.939819335938 971.400695800781 986.016906738281 984.956604003906 987.064575195312 987.106140136719 990.299255371094 989.087036132812 994.897583007812 989.186828613281 987.8671875 997.538818359375 992.023132324219 983.897705078125 982.272094726562 970.440856933594 968.810119628906 965.212585449219 963.378295898438 965.718322753906 971.92041015625 978.748046875 971.063537597656 969.561401367188 973.981689453125 979.327270507812 988.618835449219 984.805725097656 991.540710449219 994.281005859375 990.198913574219 995.669738769531 992.107055664062 990.226684570312 995.491943359375 990.750854492188 994.144897460938 997.279479980469 996.207458496094 990.968811035156 996.152465820312 1000.29431152344 998.482788085938 994.922546386719 998.75537109375 992.958984375 999.33740234375 991.123718261719 997.671142578125 993.051574707031 995.247375488281 990.404663085938 990.711181640625 988.456115722656 984.824829101562 977.265808105469 981.214599609375 998.708923339844 989.657104492188 991.858520507812 985.919860839844 1002.34674072266 1000.37164306641 996.074523925781 999.440856933594 996.313598632812 1004.53338623047 1004.88696289062 1003.6689453125 1001.84558105469 1009.48828125 1016.88854980469 1015.24267578125 1008.119140625 1016.94586181641 1024.71862792969 1017.6181640625 1025.31884765625 1030.83532714844 1040.30004882812 1043.41479492188 1042.10388183594 1041.54724121094 1034.81469726562 1049.47863769531 1054.52429199219 1067.9443359375 1074.06494140625 1069.49450683594 1082.35217285156 1097.59008789062 1105.6318359375 1120.20092773438 1126.01586914062 1124.25793457031 1134.36547851562 1137.34106445312
942.610900878906 946.014953613281 954.385864257812 950.553588867188 954.120971679688 957.272277832031 964.047058105469 964.660766601562 969.095947265625 961.642272949219 965.463745117188 969.713439941406 969.200134277344 976.968139648438 972.65771484375 975.567260742188 972.83251953125 970.319274902344 974.91650390625 989.203491210938 994.02099609375 991.810607910156 984.670593261719 988.635559082031 979.503845214844 974.629516601562 970.357849121094 965.991760253906 972.401916503906 981.363525390625 987.237731933594 985.131408691406 979.431335449219 982.389465332031 977.988952636719 971.614440917969 974.623962402344 977.18896484375 977.862731933594 968.2587890625 966.616394042969 969.450378417969 966.313171386719 971.226318359375 974.086242675781 979.308715820312 983.592224121094 978.588928222656 978.538330078125 978.31298828125 975.792236328125 977.043334960938 971.629211425781 963.439392089844 967.723999023438 964.107666015625 970.76806640625 974.955383300781 982.833862304688 980.507202148438 986.331909179688 984.954223632812 989.346984863281 985.470031738281 992.337890625 984.661926269531 982.572875976562 969.204406738281 966.86083984375 973.778747558594 966.52685546875 966.02490234375 973.545471191406 973.308898925781 971.538513183594 977.246887207031 971.16455078125 969.4814453125 975.093322753906 977.167785644531 982.565612792969 977.966430664062 987.503479003906 988.586242675781 994.048583984375 994.910827636719 993.35009765625 992.711486816406 989.143310546875 985.778869628906 993.877319335938 990.769409179688 985.074768066406 989.795776367188 995.930541992188 993.080017089844 992.049560546875 1000.923828125 993.144104003906 982.506408691406 999.436767578125 998.216918945312 994.5537109375 989.99853515625 1000.02801513672 983.753479003906 986.992980957031 983.193725585938 977.309936523438 987.963073730469 990.474182128906 987.136840820312 993.632934570312 989.71142578125 1002.27294921875 997.507202148438 998.471130371094 993.93701171875 991.076477050781 1002.38299560547 1007.83227539062 995.731689453125 994.132568359375 1003.46362304688 1005.60992431641 1017.26220703125 1019.13317871094 1018.93902587891 1022.69543457031 1031.68505859375 1024.43383789062 1024.90185546875 1050.41491699219 1049.25610351562 1046.39782714844 1043.25561523438 1046.44067382812 1048.45922851562 1058.96704101562 1077.49987792969 1082.42248535156 1083.76110839844 1090.83447265625 1101.447265625 1111.61755371094 1120.70532226562 1131.63232421875 1131.57263183594 1140.22131347656 1143.26440429688
947.153686523438 950.740600585938 956.403198242188 950.944702148438 952.082275390625 951.7109375 958.833801269531 956.323974609375 953.457092285156 965.423217773438 962.228942871094 969.642883300781 976.293579101562 972.584045410156 977.687927246094 962.73388671875 967.81591796875 976.049377441406 977.203857421875 980.55517578125 979.309326171875 982.674987792969 977.651977539062 973.601318359375 973.776916503906 972.880981445312 963.210876464844 963.399291992188 964.97802734375 973.986328125 983.0712890625 985.266967773438 987.874206542969 985.256774902344 972.936096191406 968.652587890625 969.5029296875 974.101013183594 979.390686035156 970.497314453125 965.053649902344 967.855712890625 968.16015625 979.761596679688 976.073852539062 978.939758300781 977.345947265625 978.089782714844 982.590759277344 982.975158691406 983.288269042969 984.60791015625 971.492065429688 972.992370605469 969.839660644531 975.272827148438 968.861145019531 966.667358398438 976.3994140625 975.845520019531 983.674743652344 985.753662109375 988.369689941406 977.353454589844 980.57275390625 982.577941894531 980.631164550781 979.149108886719 980.902954101562 975.885498046875 961.584777832031 968.482666015625 969.970153808594 964.215270996094 980.520812988281 974.169616699219 967.606750488281 973.772399902344 972.647888183594 973.532104492188 972.800903320312 989.216064453125 988.010009765625 990.699890136719 988.888793945312 991.454040527344 991.396240234375 986.936584472656 980.239196777344 980.976196289062 981.891296386719 985.770324707031 983.815368652344 994.565368652344 987.150634765625 993.155151367188 994.273986816406 988.836303710938 995.760864257812 998.859924316406 993.58935546875 992.915405273438 992.9296875 985.652282714844 984.811767578125 981.303527832031 978.081176757812 974.505859375 989.901000976562 990.1376953125 984.871398925781 992.413940429688 995.622009277344 982.604248046875 987.224975585938 997.680419921875 1001.92742919922 992.69775390625 986.605895996094 995.474548339844 998.509460449219 995.874633789062 1002.01654052734 1004.31732177734 1008.75860595703 1014.8642578125 1015.60327148438 1016.08935546875 1022.42852783203 1030.1826171875 1027.2392578125 1030.50830078125 1034.25524902344 1056.76428222656 1059.27612304688 1063.27783203125 1068.78662109375 1056.3173828125 1069.73876953125 1078.88928222656 1082.49194335938 1084.990234375 1095.66687011719 1103.16955566406 1112.24548339844 1118.31665039062 1126.79528808594 1135.52331542969 1155.67419433594 1159.28369140625
944.169128417969 947.314697265625 955.903381347656 950.001342773438 953.662170410156 953.218688964844 950.598693847656 949.574340820312 964.5283203125 966.118530273438 971.576904296875 967.229248046875 967.557678222656 970.040283203125 980.811279296875 972.825500488281 965.956970214844 977.318725585938 978.211120605469 976.578979492188 979.795654296875 981.5986328125 967.295715332031 976.255249023438 964.885864257812 970.282470703125 967.358276367188 957.743957519531 963.054748535156 972.875122070312 981.088745117188 976.306030273438 987.699279785156 984.235900878906 985.873352050781 963.028259277344 968.88134765625 967.4404296875 974.590026855469 969.017211914062 966.755493164062 961.285766601562 968.257507324219 969.317199707031 966.313537597656 974.424377441406 971.4697265625 977.038696289062 983.577514648438 982.579772949219 981.289489746094 975.302062988281 977.928344726562 967.628234863281 968.861877441406 973.638244628906 968.834106445312 970.889343261719 975.835266113281 984.135314941406 980.136779785156 981.025207519531 977.563537597656 975.237976074219 973.581420898438 975.26611328125 976.548767089844 975.551696777344 976.606811523438 968.591186523438 965.693908691406 958.742736816406 964.099487304688 964.497192382812 962.471557617188 965.510986328125 969.571655273438 977.177795410156 975.226013183594 971.332214355469 976.058166503906 975.090026855469 977.330871582031 986.56005859375 989.682861328125 991.041442871094 985.613586425781 984.971496582031 981.273315429688 982.400756835938 975.975341796875 978.559814453125 980.108703613281 988.297241210938 982.740112304688 988.960998535156 990.408264160156 996.964172363281 1002.65161132812 1002.15161132812 990.961181640625 986.880615234375 986.778259277344 978.760803222656 979.970825195312 972.400024414062 983.402893066406 974.745971679688 984.613403320312 987.360107421875 981.752868652344 995.327514648438 990.120300292969 989.810729980469 986.316467285156 1000.24224853516 993.151489257812 997.107543945312 997.122985839844 993.143737792969 999.837646484375 1003.4853515625 993.818664550781 995.78369140625 1006.43768310547 1010.9423828125 1013.67663574219 1016.53778076172 1028.48327636719 1031.63879394531 1031.71569824219 1045.20300292969 1050.37353515625 1061.28723144531 1063.11206054688 1070.57531738281 1072.197265625 1074.77709960938 1080.37475585938 1091.64660644531 1084.38854980469 1096.41564941406 1101.8798828125 1105.46264648438 1124.64733886719 1131.90490722656 1140.37585449219 1148.07409667969 1158.07739257812 1169.06921386719
945.058349609375 947.078674316406 951.635437011719 952.657043457031 946.781982421875 943.799133300781 948.404968261719 942.796203613281 954.493408203125 963.434509277344 972.266418457031 968.113403320312 967.761596679688 972.330810546875 982.337707519531 971.978820800781 977.205810546875 979.759521484375 985.903259277344 978.795166015625 978.111145019531 974.284484863281 977.781005859375 975.710815429688 978.066650390625 975.902526855469 970.90966796875 968.470397949219 966.398742675781 969.300842285156 985.987426757812 983.164489746094 986.328918457031 979.923950195312 980.481323242188 973.684692382812 968.875610351562 970.55712890625 972.8837890625 977.7138671875 967.535034179688 964.826843261719 962.92138671875 967.354797363281 970.460144042969 966.73486328125 965.688293457031 966.909973144531 974.1083984375 974.294860839844 974.952270507812 979.805908203125 974.057373046875 970.183349609375 972.844909667969 966.179870605469 966.995056152344 968.707092285156 971.0537109375 980.631042480469 984.186828613281 974.678100585938 977.306457519531 974.125061035156 978.112487792969 976.686828613281 975.264892578125 979.962219238281 970.969909667969 960.417236328125 957.814819335938 956.468505859375 963.204467773438 959.056396484375 960.855590820312 964.008544921875 967.993286132812 964.093017578125 958.189086914062 964.972839355469 974.043518066406 973.916381835938 973.533813476562 972.763977050781 978.030700683594 979.158020019531 973.847778320312 972.531066894531 983.958984375 980.4267578125 978.589111328125 971.725280761719 978.883361816406 992.776123046875 984.428283691406 988.760681152344 996.591979980469 1001.1201171875 1003.5166015625 1001.91461181641 993.864501953125 986.458190917969 984.605834960938 989.299621582031 983.716003417969 982.1728515625 987.394897460938 975.953430175781 983.024353027344 986.704956054688 984.291198730469 989.814758300781 1005.294921875 995.692016601562 996.573791503906 997.880187988281 1001.41821289062 1010.36767578125 1008.32385253906 1000.71594238281 1015.06097412109 1010.04095458984 1008.83050537109 1007.95275878906 1010.18444824219 1012.19982910156 1022.73278808594 1027.26916503906 1038.64807128906 1032.89465332031 1036.50415039062 1041.79357910156 1052.66943359375 1061.22766113281 1069.43859863281 1081.82006835938 1079.95715332031 1086.5888671875 1100.63012695312 1097.91882324219 1106.68859863281 1108.01525878906 1108.07312011719 1113.54406738281 1125.07165527344 1138.96704101562 1144.43078613281 1164.21264648438 1169.51379394531 1166.05090332031
946.300109863281 947.915710449219 954.059814453125 957.10595703125 950.963134765625 944.984191894531 956.486999511719 952.065856933594 956.467102050781 957.533142089844 955.879455566406 954.594543457031 969.607116699219 981.147766113281 975.534973144531 972.359558105469 977.774475097656 986.143615722656 984.409484863281 972.113037109375 972.549621582031 975.244934082031 976.623474121094 967.720153808594 973.467956542969 972.271850585938 962.743469238281 973.747985839844 976.066833496094 972.400756835938 978.759155273438 978.870788574219 977.993774414062 979.149719238281 979.41748046875 976.2861328125 967.948425292969 966.487731933594 981.5927734375 978.502319335938 968.253967285156 954.746032714844 957.669799804688 961.631958007812 962.492858886719 956.121459960938 961.972412109375 962.643676757812 969.181335449219 968.938049316406 971.313110351562 971.033142089844 970.789916992188 973.107299804688 966.240051269531 968.040344238281 961.968688964844 953.218627929688 966.605773925781 973.451171875 976.134155273438 974.809997558594 976.035095214844 975.949890136719 977.239685058594 976.93212890625 975.738586425781 974.657409667969 967.004150390625 958.595642089844 959.745178222656 953.743957519531 964.830871582031 962.891418457031 972.112426757812 969.009582519531 969.0732421875 964.693054199219 957.65234375 961.81982421875 970.703552246094 977.715759277344 974.655090332031 979.228881835938 982.944458007812 976.71875 976.148620605469 972.359619140625 977.288330078125 977.5576171875 980.179931640625 981.814636230469 977.167602539062 983.172607421875 985.201965332031 988.319030761719 996.274963378906 989.499206542969 1003.89172363281 997.547607421875 990.52783203125 980.054565429688 989.172058105469 994.376892089844 993.459045410156 982.002502441406 983.174560546875 986.813110351562 990.464172363281 994.854309082031 992.241027832031 996.326904296875 1004.53619384766 1003.22418212891 1004.20086669922 1000.92932128906 1000.21405029297 1007.26281738281 1012.64904785156 1007.52081298828 1018.87811279297 1009.34783935547 1004.13952636719 1018.42034912109 1012.41101074219 1016.12762451172 1018.04180908203 1029.49487304688 1032.30712890625 1035.02673339844 1038.53881835938 1046.6669921875 1050.82312011719 1056.80236816406 1070.49499511719 1080.86975097656 1078.93603515625 1091.84912109375 1100.04626464844 1104.46020507812 1108.37109375 1117.01623535156 1118.21325683594 1117.42590332031 1133.4921875 1137.69262695312 1149.20532226562 1171.04797363281 1179.22717285156 1177.20263671875
937.712829589844 948.445861816406 953.71875 963.987060546875 956.069519042969 959.765869140625 962.689819335938 967.418518066406 960.91552734375 962.8662109375 948.712707519531 951.623901367188 956.214660644531 975.21875 971.143371582031 974.158081054688 984.171508789062 977.994445800781 980.361083984375 968.29052734375 976.724548339844 974.813720703125 970.132568359375 967.984985351562 973.700439453125 964.365966796875 967.746643066406 965.780883789062 971.109985351562 979.930358886719 976.752258300781 978.16845703125 968.540100097656 967.5986328125 966.362426757812 966.433776855469 965.734985351562 972.886047363281 979.984741210938 976.298889160156 971.739440917969 971.521240234375 967.904052734375 956.147155761719 953.102722167969 960.210327148438 967.438171386719 960.123718261719 965.090515136719 967.777954101562 965.683471679688 968.772155761719 963.350341796875 962.232177734375 964.840881347656 974.634887695312 973.433898925781 966.643371582031 970.14990234375 969.505981445312 966.858215332031 962.290771484375 971.94970703125 974.114196777344 972.754760742188 973.205810546875 978.421203613281 978.828491210938 972.708068847656 972.732116699219 962.349365234375 959.729125976562 968.639404296875 970.95556640625 973.344360351562 963.5224609375 973.219848632812 966.940368652344 956.101257324219 962.789123535156 969.849060058594 963.549621582031 967.461486816406 976.121459960938 972.529968261719 977.166259765625 975.481262207031 971.767456054688 972.600036621094 971.716369628906 971.506591796875 981.954772949219 976.217529296875 980.717468261719 986.287719726562 980.534057617188 994.046081542969 990.956726074219 995.596496582031 997.910217285156 989.812194824219 981.260803222656 992.454040527344 1000.7451171875 995.340087890625 995.413269042969 992.226196289062 994.104614257812 996.127990722656 996.487182617188 1002.19952392578 993.619079589844 998.689025878906 1004.6484375 994.4296875 1004.73651123047 1008.98718261719 1014.33087158203 1017.27197265625 1017.49591064453 1019.33813476562 1006.99591064453 1013.02465820312 1017.2080078125 1012.61492919922 1015.35217285156 1028.45983886719 1030.51184082031 1032.31103515625 1048.162109375 1045.11633300781 1052.32153320312 1055.36364746094 1060.85290527344 1074.69848632812 1081.97790527344 1093.11145019531 1095.92456054688 1097.67785644531 1102.498046875 1111.60656738281 1112.24792480469 1119.27612304688 1126.13110351562 1135.3203125 1135.59265136719 1148.94506835938 1154.55578613281 1163.48217773438 1164.61572265625
943.231018066406 951.140258789062 949.869262695312 957.380187988281 956.856750488281 964.366882324219 958.541748046875 962.747436523438 963.801879882812 952.289611816406 949.558471679688 946.140930175781 958.101501464844 962.607055664062 976.7216796875 990.19482421875 977.572998046875 981.201477050781 975.176025390625 976.791687011719 969.398315429688 977.105712890625 974.824157714844 965.017456054688 964.221618652344 957.840637207031 969.237854003906 965.111267089844 964.479553222656 979.284606933594 981.93115234375 980.407165527344 967.794494628906 972.027465820312 959.144409179688 966.010498046875 960.520324707031 971.886108398438 971.220397949219 972.683044433594 972.529235839844 968.262939453125 970.771240234375 962.264099121094 966.102355957031 960.287963867188 957.540893554688 959.248657226562 963.051696777344 972.15234375 974.29248046875 971.264404296875 966.66845703125 962.397155761719 969.153015136719 971.998229980469 964.077697753906 968.988586425781 973.624267578125 970.069091796875 970.395690917969 965.56494140625 971.949035644531 964.997924804688 966.022338867188 972.994323730469 974.560363769531 977.533142089844 973.33984375 970.053527832031 964.76708984375 957.044372558594 964.26123046875 967.471557617188 973.879333496094 973.604919433594 964.576171875 959.690734863281 958.481018066406 965.249572753906 967.695556640625 971.228637695312 969.283203125 980.125549316406 968.281860351562 965.291076660156 966.179809570312 973.447204589844 967.114074707031 974.336669921875 975.87939453125 977.32861328125 973.393005371094 978.545776367188 978.455139160156 980.8359375 992.354064941406 981.049743652344 982.310974121094 988.05810546875 983.535278320312 977.709167480469 980.002563476562 983.090393066406 990.709106445312 990.544799804688 991.721862792969 1006.91223144531 1013.59088134766 1006.5361328125 992.841186523438 1000.48577880859 991.273681640625 1001.865234375 998.719482421875 1003.03747558594 1012.32739257812 1016.35083007812 1016.89721679688 1022.04742431641 1015.97802734375 1015.32769775391 1017.65539550781 1019.61541748047 1017.95562744141 1026.06860351562 1029.41625976562 1038.41638183594 1030.43359375 1039.75439453125 1040.9521484375 1053.49609375 1067.92211914062 1064.921875 1074.65795898438 1087.74011230469 1086.26000976562 1090.15368652344 1096.93225097656 1106.37243652344 1101.99914550781 1111.36535644531 1124.67529296875 1142.07763671875 1133.521484375 1144.05578613281 1146.18603515625 1149.87902832031 1143.24951171875 1158.59912109375
946.49658203125 948.194641113281 955.545654296875 956.592468261719 949.838745117188 965.527038574219 967.219970703125 967.134521484375 967.315979003906 963.819396972656 958.117065429688 951.323364257812 962.820373535156 970.915954589844 980.921997070312 976.314331054688 980.262084960938 977.505859375 972.826416015625 965.73095703125 964.671020507812 966.576843261719 965.110107421875 960.703063964844 967.164611816406 968.526794433594 961.363830566406 969.033203125 962.832885742188 973.393920898438 968.4462890625 966.233642578125 971.855834960938 963.368286132812 965.259948730469 966.835388183594 971.527282714844 970.540710449219 963.499694824219 969.733764648438 968.7109375 964.751892089844 962.676818847656 962.66162109375 962.651184082031 957.284973144531 966.427673339844 967.059814453125 976.730041503906 970.877380371094 967.577514648438 969.078979492188 976.767639160156 972.219604492188 965.003234863281 964.70654296875 963.324584960938 961.781005859375 967.178344726562 969.059692382812 965.932922363281 964.636413574219 956.483032226562 959.626770019531 962.427062988281 962.73779296875 969.396667480469 969.919128417969 966.1982421875 973.265747070312 964.995178222656 960.110900878906 964.731689453125 959.750793457031 968.179870605469 970.057434082031 967.377990722656 964.2900390625 966.628723144531 966.201843261719 967.466186523438 974.771789550781 968.85107421875 969.043701171875 971.028747558594 961.944702148438 971.522399902344 970.00927734375 968.770080566406 976.9697265625 981.029479980469 973.966857910156 966.984252929688 977.739868164062 977.703491210938 988.5009765625 985.134643554688 979.78759765625 983.368774414062 979.703979492188 973.483093261719 977.023742675781 980.622253417969 986.914123535156 983.762451171875 994.193969726562 999.937438964844 1005.73028564453 1005.14587402344 999.571044921875 990.180847167969 999.14794921875 996.439636230469 998.343200683594 989.703918457031 1000.58276367188 1012.82586669922 1015.60980224609 1017.21875 1013.83306884766 1013.56048583984 1016.89465332031 1015.13720703125 1023.34313964844 1029.10266113281 1038.61535644531 1037.93957519531 1039.048828125 1041.06823730469 1039.06298828125 1049.99670410156 1056.751953125 1067.81689453125 1076.203125 1077.5166015625 1086.97937011719 1090.82434082031 1085.40075683594 1097.78198242188 1108.75524902344 1105.06774902344 1104.21166992188 1127.34545898438 1132.5654296875 1137.05603027344 1132.765625 1136.61315917969 1142.16931152344 1142.79077148438 1143.21850585938
958.271667480469 957.475280761719 949.625427246094 952.508850097656 949.391235351562 953.730590820312 972.989013671875 967.682312011719 966.883666992188 966.4033203125 969.526184082031 961.384948730469 965.072265625 965.020812988281 974.236999511719 973.827026367188 980.064758300781 973.3759765625 975.502563476562 965.703247070312 964.786437988281 963.55712890625 961.595397949219 957.502807617188 961.616760253906 963.255615234375 960.505676269531 969.718811035156 970.145812988281 961.735961914062 964.686218261719 960.710632324219 964.235534667969 959.082641601562 967.379333496094 970.252868652344 965.255249023438 957.254211425781 957.62109375 968.043823242188 973.191284179688 962.116821289062 971.534729003906 969.42138671875 965.630310058594 957.061828613281 956.385375976562 965.444702148438 965.314208984375 974.244506835938 965.210693359375 971.741821289062 972.984619140625 972.3427734375 960.976013183594 966.26220703125 959.850036621094 961.276000976562 971.588317871094 961.824035644531 966.152099609375 972.161193847656 956.908386230469 955.02880859375 951.017883300781 958.834228515625 962.002563476562 958.4482421875 971.596618652344 966.492309570312 958.128051757812 965.51318359375 964.542785644531 967.494934082031 967.391052246094 966.713439941406 971.423889160156 963.327514648438 968.129028320312 974.273254394531 976.183227539062 970.58837890625 975.042419433594 971.40869140625 964.615905761719 969.295959472656 966.987609863281 970.191223144531 970.841369628906 968.550476074219 972.145324707031 969.293395996094 974.218505859375 979.504943847656 977.667541503906 982.211303710938 981.0986328125 977.1455078125 985.07470703125 973.802856445312 973.602416992188 971.45849609375 979.585815429688 981.804443359375 984.262573242188 993.173706054688 1001.11614990234 998.187377929688 996.820068359375 992.239379882812 992.110473632812 993.478210449219 983.124572753906 995.473754882812 996.900756835938 1002.54827880859 1007.78851318359 1008.51220703125 1012.39971923828 1010.41015625 1015.80480957031 1021.07946777344 1023.17541503906 1020.73083496094 1038.60070800781 1034.19689941406 1042.24365234375 1040.63598632812 1046.02734375 1040.75427246094 1052.27075195312 1064.94653320312 1071.08349609375 1072.10461425781 1077.91284179688 1093.12939453125 1103.81896972656 1098.65014648438 1094.27722167969 1104.76538085938 1110.47839355469 1106.27014160156 1117.10717773438 1125.15295410156 1124.98486328125 1135.88903808594 1129.87097167969 1133.09118652344 1131.98693847656 1143.21069335938
