NCOLS 150
NROWS 37
XLLCORNER 7394249
YLLCORNER 4842239
CELLSIZE 30
NODATA_VALUE -9999
972.810302734375 963.7314453125 964.356994628906 978.632141113281 978.39501953125 972.114868164062 975.174499511719 973.064697265625 969.857177734375 960.299255371094 962.694152832031 966.348999023438 958.068542480469 958.877319335938 971.589599609375 979.294128417969 978.403991699219 971.53857421875 972.860473632812 964.645202636719 972.488525390625 960.724060058594 962.00439453125 964.179016113281 961.775695800781 951.643310546875 947.301452636719 954.616882324219 950.458129882812 954.45556640625 965.807739257812 973.70166015625 967.427307128906 956.933532714844 967.372619628906 972.150390625 969.836242675781 961.692260742188 963.462036132812 956.1962890625 956.371704101562 958.402893066406 958.157592773438 950.192260742188 957.260986328125 961.519409179688 962.468444824219 957.234130859375 958.859375 957.301696777344 952.883483886719 946.376098632812 945.913452148438 944.9267578125 949.92578125 958.510681152344 959.592468261719 955.559814453125 948.637756347656 951.984008789062 955.031127929688 951.242004394531 952.045654296875 954.042297363281 957.033935546875 961.623168945312 956.687133789062 952.841186523438 956.067199707031 958.337524414062 963.645446777344 967.292358398438 962.249328613281 957.481750488281 958.561096191406 957.803771972656 956.97900390625 957.83544921875 963.484069824219 963.801635742188 956.673278808594 955.269836425781 957.608520507812 957.959289550781 956.562072753906 962.081420898438 961.072326660156 968.065063476562 964.040710449219 964.705505371094 973.895935058594 964.265441894531 968.2763671875 973.927429199219 968.650024414062 966.474914550781 976.042358398438 982.052490234375 984.691833496094 975.983642578125 975.592224121094 972.358154296875 963.85791015625 977.647399902344 968.972717285156 972.644104003906 978.500671386719 983.37353515625 980.08154296875 981.04443359375 977.993591308594 983.981872558594 982.678955078125 990.969055175781 982.170166015625 988.587707519531 1002.779296875 998.615234375 998.640808105469 1001.78405761719 1007.33996582031 1017.13116455078 1017.29821777344 1014.13928222656 1009.67260742188 1014.07147216797 1034.27758789062 1031.82080078125 1019.07232666016 1024.72839355469 1033.16809082031 1050.47827148438 1055.95849609375 1067.12670898438 1075.46105957031 1083.23742675781 1091.728515625 1099.56518554688 1087.55407714844 1082.49597167969 1077.47924804688 1074.37719726562 1061.33154296875 1064.4921875 1064.60534667969 1062.46508789062 1064.52331542969 1065.89501953125 1066.90417480469 1072.00122070312
974.643981933594 976.118835449219 968.472839355469 971.214294433594 968.236206054688 972.827575683594 975.227111816406 973.514709472656 967.768981933594 964.156005859375 966.426391601562 959.719299316406 956.176330566406 967.297485351562 966.164367675781 965.646728515625 970.047485351562 967.797546386719 973.835876464844 968.650085449219 970.524719238281 965.704040527344 961.845581054688 967.881469726562 952.788696289062 949.048156738281 952.768005371094 947.427307128906 949.134887695312 958.785400390625 972.027221679688 966.442749023438 959.9365234375 959.761596679688 959.130920410156 965.367736816406 967.348815917969 974.888488769531 970.936218261719 965.105224609375 950.946411132812 952.96630859375 954.018737792969 957.463500976562 957.007385253906 952.479125976562 953.423156738281 959.623474121094 966.8837890625 960.047058105469 955.692810058594 949.378662109375 949.468139648438 942.03955078125 950.684631347656 955.6298828125 950.338012695312 947.945678710938 956.847473144531 965.467346191406 954.533325195312 947.299621582031 946.551940917969 949.289001464844 952.586120605469 953.932983398438 955.699768066406 950.10693359375 954.07373046875 966.477478027344 972.037902832031 969.559997558594 957.529602050781 957.559631347656 960.810424804688 959.150634765625 955.990478515625 959.728210449219 960.973876953125 964.431518554688 959.392211914062 957.465393066406 958.675598144531 953.595153808594 962.333312988281 966.583923339844 967.453796386719 965.735046386719 964.905151367188 967.0791015625 968.637573242188 967.76806640625 972.959045410156 975.055114746094 976.268798828125 964.750366210938 968.964111328125 983.997436523438 979.8369140625 978.301147460938 975.939880371094 979.0908203125 974.936828613281 968.761535644531 973.877014160156 975.972229003906 979.650024414062 977.091125488281 981.8623046875 979.687438964844 980.470092773438 983.082763671875 986.006958007812 986.1279296875 979.947387695312 986.124938964844 989.671630859375 993.079650878906 991.919189453125 993.109802246094 998.456970214844 1016.54284667969 1009.21026611328 1006.76751708984 1006.34240722656 1014.88269042969 1028.3291015625 1034.69873046875 1036.40209960938 1039.82897949219 1048.72485351562 1059.07788085938 1070.41552734375 1071.54479980469 1076.70678710938 1083.84497070312 1087.87841796875 1079.72302246094 1078.95251464844 1080.27624511719 1071.53308105469 1061.19274902344 1056.10437011719 1057.97888183594 1060.8134765625 1058.85388183594 1062.12353515625 1071.24475097656 1075.27978515625 1070.51672363281
970.708984375 968.705444335938 974.441528320312 969.584167480469 974.998413085938 971.77294921875 971.117065429688 970.554748535156 962.6064453125 960.927368164062 963.167602539062 957.598999023438 961.03857421875 962.357238769531 958.679626464844 966.744506835938 971.277465820312 964.292663574219 965.386291503906 974.343811035156 962.382629394531 966.357971191406 968.960327148438 960.562866210938 955.018676757812 952.212646484375 949.173767089844 947.946350097656 957.445983886719 957.80224609375 961.92333984375 956.752563476562 958.094116210938 959.675964355469 969.42138671875 969.012634277344 966.73388671875 960.391174316406 965.679748535156 949.919250488281 951.363952636719 952.3115234375 953.371765136719 953.051513671875 960.460815429688 954.730773925781 957.928405761719 957.915771484375 959.43017578125 958.337951660156 954.039611816406 950.199157714844 961.713684082031 951.703491210938 952.868225097656 947.545776367188 950.550720214844 948.158142089844 954.290466308594 962.707153320312 958.498352050781 948.296936035156 954.192749023438 947.814636230469 955.383239746094 954.804931640625 956.158264160156 951.950561523438 950.45654296875 963.868347167969 971.202209472656 962.078247070312 961.707885742188 962.465698242188 962.284606933594 963.551818847656 968.197692871094 963.716125488281 957.801940917969 965.088745117188 967.300048828125 949.721801757812 949.308654785156 963.620483398438 966.7353515625 966.989135742188 970.002136230469 970.238586425781 974.825317382812 972.456176757812 973.693481445312 968.28857421875 968.841735839844 978.13037109375 977.793579101562 973.228149414062 974.179626464844 984.576904296875 980.2705078125 976.39697265625 982.144592285156 980.378112792969 984.795654296875 968.189636230469 968.308410644531 977.562683105469 984.652526855469 985.538208007812 992.401916503906 988.015014648438 983.900512695312 987.819702148438 995.049011230469 990.899963378906 986.061218261719 991.574401855469 989.071899414062 984.587158203125 986.662353515625 992.088562011719 1007.80804443359 1006.73712158203 998.223327636719 1001.5546875 1002.67199707031 1011.85717773438 1021.99200439453 1034.21264648438 1026.4375 1040.04138183594 1059.82104492188 1061.3017578125 1069.71984863281 1069.22521972656 1074.47314453125 1080.7119140625 1070.35314941406 1071.00805664062 1063.30944824219 1064.32934570312 1059.6318359375 1060.80517578125 1051.83544921875 1048.25341796875 1049.00378417969 1059.0400390625 1071.06274414062 1065.560546875 1076.712890625 1071.54284667969
977.354431152344 971.834289550781 970.623657226562 972.808837890625 973.118041992188 965.213684082031 967.553955078125 964.958374023438 972.872253417969 965.816223144531 964.689086914062 960.932006835938 962.721130371094 954.360168457031 960.539733886719 958.282775878906 960.493835449219 964.475891113281 959.518798828125 962.322204589844 965.640380859375 967.752868652344 968.211364746094 964.135009765625 956.771911621094 953.327880859375 947.867492675781 959.448059082031 950.242309570312 969.361999511719 964.089965820312 956.338012695312 963.823181152344 961.35791015625 958.690979003906 957.341979980469 962.279357910156 951.436096191406 954.166625976562 944.854858398438 956.202392578125 958.544799804688 957.772216796875 959.200622558594 960.689086914062 959.844421386719 950.327514648438 951.964904785156 951.718139648438 961.709899902344 954.670227050781 955.601318359375 962.677856445312 963.727294921875 963.123107910156 956.164367675781 955.215515136719 950.554016113281 948.312866210938 960.310424804688 966.066589355469 954.350280761719 959.208984375 954.351257324219 955.858276367188 959.378967285156 966.839782714844 965.625183105469 959.989318847656 962.121643066406 963.720275878906 964.930908203125 960.263061523438 960.419006347656 962.537902832031 971.752258300781 970.754821777344 971.98046875 962.370422363281 959.258605957031 955.774597167969 956.349426269531 962.295837402344 969.391540527344 962.558288574219 961.109313964844 965.006896972656 971.056884765625 966.406982421875 964.054931640625 966.541870117188 958.517944335938 974.656005859375 978.145385742188 971.532043457031 977.436767578125 980.974426269531 984.828308105469 982.549865722656 981.19384765625 992.638549804688 987.746337890625 981.275817871094 979.381591796875 977.26318359375 983.188110351562 990.463012695312 993.850463867188 1003.27526855469 993.923034667969 995.269653320312 986.602416992188 990.993041992188 993.798156738281 987.206787109375 988.238952636719 994.576477050781 994.835327148438 988.642944335938 993.874816894531 1004.359375 1004.28887939453 1003.14215087891 1012.26324462891 1004.0078125 1012.49768066406 1018.32183837891 1033.23669433594 1036.36865234375 1045.77758789062 1060.96301269531 1062.75170898438 1063.54724121094 1065.56555175781 1069.68786621094 1075.78735351562 1071.49194335938 1063.54675292969 1064.88195800781 1059.6474609375 1055.35803222656 1055.23962402344 1053.79028320312 1052.94763183594 1062.31555175781 1059.59558105469 1055.27673339844 1051.40283203125 1067.28015136719 1069.01904296875
977.989135742188 973.088195800781 969.722595214844 970.504821777344 973.971984863281 971.420166015625 972.802856445312 967.544006347656 978.464965820312 964.053039550781 968.966125488281 963.061279296875 967.440124511719 964.221496582031 960.819885253906 964.127868652344 967.888244628906 959.842834472656 954.709350585938 961.641174316406 957.171508789062 963.595764160156 974.934997558594 968.362548828125 964.637878417969 953.475036621094 950.587768554688 951.02294921875 955.401916503906 963.363159179688 963.343811035156 954.589477539062 964.665771484375 956.255249023438 955.532592773438 962.301818847656 955.945373535156 954.021850585938 956.739807128906 950.721008300781 949.039733886719 954.869140625 952.666442871094 956.004333496094 958.017639160156 962.361022949219 954.261962890625 958.158508300781 959.075378417969 955.573486328125 956.390319824219 957.602600097656 956.360534667969 960.3193359375 960.546691894531 948.388854980469 955.505493164062 952.02978515625 956.768249511719 958.726806640625 963.617919921875 958.337158203125 968.145202636719 963.302795410156 963.662658691406 966.280212402344 965.384582519531 970.395935058594 958.442626953125 957.779052734375 963.9521484375 966.011047363281 954.42919921875 965.122741699219 967.666931152344 972.370666503906 971.040649414062 961.224731445312 967.00146484375 963.739990234375 957.411804199219 962.093566894531 962.377258300781 969.870483398438 959.160339355469 961.730346679688 968.231384277344 968.259948730469 964.331604003906 956.633117675781 967.030700683594 958.012390136719 970.506469726562 963.750122070312 970.417724609375 975.1796875 980.502075195312 985.311950683594 991.104919433594 991.059631347656 990.108764648438 985.864501953125 982.773376464844 980.466613769531 980.121154785156 981.915771484375 990.755920410156 997.770629882812 1000.92047119141 991.239440917969 997.224853515625 993.995178222656 996.870056152344 995.158752441406 991.655639648438 986.884887695312 991.544982910156 992.598999023438 988.674621582031 993.337036132812 1000.66009521484 999.587341308594 1008.14642333984 1007.03076171875 1010.88409423828 1010.18524169922 1015.08441162109 1032.86303710938 1038.17749023438 1044.50378417969 1062.64575195312 1061.07250976562 1056.67834472656 1069.09912109375 1070.3408203125 1066.30310058594 1066.33483886719 1062.28894042969 1056.43225097656 1052.58044433594 1051.43005371094 1053.48254394531 1045.70861816406 1043.76477050781 1055.71496582031 1061.7490234375 1057.23461914062 1058.11303710938 1057.53967285156 1063.75476074219
970.329467773438 959.71435546875 965.989685058594 978.334411621094 974.575561523438 970.585266113281 969.439697265625 982.778747558594 976.372619628906 959.888000488281 954.908752441406 954.628356933594 958.243225097656 969.747436523438 964.4267578125 958.865539550781 966.041931152344 952.208129882812 956.647216796875 960.43994140625 956.088256835938 963.625366210938 963.614196777344 961.321960449219 958.952941894531 959.637939453125 960.990905761719 951.651428222656 955.983276367188 957.682861328125 957.061706542969 948.403625488281 953.567199707031 952.081665039062 949.685546875 959.048278808594 958.101501464844 943.682983398438 950.034423828125 958.25537109375 951.883239746094 950.7236328125 955.295288085938 954.141174316406 947.218078613281 957.180786132812 962.26171875 963.179443359375 959.228820800781 956.231384277344 957.386596679688 957.662475585938 948.421325683594 958.508239746094 958.820129394531 955.811889648438 946.97021484375 947.028930664062 953.523864746094 958.3994140625 958.068542480469 969.335571289062 968.479431152344 974.439270019531 973.179443359375 972.469787597656 971.193420410156 962.537475585938 965.666320800781 965.8369140625 962.985107421875 961.16455078125 953.239440917969 964.39990234375 968.151306152344 966.412963867188 960.773620605469 960.774108886719 963.173278808594 967.974609375 968.489562988281 960.465148925781 961.312377929688 967.229248046875 966.18994140625 967.116516113281 970.687133789062 965.893859863281 967.468505859375 970.506469726562 974.571594238281 965.288269042969 966.042114257812 964.774169921875 973.552978515625 979.019653320312 973.580017089844 988.857177734375 991.052734375 1002.68115234375 991.307739257812 991.183044433594 977.179504394531 981.620300292969 977.689270019531 984.228576660156 989.489685058594 993.845092773438 1002.98876953125 1001.84393310547 1001.32391357422 998.45458984375 996.788269042969 1005.78314208984 996.056457519531 985.88720703125 988.428588867188 999.205932617188 1001.16400146484 1002.08459472656 1000.24426269531 1000.50531005859 1004.76379394531 1013.97094726562 1015.69171142578 1012.60089111328 1016.20922851562 1022.54083251953 1034.22619628906 1039.14990234375 1056.63427734375 1062.51110839844 1060.89624023438 1072.51977539062 1063.31640625 1055.18298339844 1059.06225585938 1059.34118652344 1065.7958984375 1055.97009277344 1046.38732910156 1042.23217773438 1034.42004394531 1039.02624511719 1041.65966796875 1044.25061035156 1050.8310546875 1048.10974121094 1048.37329101562 1057.1328125
956.52880859375 964.226440429688 972.388427734375 968.394592285156 974.882202148438 970.921447753906 968.914306640625 969.07958984375 966.977355957031 966.413757324219 955.552429199219 954.713623046875 954.422302246094 960.743774414062 954.458312988281 960.109191894531 957.064514160156 954.455139160156 958.287170410156 954.101135253906 952.423950195312 958.991333007812 961.749145507812 959.294006347656 953.725830078125 955.219665527344 954.7041015625 950.171813964844 948.86328125 953.160583496094 954.336242675781 951.268920898438 954.818542480469 953.778015136719 954.659973144531 954.618774414062 948.219177246094 944.316467285156 951.914428710938 948.068908691406 942.644897460938 950.005187988281 953.118408203125 953.100952148438 954.871154785156 958.529724121094 967.534606933594 963.499267578125 962.696044921875 962.440612792969 958.384948730469 952.140991210938 953.621887207031 945.419677734375 952.662475585938 954.809875488281 952.481079101562 956.41162109375 954.1591796875 963.642700195312 963.773071289062 964.863586425781 975.065612792969 976.381469726562 983.356811523438 980.905456542969 970.963684082031 968.759155273438 962.289306640625 962.620544433594 973.361328125 963.721618652344 960.176086425781 968.365356445312 965.93896484375 966.228210449219 960.700927734375 959.173278808594 963.221862792969 966.958923339844 977.488525390625 968.470336914062 968.72900390625 968.992309570312 973.021789550781 971.236633300781 970.094787597656 966.005187988281 964.127563476562 966.327270507812 967.610656738281 964.010314941406 962.143859863281 977.961059570312 978.273986816406 969.792053222656 973.031005859375 977.004516601562 987.133605957031 984.649658203125 991.836303710938 986.418334960938 981.838623046875 984.432434082031 984.124572753906 986.564453125 991.313842773438 995.482482910156 1000.57897949219 999.058044433594 1000.75964355469 1003.15655517578 1008.02569580078 1006.21099853516 1018.19842529297 1006.20611572266 996.725708007812 999.700012207031 1004.8857421875 1009.69812011719 1000.59875488281 995.60107421875 1004.69793701172 1023.74542236328 1020.857421875 1022.10137939453 1022.90191650391 1022.36462402344 1030.60778808594 1043.04174804688 1051.37536621094 1053.23596191406 1053.75109863281 1061.85815429688 1048.15148925781 1046.75061035156 1052.2900390625 1053.22021484375 1057.35083007812 1051.21484375 1042.09094238281 1029.61071777344 1034.30419921875 1029.21667480469 1035.92431640625 1035.09631347656 1031.94787597656 1041.65795898438 1046.91223144531 1051.5966796875
957.307739257812 953.888610839844 963.918273925781 964.998046875 970.975524902344 961.591186523438 951.881652832031 958.954711914062 958.085327148438 956.953247070312 967.426452636719 956.71630859375 952.362731933594 944.222473144531 950.976318359375 953.100891113281 949.538269042969 940.401306152344 948.062438964844 951.666625976562 949.0546875 957.045532226562 956.15625 956.110168457031 951.217224121094 953.018188476562 952.568603515625 952.79150390625 946.754028320312 948.192932128906 946.324096679688 950.712158203125 952.438354492188 950.370056152344 954.298645019531 946.556030273438 949.798095703125 957.376342773438 945.256652832031 948.817810058594 944.578002929688 949.261413574219 952.707153320312 958.546875 962.010986328125 962.901916503906 960.874206542969 969.367614746094 965.5380859375 970.243713378906 966.121887207031 959.0498046875 952.893859863281 948.661071777344 959.82861328125 956.633483886719 960.551574707031 966.816589355469 960.619140625 967.543334960938 962.676025390625 968.513488769531 972.796203613281 976.744689941406 975.141357421875 986.037353515625 976.516845703125 974.109313964844 970.994140625 961.632873535156 972.542846679688 978.894409179688 970.758056640625 966.050231933594 971.304931640625 968.159912109375 967.720825195312 970.062927246094 964.525634765625 972.466125488281 978.782348632812 965.526672363281 971.98486328125 979.236694335938 974.035339355469 966.083740234375 976.372314453125 970.241638183594 970.462829589844 971.779846191406 968.046630859375 965.347534179688 969.765930175781 978.589172363281 974.985412597656 980.851135253906 973.452941894531 974.957763671875 985.193664550781 978.706970214844 983.954406738281 980.571166992188 985.284545898438 987.24755859375 990.853942871094 987.168395996094 985.0751953125 997.42626953125 1005.47479248047 1005.43597412109 1007.83959960938 1011.43487548828 1005.54846191406 1000.90307617188 1003.51049804688 1002.12438964844 1008.40460205078 998.275817871094 1001.35870361328 998.078186035156 997.215026855469 994.485717773438 1009.68334960938 1020.85510253906 1026.53784179688 1021.29058837891 1028.15051269531 1039.83752441406 1039.50158691406 1046.14636230469 1043.97180175781 1054.39306640625 1043.52209472656 1045.4365234375 1040.6884765625 1049.26416015625 1042.20556640625 1050.88513183594 1051.23828125 1045.63635253906 1036.23815917969 1017.40875244141 1023.78100585938 1035.95874023438 1030.90454101562 1029.78820800781 1027.23962402344 1028.056640625 1028.96594238281 1024.1689453125
958.124694824219 957.18505859375 956.921203613281 962.867919921875 963.992309570312 957.652038574219 958.614868164062 959.0927734375 960.585205078125 957.124877929688 959.64306640625 948.097717285156 948.257995605469 948.575012207031 945.921203613281 949.768005371094 945.857116699219 938.150329589844 940.237976074219 945.884155273438 944.464782714844 946.869750976562 945.730712890625 953.057861328125 954.709228515625 952.308410644531 954.291931152344 950.840942382812 944.646484375 944.166137695312 948.557678222656 946.266906738281 941.4755859375 954.712829589844 952.306457519531 944.849914550781 942.357666015625 955.217407226562 955.198852539062 950.486999511719 952.357421875 952.036376953125 956.102966308594 957.138427734375 957.447326660156 960.387268066406 961.250122070312 964.566589355469 965.742431640625 969.535522460938 963.135009765625 971.105834960938 959.071655273438 961.205810546875 961.894836425781 961.282348632812 961.866455078125 966.099243164062 972.578491210938 974.224914550781 971.986022949219 979.711669921875 975.324584960938 978.048034667969 976.502075195312 984.54296875 974.803100585938 968.912109375 975.073547363281 971.697448730469 974.62060546875 972.410766601562 968.911987304688 967.073181152344 957.09765625 970.709838867188 967.648864746094 975.252197265625 969.734313964844 976.403503417969 972.807861328125 978.164978027344 979.85986328125 978.256530761719 980.451171875 972.767272949219 977.682861328125 976.057312011719 976.866760253906 968.216918945312 971.072937011719 969.631103515625 966.620666503906 976.108825683594 979.701354980469 988.804077148438 978.12548828125 985.631652832031 990.236389160156 981.913024902344 978.253356933594 981.873413085938 985.994934082031 985.170959472656 990.123962402344 991.757080078125 994.733520507812 997.376708984375 1007.59423828125 1006.22119140625 1016.55462646484 1010.58746337891 1004.17993164062 1009.79107666016 1001.29852294922 1001.67028808594 1003.25708007812 1004.21826171875 1005.62377929688 1004.29254150391 1004.85089111328 1001.84576416016 1016.37176513672 1014.76947021484 1013.19744873047 1019.55352783203 1032.10363769531 1031.78735351562 1040.0849609375 1033.78210449219 1045.33630371094 1051.87463378906 1051.77355957031 1050.20056152344 1038.33728027344 1041.04382324219 1036.85754394531 1040.00463867188 1050.384765625 1047.11584472656 1027.7294921875 1029.24987792969 1022.06164550781 1031.31103515625 1027.71899414062 1030.91381835938 1023.58020019531 1021.96704101562 1022.62542724609 1020.07574462891
959.588195800781 947.385864257812 956.552429199219 963.771667480469 957.61962890625 961.375732421875 956.867858886719 957.057983398438 956.109252929688 958.5234375 946.624816894531 948.50927734375 952.274963378906 949.511657714844 950.504577636719 946.744812011719 941.350524902344 935.91943359375 935.7802734375 938.760498046875 947.39697265625 946.583557128906 947.243530273438 949.598388671875 954.268249511719 951.889343261719 957.337585449219 943.711364746094 947.505187988281 948.189025878906 951.222900390625 949.164184570312 943.674926757812 941.828491210938 943.950866699219 943.705383300781 947.46875 955.853210449219 948.838928222656 945.997985839844 951.538940429688 953.008911132812 962.937133789062 967.881896972656 957.843994140625 963.516174316406 957.009582519531 965.341796875 964.599853515625 971.315979003906 962.371276855469 961.024719238281 963.952270507812 959.85546875 964.041015625 958.622375488281 963.644714355469 966.759216308594 969.91943359375 975.5283203125 980.408874511719 976.255126953125 977.435913085938 970.290466308594 972.955810546875 973.130676269531 972.259704589844 968.432006835938 969.980041503906 971.780456542969 978.572570800781 975.515625 972.193908691406 959.830383300781 955.512634277344 965.885192871094 965.38525390625 972.861999511719 967.010864257812 972.050903320312 975.146911621094 981.660583496094 980.449279785156 985.509216308594 982.092529296875 979.941955566406 987.646606445312 984.434020996094 980.468872070312 974.037719726562 972.253356933594 970.639343261719 965.686340332031 976.997253417969 982.522216796875 985.094848632812 981.800598144531 985.071594238281 986.73486328125 984.230651855469 979.291381835938 987.095458984375 984.038330078125 985.079040527344 990.719177246094 998.993896484375 996.037780761719 995.289367675781 998.225036621094 1002.34649658203 1006.55725097656 1006.57916259766 1010.73944091797 1008.84216308594 1003.21734619141 991.451538085938 1003.39343261719 1007.50335693359 1009.49108886719 1015.60101318359 1019.42419433594 1016.19506835938 1015.93048095703 1019.30004882812 1021.69506835938 1020.36657714844 1029.560546875 1034.9736328125 1042.14990234375 1038.2294921875 1049.04187011719 1049.43627929688 1045.42236328125 1046.71057128906 1035.59362792969 1034.89624023438 1033.10400390625 1041.40014648438 1040.50830078125 1044.86291503906 1030.11218261719 1028.38647460938 1024.06188964844 1023.27954101562 1029.59899902344 1019.39691162109 1020.82696533203 1026.47583007812 1015.36883544922 1017.28747558594
952.616638183594 947.913269042969 946.293090820312 948.572814941406 960.582214355469 960.747497558594 955.335144042969 949.921936035156 943.939819335938 952.605651855469 950.566833496094 943.382995605469 936.27685546875 948.201904296875 944.375854492188 950.380187988281 935.959899902344 935.806335449219 938.400024414062 939.479614257812 943.41162109375 940.965270996094 944.441101074219 951.974060058594 945.891418457031 951.7490234375 942.412780761719 953.389709472656 948.754272460938 947.3359375 946.449096679688 960.606140136719 954.174987792969 944.510192871094 943.228393554688 944.947021484375 945.593566894531 947.639526367188 953.310668945312 950.785827636719 947.938049316406 958.686096191406 966.380981445312 964.785034179688 958.281860351562 960.93310546875 965.427001953125 966.130004882812 965.194030761719 970.111938476562 962.485229492188 960.012878417969 964.97265625 969.718872070312 962.811401367188 964.891723632812 964.500305175781 965.371948242188 968.376647949219 975.324584960938 971.619262695312 968.57275390625 969.100280761719 972.85693359375 969.199523925781 968.231994628906 965.063415527344 971.176086425781 970.689086914062 968.847839355469 970.525268554688 973.532653808594 967.336791992188 960.33251953125 962.932983398438 976.519897460938 978.762390136719 977.845703125 979.97509765625 985.243347167969 981.142822265625 986.988464355469 985.347290039062 979.706298828125 974.034423828125 982.408935546875 988.548889160156 978.451477050781 979.519592285156 974.855529785156 980.579711914062 972.813171386719 972.73876953125 976.309997558594 966.666137695312 981.028503417969 984.232666015625 989.813598632812 986.889526367188 986.70751953125 988.459899902344 993.059692382812 993.442504882812 992.155578613281 999.04296875 996.96484375 995.008361816406 993.803955078125 995.826904296875 1000.71490478516 1003.55102539062 998.657287597656 1005.76385498047 1009.16497802734 998.910949707031 999.164855957031 1003.32287597656 1011.58020019531 1012.69714355469 1023.31964111328 1026.78698730469 1024.6142578125 1023.02130126953 1024.58227539062 1023.85046386719 1021.92175292969 1017.71063232422 1032.39904785156 1036.82678222656 1048.37829589844 1056.43798828125 1051.70922851562 1051.12487792969 1045.10339355469 1042.26391601562 1042.66967773438 1040.71508789062 1035.37573242188 1035.47827148438 1031.7900390625 1023.83715820312 1021.04779052734 1028.09985351562 1025.67004394531 1010.89251708984 1022.89898681641 1012.61328125 1016.21081542969 1012.86029052734 1012.23107910156
955.325317382812 947.859252929688 949.5126953125 956.285583496094 949.952758789062 955.65380859375 943.372985839844 944.290161132812 942.001892089844 941.181701660156 939.883605957031 941.763488769531 945.517944335938 943.869445800781 941.334655761719 950.769165039062 941.6708984375 935.664245605469 934.879089355469 945.331176757812 952.467590332031 941.285278320312 949.93017578125 946.458984375 951.951110839844 945.199279785156 941.794372558594 951.440002441406 954.274169921875 950.010009765625 954.686157226562 951.293395996094 950.93701171875 948.011596679688 948.471801757812 951.845825195312 950.535522460938 951.820007324219 952.859252929688 959.494079589844 953.096130371094 958.997253417969 959.9501953125 956.193603515625 957.5869140625 964.699951171875 967.15185546875 968.951599121094 962.358032226562 973.390991210938 964.500549316406 966.90625 976.197143554688 966.192504882812 960.533020019531 967.770141601562 971.255737304688 973.072448730469 967.938049316406 975.117858886719 973.238952636719 969.924621582031 974.011962890625 972.249389648438 970.346496582031 971.383361816406 964.921936035156 963.382995605469 970.947204589844 966.715026855469 967.069091796875 974.775451660156 968.488952636719 973.450256347656 975.442993164062 973.113159179688 979.238830566406 986.236511230469 978.596801757812 971.8720703125 973.709167480469 982.499694824219 981.573608398438 986.947448730469 973.874877929688 979.03759765625 978.244934082031 972.192932128906 977.190551757812 975.049377441406 975.689514160156 968.823547363281 975.036071777344 976.5244140625 973.257751464844 974.931823730469 981.722778320312 990.672729492188 996.673583984375 986.657836914062 991.756225585938 1003.15020751953 993.129516601562 995.059143066406 1004.16607666016 997.570007324219 996.80712890625 996.63623046875 1002.72308349609 992.048278808594 997.369018554688 998.704895019531 1000.28350830078 1005.17449951172 1000.18688964844 1004.37646484375 1014.13818359375 1022.71032714844 1031.18725585938 1031.21850585938 1031.07019042969 1024.79272460938 1024.72229003906 1018.23889160156 1020.89001464844 1019.19689941406 1019.52874755859 1029.86987304688 1035.67443847656 1035.38110351562 1056.77404785156 1047.16723632812 1055.87634277344 1050.99633789062 1049.72802734375 1032.97680664062 1034.99194335938 1028.13671875 1029.67541503906 1020.50915527344 1017.7607421875 1009.96142578125 1011.11761474609 1015.6962890625 1018.40246582031 1016.36010742188 1015.2978515625 1011.87451171875 1012.29388427734 1011.20098876953
950.759704589844 952.737548828125 950.10693359375 951.69384765625 958.729064941406 954.536926269531 942.641784667969 942.054504394531 949.18310546875 937.824829101562 937.536254882812 942.397033691406 936.581909179688 942.440246582031 941.357116699219 945.409851074219 945.087280273438 943.079162597656 945.519409179688 944.826721191406 949.585266113281 948.521118164062 947.433959960938 954.992736816406 953.960754394531 946.857788085938 948.246887207031 950.92431640625 950.637878417969 947.771911621094 955.118896484375 964.154602050781 953.259216308594 948.253295898438 945.470397949219 951.043762207031 959.389282226562 961.208618164062 951.607360839844 957.579711914062 953.537536621094 958.297485351562 959.27587890625 960.855285644531 960.525451660156 958.722473144531 968.726379394531 972.84814453125 968.553833007812 987.656921386719 976.8115234375 974.529724121094 973.6083984375 964.825134277344 966.4658203125 972.646057128906 972.792175292969 966.265625 977.013732910156 971.799255371094 969.759948730469 967.787353515625 968.539855957031 974.161315917969 970.845947265625 968.114318847656 965.111267089844 960.018981933594 976.934509277344 975.065979003906 968.128295898438 978.721313476562 975.549926757812 973.155578613281 970.091674804688 968.797668457031 977.215576171875 984.911499023438 978.600891113281 975.869873046875 984.162170410156 984.457336425781 984.19482421875 987.032409667969 982.245361328125 979.629577636719 980.534973144531 982.401611328125 980.837097167969 983.850158691406 978.294067382812 978.759399414062 980.416931152344 983.329284667969 977.30419921875 980.8974609375 982.664978027344 997.21728515625 997.549499511719 1005.22222900391 1001.89178466797 997.353271484375 1001.91534423828 996.66552734375 1001.041015625 991.790466308594 995.012634277344 999.065673828125 1001.82293701172 997.357971191406 1004.02642822266 1001.38586425781 1000.72198486328 1000.7265625 1008.91381835938 1013.046875 1022.75762939453 1028.80541992188 1032.1865234375 1045.26477050781 1035.46118164062 1028.09423828125 1027.82739257812 1025.43530273438 1017.83642578125 1020.73626708984 1026.73022460938 1030.35412597656 1033.29077148438 1034.18395996094 1039.02868652344 1051.13928222656 1049.84680175781 1048.09814453125 1039.14807128906 1023.38702392578 1024.02355957031 1029.89465332031 1021.45074462891 1016.01715087891 1007.05633544922 1005.84881591797 1011.20318603516 1015.84405517578 1016.95739746094 1017.33294677734 1012.58758544922 1014.99884033203 1012.98773193359 1011.80133056641
948.574401855469 949.196716308594 952.333557128906 948.851867675781 956.209777832031 953.194763183594 943.607788085938 946.264282226562 952.869567871094 947.861694335938 953.496398925781 948.284790039062 943.302917480469 935.5478515625 942.945556640625 949.154541015625 954.457458496094 953.653198242188 958.925903320312 949.168579101562 945.168579101562 955.657348632812 951.317932128906 946.059936523438 946.627563476562 944.774291992188 944.615905761719 948.932861328125 949.293029785156 953.017272949219 951.495544433594 954.669555664062 953.078002929688 940.4775390625 943.761169433594 955.815002441406 960.824523925781 957.422607421875 962.412231445312 952.863830566406 953.527587890625 954.945983886719 959.601135253906 961.308410644531 967.899353027344 969.462219238281 969.175109863281 984.36181640625 981.674011230469 986.538513183594 980.603942871094 980.933044433594 976.719055175781 978.437744140625 974.713989257812 971.593872070312 969.806823730469 967.410827636719 968.898620605469 966.89404296875 966.795654296875 968.023193359375 964.516479492188 977.72607421875 972.105102539062 964.041870117188 964.72998046875 964.390197753906 960.488403320312 971.539306640625 976.624633789062 981.673278808594 986.041015625 983.098754882812 980.9111328125 978.638061523438 977.539367675781 979.806884765625 976.887939453125 987.663208007812 991.554321289062 988.32373046875 984.570983886719 994.720520019531 992.564270019531 990.974243164062 976.474914550781 983.809997558594 976.044860839844 971.759155273438 973.106811523438 973.869079589844 977.106201171875 978.893676757812 983.441772460938 986.044799804688 991.75927734375 1007.87365722656 1005.89874267578 1010.63256835938 1008.94995117188 1005.60986328125 1006.5380859375 1000.03881835938 998.760681152344 994.763854980469 992.137756347656 998.528686523438 1005.55200195312 1010.39910888672 1012.61212158203 1011.59252929688 1013.11328125 1017.77166748047 1012.59985351562 1027.62573242188 1036.31030273438 1033.3583984375 1038.88513183594 1039.20471191406 1037.52551269531 1031.01037597656 1030.37829589844 1027.99035644531 1029.54565429688 1021.63879394531 1023.33392333984 1023.55786132812 1025.57348632812 1027.72302246094 1028.8720703125 1042.951171875 1044.65710449219 1043.904296875 1025.25793457031 1028.59790039062 1019.41827392578 1022.32611083984 1017.81457519531 1010.97637939453 1011.97619628906 1014.31024169922 1013.57806396484 1015.74774169922 1013.29943847656 1008.962890625 1002.12396240234 1008.18603515625 1004.77960205078 1002.63415527344
949.454040527344 945.38232421875 949.154296875 946.060546875 946.965209960938 951.099975585938 938.773376464844 943.359191894531 949.830871582031 950.081665039062 951.633239746094 950.447143554688 938.576904296875 947.254699707031 952.729125976562 955.771789550781 949.728759765625 963.673034667969 962.786926269531 961.710327148438 946.90966796875 946.964111328125 945.502807617188 950.388793945312 950.031005859375 954.031494140625 952.3935546875 949.992248535156 949.250549316406 948.318542480469 955.618347167969 950.778991699219 953.373840332031 949.593383789062 958.157043457031 960.959533691406 955.391418457031 953.971923828125 964.156677246094 955.658264160156 954.797241210938 961.52392578125 971.002502441406 981.410339355469 973.699279785156 972.138000488281 972.247863769531 988.333557128906 985.619689941406 990.632995605469 983.61279296875 979.553833007812 984.05615234375 984.297668457031 980.166564941406 972.854614257812 970.489135742188 967.196533203125 970.952575683594 964.162719726562 966.904357910156 971.081298828125 970.593688964844 967.125915527344 967.046936035156 967.29150390625 973.330505371094 961.700256347656 958.682800292969 971.109497070312 979.6748046875 982.002563476562 995.563232421875 981.615417480469 971.995422363281 974.364807128906 979.105102539062 983.595703125 982.569396972656 981.040649414062 989.383117675781 994.703247070312 985.43310546875 991.886779785156 986.317749023438 987.4013671875 990.179809570312 978.005859375 981.400756835938 971.025756835938 969.119384765625 976.451782226562 982.385192871094 979.200317382812 980.161315917969 982.558959960938 987.300170898438 994.830627441406 1006.63989257812 1008.63568115234 1009.44177246094 1003.21374511719 1010.31335449219 1003.48071289062 998.291320800781 996.920349121094 993.6884765625 1003.80505371094 1012.34552001953 1016.1162109375 1014.59454345703 1016.66137695312 1015.40307617188 1019.47863769531 1016.28503417969 1029.12854003906 1030.51599121094 1039.72033691406 1042.53454589844 1042.16186523438 1039.5791015625 1036.62756347656 1029.77722167969 1029.92126464844 1027.89672851562 1022.65447998047 1015.63842773438 1017.32550048828 1025.22131347656 1034.06298828125 1036.61169433594 1041.52917480469 1043.7578125 1039.65393066406 1028.51977539062 1021.98455810547 1015.87097167969 1010.41326904297 1002.04718017578 999.498107910156 1012.37451171875 1004.10180664062 1006.015625 1001.11956787109 1004.62640380859 1004.28045654297 1002.17266845703 999.152709960938 1005.46362304688 1006.50494384766
949.1845703125 951.978332519531 951.712829589844 948.569213867188 943.973327636719 943.665832519531 932.186767578125 936.742004394531 940.686401367188 940.091064453125 946.130310058594 944.012939453125 952.734008789062 959.090454101562 957.657592773438 963.695739746094 964.241149902344 959.322143554688 971.75537109375 966.582397460938 952.40283203125 947.360046386719 953.792907714844 955.698791503906 956.508544921875 958.954528808594 962.25927734375 951.901245117188 953.048095703125 961.270568847656 950.675048828125 950.76904296875 958.066528320312 958.45068359375 959.910827636719 962.370666503906 957.478515625 956.371154785156 956.444763183594 959.097839355469 958.764343261719 966.787353515625 974.943481445312 983.259216308594 980.724487304688 990.0244140625 984.195922851562 990.67431640625 996.387939453125 985.919006347656 990.401245117188 994.931945800781 996.338745117188 983.863098144531 985.107971191406 982.735717773438 981.545959472656 979.383728027344 971.233520507812 968.370239257812 970.459167480469 968.887268066406 972.059020996094 964.89111328125 970.687561035156 971.505126953125 975.568481445312 973.332702636719 969.319885253906 975.475036621094 982.480285644531 983.497009277344 979.783386230469 983.779235839844 978.716064453125 983.693237304688 991.316223144531 978.15673828125 975.47607421875 986.070495605469 981.823303222656 998.129089355469 990.879760742188 988.972778320312 982.386901855469 985.668334960938 989.121154785156 983.35595703125 976.730041503906 976.590942382812 970.9775390625 973.442932128906 978.256469726562 989.068359375 988.66552734375 984.572998046875 985.75 997.452697753906 1003.58013916016 1004.72186279297 1010.70428466797 1011.32653808594 1020.63775634766 1005.56829833984 999.80712890625 1004.1923828125 1005.54296875 1003.57025146484 1012.52923583984 1021.53607177734 1023.91296386719 1015.35113525391 1025.67468261719 1018.32348632812 1022.20501708984 1026.55187988281 1033.55773925781 1042.39624023438 1037.45263671875 1041.45861816406 1045.83081054688 1038.26062011719 1043.51403808594 1038.458984375 1034.18566894531 1016.70751953125 1012.94738769531 1016.14343261719 1014.48699951172 1032.69567871094 1040.18505859375 1042.47570800781 1040.95861816406 1034.18627929688 1026.02307128906 1026.06823730469 1013.54321289062 1005.25512695312 1000.53070068359 1001.23266601562 1002.63830566406 1002.21960449219 1009.82733154297 1003.90637207031 997.165222167969 994.822387695312 1004.51275634766 996.48583984375 995.287719726562 997.998413085938
953.256469726562 949.013427734375 950.570739746094 941.139770507812 941.985778808594 929.626708984375 931.441772460938 929.644470214844 930.42041015625 932.158630371094 947.154602050781 957.158203125 969.380310058594 967.153869628906 968.873718261719 972.863037109375 976.9541015625 972.952209472656 970.03662109375 962.555114746094 965.086975097656 961.487976074219 953.407592773438 955.031860351562 952.642456054688 960.996398925781 963.297973632812 957.768859863281 955.656799316406 961.211669921875 956.767883300781 965.078308105469 967.423400878906 968.764465332031 973.998046875 978.654113769531 971.920349121094 965.162231445312 962.229187011719 963.270812988281 961.8515625 964.013061523438 964.664245605469 992.2412109375 991.832275390625 985.933776855469 999.858093261719 1002.05847167969 994.77392578125 992.7822265625 996.492065429688 992.485595703125 989.397277832031 984.710693359375 985.15771484375 983.813049316406 980.783447265625 980.457946777344 978.911010742188 973.809143066406 961.484069824219 966.93603515625 973.163024902344 966.724914550781 968.620727539062 974.668029785156 977.918395996094 972.065856933594 977.162963867188 976.138549804688 983.321838378906 978.45263671875 980.615173339844 981.261047363281 979.652648925781 989.068969726562 978.536682128906 985.605712890625 979.326049804688 989.204711914062 980.602661132812 989.519714355469 989.602478027344 981.884399414062 989.501831054688 989.771789550781 987.270324707031 982.727416992188 984.053344726562 979.4658203125 978.460266113281 977.556518554688 971.544799804688 983.140625 986.780944824219 990.530334472656 997.931335449219 1008.26202392578 1002.79937744141 1008.185546875 1010.62353515625 1014.10290527344 1010.37945556641 1002.224609375 1003.68994140625 1004.89215087891 1005.82012939453 1019.48004150391 1017.37451171875 1016.22039794922 1017.82720947266 1026.4013671875 1021.22338867188 1028.0078125 1022.70965576172 1031.16540527344 1034.85412597656 1041.20739746094 1033.01708984375 1035.01330566406 1044.63195800781 1049.33386230469 1040.0830078125 1038.08825683594 1025.79443359375 1018.17077636719 1011.27661132812 1017.89294433594 1025.17810058594 1031.42700195312 1032.08630371094 1045.35986328125 1035.84997558594 1027.95617675781 1025.57287597656 1018.59002685547 1011.47418212891 1004.56805419922 1006.04290771484 1000.05407714844 997.285095214844 996.361267089844 998.263916015625 1000.3603515625 999.597351074219 999.344848632812 1000.82220458984 999.272216796875 998.387756347656 999.802490234375
940.20751953125 938.121398925781 947.316711425781 936.440979003906 932.182434082031 923.924072265625 938.263671875 937.460144042969 945.313903808594 940.842712402344 949.05810546875 957.963989257812 964.216674804688 963.961853027344 978.216247558594 982.761962890625 976.042358398438 971.431396484375 973.725158691406 972.204528808594 970.254516601562 963.774230957031 962.28271484375 960.657653808594 950.677978515625 957.94970703125 965.123657226562 963.210876464844 959.019409179688 963.379760742188 968.368835449219 970.385986328125 973.532104492188 978.387451171875 986.198669433594 984.713012695312 985.774536132812 984.862060546875 975.426635742188 977.175598144531 976.234985351562 967.760498046875 969.552124023438 986.106323242188 990.779235839844 986.48095703125 996.95263671875 996.235107421875 999.23583984375 997.574768066406 998.126770019531 992.441772460938 990.777587890625 998.009765625 990.874145507812 986.028442382812 985.895385742188 982.049072265625 967.012145996094 963.607177734375 961.844360351562 960.339294433594 963.17919921875 970.480346679688 971.198181152344 976.222900390625 982.876037597656 968.848449707031 974.670227050781 978.93017578125 977.136291503906 980.180419921875 986.259887695312 979.126708984375 979.388061523438 986.483154296875 982.830139160156 983.099914550781 995.5439453125 989.483459472656 987.396240234375 989.172668457031 989.540405273438 985.948486328125 982.0244140625 985.688598632812 982.979553222656 985.735717773438 984.679931640625 978.069580078125 977.192321777344 982.288391113281 981.993530273438 985.366760253906 991.000610351562 991.960815429688 1003.64965820312 1011.31280517578 1014.78466796875 1011.46649169922 1004.69580078125 1004.94647216797 1000.63568115234 1005.63439941406 999.987670898438 1012.38159179688 1010.94317626953 1022.27313232422 1021.67425537109 1020.75317382812 1019.49230957031 1019.46118164062 1023.97741699219 1023.71124267578 1027.23840332031 1031.36962890625 1034.14050292969 1039.23205566406 1036.65905761719 1034.982421875 1044.65344238281 1048.38464355469 1034.55688476562 1031.33056640625 1017.35791015625 1015.46557617188 1010.49877929688 1029.42065429688 1025.02380371094 1024.52746582031 1028.27465820312 1030.37573242188 1023.36730957031 1025.44616699219 1020.27624511719 1012.6435546875 1004.30261230469 1004.44012451172 1006.04907226562 1001.99444580078 990.638061523438 987.922790527344 995.686096191406 1006.96948242188 999.362976074219 997.067687988281 998.446411132812 993.944396972656 990.934875488281 992.0107421875
935.125671386719 931.528747558594 937.014709472656 936.948425292969 940.801635742188 929.319763183594 934.65673828125 937.3203125 942.046752929688 948.94873046875 952.255126953125 954.665466308594 967.522094726562 977.705627441406 981.30224609375 977.956604003906 973.380981445312 974.9482421875 966.548095703125 976.041931152344 969.742248535156 962.761047363281 957.571166992188 959.757385253906 961.165832519531 962.655700683594 966.913513183594 967.210693359375 961.278259277344 964.042236328125 978.312072753906 987.207763671875 978.853820800781 979.414245605469 988.748352050781 986.292846679688 990.755493164062 991.657592773438 997.750305175781 979.79638671875 978.231323242188 977.05712890625 986.025573730469 997.882141113281 985.743957519531 995.511962890625 990.43408203125 989.790344238281 996.255187988281 992.17626953125 998.688232421875 992.861755371094 988.319519042969 988.87939453125 991.589782714844 983.82177734375 986.785278320312 976.238098144531 975.484619140625 968.295349121094 976.485961914062 965.413879394531 963.241271972656 966.113098144531 970.509399414062 973.875427246094 975.961547851562 979.282043457031 985.304992675781 988.348571777344 982.264465332031 985.131652832031 990.442199707031 986.441223144531 983.934936523438 990.609680175781 989.635559082031 985.519348144531 985.829162597656 984.203796386719 985.988464355469 991.792297363281 990.659790039062 987.416809082031 984.698303222656 985.720031738281 983.965270996094 985.124877929688 985.153625488281 982.301879882812 987.040100097656 985.426391601562 986.692504882812 993.568969726562 991.81201171875 987.7744140625 997.506225585938 1009.67431640625 1016.99566650391 1011.708984375 1010.61077880859 1014.58599853516 1006.11260986328 1008.01812744141 1012.22058105469 1015.80010986328 1023.36499023438 1018.07153320312 1029.64343261719 1023.97131347656 1025.46166992188 1023.80053710938 1037.02453613281 1031.94140625 1020.11206054688 1021.97827148438 1026.80004882812 1036.93310546875 1040.42028808594 1030.21887207031 1029.53149414062 1030.30603027344 1026.50427246094 1030.69262695312 1023.12738037109 1021.81408691406 1016.5498046875 1024.04296875 1028.46154785156 1021.35888671875 1017.66522216797 1016.94659423828 1015.54278564453 1021.93280029297 1013.38232421875 1007.13775634766 997.888000488281 1001.90618896484 995.401123046875 997.880981445312 992.748413085938 988.740417480469 995.033264160156 1005.05706787109 996.483764648438 992.941772460938 1004.03369140625 1000.53167724609 989.876220703125 999.078308105469
934.493286132812 928.96435546875 926.377258300781 935.905151367188 940.307067871094 941.433288574219 935.226440429688 952.289978027344 954.070922851562 951.121459960938 953.350708007812 956.689514160156 966.917175292969 982.978393554688 982.376098632812 981.469177246094 976.249328613281 977.838073730469 969.200927734375 968.597839355469 976.050170898438 970.242553710938 970.164245605469 964.434204101562 973.002563476562 969.68359375 960.024353027344 960.38623046875 963.400939941406 967.138488769531 977.178283691406 988.132263183594 990.509033203125 987.779724121094 985.14208984375 994.760925292969 991.577880859375 1001.22509765625 993.161193847656 985.275207519531 974.2978515625 976.408630371094 987.854370117188 996.903503417969 1000.76647949219 1002.70770263672 1006.59802246094 1002.79174804688 994.026550292969 989.153442382812 998.28662109375 995.111633300781 994.748596191406 997.164611816406 988.054626464844 985.1806640625 984.730651855469 979.212829589844 976.210815429688 974.424743652344 967.156066894531 976.102111816406 972.642150878906 978.701965332031 979.829895019531 979.803405761719 976.517211914062 985.944946289062 991.220153808594 989.86767578125 990.743347167969 988.097778320312 990.248840332031 990.503845214844 995.34765625 992.450256347656 996.26806640625 989.607238769531 994.214782714844 992.77685546875 989.873779296875 988.006286621094 994.042663574219 989.714233398438 984.415161132812 984.206176757812 986.219360351562 986.488464355469 990.642272949219 989.988708496094 986.689147949219 988.160949707031 987.730773925781 987.841857910156 981.699951171875 976.881591796875 995.616882324219 1002.31958007812 1007.09558105469 1009.26226806641 1011.38488769531 1008.92248535156 1011.51544189453 1006.42431640625 1012.76544189453 1016.75445556641 1023.75036621094 1018.45324707031 1028.12060546875 1023.45544433594 1028.40490722656 1030.52563476562 1019.86712646484 1019.39459228516 1015.95404052734 1019.61383056641 1020.63641357422 1022.35632324219 1030.74035644531 1023.34216308594 1028.43664550781 1020.84918212891 1027.46740722656 1027.36096191406 1022.69866943359 1015.37170410156 1022.89508056641 1023.25048828125 1017.26098632812 1013.54119873047 1020.70190429688 1020.57971191406 1019.58746337891 1019.56719970703 1015.19879150391 1020.85650634766 1010.18206787109 996.680847167969 999.625183105469 994.933044433594 986.665405273438 995.079833984375 994.441223144531 993.263854980469 997.663940429688 993.679931640625 994.649475097656 996.5537109375 998.032043457031 1007.53533935547
939.877624511719 940.492614746094 935.588439941406 936.304809570312 939.184143066406 940.248962402344 934.917907714844 956.607299804688 960.829345703125 955.731018066406 944.169372558594 958.693054199219 968.204040527344 979.914733886719 967.216857910156 975.013488769531 982.234069824219 975.0361328125 975.387145996094 976.983520507812 980.8603515625 974.845581054688 977.438781738281 978.510559082031 980.938842773438 966.848449707031 966.782592773438 959.952331542969 965.058959960938 973.478698730469 976.278198242188 984.021911621094 989.335998535156 985.334655761719 986.511047363281 995.217163085938 1000.37261962891 995.588500976562 996.489135742188 990.405029296875 981.040283203125 986.873779296875 989.842651367188 996.049499511719 1015.07403564453 1017.06958007812 1008.05059814453 999.956726074219 1003.68676757812 999.958984375 994.201782226562 996.205017089844 991.656982421875 1002.45159912109 988.945739746094 977.497924804688 979.328491210938 975.974548339844 974.702758789062 981.682922363281 984.960327148438 981.570922851562 981.03857421875 980.651245117188 983.054565429688 980.262512207031 980.763977050781 982.805725097656 989.410583496094 989.169616699219 994.767028808594 996.768676757812 993.937255859375 999.153625488281 1003.90521240234 996.974609375 999.106628417969 995.888244628906 995.973266601562 994.879699707031 992.083435058594 993.379638671875 994.533813476562 989.924621582031 984.618286132812 984.850769042969 984.122680664062 992.694885253906 995.304016113281 986.842895507812 992.408508300781 995.501708984375 991.761901855469 989.523193359375 985.102844238281 974.498596191406 993.800598144531 998.526611328125 1004.57073974609 1000.09027099609 1003.38726806641 1004.884765625 1003.02386474609 1013.72039794922 1021.57885742188 1022.60675048828 1015.73461914062 1014.09033203125 1019.75817871094 1030.4091796875 1033.66101074219 1030.44958496094 1017.58239746094 1015.32843017578 1015.62744140625 1012.20867919922 1014.53106689453 1015.86224365234 1009.78430175781 1011.47198486328 1014.63977050781 1014.79467773438 1012.55255126953 1024.60290527344 1021.62097167969 1018.35552978516 1009.33312988281 1004.06072998047 1002.36102294922 1004.0146484375 1016.69555664062 1018.76531982422 1017.41058349609 1013.96203613281 1009.90234375 1016.55334472656 1014.05322265625 1010.74896240234 1003.27081298828 994.59423828125 989.283813476562 984.977844238281 986.675903320312 985.908325195312 992.203002929688 989.87841796875 995.013427734375 997.587097167969 995.224548339844 1012.23767089844
939.595947265625 942.985229492188 937.937255859375 936.726806640625 940.369140625 938.00341796875 942.387390136719 955.828491210938 957.144958496094 953.054870605469 954.605102539062 958.563171386719 970.856994628906 972.697814941406 974.893798828125 973.325439453125 982.266906738281 974.683715820312 975.679931640625 990.115051269531 986.755065917969 985.0888671875 995.515686035156 982.064270019531 984.112609863281 970.785522460938 965.859497070312 972.74755859375 982.286804199219 977.993347167969 973.567687988281 983.897888183594 987.838989257812 981.608032226562 984.264892578125 992.467102050781 996.070068359375 1000.56433105469 994.426086425781 987.473937988281 989.408996582031 992.977355957031 1000.56518554688 1008.11682128906 1014.35559082031 1016.82525634766 1013.04547119141 1005.69354248047 1008.11669921875 1005.23223876953 991.316955566406 989.783142089844 988.242248535156 985.823669433594 989.641967773438 979.769897460938 977.725524902344 979.983764648438 981.95166015625 982.107055664062 980.078063964844 981.3701171875 976.402770996094 974.088073730469 977.663635253906 976.924011230469 978.541259765625 971.338989257812 987.006652832031 987.308715820312 990.378356933594 995.643005371094 998.836547851562 996.879089355469 1004.30206298828 1004.47045898438 997.699890136719 995.761413574219 996.860717773438 991.364990234375 996.054748535156 990.712219238281 998.887329101562 995.458251953125 985.64794921875 993.2880859375 988.08984375 993.841979980469 995.211975097656 997.045715332031 985.472412109375 991.520324707031 997.74462890625 997.358703613281 985.037292480469 980.88134765625 986.10498046875 999.629943847656 1008.51159667969 1000.88134765625 1000.25524902344 992.749267578125 1004.40618896484 1013.08148193359 1021.7578125 1028.1826171875 1022.45751953125 1019.43133544922 1015.82659912109 1021.70373535156 1034.66577148438 1027.09045410156 1024.32080078125 1024.66003417969 1021.37200927734 1013.12023925781 1006.083984375 1009.33258056641 1009.46697998047 1006.09747314453 1023.27630615234 1014.63446044922 1012.78570556641 1009.9619140625 1011.56903076172 1017.25006103516 1009.02294921875 1003.78332519531 1003.08935546875 1000.29833984375 1013.81597900391 1006.75994873047 1016.58728027344 1014.30944824219 1012.52380371094 1021.32696533203 1012.09344482422 1014.76910400391 1003.21759033203 998.398132324219 988.842529296875 988.283813476562 983.566040039062 987.924194335938 994.347717285156 989.003784179688 991.345397949219 984.914916992188 993.64111328125 1002.9130859375
942.851684570312 948.635620117188 948.530334472656 930.575988769531 928.778686523438 938.142883300781 944.87744140625 953.687866210938 961.062683105469 963.422119140625 958.699951171875 964.333923339844 959.502502441406 970.045837402344 966.029541015625 971.713134765625 982.231567382812 985.000305175781 986.325012207031 991.13916015625 995.483337402344 991.109985351562 992.211242675781 992.659729003906 986.067687988281 981.534484863281 969.509826660156 978.498107910156 976.974975585938 974.516723632812 971.582885742188 982.549865722656 982.298278808594 986.11376953125 983.501770019531 985.1142578125 989.786376953125 996.133361816406 982.958068847656 993.463928222656 994.492797851562 1005.46942138672 1010.78234863281 1010.58251953125 1011.26373291016 1010.30694580078 1021.162109375 1015.81005859375 1011.58056640625 1001.56518554688 989.922729492188 986.149169921875 989.332275390625 984.582397460938 989.737670898438 986.134399414062 982.689880371094 983.437561035156 995.882934570312 987.301391601562 985.819213867188 979.320739746094 972.659851074219 965.317993164062 973.391723632812 976.123596191406 981.022277832031 973.343383789062 978.676452636719 985.017517089844 991.020446777344 997.457824707031 1000.52862548828 996.810485839844 1005.52618408203 998.650390625 992.605529785156 1006.69226074219 1007.73565673828 999.029479980469 1000.81652832031 993.795959472656 993.561096191406 995.233764648438 994.674560546875 986.438903808594 984.118225097656 993.575378417969 998.303405761719 985.894653320312 986.9296875 989.659423828125 990.855651855469 988.18359375 992.821899414062 993.587341308594 993.691650390625 996.835571289062 1006.28558349609 1003.07824707031 993.647094726562 999.273681640625 1007.80310058594 1015.96636962891 1014.65026855469 1019.83843994141 1020.61193847656 1021.22302246094 1025.65515136719 1028.67907714844 1030.85375976562 1033.01208496094 1033.81286621094 1031.26684570312 1030.66540527344 1018.58697509766 1012.98022460938 1014.37261962891 996.977783203125 1006.34002685547 1011.86047363281 1017.27508544922 1023.6552734375 1011.07513427734 1005.94360351562 1014.56451416016 1012.89459228516 1006.583984375 995.186706542969 1005.31427001953 1012.04888916016 1005.23883056641 1007.88348388672 1011.72863769531 1015.82672119141 1015.25006103516 1013.62866210938 1013.85980224609 1006.38958740234 993.636596679688 996.725952148438 995.008117675781 991.706237792969 993.581420898438 990.986999511719 985.428100585938 984.627624511719 988.424133300781 989.2451171875 987.900024414062
941.614379882812 950.67529296875 949.5546875 945.442077636719 934.319580078125 934.851806640625 944.216613769531 955.584777832031 969.258483886719 968.044616699219 961.328979492188 974.936828613281 974.203796386719 975.123657226562 976.478698730469 985.843566894531 985.794006347656 983.199890136719 987.859313964844 990.965026855469 994.155090332031 990.432861328125 990.490051269531 992.627868652344 986.299865722656 982.615234375 976.498962402344 965.740295410156 968.750854492188 977.707153320312 968.666931152344 976.778930664062 984.326843261719 988.364196777344 976.28564453125 976.482543945312 986.297424316406 991.3056640625 996.175109863281 999.492980957031 1004.3115234375 1003.97015380859 1009.41961669922 1002.76068115234 1016.66290283203 1013.48638916016 1006.48712158203 1010.84436035156 1005.49237060547 1002.46258544922 993.443908691406 984.37060546875 992.490600585938 991.254150390625 993.852172851562 998.685241699219 992.092895507812 984.042358398438 985.144775390625 978.661376953125 978.280944824219 971.17626953125 964.433715820312 968.712341308594 980.19384765625 985.2099609375 976.553771972656 975.886535644531 984.234985351562 980.218017578125 987.274780273438 995.338012695312 998.283752441406 996.38818359375 997.352355957031 996.671142578125 992.340209960938 997.200012207031 1011.62805175781 1005.33471679688 995.442199707031 989.90673828125 999.216430664062 1003.49505615234 991.905639648438 989.50244140625 987.668090820312 999.241455078125 993.416015625 987.785766601562 985.014038085938 993.603149414062 992.31396484375 990.072875976562 990.088623046875 986.692687988281 999.005432128906 1008.80169677734 1013.18969726562 1009.33410644531 1005.31762695312 1009.16284179688 1012.62072753906 1014.77593994141 1025.5615234375 1027.18054199219 1035.693359375 1025.21691894531 1029.72399902344 1036.46240234375 1037.0693359375 1031.08154296875 1029.07995605469 1031.486328125 1037.59582519531 1027.51989746094 1016.25903320312 1000.7265625 1002.33587646484 1015.31335449219 1015.21905517578 1014.83941650391 1022.54217529297 1010.89434814453 1004.68695068359 1001.765625 1003.56671142578 1001.46557617188 1000.01702880859 1007.07183837891 1012.04821777344 992.882934570312 991.37646484375 999.65576171875 1006.26885986328 1009.34283447266 1008.8740234375 1003.83251953125 1009.69958496094 1005.69195556641 1002.77221679688 1005.56616210938 994.74609375 990.22705078125 979.0908203125 980.543212890625 989.955993652344 982.631530761719 978.056213378906 988.453430175781
955.222839355469 963.227844238281 949.237976074219 940.997314453125 934.379516601562 936.103759765625 936.105651855469 959.1044921875 962.337951660156 965.442077636719 966.986877441406 982.351623535156 979.370544433594 972.922241210938 975.589660644531 985.685302734375 979.859252929688 980.539855957031 992.66650390625 991.162414550781 994.858581542969 994.28076171875 992.833374023438 978.973022460938 985.501098632812 982.667297363281 974.221008300781 970.911437988281 975.203369140625 977.500427246094 977.73583984375 984.817138671875 988.647888183594 983.182922363281 987.407165527344 983.071838378906 979.723999023438 983.12060546875 982.981018066406 989.577941894531 1001.39215087891 1000.87054443359 1000.12237548828 1004.73803710938 1014.59704589844 1013.171875 1015.93493652344 1013.69659423828 1005.5419921875 1007.95172119141 1008.80010986328 1002.47607421875 992.458984375 995.353576660156 994.111022949219 991.53662109375 1003.18469238281 987.589050292969 981.710998535156 976.468078613281 978.641845703125 971.088439941406 973.182983398438 970.267028808594 976.476196289062 975.937072753906 973.489868164062 973.31591796875 973.924377441406 976.691528320312 983.321960449219 991.779296875 992.847045898438 986.73193359375 990.084655761719 994.369750976562 1000.25671386719 998.083557128906 1010.890625 1012.42962646484 1011.67596435547 1007.52124023438 1005.2822265625 1004.44158935547 997.376403808594 1001.71423339844 1001.31066894531 994.708190917969 989.017395019531 984.272827148438 983.015258789062 987.177551269531 983.584167480469 992.05859375 997.998596191406 997.4501953125 1006.4462890625 1005.18414306641 1007.14208984375 1012.1494140625 1011.47827148438 1007.56750488281 1010.25079345703 1018.37487792969 1028.58386230469 1031.689453125 1027.43627929688 1034.40234375 1031.62487792969 1036.06103515625 1031.34350585938 1035.90747070312 1030.30871582031 1033.04223632812 1039.62048339844 1033.068359375 1016.24871826172 1006.95123291016 1015.48516845703 1015.10754394531 1008.56237792969 1008.60424804688 1018.04620361328 1009.18139648438 999.991333007812 1003.78546142578 996.154846191406 994.198791503906 999.451721191406 1010.35168457031 1006.57543945312 998.606872558594 997.415954589844 996.904418945312 1004.46673583984 1004.94110107422 1004.09820556641 1000.822265625 994.293701171875 1001.26794433594 995.729614257812 997.285949707031 981.255615234375 979.69775390625 978.252868652344 971.668151855469 976.975646972656 978.575378417969 974.11328125 993.078125
958.407775878906 967.227355957031 955.870544433594 947.64501953125 942.005859375 939.934387207031 940.281982421875 954.844360351562 961.273620605469 973.8017578125 973.720153808594 979.775695800781 974.080383300781 980.394409179688 978.403747558594 981.970947265625 976.861328125 984.755126953125 986.340148925781 984.868896484375 989.663269042969 993.73974609375 996.920959472656 989.544616699219 981.669677734375 983.185668945312 984.9736328125 979.005493164062 976.93310546875 980.345581054688 989.537719726562 983.238037109375 980.333068847656 980.772094726562 981.146911621094 980.971435546875 978.415954589844 989.737365722656 985.885925292969 981.5400390625 991.64501953125 989.378234863281 993.62939453125 1002.75323486328 1007.36279296875 1009.74981689453 1010.78106689453 1014.64904785156 1013.2138671875 1009.41510009766 1009.02899169922 1003.79504394531 1001.36407470703 994.7080078125 993.861938476562 999.574951171875 998.699035644531 988.187316894531 989.984436035156 989.65478515625 985.064208984375 983.179992675781 982.476928710938 980.917053222656 982.19140625 979.935668945312 972.917114257812 968.961181640625 975.867919921875 977.776000976562 983.552124023438 979.889587402344 985.611206054688 986.384582519531 994.007629394531 992.804382324219 996.230346679688 1000.46990966797 1002.0283203125 1011.19079589844 1007.67718505859 1014.89221191406 1003.10803222656 1004.32977294922 1010.37219238281 1005.96282958984 1003.48052978516 1000.66925048828 998.890686035156 993.433288574219 985.590942382812 987.448181152344 987.986694335938 978.798278808594 992.734802246094 999.777526855469 1005.63220214844 1010.14202880859 1003.25805664062 1010.38311767578 1011.99090576172 1004.08013916016 1011.08740234375 1020.49145507812 1020.83959960938 1030.38452148438 1030.67846679688 1025.64892578125 1031.96948242188 1034.94409179688 1034.23327636719 1036.17846679688 1024.60266113281 1033.31628417969 1035.33508300781 1028.24670410156 1026.9658203125 1014.66314697266 1022.96398925781 1019.91741943359 1012.24224853516 1010.31103515625 1015.55639648438 1008.05151367188 1000.43231201172 996.201293945312 996.914184570312 990.485534667969 995.098388671875 1003.97857666016 1006.47741699219 1000.20629882812 990.444763183594 996.334838867188 990.015197753906 998.721313476562 999.010559082031 994.718566894531 996.785888671875 998.429565429688 986.669860839844 989.069763183594 983.230102539062 978.537719726562 974.227172851562 974.088439941406 983.100158691406 976.905212402344 979.665832519531 996.700561523438
968.853881835938 966.537170410156 961.457153320312 947.632507324219 942.2822265625 931.843872070312 940.771911621094 950.286193847656 956.734741210938 966.689392089844 973.284973144531 978.298461914062 972.081726074219 978.293212890625 979.167846679688 974.114868164062 967.381713867188 972.21142578125 975.80810546875 978.872985839844 987.180786132812 986.358154296875 979.930725097656 984.916625976562 984.006103515625 991.198913574219 988.610290527344 982.2822265625 985.401550292969 980.87158203125 982.593627929688 983.254455566406 985.846496582031 982.012329101562 986.31982421875 991.819702148438 991.723022460938 987.81689453125 986.607238769531 978.921508789062 985.596252441406 979.0263671875 989.186279296875 993.032531738281 996.726257324219 996.413146972656 1018.13830566406 1009.88970947266 1013.14990234375 1003.18414306641 1004.77435302734 1000.36206054688 990.856628417969 1003.96380615234 992.515625 989.919067382812 990.200134277344 985.431274414062 991.862121582031 986.091552734375 984.148986816406 979.486022949219 981.383361816406 984.30908203125 982.079040527344 976.601745605469 977.066772460938 971.947387695312 975.962585449219 975.652404785156 978.00830078125 979.974182128906 993.905578613281 977.785217285156 983.736755371094 991.778015136719 1005.90093994141 1005.43298339844 1003.47882080078 1010.54388427734 1003.1142578125 1007.95788574219 1004.92492675781 1005.46185302734 1013.11041259766 1002.16772460938 1001.7978515625 997.773254394531 1001.82733154297 990.084228515625 995.227722167969 988.993347167969 990.597229003906 996.843017578125 1005.34246826172 989.890747070312 1002.13562011719 1002.53204345703 1004.01837158203 1008.37188720703 1002.93414306641 1004.06359863281 999.350891113281 1017.64495849609 1019.22332763672 1029.63952636719 1025.59594726562 1030.54956054688 1035.50354003906 1038.46337890625 1043.93859863281 1037.47802734375 1039.03063964844 1036.69213867188 1027.30651855469 1029.86596679688 1032.11828613281 1026.7705078125 1019.08386230469 1017.11785888672 1013.92987060547 1015.44519042969 1004.79278564453 1000.66186523438 992.26953125 991.702087402344 996.140075683594 996.852722167969 997.821838378906 1008.65081787109 1006.89477539062 1001.12005615234 1002.15191650391 992.2421875 991.902099609375 991.4794921875 997.355773925781 1002.79455566406 1002.60418701172 994.27880859375 988.449096679688 978.127807617188 970.609130859375 980.227355957031 978.714294433594 976.718444824219 980.375732421875 981.236511230469 984.242431640625 986.74169921875
973.855712890625 969.675903320312 953.993225097656 944.904907226562 940.0224609375 940.702575683594 936.551391601562 948.650329589844 958.962646484375 958.752807617188 972.385681152344 970.087463378906 962.942321777344 968.138549804688 967.797607421875 962.242553710938 968.743591308594 974.854370117188 966.101196289062 974.795349121094 978.402954101562 972.087158203125 971.130310058594 967.350219726562 976.74755859375 982.957336425781 975.369079589844 971.474975585938 975.863891601562 981.262512207031 975.41064453125 984.162231445312 979.833068847656 979.890563964844 989.726989746094 992.988037109375 995.117492675781 985.951782226562 988.490600585938 984.763732910156 994.895324707031 982.5595703125 987.841735839844 992.525939941406 1002.10589599609 1006.49481201172 1013.97937011719 1013.99670410156 1003.12536621094 1000.84326171875 999.446472167969 994.273498535156 990.007873535156 993.413940429688 987.537048339844 988.227416992188 984.135375976562 989.186279296875 989.797424316406 984.984619140625 980.710144042969 983.725769042969 991.059387207031 985.402160644531 983.152038574219 986.106689453125 979.059997558594 981.398498535156 979.669921875 976.782653808594 986.87060546875 987.375549316406 985.928955078125 983.570068359375 984.740356445312 985.942810058594 998.611877441406 995.672546386719 1002.39111328125 1006.56713867188 1008.40228271484 1002.29840087891 1003.49328613281 1005.35931396484 1006.25494384766 1003.00439453125 1004.32879638672 996.397766113281 998.950439453125 999.889953613281 1003.82623291016 994.539855957031 993.5439453125 996.624206542969 1000.07568359375 1000.64947509766 1004.36437988281 1001.02099609375 1003.53552246094 1002.33410644531 1001.22943115234 1007.34222412109 1003.75750732422 1015.505859375 1020.99621582031 1031.12609863281 1021.76495361328 1037.47351074219 1043.20812988281 1040.35717773438 1045.39758300781 1033.7392578125 1043.57556152344 1032.83227539062 1019.74688720703 1022.56536865234 1036.08459472656 1034.12524414062 1021.01977539062 1020.04406738281 1026.06494140625 1013.51202392578 1009.04266357422 1002.38330078125 996.804565429688 993.282653808594 994.118408203125 989.727966308594 994.282653808594 1004.83209228516 1005.13018798828 996.679626464844 993.252502441406 987.158752441406 989.228210449219 990.847717285156 994.599609375 998.420227050781 997.698120117188 982.407409667969 984.730651855469 974.968383789062 971.231384277344 968.626892089844 966.281311035156 976.489868164062 979.142395019531 989.391906738281 988.757507324219 985.848693847656
972.196472167969 966.254455566406 951.283203125 945.082885742188 940.053588867188 937.84423828125 937.3642578125 943.059326171875 956.542358398438 952.006469726562 955.374938964844 953.273864746094 959.269104003906 961.110961914062 961.504455566406 960.706665039062 954.358825683594 959.797729492188 962.319396972656 973.366638183594 975.762145996094 970.810485839844 965.872192382812 967.714904785156 974.758911132812 978.790222167969 966.290588378906 966.629760742188 970.742126464844 972.638549804688 976.683410644531 979.331909179688 971.464599609375 974.027038574219 982.10205078125 988.400329589844 988.962951660156 993.643859863281 982.899536132812 994.524291992188 992.241333007812 987.301025390625 989.996948242188 993.236511230469 995.59619140625 999.102661132812 1005.74896240234 999.502197265625 994.991027832031 991.128601074219 994.79150390625 994.431457519531 994.321899414062 991.843444824219 986.155639648438 990.466491699219 985.866638183594 989.67626953125 987.352783203125 989.507202148438 983.410888671875 983.606567382812 984.174255371094 976.6298828125 976.584838867188 984.239074707031 986.039611816406 977.164855957031 980.956359863281 985.038696289062 991.365844726562 992.024353027344 988.818908691406 984.007080078125 989.196166992188 984.114868164062 987.940307617188 990.966674804688 993.949279785156 993.16845703125 1001.60589599609 1001.89929199219 1002.79968261719 1005.22015380859 1005.51354980469 1005.08892822266 1002.84173583984 1007.70239257812 1014.12066650391 1012.17004394531 997.2802734375 1003.95904541016 1001.79937744141 1002.30236816406 1001.01934814453 1002.83081054688 996.360961914062 1004.28454589844 1006.73901367188 1004.36016845703 1004.95098876953 998.946716308594 1005.53326416016 1010.67547607422 1015.40509033203 1024.0302734375 1029.33703613281 1042.24584960938 1045.88232421875 1049.48901367188 1043.34326171875 1040.953125 1045.85241699219 1034.19799804688 1034.82104492188 1032.99755859375 1050.69360351562 1035.36572265625 1035.0234375 1023.56549072266 1022.24176025391 1007.94036865234 1006.53894042969 994.4580078125 994.995788574219 988.203002929688 985.200439453125 982.947937011719 988.037048339844 998.335266113281 1003.15161132812 992.236755371094 986.151916503906 988.247009277344 988.001220703125 986.597351074219 989.532348632812 998.285888671875 994.117126464844 978.529907226562 975.238525390625 978.917541503906 976.526184082031 975.543884277344 971.213745117188 980.002380371094 981.042175292969 984.261840820312 991.294799804688 989.067993164062
955.972290039062 962.237365722656 955.101806640625 943.149230957031 940.519714355469 938.486755371094 949.178466796875 942.729614257812 952.636291503906 954.615539550781 952.178771972656 946.57666015625 950.854858398438 959.309692382812 971.473022460938 963.380310058594 955.597290039062 965.860290527344 971.475219726562 977.721069335938 969.668701171875 958.601989746094 955.984619140625 960.573974609375 966.127380371094 977.639038085938 967.874267578125 965.855590820312 967.554992675781 964.99462890625 966.666015625 971.884155273438 972.993713378906 972.072509765625 975.371887207031 978.629272460938 983.462829589844 984.907836914062 981.032653808594 985.641296386719 989.733581542969 989.778625488281 986.329650878906 988.516052246094 1003.70123291016 1003.41986083984 1006.50018310547 1000.62048339844 1000.23541259766 994.632934570312 994.582458496094 989.624938964844 996.840393066406 989.839599609375 1002.52862548828 992.69775390625 997.177429199219 990.930053710938 989.202026367188 984.647644042969 982.575927734375 984.972045898438 987.06494140625 988.687194824219 989.986022949219 984.158630371094 986.059814453125 986.128112792969 985.403259277344 982.05908203125 998.275146484375 991.885986328125 988.753479003906 985.348022460938 987.581359863281 989.845092773438 986.205749511719 993.120422363281 990.935852050781 992.5048828125 998.572937011719 999.338256835938 1005.59661865234 999.815612792969 996.335266113281 998.105163574219 997.722290039062 1009.84881591797 1012.40899658203 1013.34521484375 1005.13812255859 996.613952636719 1004.52563476562 1004.89300537109 1009.89630126953 1016.45526123047 1005.73217773438 1012.01373291016 1008.99798583984 1007.87603759766 1017.32568359375 1009.19146728516 1002.14367675781 999.364074707031 1016.39959716797 1026.64343261719 1034.18298339844 1040.52758789062 1045.85729980469 1046.70642089844 1049.33740234375 1039.33288574219 1042.03845214844 1043.20153808594 1041.57727050781 1046.14331054688 1045.52514648438 1045.54309082031 1040.18103027344 1029.2275390625 1013.99969482422 1006.43731689453 1000.94415283203 1003.36724853516 1006.24395751953 1001.7548828125 988.817993164062 981.194519042969 983.833129882812 985.091918945312 986.149047851562 982.99951171875 977.433044433594 982.369934082031 982.287780761719 978.058227539062 991.944091796875 983.067321777344 979.131958007812 986.155578613281 975.475280761719 972.483093261719 969.005798339844 962.289001464844 968.20068359375 976.918273925781 977.272033691406 988.509948730469 987.894409179688 981.1494140625
952.4833984375 961.740905761719 959.421325683594 948.680114746094 946.16162109375 939.225463867188 935.400634765625 944.402526855469 947.4072265625 940.122009277344 954.209289550781 948.352844238281 943.662231445312 950.242309570312 962.997497558594 966.443603515625 969.050170898438 969.1064453125 968.099487304688 970.3046875 962.052856445312 951.326843261719 948.521545410156 954.43017578125 954.892272949219 961.254333496094 961.744079589844 964.201843261719 958.095092773438 961.700439453125 967.121704101562 970.530090332031 973.811462402344 972.888366699219 971.0576171875 963.904907226562 967.024963378906 962.250854492188 980.197021484375 981.581359863281 984.825805664062 985.116516113281 984.91943359375 988.527465820312 999.443908691406 1001.55029296875 998.005615234375 998.318603515625 999.792358398438 993.557373046875 997.540710449219 998.219970703125 992.480712890625 995.614685058594 994.783020019531 990.451416015625 994.657897949219 995.731079101562 982.31396484375 984.449768066406 988.999816894531 990.188415527344 988.461547851562 988.904052734375 983.629516601562 987.409729003906 980.249633789062 981.07763671875 986.815856933594 978.684631347656 992.071228027344 988.768249511719 993.282409667969 983.045043945312 984.852661132812 991.041259765625 989.236022949219 987.41064453125 990.449462890625 983.166137695312 993.646057128906 1000.96752929688 1004.86358642578 1006.40270996094 995.314270019531 1002.05108642578 1000.80572509766 1008.42700195312 1013.25732421875 1011.96478271484 999.578308105469 1003.02661132812 996.539245605469 1003.18133544922 1015.05712890625 1008.96051025391 1008.01745605469 1001.59887695312 1004.13916015625 1007.13806152344 1015.74194335938 1007.046875 1005.81793212891 1013.75079345703 1015.38507080078 1023.63079833984 1028.72497558594 1037.87805175781 1046.53015136719 1049.30712890625 1044.78771972656 1049.82739257812 1048.50219726562 1053.25463867188 1049.69970703125 1052.55224609375 1049.71423339844 1047.46533203125 1042.66540527344 1035.3232421875 1018.640625 1021.50189208984 1003.79357910156 1010.23474121094 1009.82727050781 1003.04400634766 999.303527832031 991.013061523438 982.009887695312 975.602294921875 981.275085449219 978.094055175781 976.570739746094 977.248291015625 984.813171386719 978.488525390625 980.005432128906 981.612426757812 977.865173339844 978.639282226562 972.723266601562 972.704895019531 972.555908203125 956.702941894531 962.165649414062 969.893310546875 977.777038574219 981.912902832031 976.973571777344 977.396667480469
957.178466796875 965.559814453125 964.595092773438 951.021667480469 951.9150390625 931.642150878906 936.762573242188 952.561706542969 949.097351074219 942.493957519531 942.056701660156 949.114929199219 945.416198730469 951.000366210938 953.82421875 958.81005859375 964.951721191406 969.287719726562 967.320739746094 968.598876953125 958.157470703125 949.238403320312 945.249938964844 953.885986328125 958.016235351562 958.464538574219 965.055969238281 956.134582519531 966.966552734375 957.681701660156 967.152282714844 961.061157226562 969.382507324219 974.781982421875 966.773986816406 969.03662109375 959.907165527344 968.398498535156 962.87060546875 971.383850097656 973.636657714844 977.778747558594 987.639892578125 983.326477050781 995.17236328125 996.145629882812 994.116455078125 995.546264648438 995.200317382812 991.375122070312 997.240051269531 1002.97503662109 996.870544433594 993.92529296875 998.481201171875 989.350402832031 996.728759765625 998.431091308594 995.532104492188 987.880065917969 989.045104980469 992.181335449219 992.95263671875 985.494567871094 984.715881347656 987.188354492188 976.716674804688 989.863525390625 990.59423828125 991.580322265625 990.851684570312 985.334777832031 989.340026855469 989.891174316406 995.54345703125 994.149963378906 989.855163574219 995.112976074219 990.915283203125 991.123352050781 987.411865234375 986.269470214844 997.023742675781 1000.64239501953 1000.30999755859 998.004028320312 1013.47119140625 1020.57275390625 1018.08697509766 1017.32995605469 1000.39117431641 997.4296875 999.720886230469 1001.11871337891 1004.61102294922 1000.47192382812 995.796020507812 1002.94097900391 1009.05883789062 1009.78497314453 1011.22296142578 1016.12982177734 1012.59088134766 1016.85272216797 1014.00531005859 1026.36596679688 1037.09997558594 1042.81518554688 1052.689453125 1048.3857421875 1052.06958007812 1046.35205078125 1049.88049316406 1064.23168945312 1062.95666503906 1057.13696289062 1053.7890625 1049.87731933594 1052.65454101562 1039.26733398438 1036.16528320312 1028.69018554688 1019.29016113281 1017.48608398438 1011.33740234375 1002.09387207031 1007.05535888672 993.55712890625 992.195068359375 986.205871582031 983.530700683594 974.783264160156 976.241882324219 980.107727050781 981.304565429688 980.123779296875 977.653625488281 980.257995605469 976.568359375 971.517700195312 966.184753417969 971.842956542969 973.181274414062 969.029541015625 968.5263671875 968.842895507812 969.088745117188 981.926025390625 973.78173828125 976.263549804688
958.5390625 953.687561035156 953.889404296875 950.3759765625 949.91357421875 942.107666015625 941.466979980469 941.362426757812 939.539001464844 938.896667480469 936.996948242188 942.65869140625 957.196960449219 961.884826660156 956.948669433594 948.93505859375 952.634216308594 956.875122070312 958.237060546875 953.480346679688 951.523315429688 949.581909179688 954.051025390625 956.572448730469 958.016174316406 955.465454101562 962.449768066406 960.96044921875 963.526977539062 962.883178710938 960.758239746094 965.081115722656 970.594055175781 972.381530761719 969.861328125 970.728637695312 964.197570800781 963.179931640625 964.978088378906 974.958862304688 970.223815917969 976.767883300781 982.49853515625 986.405883789062 988.215637207031 986.202697753906 998.198608398438 1002.15185546875 990.74169921875 987.582702636719 992.669738769531 1002.00427246094 996.455139160156 999.162475585938 997.853088378906 999.643920898438 1000.33294677734 994.643310546875 998.003967285156 986.350219726562 996.567810058594 994.996643066406 999.549255371094 989.856872558594 993.808471679688 994.257568359375 988.028686523438 979.913879394531 990.34326171875 989.943237304688 995.18359375 995.123168945312 991.81787109375 992.277160644531 999.154113769531 993.539672851562 995.161743164062 995.369445800781 992.870056152344 993.035888671875 992.943237304688 990.729858398438 992.130798339844 994.209655761719 999.024353027344 1011.13391113281 1010.88970947266 1012.42199707031 1006.36022949219 1009.58660888672 1009.23858642578 1004.12133789062 996.234985351562 996.606567382812 1000.93511962891 1000.79870605469 1008.7783203125 1011.97235107422 1016.46441650391 1013.10473632812 1024.95324707031 1021.70330810547 1020.32177734375 1019.33764648438 1030.134765625 1027.16357421875 1044.04907226562 1041.56616210938 1041.83654785156 1044.07568359375 1049.70080566406 1056.95983886719 1058.6201171875 1069.46398925781 1069.00549316406 1062.76477050781 1055.525390625 1055.41455078125 1052.76477050781 1047.22058105469 1038.96423339844 1031.98876953125 1025.11682128906 1023.56140136719 1013.96472167969 1007.42962646484 997.606628417969 991.688598632812 987.473327636719 978.346984863281 978.885986328125 974.282592773438 982.178649902344 986.375122070312 976.094848632812 973.321350097656 973.71435546875 975.804138183594 979.085388183594 966.593322753906 962.93798828125 962.703857421875 975.10693359375 977.062805175781 967.6767578125 966.004455566406 970.690795898438 978.349975585938 975.832641601562 975.523376464844
953.142700195312 957.052673339844 961.347595214844 945.614990234375 937.585876464844 945.120422363281 941.596435546875 941.431518554688 941.656799316406 943.921875 950.21923828125 949.643981933594 956.048278808594 959.827392578125 951.939208984375 948.925903320312 950.690307617188 958.895141601562 963.358032226562 964.654418945312 957.99169921875 956.357849121094 954.16650390625 961.471923828125 956.242797851562 959.559020996094 964.590759277344 961.378540039062 982.292114257812 970.580993652344 968.9169921875 960.252990722656 967.743225097656 975.776794433594 965.983947753906 971.168701171875 968.562255859375 969.413208007812 966.469848632812 970.537841796875 974.683044433594 976.315979003906 974.313598632812 979.793762207031 982.703186035156 982.9951171875 990.291259765625 993.744323730469 985.577819824219 988.481323242188 990.181335449219 1001.75262451172 1001.33551025391 992.755493164062 1002.06311035156 1007.52331542969 1008.0625 997.846862792969 999.2216796875 994.715759277344 998.679748535156 1001.39471435547 991.23193359375 994.411804199219 992.749450683594 994.482238769531 990.606750488281 989.283630371094 988.899780273438 993.169067382812 993.374572753906 1000.015625 996.570556640625 1000.10595703125 994.881164550781 999.738647460938 998.418090820312 995.435668945312 987.502319335938 990.444213867188 991.522155761719 985.7119140625 994.813903808594 998.869567871094 1007.60247802734 1009.869140625 1012.73822021484 1005.51715087891 1009.40521240234 1001.96960449219 996.823181152344 995.785034179688 994.1650390625 1003.64636230469 999.138854980469 1006.49432373047 1013.91015625 1015.43951416016 1016.18951416016 1014.51196289062 1021.609375 1018.67913818359 1022.17059326172 1024.15356445312 1022.80236816406 1038.7216796875 1040.40270996094 1038.68811035156 1041.43762207031 1048.94848632812 1056.8349609375 1057.20959472656 1058.0888671875 1055.474609375 1064.03479003906 1055.17736816406 1056.09753417969 1053.68041992188 1050.64074707031 1046.53271484375 1049.04833984375 1031.73193359375 1027.76379394531 1018.91021728516 1010.25140380859 999.122192382812 999.230407714844 988.439025878906 986.161987304688 982.2451171875 980.828063964844 978.754577636719 979.559875488281 986.868774414062 973.044555664062 974.550476074219 977.014587402344 978.676574707031 972.192993164062 965.807922363281 962.739501953125 963.23193359375 970.076904296875 973.908569335938 970.672485351562 965.060729980469 964.929626464844 975.088439941406 975.692565917969 977.649047851562
961.746154785156 963.155883789062 963.176513671875 954.698059082031 956.839111328125 958.032348632812 948.495422363281 942.139526367188 939.390197753906 949.313171386719 950.709350585938 960.405944824219 958.675415039062 961.035949707031 958.806701660156 963.27099609375 962.223022460938 963.15380859375 972.300720214844 973.544738769531 960.66259765625 961.837524414062 953.124633789062 962.644348144531 967.981506347656 965.261535644531 966.837829589844 972.247375488281 974.908874511719 970.404541015625 962.30615234375 973.568725585938 972.650085449219 969.047790527344 963.826354980469 963.234802246094 964.567932128906 967.77294921875 964.17724609375 963.101318359375 970.662170410156 972.339111328125 966.762390136719 979.772155761719 983.0517578125 980.261535644531 985.832336425781 981.36328125 984.234497070312 982.691223144531 987.5869140625 997.316528320312 1003.22955322266 1003.74536132812 1008.50512695312 1007.49530029297 1004.63922119141 994.827392578125 1000.23376464844 997.336975097656 1004.15368652344 1003.83520507812 992.850524902344 996.316589355469 998.058227539062 997.474548339844 993.040161132812 994.020874023438 993.569091796875 994.844360351562 990.749328613281 994.315368652344 986.221130371094 985.933166503906 988.932189941406 999.378295898438 994.706237792969 995.651977539062 996.303039550781 994.075012207031 995.511657714844 992.27783203125 993.216796875 1000.90252685547 996.412353515625 1013.42083740234 1006.41925048828 1008.37725830078 1009.65393066406 1007.39184570312 998.339904785156 993.356994628906 1003.00506591797 1008.72784423828 1004.45471191406 1005.19354248047 1013.58337402344 1013.68511962891 1019.05242919922 1016.05114746094 1026.62951660156 1015.46954345703 1019.14123535156 1020.75506591797 1022.91906738281 1038.33874511719 1031.61633300781 1036.58557128906 1043.29919433594 1047.9716796875 1047.95092773438 1055.0791015625 1048.32348632812 1052.30712890625 1062.70971679688 1059.67016601562 1053.55737304688 1060.55505371094 1057.35729980469 1058.83435058594 1053.30102539062 1037.482421875 1030.97875976562 1023.96942138672 1022.25787353516 1004.98895263672 1006.20965576172 993.26220703125 986.649169921875 983.5029296875 982.221008300781 980.572326660156 987.983703613281 980.898010253906 976.245849609375 967.938598632812 968.955383300781 972.946472167969 971.298828125 965.007995605469 961.336730957031 969.713012695312 971.22119140625 969.209350585938 972.5087890625 961.12158203125 962.642761230469 971.455261230469 973.076721191406 978.308288574219
971.048950195312 961.388671875 962.984130859375 949.317443847656 958.510009765625 956.901184082031 948.153930664062 945.731567382812 944.719909667969 939.736694335938 960.639404296875 959.244201660156 973.149291992188 964.698303222656 973.898803710938 970.650512695312 964.174011230469 974.400573730469 974.898193359375 965.628601074219 959.438903808594 957.955627441406 959.397705078125 960.326782226562 964.682678222656 965.645263671875 972.124389648438 973.275695800781 972.485473632812 981.289123535156 970.04248046875 976.421569824219 974.138610839844 967.717712402344 969.60205078125 964.453186035156 967.930358886719 968.278137207031 964.121459960938 969.640197753906 973.307067871094 967.598266601562 971.726867675781 979.264099121094 978.895568847656 971.54345703125 983.262390136719 977.147033691406 979.635009765625 981.771057128906 983.545837402344 991.310791015625 1005.77960205078 997.244201660156 1002.30859375 1010.53045654297 999.921081542969 998.468627929688 1000.14544677734 1003.06170654297 1001.08770751953 1003.14984130859 1005.30017089844 1003.19635009766 991.500427246094 1007.27227783203 1002.82495117188 1000.00994873047 1003.4912109375 986.957458496094 989.06982421875 985.659973144531 983.373657226562 989.501220703125 996.893676757812 996.115051269531 991.060852050781 999.234313964844 995.554931640625 1002.98016357422 993.854858398438 988.541625976562 993.731872558594 997.476745605469 1006.88073730469 1009.77752685547 1006.16107177734 1012.93951416016 1016.94018554688 1011.08203125 1006.06695556641 1003.97235107422 1007.95489501953 1014.51586914062 1011.94854736328 1013.20062255859 1011.34411621094 1026.146484375 1032.83044433594 1020.23944091797 1025.34045410156 1019.84893798828 1018.09912109375 1019.37622070312 1027.4892578125 1036.45300292969 1033.07019042969 1043.75268554688 1045.03662109375 1046.28149414062 1047.95373535156 1046.92907714844 1043.46447753906 1055.18566894531 1062.56469726562 1062.8251953125 1050.82177734375 1055.55615234375 1063.73400878906 1065.18664550781 1046.85510253906 1041.21435546875 1031.19372558594 1023.93872070312 1027.66088867188 1020.64038085938 1013.07604980469 999.102722167969 990.863220214844 994.684204101562 987.1474609375 986.06005859375 984.87939453125 976.561462402344 973.783935546875 972.264221191406 966.167541503906 966.994567871094 957.337890625 948.563171386719 956.64453125 967.12744140625 969.544616699219 957.147644042969 975.278076171875 982.168151855469 963.916748046875 962.964965820312 963.781311035156 967.550415039062
971.737060546875 964.532958984375 952.902648925781 945.351928710938 951.790588378906 952.663940429688 953.923889160156 946.543518066406 945.24560546875 952.110473632812 945.719909667969 960.969665527344 967.168762207031 969.417297363281 968.879760742188 970.924377441406 969.440490722656 973.850769042969 977.506469726562 973.09228515625 966.029357910156 960.945251464844 964.91259765625 961.931518554688 965.365600585938 975.461486816406 977.018310546875 969.849731445312 979.450927734375 980.119567871094 975.023315429688 978.212280273438 966.605285644531 976.667358398438 970.713684082031 969.190673828125 977.142517089844 973.431579589844 974.020324707031 976.015441894531 973.650146484375 971.151550292969 968.037475585938 977.621643066406 979.255187988281 968.490844726562 978.025390625 985.592224121094 986.348876953125 984.900329589844 986.280578613281 988.251159667969 998.828063964844 1006.14544677734 1006.41925048828 1003.7783203125 1002.05615234375 1002.58703613281 1004.01257324219 1005.75512695312 1007.45385742188 1009.34826660156 1009.46429443359 1002.0751953125 994.288940429688 993.474792480469 1004.75341796875 1010.49011230469 1008.43579101562 1001.13952636719 994.015380859375 990.343627929688 987.444030761719 996.769653320312 995.870178222656 1001.40081787109 991.226501464844 990.519348144531 993.1044921875 993.123168945312 995.265502929688 987.836730957031 998.52099609375 999.325317382812 1003.90972900391 1003.25750732422 1006.5634765625 1008.5849609375 1012.13787841797 1011.60833740234 1012.57025146484 1013.71594238281 1011.57806396484 1016.22393798828 1015.37646484375 1024.80151367188 1031.09094238281 1032.63439941406 1025.19738769531 1015.56640625 1017.84692382812 1018.62219238281 1018.87646484375 1016.51947021484 1023.13903808594 1028.01989746094 1036.66271972656 1035.93774414062 1039.17456054688 1044.5966796875 1039.82824707031 1044.10864257812 1045.42761230469 1048.23229980469 1055.15246582031 1056.16284179688 1057.00317382812 1050.66589355469 1064.47973632812 1061.82409667969 1051.65588378906 1040.83166503906 1039.17114257812 1028.50512695312 1033.50329589844 1031.33154296875 1012.03338623047 1008.69787597656 998.9033203125 990.036743164062 981.756958007812 992.344421386719 978.159362792969 975.89208984375 971.370788574219 972.010620117188 970.8173828125 961.654968261719 945.954895019531 948.592712402344 952.742980957031 960.181213378906 970.858093261719 968.029357910156 969.917724609375 976.073059082031 962.751708984375 956.073486328125 952.46240234375 963.945678710938
