NCOLS 150
NROWS 37
XLLCORNER 7394249
YLLCORNER 4843049
CELLSIZE 30
NODATA_VALUE -9999
968.29248046875 964.127197265625 964.770874023438 967.840576171875 964.676513671875 967.2685546875 961.574401855469 957.773864746094 962.858093261719 964.986938476562 967.282470703125 972.489807128906 973.465759277344 981.242370605469 972.261169433594 977.689575195312 968.588317871094 981.913208007812 979.038269042969 986.90673828125 985.445007324219 989.857116699219 981.868530273438 982.623840332031 990.303588867188 991.062072753906 988.850769042969 986.857482910156 985.928100585938 988.739318847656 993.388916015625 997.523010253906 996.165100097656 994.562805175781 1005.11016845703 1010.04119873047 1010.43939208984 1012.20166015625 1006.76348876953 995.364074707031 993.059448242188 990.575256347656 982.327453613281 989.036682128906 993.378356933594 993.34326171875 991.09765625 992.752258300781 984.460388183594 985.88037109375 976.656677246094 979.185546875 979.194885253906 972.255798339844 984.55078125 984.281555175781 982.924133300781 985.997802734375 988.397033691406 995.071411132812 997.617370605469 994.547668457031 1000.86993408203 1009.33349609375 1006.70959472656 997.40478515625 1007.69030761719 1006.57171630859 999.487060546875 1002.66271972656 988.484252929688 1004.32269287109 996.242797851562 991.682189941406 995.221923828125 991.643920898438 992.279907226562 981.113464355469 991.472473144531 992.506591796875 990.88916015625 990.767272949219 998.182495117188 1001.57836914062 1003.63659667969 1012.17578125 1027.85913085938 1028.42333984375 1028.79357910156 1029.58178710938 1028.87805175781 1025.03161621094 1018.33599853516 1020.64331054688 1011.6845703125 1022.19915771484 1024.79248046875 1022.33489990234 1021.47564697266 1014.13842773438 1006.24291992188 1012.70819091797 1021.8134765625 1015.67395019531 1006.64813232422 1013.57061767578 1009.89184570312 999.770263671875 991.763488769531 975.808959960938 965.236938476562 954.214599609375 944.824951171875 939.323425292969 947.776489257812 942.115539550781 947.099060058594 957.090454101562 969.298828125 975.099487304688 993.648315429688 1007.19171142578 1017.60577392578 1016.60467529297 1011.42462158203 1007.224609375 1023.97125244141 1026.64221191406 1034.38244628906 1045.98608398438 1042.26293945312 1034.12365722656 1025.46166992188 1035.94836425781 1042.90539550781 1047.58471679688 1049.00073242188 1051.81457519531 1050.45947265625 1060.4853515625 1054.00769042969 1062.0546875 1070.32055664062 1086.35717773438 1093.89477539062 1106.69543457031 1117.81420898438 1125.01440429688 1140.01489257812 1150.16467285156
963.830810546875 964.8828125 967.964904785156 966.839538574219 966.085815429688 963.853454589844 956.120666503906 965.132568359375 968.736572265625 960.13916015625 953.810974121094 958.903137207031 970.4423828125 974.722839355469 977.744812011719 969.315856933594 968.389038085938 981.213623046875 984.313537597656 986.31494140625 987.751220703125 990.090454101562 989.436279296875 985.677490234375 979.073486328125 982.73583984375 984.898559570312 983.637939453125 978.970703125 986.06787109375 989.5478515625 993.99609375 994.503234863281 992.966125488281 995.00146484375 997.232360839844 1000.82171630859 1006.67077636719 1007.51159667969 997.143127441406 987.5390625 997.677185058594 993.017517089844 982.713256835938 986.237548828125 989.352294921875 993.305480957031 987.991943359375 974.530883789062 971.203247070312 979.354675292969 978.148132324219 980.511535644531 981.45263671875 989.603698730469 986.755737304688 988.126892089844 984.512268066406 982.375 988.436218261719 983.516052246094 991.494750976562 999.286987304688 999.875366210938 994.383544921875 998.049438476562 1007.36187744141 1007.46185302734 1004.64801025391 995.015441894531 994.871032714844 993.123474121094 988.352233886719 988.072998046875 989.336975097656 993.05517578125 988.485534667969 983.292236328125 996.404174804688 997.043640136719 989.766906738281 995.54638671875 997.068908691406 997.931457519531 1010.84851074219 1013.97863769531 1029.91015625 1036.10266113281 1027.42333984375 1037.21228027344 1031.57873535156 1027.55493164062 1016.26214599609 1021.7236328125 1010.16284179688 1009.75036621094 1014.12078857422 1012.18402099609 1018.86389160156 1015.07214355469 1014.94995117188 1012.13122558594 1016.82434082031 1019.87121582031 1012.4130859375 1003.77984619141 1010.89562988281 1002.15899658203 998.202941894531 967.916442871094 962.242431640625 952.714599609375 943.455993652344 937.1435546875 938.399475097656 940.226989746094 946.83642578125 953.856567382812 967.210632324219 988.098999023438 991.241516113281 1009.16735839844 1019.30859375 1020.29040527344 1009.90588378906 1008.54602050781 1024.63159179688 1027.78100585938 1034.81079101562 1037.22521972656 1031.25622558594 1025.51403808594 1032.11938476562 1028.69506835938 1031.96154785156 1035.60034179688 1033.0205078125 1040.69372558594 1037.80554199219 1043.7060546875 1047.35375976562 1056.99987792969 1072.97839355469 1088.94812011719 1092.99365234375 1107.39111328125 1117.49780273438 1131.3857421875 1128.56518554688 1136.39367675781
951.349060058594 964.264770507812 971.10888671875 967.6591796875 968.903076171875 976.228332519531 968.906127929688 962.845642089844 965.425354003906 963.00146484375 963.281799316406 962.155029296875 979.250854492188 978.631469726562 981.552307128906 973.596435546875 979.795776367188 986.409240722656 983.027648925781 982.619812011719 995.810791015625 987.172546386719 988.56005859375 984.337585449219 985.008972167969 983.751953125 979.251159667969 980.78271484375 984.276000976562 984.234130859375 978.291687011719 987.810241699219 990.977905273438 996.183288574219 986.552490234375 988.55029296875 994.249633789062 993.895751953125 997.787109375 992.303527832031 988.156311035156 988.035278320312 990.000183105469 987.469970703125 988.026428222656 992.482421875 987.918334960938 979.217468261719 974.706481933594 980.183044433594 976.375732421875 983.187805175781 973.911804199219 974.646118164062 982.619995117188 992.702026367188 979.42041015625 989.067077636719 981.099914550781 985.66650390625 980.957397460938 988.468444824219 993.689514160156 999.316833496094 997.583068847656 999.739379882812 1004.39825439453 1006.17791748047 1000.86956787109 1001.34515380859 994.157653808594 993.730651855469 986.285766601562 980.685180664062 992.947265625 995.678527832031 987.966247558594 979.905334472656 992.791564941406 993.941711425781 991.194946289062 994.795471191406 1000.83123779297 1002.41546630859 1009.23284912109 1021.34558105469 1027.53125 1024.65832519531 1022.6162109375 1031.7626953125 1032.21081542969 1030.64965820312 1020.11590576172 1018.15747070312 1011.35089111328 1000.79370117188 1010.92687988281 1018.30914306641 1009.08685302734 1010.45806884766 1018.61566162109 1014.68054199219 1011.82098388672 1012.26171875 1005.18951416016 1005.82293701172 996.24169921875 993.440490722656 987.731201171875 980.257446289062 968.920043945312 958.597290039062 953.861145019531 942.043273925781 939.981811523438 935.218994140625 942.773986816406 955.202514648438 965.901916503906 979.645446777344 999.091125488281 1001.82708740234 1013.49951171875 1013.61895751953 1016.64855957031 1009.70617675781 1023.29608154297 1029.19567871094 1032.53979492188 1037.03100585938 1038.82482910156 1028.90417480469 1024.96911621094 1026.58728027344 1025.30322265625 1027.07897949219 1029.4404296875 1026.47314453125 1026.29809570312 1033.140625 1042.90515136719 1055.86596679688 1067.40246582031 1081.08251953125 1089.9423828125 1103.77954101562 1113.11437988281 1121.96166992188 1117.61047363281 1128.92199707031
953.807739257812 957.993896484375 962.982727050781 964.730773925781 964.536804199219 973.521362304688 977.01123046875 967.966186523438 968.585205078125 960.614013671875 960.410217285156 967.548889160156 980.888061523438 982.490356445312 973.400573730469 982.538391113281 974.998779296875 974.220886230469 980.046325683594 984.190734863281 991.374633789062 984.067810058594 991.328552246094 989.405883789062 986.49365234375 985.917419433594 983.825256347656 987.043579101562 987.801635742188 983.091003417969 983.684814453125 983.446594238281 987.3779296875 988.124206542969 990.286193847656 983.681640625 979.298217773438 983.504699707031 991.224243164062 989.828308105469 985.526245117188 994.900085449219 988.086120605469 985.594665527344 983.427124023438 988.682983398438 987.374450683594 990.470520019531 979.159606933594 974.679870605469 981.656494140625 984.894653320312 982.418762207031 975.134399414062 986.858642578125 989.571533203125 992.964233398438 984.348449707031 981.332336425781 987.727966308594 983.504028320312 990.56689453125 991.055297851562 993.045654296875 995.30615234375 1000.29467773438 997.539855957031 1001.53802490234 996.122009277344 995.966979980469 991.707336425781 988.065368652344 986.37890625 981.661193847656 985.199951171875 989.264343261719 984.709594726562 988.213439941406 987.550659179688 999.949890136719 992.545349121094 1003.67443847656 1002.52557373047 1006.95330810547 1006.6513671875 1013.54913330078 1021.82604980469 1025.96337890625 1020.2861328125 1018.39837646484 1020.55279541016 1022.14904785156 1021.79180908203 1005.80975341797 1000.8984375 997.781860351562 1011.95867919922 1019.87506103516 1011.97882080078 1013.69885253906 1013.12982177734 1011.68353271484 1009.92974853516 1011.45642089844 1005.41076660156 1003.53796386719 1002.80462646484 993.681213378906 993.974609375 981.809509277344 962.472961425781 960.577941894531 954.189270019531 945.274719238281 939.626708984375 941.573181152344 958.749145507812 959.069091796875 963.486145019531 974.569702148438 992.453857421875 992.998291015625 1008.85772705078 1008.0927734375 1013.68804931641 1017.50866699219 1023.06762695312 1024.86987304688 1032.01257324219 1030.73010253906 1031.41833496094 1024.83422851562 1028.05578613281 1010.6640625 1016.85919189453 1018.13885498047 1025.42321777344 1023.67706298828 1025.97766113281 1036.76538085938 1047.9638671875 1058.05285644531 1063.912109375 1081.10461425781 1096.85400390625 1103.10314941406 1118.1298828125 1116.05615234375 1110.78527832031 1121.56335449219
945.024780273438 950.594970703125 961.234680175781 959.935119628906 971.885070800781 973.376525878906 974.400573730469 971.67333984375 969.37060546875 966.952331542969 963.090637207031 973.740661621094 980.233032226562 983.357177734375 976.711181640625 981.029052734375 974.972290039062 973.488830566406 973.467346191406 971.34326171875 985.68359375 986.980712890625 986.692810058594 991.973083496094 997.810180664062 984.902526855469 983.285400390625 985.302124023438 987.318908691406 983.081237792969 985.796875 989.964721679688 980.679077148438 982.908203125 980.348327636719 980.388793945312 984.229797363281 988.338439941406 982.575866699219 978.450317382812 988.978210449219 983.650817871094 986.132690429688 993.078369140625 994.590026855469 983.989135742188 983.604858398438 981.898681640625 977.215881347656 978.005615234375 977.858459472656 980.512023925781 976.4482421875 978.297546386719 987.273681640625 983.486328125 982.065856933594 972.424621582031 977.243835449219 985.118774414062 991.615356445312 994.465148925781 993.734375 996.005920410156 995.210083007812 998.383239746094 996.403015136719 994.339660644531 997.069274902344 993.111511230469 989.647705078125 995.323303222656 996.527465820312 985.696044921875 989.818969726562 987.161071777344 982.400451660156 991.64599609375 992.424499511719 1002.21557617188 1002.68951416016 999.217956542969 1003.07635498047 1010.96362304688 1001.87951660156 1005.06207275391 1013.78344726562 1026.04028320312 1016.84930419922 1017.09033203125 1009.25415039062 1018.94860839844 1015.05889892578 1015.87487792969 1000.67889404297 997.113525390625 1006.11260986328 1021.60260009766 1011.59228515625 1017.16931152344 1032.5 1019.90594482422 1013.04211425781 1009.26495361328 1004.07055664062 999.605285644531 989.130187988281 995.702697753906 989.982727050781 987.279357910156 978.611206054688 968.928100585938 960.077514648438 946.421875 945.551879882812 947.92333984375 962.993347167969 969.75390625 976.713623046875 976.528930664062 990.441955566406 999.017761230469 1001.99426269531 1010.75 1007.86022949219 1013.55157470703 1025.17553710938 1027.49291992188 1027.9013671875 1029.11877441406 1021.16174316406 1024.33056640625 1021.54406738281 1018.14727783203 1007.14440917969 1009.58044433594 1016.60083007812 1025.6435546875 1023.47967529297 1030.52331542969 1052.78210449219 1062.20251464844 1074.58947753906 1092.26306152344 1096.09643554688 1101.41674804688 1118.69140625 1120.52062988281 1108.54699707031 1117.06091308594
949.249694824219 947.539611816406 955.431762695312 957.327697753906 958.318298339844 968.160949707031 972.4189453125 968.135192871094 965.8291015625 972.688049316406 981.957458496094 976.998352050781 986.110229492188 986.800903320312 981.916198730469 985.759338378906 980.692626953125 967.512084960938 968.15087890625 973.617431640625 977.190795898438 993.674621582031 998.723205566406 990.619323730469 999.395812988281 982.24169921875 977.288208007812 982.622680664062 985.679016113281 996.091674804688 984.438354492188 983.632873535156 988.39794921875 978.902404785156 979.320495605469 983.962768554688 980.956787109375 980.553405761719 985.996154785156 979.179870605469 984.722900390625 991.660034179688 980.226257324219 985.109680175781 983.37939453125 982.384582519531 986.234924316406 980.386962890625 982.8623046875 973.467407226562 973.783447265625 976.4462890625 975.701782226562 974.795593261719 984.161254882812 981.686950683594 978.54443359375 976.306213378906 984.305908203125 990.277221679688 998.632934570312 996.302612304688 996.6533203125 998.481628417969 993.362854003906 994.663635253906 984.15673828125 986.54736328125 995.615173339844 996.462280273438 987.824035644531 992.248779296875 995.375305175781 990.947998046875 990.85302734375 992.304016113281 982.193786621094 991.306030273438 998.388244628906 994.01220703125 1001.02801513672 1001.84875488281 993.212585449219 1002.12530517578 1001.93365478516 1006.2099609375 1012.49108886719 1023.45428466797 1015.00616455078 1013.5625 1010.5205078125 1015.79315185547 1013.9248046875 1001.35736083984 1000.05401611328 1003.53137207031 1008.75036621094 1013.0888671875 1018.7744140625 1017.66638183594 1014.21203613281 1011.33044433594 1007.40606689453 1002.47845458984 996.07470703125 999.666137695312 995.470092773438 1001.36560058594 1000.69952392578 994.452758789062 991.600952148438 971.072814941406 965.786315917969 955.990234375 954.262023925781 956.258911132812 972.049682617188 989.463684082031 983.800170898438 987.565551757812 990.810363769531 994.580383300781 1003.96368408203 1008.87530517578 1012.83581542969 1018.57061767578 1037.18920898438 1029.22802734375 1031.53942871094 1029.0908203125 1030.48474121094 1013.63275146484 1012.87176513672 1016.60943603516 1011.41607666016 1018.42834472656 1022.5478515625 1031.58898925781 1036.69775390625 1037.60864257812 1062.14196777344 1068.103515625 1081.14782714844 1096.3701171875 1096.52514648438 1111.07983398438 1114.28393554688 1119.16101074219 1118.53662109375 1124.49035644531
944.740417480469 942.686889648438 958.872924804688 958.865234375 965.071899414062 974.593566894531 977.099182128906 977.749694824219 973.552001953125 975.629272460938 981.038513183594 982.318420410156 978.601684570312 989.437316894531 977.623779296875 975.161743164062 974.872497558594 971.158020019531 973.82177734375 979.799011230469 972.724914550781 991.042663574219 990.816101074219 989.223388671875 991.293090820312 988.171325683594 980.305297851562 984.320007324219 982.726623535156 982.915649414062 976.445068359375 989.160461425781 985.197387695312 977.583129882812 982.294799804688 981.165771484375 980.461120605469 985.601501464844 984.212585449219 982.0751953125 981.189270019531 978.450805664062 986.014343261719 985.215148925781 983.03076171875 980.273071289062 980.060607910156 976.272827148438 976.765075683594 979.37841796875 979.991760253906 980.580383300781 976.356628417969 976.463317871094 985.389892578125 974.159790039062 984.404846191406 974.855346679688 978.950866699219 987.545227050781 990.821533203125 993.092956542969 994.401733398438 994.538330078125 996.012329101562 994.784912109375 986.816101074219 980.35302734375 977.400451660156 987.404602050781 986.4658203125 983.981018066406 991.371215820312 990.914123535156 989.0908203125 988.114318847656 978.548889160156 981.332946777344 989.9111328125 994.406921386719 1001.55230712891 996.127014160156 995.266479492188 1001.25469970703 1004.45550537109 1005.71325683594 1017.03814697266 1021.64141845703 1017.18939208984 1015.96215820312 1018.11108398438 1017.03094482422 1012.71917724609 1008.71258544922 1005.83850097656 1012.39093017578 1008.64916992188 1016.28265380859 1011.26470947266 1015.31683349609 1013.28881835938 1000.43963623047 999.536560058594 1003.25274658203 1004.90185546875 997.836608886719 995.872253417969 997.561828613281 989.965209960938 992.655395507812 992.432800292969 978.957702636719 965.101440429688 965.975708007812 970.74267578125 973.413940429688 986.523498535156 990.138244628906 1002.78454589844 993.944213867188 992.100280761719 991.942199707031 1006.06048583984 1003.07348632812 1006.34899902344 1013.21655273438 1027.0595703125 1035.5693359375 1027.20483398438 1021.37103271484 1021.03674316406 1014.14801025391 1016.01782226562 1016.02795410156 1016.35198974609 1020.24145507812 1028.17456054688 1027.69055175781 1041.33435058594 1051.62670898438 1066.25817871094 1081.3603515625 1094.69775390625 1104.48327636719 1120.99267578125 1121.9091796875 1121.25573730469 1120.64221191406 1124.3427734375 1129.59985351562
951.994812011719 951.823852539062 957.177795410156 957.166870117188 968.502258300781 969.135070800781 970.3154296875 971.499450683594 975.968811035156 983.454040527344 982.294250488281 977.006286621094 969.860656738281 972.534057617188 964.254272460938 969.732299804688 973.649536132812 972.544128417969 977.304870605469 978.332153320312 979.928344726562 981.766906738281 991.787048339844 991.865661621094 991.324340820312 978.33154296875 972.831237792969 980.037048339844 979.724060058594 987.397399902344 981.786254882812 983.079711914062 983.817932128906 990.48486328125 983.060302734375 976.396240234375 983.829711914062 981.61376953125 975.84716796875 976.757202148438 975.681762695312 972.388427734375 982.46923828125 981.251708984375 974.786315917969 985.006958007812 988.352844238281 976.019775390625 979.871337890625 979.794921875 978.212890625 980.36181640625 986.611145019531 978.488891601562 978.659973144531 982.723388671875 977.658020019531 973.824035644531 979.098815917969 971.631408691406 984.233947753906 984.6552734375 989.765075683594 998.515197753906 991.309326171875 988.885864257812 989.010009765625 985.516418457031 975.130004882812 977.324340820312 987.16162109375 974.507873535156 973.134765625 982.20947265625 978.060302734375 972.791809082031 979.102661132812 980.989868164062 981.455749511719 995.573913574219 999.003845214844 996.226013183594 999.641174316406 1001.84716796875 993.914123535156 1008.69262695312 1011.97143554688 1017.02490234375 1016.73468017578 1015.35009765625 1011.23645019531 1007.57391357422 1002.25549316406 1005.16333007812 1011.57281494141 1014.52624511719 1012.1865234375 1014.62127685547 1009.24499511719 1009.04388427734 1009.49938964844 997.919006347656 998.543395996094 1000.75500488281 995.567077636719 987.931640625 995.388610839844 994.509582519531 995.934936523438 994.8291015625 997.567138671875 986.178100585938 986.801513671875 995.596374511719 981.831787109375 986.512145996094 988.943603515625 998.424987792969 1004.62023925781 992.912475585938 997.057800292969 997.035705566406 1001.37451171875 997.465454101562 994.679504394531 1005.08819580078 1012.43939208984 1019.97113037109 1017.86749267578 1007.49963378906 1013.64929199219 1008.67449951172 1013.669921875 1011.51385498047 1016.55102539062 1025.984375 1032.53771972656 1043.45593261719 1061.25939941406 1074.13916015625 1072.36645507812 1090.27648925781 1101.29724121094 1104.79052734375 1121.62768554688 1122.17919921875 1134.16784667969 1124.62097167969 1119.90295410156 1127.25964355469
956.850769042969 964.118591308594 958.466735839844 959.113220214844 969.824157714844 965.111755371094 968.446228027344 974.373413085938 974.737060546875 986.607849121094 985.224426269531 976.778503417969 969.069274902344 971.057739257812 961.540405273438 958.392578125 972.740112304688 979.257629394531 983.164916992188 983.309265136719 976.706359863281 974.722717285156 984.840942382812 983.485046386719 983.373779296875 974.519897460938 976.886779785156 977.190612792969 973.128601074219 977.904113769531 979.612854003906 973.955749511719 979.822509765625 989.112182617188 980.0791015625 978.805053710938 979.149536132812 976.396911621094 971.333129882812 978.956115722656 979.103393554688 966.751525878906 979.3115234375 973.259338378906 978.563415527344 983.787048339844 987.465270996094 971.51123046875 975.562927246094 985.505065917969 979.779174804688 976.547424316406 984.236755371094 980.424133300781 984.973022460938 973.711059570312 972.061401367188 974.032531738281 971.373046875 971.505004882812 971.63427734375 982.385375976562 991.997192382812 986.80322265625 983.743103027344 988.419067382812 979.149719238281 979.0146484375 972.990051269531 969.135498046875 972.357727050781 963.168701171875 966.859069824219 968.482055664062 967.568664550781 967.059387207031 976.004516601562 986.728088378906 990.565856933594 993.26416015625 995.791259765625 996.2099609375 995.704223632812 1002.93817138672 1000.03619384766 1001.55725097656 1013.84808349609 1018.32269287109 1015.34497070312 1013.87713623047 1011.20745849609 1005.52252197266 999.188537597656 1003.07897949219 1007.4541015625 1014.11700439453 1010.07690429688 1004.42974853516 998.721740722656 996.773498535156 993.829223632812 996.980041503906 994.387939453125 1004.85211181641 992.538940429688 989.833312988281 991.027099609375 995.746643066406 993.434143066406 989.389099121094 994.986083984375 989.041442871094 995.794616699219 995.958374023438 992.343200683594 1003.47888183594 998.182250976562 995.659729003906 996.186645507812 994.925354003906 1002.36358642578 998.537780761719 992.17919921875 993.854797363281 983.399963378906 997.599731445312 998.356567382812 996.376586914062 1005.84289550781 1008.22766113281 1002.93933105469 1003.18670654297 1011.30963134766 1016.38244628906 1018.25262451172 1032.66540527344 1045.95373535156 1045.44567871094 1060.04736328125 1075.36328125 1083.76928710938 1095.44226074219 1100.71020507812 1104.65856933594 1110.14990234375 1129.04943847656 1122.88098144531 1126.25341796875 1138.20617675781 1136.12084960938
950.34814453125 958.362976074219 962.939453125 967.356567382812 962.055847167969 968.06591796875 970.765625 974.81689453125 983.464660644531 983.571838378906 978.07568359375 973.996704101562 969.001037597656 965.191833496094 965.650451660156 969.087463378906 978.565734863281 986.152648925781 989.956237792969 967.746459960938 982.040954589844 979.893676757812 978.816589355469 971.652893066406 980.7265625 977.443908691406 974.450439453125 973.77587890625 969.466369628906 968.683776855469 970.520629882812 973.470642089844 974.566589355469 985.284118652344 972.836547851562 973.246398925781 977.127868652344 976.691223144531 974.895446777344 972.451965332031 973.654479980469 979.450317382812 967.471618652344 975.169250488281 971.146789550781 968.907958984375 972.688842773438 973.868957519531 973.546936035156 979.970764160156 973.197082519531 979.862548828125 983.627014160156 986.229797363281 978.745300292969 969.461853027344 968.568786621094 971.060974121094 972.128356933594 966.080078125 972.639038085938 989.06591796875 994.810852050781 981.882385253906 975.292663574219 980.592529296875 981.317687988281 980.537841796875 975.915832519531 973.078247070312 975.0263671875 971.990051269531 971.332824707031 971.282897949219 968.3671875 971.425842285156 978.3857421875 990.245300292969 993.028686523438 992.573852539062 995.996704101562 995.798034667969 996.397338867188 1003.62750244141 1000.07946777344 998.859252929688 1011.416015625 1020.97497558594 1011.65148925781 1006.27111816406 1008.17822265625 996.342590332031 994.252990722656 1003.78698730469 1010.01556396484 1002.01654052734 1010.04907226562 1001.63879394531 993.412353515625 987.193542480469 980.948486328125 991.406616210938 993.330322265625 997.319396972656 992.386596679688 992.356567382812 987.985168457031 994.192565917969 985.404052734375 988.23583984375 997.746337890625 994.823913574219 998.201293945312 998.975952148438 996.204895019531 997.433044433594 1004.25170898438 1004.87408447266 996.008361816406 1000.94976806641 1001.25323486328 1007.53430175781 999.004455566406 994.326721191406 992.006164550781 998.265197753906 998.787658691406 1000.84509277344 1007.08587646484 1005.59478759766 1001.14733886719 1001.18316650391 1015.03283691406 1019.13677978516 1024.19567871094 1038.53515625 1047.73913574219 1053.13757324219 1071.65930175781 1081.310546875 1087.55432128906 1107.27404785156 1114.40234375 1117.16162109375 1123.15612792969 1125.81909179688 1116.01733398438 1126.65881347656 1133.142578125 1139.11535644531
945.744567871094 951.803405761719 962.742919921875 973.689147949219 974.057250976562 968.479919433594 974.914428710938 974.363647460938 980.951232910156 979.396545410156 973.732360839844 969.2119140625 973.372314453125 972.954650878906 971.752624511719 971.408081054688 975.939147949219 980.066223144531 980.735412597656 974.309448242188 983.440673828125 977.396240234375 981.766052246094 976.709045410156 977.855102539062 985.370056152344 968.550720214844 969.182312011719 963.026489257812 969.11572265625 967.150146484375 972.632202148438 978.82763671875 987.081665039062 978.557189941406 973.667846679688 979.474365234375 981.037109375 974.639709472656 969.764099121094 967.879089355469 978.823791503906 975.607177734375 972.384887695312 973.068664550781 975.981689453125 974.426452636719 972.804504394531 975.198303222656 977.9892578125 982.49755859375 974.424743652344 974.758972167969 982.177673339844 972.111145019531 967.681945800781 957.760070800781 964.66259765625 960.793395996094 964.899230957031 976.668273925781 982.186462402344 984.879455566406 987.285034179688 976.759643554688 976.701538085938 985.680603027344 985.369567871094 983.894287109375 978.370971679688 975.245239257812 974.070129394531 970.974914550781 970.4521484375 968.873168945312 966.38232421875 974.973022460938 973.616760253906 983.899536132812 990.905639648438 994.316528320312 991.884704589844 986.661376953125 998.293212890625 991.491027832031 993.978332519531 1007.64373779297 1010.86022949219 1006.14935302734 1003.70739746094 1005.78247070312 1000.00958251953 1008.77679443359 1010.08795166016 1015.69232177734 1001.9658203125 994.826477050781 993.9267578125 990.37060546875 983.138854980469 978.136779785156 981.262145996094 996.768981933594 986.149536132812 990.773010253906 988.179321289062 982.387512207031 988.251037597656 991.310424804688 982.191467285156 987.84326171875 1001.43927001953 999.627197265625 999.743225097656 996.05859375 995.569885253906 994.074951171875 997.666564941406 998.41650390625 1002.81683349609 1003.34613037109 1006.61492919922 1002.97943115234 989.357360839844 994.92919921875 993.850769042969 1003.63464355469 1006.2421875 1007.16723632812 996.65380859375 1000.43817138672 1013.80328369141 1022.35754394531 1025.67175292969 1033.53503417969 1049.39636230469 1051.69323730469 1058.18627929688 1071.98193359375 1084.38256835938 1100.818359375 1106.66967773438 1111.03820800781 1120.04846191406 1126.12023925781 1127.71691894531 1126.86669921875 1134.94873046875 1144.57373046875 1147.99584960938
946.05859375 958.018005371094 962.274108886719 970.775024414062 970.213745117188 969.450927734375 971.186950683594 970.383972167969 962.623168945312 969.625854492188 969.157043457031 973.018859863281 977.070861816406 980.425109863281 979.725036621094 973.139038085938 970.791931152344 971.330017089844 973.857177734375 976.931884765625 983.92626953125 986.005065917969 979.832336425781 981.650573730469 985.10302734375 984.769714355469 973.559265136719 974.230102539062 968.677368164062 967.706970214844 968.285095214844 977.219909667969 980.375427246094 982.243835449219 978.786315917969 984.359802246094 983.536560058594 979.664611816406 973.415100097656 978.213256835938 979.329406738281 974.553649902344 978.508422851562 973.93896484375 970.505981445312 971.195068359375 974.318786621094 972.484558105469 971.865966796875 974.210388183594 977.519409179688 984.250061035156 979.441955566406 968.385375976562 965.406311035156 960.164489746094 967.876220703125 970.796081542969 969.368774414062 964.061706542969 973.350769042969 981.876953125 976.425598144531 974.307189941406 981.930969238281 988.514953613281 987.432678222656 977.627502441406 980.27490234375 978.021057128906 962.722290039062 970.501159667969 973.31640625 966.333740234375 955.622863769531 959.974182128906 968.122253417969 969.925537109375 980.705017089844 984.209350585938 993.286743164062 993.859436035156 992.424682617188 997.352355957031 997.231323242188 998.06689453125 1005.42834472656 1008.66485595703 1000.85241699219 999.450927734375 1000.61395263672 1005.78875732422 1012.04730224609 1006.85473632812 1007.04364013672 998.428283691406 990.918579101562 996.17431640625 990.872436523438 983.428833007812 978.91064453125 988.763000488281 988.580932617188 989.848205566406 989.037109375 984.634399414062 989.750305175781 991.670715332031 989.2919921875 985.407531738281 984.492980957031 997.494323730469 997.7587890625 997.866149902344 1002.27368164062 997.723693847656 996.224975585938 999.424682617188 1002.67852783203 1001.52819824219 991.638549804688 992.998474121094 1001.32574462891 995.284790039062 994.178771972656 998.170227050781 998.988647460938 1006.76690673828 1002.87872314453 1010.04663085938 1008.48266601562 1016.34582519531 1028.23950195312 1016.43127441406 1036.1923828125 1044.32751464844 1056.31909179688 1063.54455566406 1076.51391601562 1073.46203613281 1087.10375976562 1102.62890625 1109.39709472656 1123.54309082031 1125.57641601562 1127.60864257812 1137.28942871094 1138.11511230469 1141.36999511719 1155.63391113281
952.26708984375 948.483947753906 959.544677734375 966.385437011719 971.573425292969 973.776611328125 972.259216308594 967.700561523438 961.310363769531 963.740173339844 964.272705078125 976.581665039062 975.968078613281 971.318542480469 971.223510742188 976.072082519531 976.406005859375 974.252258300781 978.7783203125 972.037536621094 980.384643554688 973.958251953125 970.676696777344 979.401550292969 983.580139160156 981.734924316406 979.303405761719 969.3935546875 974.699401855469 981.201416015625 967.381042480469 975.309387207031 976.582702636719 978.491516113281 981.553283691406 982.456298828125 979.003051757812 972.314270019531 976.31298828125 973.253784179688 978.150390625 974.914611816406 970.081176757812 978.398559570312 971.572509765625 966.095581054688 975.489074707031 974.238098144531 979.120727539062 976.6806640625 977.348266601562 973.539794921875 965.120056152344 969.13623046875 967.217956542969 965.128051757812 962.491821289062 967.472595214844 966.557861328125 960.145141601562 970.232482910156 979.193603515625 977.170043945312 975.886779785156 975.644104003906 982.041381835938 978.479675292969 980.20556640625 977.7470703125 964.594177246094 961.834655761719 970.297607421875 965.792663574219 965.719055175781 960.234741210938 966.896362304688 966.58984375 976.366516113281 979.499755859375 980.675537109375 976.931274414062 986.316467285156 991.700744628906 985.785705566406 994.959533691406 997.367614746094 994.284362792969 1006.96594238281 1004.32983398438 997.867797851562 993.386413574219 997.781982421875 1001.03198242188 1011.13726806641 1008.70129394531 996.713195800781 995.615173339844 996.518249511719 993.330017089844 983.348937988281 988.685180664062 984.636596679688 988.264465332031 981.819763183594 981.269226074219 983.02490234375 983.802612304688 981.266174316406 986.44482421875 984.949829101562 991.753723144531 998.566650390625 997.21728515625 989.957763671875 993.806762695312 998.490234375 996.259643554688 1004.41967773438 1007.42102050781 999.375305175781 995.988037109375 998.95556640625 996.057739257812 993.271301269531 997.327819824219 994.884460449219 1000.64373779297 1015.12170410156 1018.76062011719 1013.77374267578 1023.70037841797 1029.28295898438 1031.01538085938 1024.11254882812 1035.41223144531 1045.93310546875 1050.79870605469 1062.91198730469 1063.0400390625 1074.16369628906 1085.58093261719 1109.623046875 1108.06433105469 1118.02551269531 1130.19836425781 1131.40466308594 1141.16320800781 1146.3515625 1156.83776855469 1157.86840820312
950.139587402344 955.423034667969 950.401428222656 965.403259277344 963.760864257812 963.094360351562 957.775817871094 964.035217285156 961.132629394531 966.018920898438 963.705261230469 969.797485351562 973.063171386719 977.86669921875 969.553955078125 971.144104003906 979.08642578125 977.763671875 970.427734375 973.966003417969 975.284240722656 977.564880371094 979.334899902344 973.983825683594 978.824951171875 977.771057128906 973.096984863281 971.724548339844 974.518371582031 976.252258300781 976.886840820312 975.639892578125 975.27685546875 970.521057128906 973.766235351562 981.451293945312 980.570190429688 975.80078125 979.655700683594 968.052001953125 982.88427734375 973.216735839844 967.460021972656 974.166137695312 963.717529296875 966.92724609375 970.422729492188 976.935363769531 978.08251953125 971.8974609375 978.447082519531 965.726867675781 963.842956542969 965.598510742188 969.361755371094 962.701599121094 973.056762695312 973.792907714844 967.666625976562 966.989868164062 966.562194824219 969.575805664062 970.418640136719 970.3291015625 973.186645507812 977.525817871094 982.245666503906 974.9697265625 975.614440917969 964.168884277344 960.116821289062 966.991577148438 966.35302734375 968.442687988281 965.402221679688 979.418640136719 975.283935546875 974.438903808594 985.30126953125 986.464538574219 978.876220703125 976.146484375 977.617858886719 980.901611328125 977.094909667969 985.809814453125 980.997131347656 988.707885742188 990.891906738281 1004.08746337891 993.140563964844 992.207153320312 1000.44909667969 1001.70526123047 999.38427734375 996.834350585938 989.029052734375 991.751525878906 992.248107910156 987.394836425781 982.978149414062 986.271362304688 987.036010742188 986.737854003906 982.566528320312 990.262512207031 988.816284179688 992.617065429688 992.718627929688 988.252136230469 986.776184082031 990.739685058594 994.700622558594 993.162048339844 983.277526855469 989.100524902344 999.281555175781 1003.24035644531 1000.62951660156 1003.62127685547 994.209533691406 991.938842773438 997.121276855469 1004.71179199219 1006.5283203125 1007.40454101562 1009.04809570312 1009.41937255859 1020.89764404297 1026.95434570312 1044.64892578125 1038.0732421875 1036.94494628906 1036.93713378906 1035.30419921875 1043.02294921875 1054.29333496094 1069.52124023438 1077.24987792969 1081.20092773438 1095.28637695312 1106.30932617188 1110.80114746094 1124.68334960938 1135.08569335938 1142.7216796875 1149.73657226562 1153.79113769531 1161.80639648438 1158.66418457031
953.508911132812 951.769104003906 957.53125 961.329040527344 956.394165039062 958.471069335938 956.426147460938 964.640808105469 965.287658691406 972.130981445312 972.08642578125 970.775085449219 975.954467773438 968.546508789062 964.115051269531 965.744934082031 970.878601074219 975.839416503906 977.086486816406 981.16796875 975.24365234375 975.367431640625 969.950256347656 961.946411132812 965.266052246094 973.126708984375 972.584777832031 969.847961425781 975.784729003906 977.739501953125 976.106140136719 983.729370117188 972.195129394531 970.811340332031 974.093872070312 978.251220703125 981.109985351562 981.093994140625 980.108520507812 973.628662109375 968.74853515625 967.692260742188 967.930297851562 972.044982910156 971.047729492188 968.676513671875 975.950256347656 965.374694824219 969.143493652344 964.169982910156 966.712036132812 971.815002441406 968.561767578125 965.25634765625 971.875915527344 970.93505859375 978.278076171875 985.668334960938 971.611694335938 976.711364746094 967.981750488281 964.894287109375 964.992858886719 974.795715332031 984.72802734375 979.669677734375 987.479248046875 981.376403808594 973.968322753906 965.220947265625 961.779724121094 962.273315429688 971.804626464844 967.038146972656 964.321533203125 970.672424316406 976.231628417969 975.681396484375 984.90283203125 974.231140136719 978.296203613281 982.2646484375 976.7216796875 972.64013671875 976.850341796875 984.789123535156 982.017456054688 993.099670410156 993.918090820312 995.693725585938 991.072814941406 989.656372070312 990.236206054688 996.758056640625 993.049499511719 991.151428222656 983.194519042969 987.044860839844 986.570617675781 978.311401367188 977.522521972656 981.236511230469 985.665649414062 985.275451660156 987.103088378906 976.140563964844 986.376342773438 997.171203613281 989.615600585938 983.884155273438 984.98583984375 991.5908203125 991.027160644531 989.053894042969 993.008666992188 996.81396484375 998.4423828125 988.928588867188 997.208984375 997.302429199219 996.117553710938 992.918701171875 994.758666992188 999.7744140625 1006.07141113281 1015.61254882812 1014.57586669922 1019.61010742188 1026.57800292969 1033.8916015625 1036.09130859375 1037.03649902344 1035.30419921875 1039.0439453125 1037.98278808594 1052.38684082031 1059.96948242188 1070.09045410156 1074.77502441406 1091.8427734375 1092.95666503906 1114.68627929688 1119.82141113281 1133.20202636719 1144.70703125 1148.57421875 1153.74914550781 1163.96594238281 1165.26171875 1161.49328613281
946.798767089844 945.955810546875 957.871887207031 960.475463867188 953.961608886719 955.860046386719 962.3828125 962.79833984375 967.809692382812 968.109436035156 963.880920410156 971.105712890625 965.698425292969 959.590759277344 963.271606445312 966.193969726562 976.566650390625 980.587036132812 986.128784179688 977.354736328125 970.757629394531 966.685791015625 961.082885742188 956.094360351562 959.751892089844 965.339233398438 965.345092773438 966.3662109375 975.431213378906 985.081298828125 981.075927734375 972.009399414062 975.533996582031 977.403198242188 973.509033203125 970.698791503906 974.04833984375 977.709228515625 976.346252441406 972.0556640625 971.914916992188 963.021301269531 968.40380859375 973.840454101562 967.815246582031 968.789001464844 973.940002441406 965.393188476562 966.151184082031 963.602416992188 959.30126953125 965.271606445312 973.481567382812 973.400329589844 970.148620605469 967.120483398438 969.759643554688 971.10595703125 966.562805175781 971.719116210938 978.574523925781 973.56640625 974.867553710938 975.171691894531 982.279052734375 984.043395996094 988.787048339844 991.361999511719 982.512084960938 973.254211425781 974.138305664062 968.971069335938 972.412109375 968.712463378906 964.124572753906 970.073303222656 969.697937011719 968.937377929688 978.578552246094 975.843139648438 978.097473144531 984.318542480469 978.247375488281 969.640258789062 979.390808105469 983.635681152344 979.692687988281 986.681396484375 979.476196289062 987.912719726562 983.820129394531 989.708801269531 979.0078125 987.252807617188 994.496520996094 983.928283691406 989.84375 984.288269042969 981.817993164062 979.67431640625 976.962219238281 977.888671875 976.278503417969 980.518127441406 976.543029785156 975.225952148438 986.241577148438 993.756774902344 988.05810546875 995.624328613281 986.281433105469 992.256103515625 986.482971191406 987.022216796875 990.309448242188 997.490173339844 1002.92431640625 990.828796386719 995.241882324219 995.317321777344 997.690063476562 998.348693847656 1003.01336669922 1000.02392578125 1015.27642822266 1023.3349609375 1022.29992675781 1026.36450195312 1028.57580566406 1026.95837402344 1033.96032714844 1038.44177246094 1035.06494140625 1040.36535644531 1049.95520019531 1063.47534179688 1072.77734375 1077.654296875 1091.216796875 1098.89245605469 1105.00756835938 1106.95166015625 1120.18627929688 1131.02941894531 1150.59533691406 1161.00366210938 1163.99328613281 1161.30053710938 1164.07629394531 1169.1220703125
949.374572753906 948.303955078125 948.439147949219 955.091186523438 949.003967285156 957.997375488281 959.113525390625 953.934692382812 959.79541015625 960.426879882812 966.326171875 967.925415039062 965.027954101562 963.1220703125 965.138305664062 970.372619628906 971.613708496094 977.86328125 973.602844238281 970.389831542969 970.864685058594 964.497985839844 965.009948730469 956.050720214844 957.542541503906 960.354858398438 956.421752929688 961.694580078125 983.847961425781 976.107360839844 984.713500976562 980.680603027344 979.269104003906 970.949523925781 973.949584960938 977.255737304688 978.227172851562 971.787841796875 970.934631347656 977.601318359375 971.088134765625 970.770080566406 971.219787597656 972.580871582031 970.460510253906 963.986938476562 969.987548828125 958.301330566406 970.041625976562 967.380432128906 965.59033203125 977.334045410156 981.032165527344 976.925720214844 972.625610351562 966.537353515625 964.541381835938 973.781188964844 972.520935058594 974.690002441406 975.704040527344 975.420715332031 974.708190917969 968.684143066406 978.858520507812 976.364013671875 979.463073730469 989.881164550781 987.35546875 973.636352539062 976.682861328125 968.572631835938 962.196960449219 963.008850097656 956.977844238281 969.416564941406 968.293151855469 971.206970214844 958.611633300781 967.877380371094 974.612915039062 976.409545898438 974.669494628906 975.172119140625 982.657958984375 968.406677246094 968.388549804688 974.144165039062 973.768371582031 979.151977539062 978.603698730469 978.582275390625 982.245849609375 981.293151855469 987.490600585938 987.370483398438 987.864990234375 981.87255859375 978.029663085938 980.903381347656 976.290954589844 967.245849609375 970.6142578125 976.102294921875 975.83984375 981.885314941406 981.365600585938 997.160217285156 996.824279785156 992.810852050781 992.755004882812 998.05859375 997.730224609375 999.58447265625 1003.18200683594 1002.11645507812 1012.03515625 1002.26922607422 995.893615722656 996.129638671875 997.40087890625 998.929931640625 999.345397949219 1005.20593261719 1013.88024902344 1026.30419921875 1021.78936767578 1020.02490234375 1037.763671875 1042.56494140625 1043.74047851562 1046.67590332031 1050.13159179688 1059.47534179688 1052.73754882812 1071.32434082031 1078.89819335938 1082.845703125 1099.71008300781 1100.994140625 1107.58459472656 1108.443359375 1123.46826171875 1140.6259765625 1154.74768066406 1158.70922851562 1160.96264648438 1169.71130371094 1172.21362304688 1165.55444335938
949.825439453125 952.427490234375 953.089782714844 957.328125 960.799011230469 956.109375 965.466674804688 967.272827148438 961.387451171875 968.617614746094 965.169311523438 971.749328613281 968.237426757812 972.575439453125 967.046325683594 981.010864257812 976.294128417969 970.839172363281 978.647705078125 971.634216308594 967.993896484375 967.955932617188 964.355834960938 966.428405761719 960.077209472656 960.715454101562 955.668151855469 959.620300292969 978.192565917969 976.971618652344 976.690246582031 980.211547851562 974.529602050781 974.189208984375 974.3427734375 978.154663085938 976.857604980469 975.248779296875 971.751281738281 974.428771972656 968.627136230469 979.195739746094 964.299621582031 969.592102050781 967.5771484375 967.148986816406 971.295166015625 963.324279785156 966.974914550781 968.416198730469 968.956970214844 966.111328125 970.523071289062 975.375427246094 968.481506347656 962.830810546875 967.541748046875 975.201721191406 972.542846679688 982.212097167969 978.648803710938 980.080139160156 966.066040039062 964.247741699219 969.97216796875 971.56005859375 978.807922363281 990.241638183594 986.466491699219 971.124816894531 973.898620605469 965.698791503906 964.600036621094 964.034545898438 966.712646484375 966.7763671875 970.544067382812 968.906127929688 964.864868164062 971.371887207031 976.692138671875 969.906555175781 969.11376953125 970.541687011719 967.469360351562 971.542663574219 977.119812011719 975.31689453125 977.213195800781 977.650573730469 983.027099609375 981.587463378906 991.013488769531 991.842346191406 991.811767578125 987.920104980469 984.705749511719 979.086730957031 980.635864257812 977.986877441406 966.541809082031 967.240966796875 974.8525390625 985.191650390625 977.497375488281 987.482604980469 983.880065917969 994.933227539062 1007.15643310547 994.057739257812 996.356811523438 1000.26513671875 999.659729003906 999.089477539062 1006.15173339844 1003.67333984375 1005.80206298828 999.33740234375 989.593688964844 995.297607421875 997.103637695312 1000.98681640625 1007.62780761719 1014.69421386719 1019.34790039062 1023.62835693359 1018.18310546875 1026.26330566406 1027.79089355469 1043.73303222656 1049.84509277344 1054.87377929688 1054.54150390625 1060.76306152344 1060.59265136719 1070.5107421875 1090.94958496094 1100.57275390625 1102.64990234375 1102.53845214844 1108.83178710938 1111.04528808594 1127.12353515625 1146.07092285156 1149.73522949219 1154.9560546875 1154.76721191406 1166.68237304688 1176.48425292969 1156.75415039062
949.481628417969 951.389221191406 956.680847167969 962.402893066406 958.443176269531 959.394836425781 962.614135742188 967.040222167969 963.196350097656 964.554077148438 964.723388671875 964.238403320312 969.559692382812 976.947937011719 973.697082519531 970.307861328125 978.566711425781 982.909729003906 968.036560058594 966.935668945312 965.974365234375 971.932373046875 963.471740722656 962.031677246094 962.960021972656 965.004821777344 967.066101074219 971.150634765625 979.51953125 970.090393066406 977.502380371094 977.157043457031 976.546752929688 979.617614746094 981.700012207031 973.337890625 968.788818359375 972.351623535156 965.400817871094 965.597778320312 964.4716796875 963.85888671875 960.524047851562 957.245727539062 962.013916015625 962.48193359375 975.370056152344 964.139221191406 978.463012695312 970.973937988281 968.322265625 969.80078125 969.857482910156 969.570068359375 973.919067382812 976.010131835938 974.007873535156 978.287780761719 976.216491699219 972.780151367188 977.416564941406 969.698486328125 970.814208984375 966.091186523438 964.661071777344 971.276794433594 980.956604003906 994.311462402344 982.612365722656 976.620666503906 967.459045410156 962.395141601562 965.787353515625 971.263061523438 974.352905273438 973.95751953125 967.213684082031 972.235290527344 970.723693847656 964.249694824219 962.387084960938 963.818176269531 965.0673828125 971.229919433594 964.640625 970.376953125 979.069763183594 978.600402832031 966.548645019531 972.978881835938 970.166076660156 974.09228515625 988.222351074219 986.445678710938 979.687744140625 981.830017089844 982.178771972656 979.130981445312 972.615661621094 969.725891113281 964.542297363281 971.970397949219 982.180297851562 982.301330566406 978.794250488281 991.185180664062 985.969787597656 995.261657714844 1005.53143310547 1001.02105712891 999.475524902344 999.633850097656 1006.62561035156 1002.72320556641 1003.34686279297 1007.99444580078 1009.0859375 1007.81896972656 996.627807617188 1000.44506835938 997.160095214844 1006.69061279297 1014.51867675781 1029.37805175781 1026.17150878906 1032.14990234375 1030.28002929688 1030.51831054688 1034.18786621094 1032.44665527344 1036.97192382812 1055.20178222656 1058.56689453125 1061.63146972656 1069.34997558594 1085.28967285156 1092.18273925781 1100.9296875 1104.9638671875 1100.77722167969 1104.3466796875 1112.1220703125 1128.89672851562 1136.32629394531 1149.95959472656 1150.78332519531 1150.33178710938 1155.95263671875 1161.62329101562 1154.08752441406
959.527526855469 956.955932617188 956.139892578125 959.939025878906 960.817810058594 958.367797851562 964.069702148438 968.913269042969 974.528503417969 963.226806640625 959.705139160156 964.170654296875 979.547607421875 981.754516601562 970.280822753906 972.94921875 971.774719238281 975.187927246094 972.571594238281 966.000671386719 964.619567871094 977.289184570312 969.512634277344 964.952819824219 965.990661621094 961.514099121094 964.057006835938 969.155883789062 971.255249023438 971.463562011719 971.02587890625 966.037841796875 971.624389648438 982.700988769531 976.059020996094 971.351318359375 963.830139160156 968.772521972656 969.20458984375 967.312072753906 963.858093261719 959.747436523438 965.825866699219 964.166748046875 962.922790527344 962.738708496094 965.700500488281 969.646911621094 970.206420898438 975.194946289062 974.057556152344 975.048034667969 975.152893066406 974.409301757812 976.949951171875 973.452087402344 976.03515625 977.285278320312 974.032287597656 969.533264160156 976.16943359375 977.452392578125 973.064331054688 970.184509277344 972.942810058594 971.671569824219 983.052795410156 984.036987304688 982.84716796875 975.979431152344 970.1611328125 965.368835449219 965.222839355469 963.615783691406 962.347961425781 969.634338378906 966.920837402344 966.597290039062 963.62109375 966.554809570312 968.370788574219 968.272888183594 973.022216796875 965.747375488281 965.956726074219 970.73193359375 967.368103027344 971.265930175781 966.060241699219 972.778381347656 965.986694335938 970.43212890625 985.911987304688 980.176818847656 978.831481933594 975.592651367188 974.401733398438 965.116516113281 962.201293945312 964.799926757812 971.500305175781 977.095886230469 980.154602050781 987.827575683594 998.592834472656 1000.77874755859 995.871276855469 1000.46740722656 995.672790527344 991.691345214844 993.973266601562 995.677429199219 999.907470703125 1005.61187744141 1008.60900878906 1009.408203125 1013.48284912109 1013.39764404297 1009.41607666016 999.490905761719 997.592712402344 1008.51263427734 1021.49749755859 1034.91271972656 1031.30212402344 1031.40625 1029.78186035156 1035.54162597656 1037.17944335938 1029.35498046875 1041.28186035156 1050.75842285156 1056.8603515625 1062.88977050781 1074.67797851562 1086.35815429688 1095.47326660156 1098.26989746094 1105.53381347656 1112.40563964844 1103.77868652344 1116.77087402344 1130.29895019531 1133.99255371094 1141.8740234375 1151.54846191406 1141.59240722656 1145.13891601562 1143.97290039062 1141.64794921875
950.052124023438 955.640319824219 953.509155273438 952.369873046875 959.921081542969 963.339599609375 967.691955566406 962.254455566406 965.653259277344 962.422790527344 967.1259765625 976.149597167969 982.79345703125 974.791076660156 981.889343261719 974.120971679688 970.6396484375 972.459716796875 972.962890625 967.747375488281 961.759582519531 969.352600097656 967.58349609375 966.305114746094 961.177734375 956.754089355469 958.071533203125 965.142150878906 970.425964355469 970.505554199219 968.068969726562 969.937438964844 970.140441894531 979.581604003906 976.23828125 958.076721191406 963.800659179688 963.420349121094 963.76416015625 967.594848632812 960.234497070312 956.730041503906 961.977233886719 956.91943359375 958.819458007812 963.894165039062 967.485290527344 974.690063476562 977.466369628906 972.239501953125 975.084899902344 981.102600097656 978.841125488281 968.717590332031 966.312377929688 964.651428222656 967.122009277344 979.294006347656 974.674255371094 972.686340332031 973.712158203125 981.764892578125 975.381408691406 973.093627929688 967.216491699219 969.809692382812 976.474060058594 976.493896484375 982.99072265625 972.719116210938 968.902770996094 965.373168945312 959.418640136719 963.359680175781 961.942016601562 970.192138671875 968.502380371094 958.343017578125 969.537353515625 966.738586425781 968.933227539062 968.837890625 969.584655761719 966.906433105469 972.0888671875 971.948791503906 973.063171386719 965.766906738281 961.846801757812 973.223693847656 979.221008300781 979.334228515625 980.207275390625 985.083923339844 971.393981933594 975.481628417969 975.797302246094 974.769592285156 968.116027832031 971.778259277344 975.4931640625 979.881042480469 985.815307617188 987.400207519531 996.497192382812 992.920776367188 994.27783203125 984.879516601562 991.040405273438 984.625549316406 991.743041992188 996.642944335938 999.494812011719 1013.19177246094 1018.11016845703 1011.10241699219 1019.45318603516 1017.03784179688 1009.1552734375 1001.67724609375 995.055908203125 1003.81353759766 1009.4384765625 1015.46405029297 1015.89135742188 1032.12292480469 1034.80419921875 1030.71130371094 1055.72277832031 1043.11669921875 1048.47265625 1058.62939453125 1068.40148925781 1064.38916015625 1074.236328125 1086.23217773438 1088.88317871094 1096.36633300781 1107.00329589844 1106.31103515625 1114.90808105469 1125.87670898438 1125.33447265625 1123.86682128906 1137.4013671875 1138.52014160156 1142.92395019531 1135.50598144531 1138.97827148438 1143.19128417969
953.410583496094 948.588256835938 950.328125 954.587036132812 955.484375 958.436828613281 959.297729492188 952.557495117188 959.990478515625 964.151184082031 964.003723144531 972.314453125 973.122314453125 972.655456542969 982.968688964844 980.680236816406 979.030700683594 975.579895019531 968.836303710938 968.059509277344 964.740539550781 961.094848632812 965.308349609375 966.684692382812 960.904418945312 964.494995117188 956.21435546875 967.249755859375 967.605773925781 966.385620117188 968.525695800781 972.511901855469 970.156860351562 968.609558105469 971.333068847656 970.627380371094 972.825439453125 962.890869140625 961.669555664062 964.621643066406 960.540466308594 958.308044433594 952.751831054688 956.7021484375 960.764709472656 964.48388671875 958.788330078125 963.77978515625 971.304138183594 982.542114257812 971.347778320312 971.554809570312 982.107421875 969.525268554688 965.56640625 963.257080078125 968.561157226562 975.441711425781 971.408142089844 977.611267089844 971.374938964844 971.812316894531 973.192199707031 971.230773925781 965.343872070312 963.764282226562 973.23779296875 975.408996582031 979.454040527344 978.071960449219 969.462829589844 963.428405761719 968.78857421875 972.915893554688 971.424560546875 967.609924316406 965.257263183594 964.155639648438 962.039672851562 966.527954101562 972.788391113281 985.330383300781 971.689697265625 971.125244140625 980.149108886719 976.1787109375 977.615234375 968.8984375 975.083862304688 978.970458984375 982.618591308594 977.953430175781 976.507202148438 975.144165039062 976.937683105469 981.972412109375 974.149047851562 977.738525390625 969.653564453125 968.115966796875 981.019409179688 984.640625 979.512023925781 982.481872558594 991.671569824219 990.096435546875 994.341491699219 988.101623535156 998.564819335938 987.734802246094 986.985595703125 995.383361816406 1002.25244140625 1018.47540283203 1026.10925292969 1025.82885742188 1021.74664306641 1017.00964355469 1014.71246337891 1005.02740478516 1002.5341796875 1003.00567626953 1006.34942626953 1020.59710693359 1023.60339355469 1026.43835449219 1031.66320800781 1039.13525390625 1040.60168457031 1044.65795898438 1061.3974609375 1062.1025390625 1064.68310546875 1072.43566894531 1085.77758789062 1098.86779785156 1092.20581054688 1096.59851074219 1100.48095703125 1105.15026855469 1114.05090332031 1118.71154785156 1110.45764160156 1118.09106445312 1124.40258789062 1132.92114257812 1130.32177734375 1134.09643554688 1131.63427734375 1130.03796386719
957.525329589844 955.132934570312 961.124755859375 956.630737304688 954.091491699219 951.644592285156 956.197387695312 961.56103515625 970.005310058594 971.634216308594 970.939758300781 973.315551757812 973.050476074219 979.265258789062 977.380554199219 977.021423339844 976.34423828125 978.382080078125 977.854125976562 978.676574707031 969.763305664062 961.007995605469 965.2001953125 966.405944824219 961.974060058594 963.057373046875 963.80224609375 960.940246582031 970.549926757812 973.850036621094 969.737365722656 962.299377441406 971.447692871094 966.00537109375 970.288513183594 965.107299804688 963.356262207031 960.034790039062 956.806579589844 954.558898925781 955.311645507812 961.803955078125 963.338562011719 962.95654296875 962.232177734375 967.768493652344 966.707763671875 969.128051757812 975.567504882812 969.48095703125 971.815551757812 974.897338867188 987.417602539062 974.208435058594 956.864013671875 957.2080078125 969.162048339844 966.412170410156 972.298828125 969.0693359375 968.677429199219 972.530700683594 976.637756347656 972.6103515625 977.80029296875 967.613098144531 972.512451171875 966.916687011719 970.028198242188 969.490234375 962.629272460938 964.162841796875 961.272521972656 970.903076171875 968.375915527344 963.657409667969 958.004638671875 964.072021484375 958.508911132812 964.128662109375 973.589660644531 968.873962402344 975.844177246094 974.391723632812 973.823974609375 973.614868164062 973.608764648438 967.709106445312 970.228576660156 975.581726074219 979.605224609375 979.382141113281 976.677185058594 976.304748535156 982.476440429688 976.379455566406 977.95751953125 970.266235351562 970.288208007812 969.04736328125 977.054016113281 976.683959960938 988.227294921875 983.848449707031 992.77197265625 996.031127929688 991.191528320312 998.3720703125 993.284912109375 995.646667480469 992.143676757812 993.806335449219 998.771484375 1005.39697265625 1020.51452636719 1023.50640869141 1016.56225585938 1016.36590576172 1011.24078369141 1012.23461914062 1011.55114746094 1009.86157226562 1011.18524169922 1024.60620117188 1030.87768554688 1030.35522460938 1040.69677734375 1042.39624023438 1035.42761230469 1043.78186035156 1052.41662597656 1056.6806640625 1073.17822265625 1083.44116210938 1088.03112792969 1098.75537109375 1093.75671386719 1091.39636230469 1094.56860351562 1103.2646484375 1095.55700683594 1104.6884765625 1104.69494628906 1115.84997558594 1122.11340332031 1125.42810058594 1127.21655273438 1122.29431152344 1123.43896484375 1123.70202636719
958.280578613281 956.70458984375 962.10302734375 965.447570800781 963.423645019531 964.730346679688 957.600708007812 969.005737304688 976.430969238281 976.970153808594 983.242431640625 976.58056640625 983.912902832031 987.27734375 973.61669921875 966.636413574219 969.191162109375 970.513916015625 964.291870117188 969.239929199219 965.920288085938 965.939025878906 967.880310058594 961.723510742188 961.974548339844 959.676208496094 964.267883300781 962.413452148438 968.604431152344 970.425231933594 966.891540527344 973.775756835938 973.333557128906 973.108642578125 967.473754882812 972.313903808594 960.915344238281 962.515441894531 958.297607421875 956.660461425781 956.903747558594 954.071716308594 954.159118652344 953.399475097656 964.922912597656 968.790161132812 975.118530273438 972.145629882812 966.122314453125 966.405883789062 971.062438964844 979.534240722656 979.064758300781 970.4951171875 960.451477050781 965.154541015625 961.895324707031 960.160705566406 956.100158691406 962.031188964844 956.79443359375 966.439819335938 961.674926757812 963.088623046875 970.137512207031 968.575561523438 967.964538574219 968.964782714844 969.7578125 966.866271972656 971.822021484375 963.819641113281 973.695251464844 967.868286132812 964.062744140625 959.731567382812 953.912780761719 953.998840332031 958.014831542969 965.309509277344 954.336059570312 960.732421875 964.213500976562 965.487182617188 973.087097167969 969.114318847656 971.019775390625 969.350769042969 964.1650390625 964.751586914062 971.927917480469 976.276550292969 976.063659667969 971.265625 971.648803710938 968.985595703125 972.402770996094 973.955383300781 970.239501953125 969.543518066406 976.366943359375 986.308898925781 979.556823730469 984.303405761719 986.589599609375 985.22509765625 992.515563964844 992.966979980469 990.685180664062 998.253234863281 992.454711914062 983.23779296875 991.310119628906 1001.79028320312 1004.38781738281 1011.83184814453 1010.55999755859 999.843688964844 1003.25286865234 1017.50811767578 1023.14318847656 1019.33972167969 1021.69470214844 1023.37286376953 1028.82165527344 1026.56970214844 1038.40771484375 1036.29248046875 1044.21154785156 1046.99841308594 1050.86889648438 1057.29626464844 1065.55407714844 1069.63708496094 1081.13513183594 1084.65197753906 1098.47973632812 1095.57763671875 1099.29235839844 1098.59008789062 1087.15258789062 1088.58703613281 1095.18530273438 1101.05261230469 1109.62609863281 1114.04675292969 1115.79345703125 1119.42504882812 1128.77099609375 1118.76721191406
963.142456054688 973.847595214844 968.242858886719 973.400512695312 972.942626953125 972.246398925781 968.285461425781 964.259460449219 969.533996582031 978.312561035156 981.518432617188 977.479125976562 982.42333984375 978.529174804688 975.399169921875 973.976318359375 976.694763183594 964.916748046875 968.328979492188 970.559509277344 969.101501464844 969.490905761719 967.942626953125 962.423767089844 962.119812011719 960.690063476562 957.3505859375 957.950500488281 966.273559570312 970.452697753906 972.128601074219 962.814514160156 965.444030761719 970.658813476562 964.8564453125 969.482116699219 963.151733398438 952.210144042969 954.365112304688 959.566284179688 961.3623046875 960.824829101562 951.180419921875 951.861083984375 962.649780273438 972.705383300781 970.109069824219 965.663024902344 960.980407714844 966.657470703125 979.970703125 978.268615722656 971.480651855469 964.472717285156 956.41796875 955.991455078125 954.839721679688 956.867797851562 948.36669921875 958.09423828125 955.376831054688 956.235717773438 967.625244140625 964.741638183594 973.628234863281 961.707641601562 959.378051757812 959.157653808594 968.137512207031 969.536315917969 963.882446289062 960.808532714844 963.818542480469 964.504028320312 955.354187011719 966.699768066406 965.886413574219 965.653198242188 961.947814941406 959.456420898438 959.026550292969 954.38525390625 960.779479980469 957.39501953125 962.168701171875 971.557800292969 970.452392578125 967.563659667969 965.569946289062 970.382873535156 968.566528320312 975.209533691406 974.147888183594 977.18505859375 977.515869140625 979.541564941406 976.848083496094 969.625061035156 970.120361328125 969.732421875 983.153564453125 983.1845703125 981.492065429688 986.919860839844 978.780334472656 981.655029296875 988.234619140625 998.315185546875 989.621887207031 990.617126464844 984.297302246094 986.801513671875 991.815856933594 995.061340332031 999.221923828125 1001.62176513672 1004.20562744141 998.733947753906 1008.59576416016 1025.15441894531 1019.43646240234 1019.09448242188 1026.26989746094 1021.43975830078 1031.28991699219 1040.49426269531 1029.333984375 1035.12878417969 1046.04772949219 1054.51916503906 1063.34411621094 1058.25012207031 1063.19787597656 1067.59533691406 1079.01525878906 1086.51867675781 1084.47290039062 1092.5693359375 1087.48742675781 1090.99841308594 1081.59289550781 1086.55200195312 1081.03369140625 1097.94262695312 1103.32385253906 1100.91687011719 1104.50500488281 1113.6611328125 1120.41040039062 1112.63159179688
961.877868652344 968.779113769531 971.002685546875 969.544555664062 973.922546386719 970.151123046875 982.62255859375 971.496398925781 963.779174804688 969.568603515625 975.047912597656 973.03662109375 983.247192382812 968.55810546875 974.6162109375 980.513244628906 973.857543945312 967.366394042969 970.628234863281 971.879333496094 975.779052734375 973.882507324219 973.680236816406 963.096862792969 963.683166503906 960.666625976562 950.495788574219 966.225463867188 969.582885742188 972.901428222656 970.985290527344 968.672119140625 961.127685546875 963.36572265625 965.571594238281 959.427429199219 956.908630371094 945.936157226562 952.643432617188 953.497314453125 959.500793457031 958.643371582031 963.915100097656 956.428955078125 976.917724609375 960.581665039062 969.035461425781 969.258728027344 963.267333984375 975.929077148438 974.145935058594 974.61083984375 975.163208007812 957.352355957031 950.519714355469 953.915771484375 957.420043945312 959.263671875 954.504577636719 956.279174804688 957.073364257812 958.478210449219 964.002380371094 964.162292480469 961.381652832031 959.718322753906 952.409545898438 960.841613769531 962.921875 964.167785644531 964.58740234375 962.872497558594 960.422790527344 963.520935058594 960.052490234375 962.6865234375 966.032470703125 963.387634277344 959.701904296875 964.073913574219 960.643005371094 957.63916015625 952.460571289062 963.446899414062 958.580871582031 963.0986328125 952.412292480469 971.067626953125 971.031127929688 973.602661132812 973.399719238281 973.924987792969 966.519409179688 967.465087890625 971.344787597656 974.616638183594 978.969665527344 976.864135742188 965.580322265625 966.425903320312 971.952819824219 962.454345703125 969.654235839844 977.399230957031 973.258911132812 978.915405273438 989.202880859375 993.843139648438 990.86328125 979.921325683594 981.992004394531 989.254028320312 997.029541015625 1000.11047363281 999.780700683594 1000.052734375 1002.88421630859 995.198486328125 1007.47174072266 1010.09405517578 1020.24444580078 1019.412109375 1022.26159667969 1031.39709472656 1025.14392089844 1026.93884277344 1026.25891113281 1032.31420898438 1032.87841796875 1046.27758789062 1052.72143554688 1071.19104003906 1076.24719238281 1077.02490234375 1077.14270019531 1082.14660644531 1091.40393066406 1089.55200195312 1081.45251464844 1082.79553222656 1084.05639648438 1084.68627929688 1079.29724121094 1084.04235839844 1100.08447265625 1107.45495605469 1109.25622558594 1103.84350585938 1099.7138671875 1093.89294433594
969.524780273438 965.864990234375 961.737426757812 972.510498046875 972.066833496094 971.362915039062 972.802490234375 971.413452148438 964.410339355469 962.08251953125 972.904052734375 980.961975097656 972.196472167969 974.552368164062 982.195373535156 984.216857910156 975.135986328125 971.414794921875 966.303466796875 978.722778320312 974.071105957031 965.843139648438 970.062072753906 964.189208984375 959.444274902344 962.207824707031 950.097290039062 955.312622070312 967.839721679688 965.452209472656 966.206359863281 965.611450195312 964.185729980469 967.118896484375 973.149108886719 975.235046386719 959.059326171875 955.006896972656 953.732177734375 958.609497070312 956.03564453125 954.000854492188 960.527954101562 961.861389160156 969.357116699219 964.286499023438 971.256958007812 968.333068847656 963.244079589844 961.660949707031 966.815551757812 972.215270996094 965.483642578125 962.884887695312 951.815307617188 951.326232910156 959.831481933594 955.337463378906 953.3857421875 951.216674804688 966.818725585938 967.746276855469 971.877014160156 968.778503417969 959.793762207031 954.314575195312 947.790405273438 956.088134765625 953.741271972656 958.505981445312 965.143798828125 967.167419433594 967.920471191406 955.960205078125 963.496032714844 966.318786621094 960.415222167969 960.796691894531 956.30322265625 966.027465820312 971.339660644531 960.953918457031 954.10693359375 954.453063964844 959.4833984375 953.598266601562 966.133728027344 966.600952148438 962.767150878906 974.962646484375 979.550537109375 971.140258789062 967.740905761719 972.363037109375 971.590454101562 974.857666015625 971.419494628906 973.852722167969 972.032958984375 978.235717773438 972.576232910156 970.49755859375 967.641784667969 976.381958007812 970.309204101562 973.667419433594 989.668334960938 986.639282226562 992.528442382812 987.101440429688 990.406005859375 985.465454101562 996.43994140625 1000.88977050781 1012.54132080078 1013.39135742188 996.831359863281 993.695678710938 1002.56958007812 1009.59539794922 1016.67376708984 1022.77056884766 1035.63549804688 1032.60717773438 1027.04748535156 1027.71337890625 1028.83227539062 1030.56628417969 1041.23889160156 1059.57043457031 1062.04309082031 1072.68701171875 1084.73229980469 1082.77014160156 1084.72399902344 1084.56579589844 1090.43701171875 1087.29650878906 1086.40710449219 1087.64904785156 1084.47717285156 1090.29272460938 1085.38317871094 1083.623046875 1083.37072753906 1094.31945800781 1089.64978027344 1090.45495605469 1086.97204589844 1091.68627929688
962.458618164062 969.914245605469 968.840209960938 971.525695800781 975.62060546875 976.585571289062 976.380676269531 972.705383300781 962.916442871094 970.655029296875 970.512939453125 971.406494140625 973.532287597656 973.823059082031 977.625122070312 976.257507324219 972.603515625 974.14208984375 969.363830566406 968.966735839844 966.97607421875 966.178588867188 960.912170410156 963.008361816406 961.632568359375 957.313232421875 953.08349609375 959.542114257812 965.970642089844 963.410705566406 956.4716796875 962.403991699219 966.136047363281 966.049499511719 959.073120117188 965.632690429688 964.123840332031 962.100708007812 948.188171386719 948.996948242188 954.016418457031 957.223327636719 961.732727050781 959.844116210938 966.294555664062 958.13623046875 964.2861328125 954.654724121094 962.97705078125 963.32958984375 968.092956542969 965.455810546875 966.749450683594 957.299499511719 953.890197753906 947.371887207031 949.799560546875 955.499450683594 952.781005859375 949.592956542969 957.004577636719 965.790466308594 971.219970703125 962.860473632812 957.091064453125 954.162109375 955.155395507812 958.954284667969 954.97802734375 948.39111328125 954.640625 953.185485839844 961.136413574219 962.045837402344 958.244323730469 960.843505859375 959.027282714844 957.618347167969 954.597900390625 959.804077148438 969.4697265625 961.677429199219 952.702758789062 947.572570800781 953.799621582031 954.835998535156 963.184997558594 971.377624511719 971.424194335938 974.485900878906 968.708801269531 971.116821289062 981.032897949219 976.145324707031 968.076538085938 967.150024414062 982.513732910156 968.4970703125 974.128540039062 980.548461914062 975.52880859375 970.641296386719 966.753662109375 977.619262695312 975.318298339844 980.252990722656 981.591796875 989.803588867188 992.552612304688 990.588806152344 991.316955566406 986.373291015625 993.479614257812 992.674438476562 1003.66589355469 1009.4873046875 998.79052734375 1005.80895996094 1008.37457275391 1003.76397705078 1024.32153320312 1031.30920410156 1036.74682617188 1039.78979492188 1040.08728027344 1040.97473144531 1035.59228515625 1050.1181640625 1048.99462890625 1065.11486816406 1061.47131347656 1068.74499511719 1071.46154785156 1089.431640625 1083.9013671875 1089.96691894531 1083.63024902344 1076.97607421875 1086.29467773438 1087.39880371094 1081.08190917969 1078.08093261719 1082.49011230469 1079.78149414062 1083.18359375 1081.46606445312 1083.11401367188 1079.033203125 1075.72973632812 1071.45922851562
956.302185058594 962.162902832031 962.710388183594 963.890441894531 965.2265625 972.068908691406 973.892822265625 977.872375488281 966.548400878906 971.191467285156 965.517028808594 960.875610351562 969.378051757812 970.520324707031 969.241760253906 970.980224609375 979.238891601562 975.273864746094 964.486938476562 967.309631347656 961.794128417969 960.475708007812 961.842163085938 963.422058105469 955.363586425781 948.633361816406 959.599060058594 953.832397460938 959.016418457031 961.290283203125 963.959228515625 956.294067382812 957.908325195312 963.263793945312 959.983459472656 964.931030273438 953.880310058594 961.313659667969 948.904907226562 948.417663574219 957.684814453125 957.790344238281 964.721496582031 960.23583984375 962.713073730469 958.307983398438 947.715087890625 954.0791015625 961.55419921875 961.268310546875 965.312744140625 962.598999023438 954.994689941406 952.155517578125 955.398986816406 956.299499511719 949.728271484375 956.995544433594 947.555236816406 951.841064453125 953.864929199219 963.970031738281 960.621826171875 958.975769042969 953.589660644531 960.340087890625 954.434509277344 951.6962890625 956.96435546875 962.921142578125 950.869689941406 947.340881347656 952.599182128906 957.364196777344 951.111877441406 955.774963378906 967.304260253906 958.123718261719 961.481689453125 956.4765625 959.720886230469 966.186828613281 957.229248046875 947.747985839844 949.595703125 956.005554199219 963.609008789062 965.94091796875 964.064697265625 968.826171875 973.773681640625 974.017028808594 978.487121582031 981.561340332031 973.578796386719 968.12158203125 982.722717285156 977.622619628906 978.90234375 981.49658203125 983.04541015625 988.005432128906 974.12353515625 974.591796875 976.02197265625 983.7099609375 988.628173828125 990.445434570312 1003.0537109375 1002.89300537109 994.476379394531 988.743896484375 988.137756347656 990.139282226562 991.854919433594 999.831848144531 998.461059570312 1012.17102050781 1015.25744628906 1011.99395751953 1021.76538085938 1028.76916503906 1038.20556640625 1037.85314941406 1037.76550292969 1042.95007324219 1031.56372070312 1045.57202148438 1054.84509277344 1066.5048828125 1071.07336425781 1068.97399902344 1071.75463867188 1078.89416503906 1086.24499511719 1085.19384765625 1080.84057617188 1081.1201171875 1087.84838867188 1083.2744140625 1067.2431640625 1075.07495117188 1061.82421875 1073.34240722656 1075.45922851562 1068.86755371094 1078.16845703125 1070.01159667969 1068.94763183594 1068.48986816406
963.033447265625 963.386962890625 963.329406738281 971.836181640625 971.048828125 969.740783691406 972.406494140625 971.100158691406 971.706604003906 970.125610351562 970.135986328125 959.5048828125 957.717956542969 957.327575683594 959.696472167969 973.455261230469 974.112182617188 971.538635253906 967.4169921875 965.014343261719 968.994750976562 964.813171386719 964.807556152344 965.977172851562 956.422241210938 947.010375976562 955.591613769531 956.873779296875 959.292053222656 960.900634765625 957.242431640625 963.218383789062 963.452453613281 956.811645507812 956.906005859375 960.009948730469 956.770751953125 957.963073730469 949.463745117188 957.16064453125 956.880920410156 954.245849609375 953.591369628906 958.624389648438 966.208618164062 946.8212890625 948.8154296875 952.631652832031 959.656799316406 959.7861328125 949.5693359375 958.00146484375 959.2587890625 954.93701171875 954.630920410156 958.286376953125 953.483337402344 955.606384277344 957.391174316406 952.31005859375 958.2509765625 962.571838378906 964.946166992188 951.058166503906 953.627807617188 944.087463378906 951.024291992188 948.3916015625 956.776428222656 955.115905761719 961.821044921875 956.375061035156 956.139404296875 960.169738769531 955.5419921875 954.452392578125 962.936096191406 971.306457519531 969.737243652344 959.882873535156 966.988952636719 971.280517578125 959.685424804688 962.684631347656 955.852722167969 964.822021484375 964.554748535156 967.697692871094 965.920837402344 959.750610351562 977.6474609375 972.682983398438 976.143005371094 980.066528320312 972.75439453125 971.986877441406 971.634643554688 979.563171386719 975.481262207031 980.287902832031 984.13818359375 983.895812988281 985.559753417969 981.377258300781 975.413146972656 973.83056640625 990.322326660156 1002.93774414062 1010.59478759766 1003.85736083984 996.8447265625 990.28955078125 992.1357421875 992.388244628906 988.735900878906 994.735778808594 995.573669433594 997.518676757812 1007.14904785156 1012.71618652344 1020.04730224609 1020.05487060547 1026.69653320312 1032.51342773438 1033.75720214844 1038.10131835938 1040.00085449219 1037.64184570312 1051.16662597656 1067.142578125 1076.51904296875 1079.791015625 1080.73937988281 1078.36853027344 1078.783203125 1081.49975585938 1080.35754394531 1086.18395996094 1081.66979980469 1076.53857421875 1061.73486328125 1063.63049316406 1062.77746582031 1055.75280761719 1058.70324707031 1064.947265625 1063.06616210938 1064.51770019531 1058.03088378906 1061.25756835938
961.245910644531 961.203002929688 958.823364257812 962.057373046875 963.075561523438 961.550537109375 969.765686035156 978.532043457031 972.03173828125 961.341857910156 961.103515625 950.245422363281 945.550598144531 941.13623046875 950.32568359375 965.339599609375 967.181640625 962.926086425781 953.677978515625 963.960266113281 970.320007324219 976.757019042969 967.746765136719 964.513916015625 961.496459960938 959.11474609375 959.507141113281 952.974670410156 951.517395019531 957.487365722656 949.214599609375 950.760437011719 954.031066894531 954.938415527344 956.816833496094 950.337707519531 948.496215820312 952.712158203125 951.839294433594 958.645385742188 955.496276855469 950.393676757812 951.58740234375 960.893859863281 951.770446777344 951.332885742188 946.082702636719 949.208923339844 955.027770996094 950.217346191406 959.071838378906 954.614440917969 952.293884277344 958.191772460938 957.96240234375 951.673583984375 955.613891601562 959.112609863281 958.610534667969 958.0009765625 960.385559082031 961.258483886719 956.867248535156 961.916320800781 955.292724609375 950.235168457031 943.824462890625 949.0595703125 956.259826660156 950.649353027344 961.4423828125 966.669616699219 969.505676269531 968.559814453125 949.655700683594 941.449401855469 966.01611328125 967.95849609375 970.388122558594 963.918395996094 971.514038085938 965.18798828125 961.551818847656 962.68505859375 970.414245605469 968.454711914062 971.083679199219 970.038208007812 966.318603515625 968.235778808594 974.090515136719 981.354614257812 970.27685546875 977.774536132812 975.921081542969 975.318481445312 975.529235839844 981.482971191406 980.888549804688 981.384826660156 991.170288085938 987.028259277344 981.296752929688 989.014892578125 984.205810546875 985.556274414062 993.548706054688 996.67822265625 1006.46600341797 1005.97497558594 999.05615234375 1006.17590332031 1000.24035644531 1000.72338867188 987.075256347656 993.603759765625 990.306762695312 998.800903320312 1001.87420654297 1018.8369140625 1029.060546875 1019.38739013672 1021.73468017578 1024.00598144531 1028.63916015625 1030.54211425781 1040.72106933594 1038.77526855469 1049.70971679688 1063.341796875 1076.07800292969 1079.12951660156 1082.30859375 1072.90417480469 1075.63073730469 1071.92810058594 1075.2060546875 1073.93017578125 1082.39562988281 1071.51293945312 1061.03894042969 1052.41162109375 1050.18664550781 1043.09521484375 1046.86157226562 1041.634765625 1041.40539550781 1053.27770996094 1055.46520996094 1056.90380859375
957.287292480469 953.719848632812 956.42041015625 957.429504394531 971.293334960938 959.111511230469 977.399658203125 974.494934082031 967.099304199219 967.897094726562 964.304870605469 954.934875488281 946.444396972656 939.299072265625 949.044006347656 957.34912109375 961.450988769531 963.109558105469 965.345642089844 960.006469726562 967.019836425781 973.296752929688 967.073913574219 962.954223632812 959.378967285156 958.270935058594 947.854553222656 949.894653320312 944.588806152344 950.781188964844 944.6787109375 945.943298339844 946.317932128906 948.721862792969 952.666748046875 951.406127929688 948.866882324219 945.775756835938 953.139465332031 946.972778320312 948.092224121094 953.4541015625 954.98291015625 948.290222167969 948.2919921875 954.458190917969 949.320495605469 955.775695800781 963.219970703125 959.505737304688 963.991882324219 959.221618652344 956.929443359375 954.784057617188 966.951110839844 962.806274414062 964.598510742188 955.177978515625 958.857055664062 964.071838378906 956.418884277344 957.38720703125 961.592224121094 960.479064941406 965.34912109375 959.238342285156 953.595886230469 957.832153320312 958.923217773438 954.002075195312 959.0263671875 968.020141601562 961.233276367188 963.778747558594 957.42626953125 956.420715332031 963.932800292969 962.893981933594 966.409912109375 962.466064453125 966.421264648438 965.28369140625 968.852478027344 968.940246582031 971.166015625 965.813415527344 967.791381835938 961.484802246094 957.372924804688 967.82275390625 968.6787109375 976.105712890625 973.009155273438 973.668518066406 976.855529785156 966.781616210938 974.656127929688 968.925109863281 966.652648925781 981.32861328125 983.485778808594 980.097412109375 981.803894042969 984.80126953125 989.393188476562 991.094848632812 993.730163574219 1000.65252685547 1000.58081054688 1003.56878662109 1000.34063720703 1000.04473876953 1001.53515625 999.760192871094 986.59619140625 986.670593261719 990.464782714844 998.062744140625 1009.58020019531 1015.91448974609 1016.24835205078 1009.85473632812 1014.81665039062 1011.97875976562 1018.21533203125 1023.67010498047 1026.70703125 1038.58557128906 1052.24011230469 1061.7265625 1075.21325683594 1073.83581542969 1077.78234863281 1071.44104003906 1074.32116699219 1062.15661621094 1067.74096679688 1064.75903320312 1061.64636230469 1065.09924316406 1049.78259277344 1044.9794921875 1038.13781738281 1024.81127929688 1041.0625 1042.52111816406 1041.78588867188 1051.92578125 1053.29614257812 1056.66320800781
955.326843261719 967.590698242188 956.739379882812 961.926635742188 954.758911132812 963.381408691406 973.614562988281 976.4765625 979.174865722656 967.0341796875 964.918823242188 963.357971191406 948.5478515625 950.580261230469 960.263854980469 950.752868652344 950.802062988281 957.388488769531 964.2568359375 965.497619628906 964.443603515625 968.649597167969 972.359619140625 971.508361816406 962.963317871094 956.8232421875 950.758728027344 950.123962402344 944.147277832031 949.007751464844 951.939331054688 952.272094726562 950.267150878906 947.349731445312 951.462951660156 950.670288085938 947.857543945312 949.605712890625 951.137451171875 948.443664550781 951.114562988281 946.016479492188 951.757690429688 950.790893554688 948.090942382812 943.034484863281 947.528381347656 951.892578125 962.35400390625 953.385986328125 951.655212402344 955.453063964844 955.545776367188 953.226318359375 958.444580078125 968.325622558594 959.906555175781 955.375671386719 956.707458496094 962.424743652344 961.45703125 964.530578613281 965.851867675781 968.617980957031 969.372985839844 968.389892578125 968.400024414062 970.844055175781 969.594055175781 961.504760742188 965.194396972656 969.938171386719 963.087341308594 963.405212402344 972.515686035156 970.051635742188 970.947937011719 974.491516113281 967.206726074219 968.999328613281 967.724792480469 970.668151855469 975.337524414062 975.662963867188 965.261413574219 973.979675292969 964.655456542969 966.9189453125 965.915283203125 960.578125 965.2314453125 973.14208984375 977.619812011719 971.867919921875 974.265625 967.532531738281 971.227416992188 970.025573730469 966.702270507812 974.480834960938 985.438293457031 982.343322753906 984.464172363281 989.853332519531 992.507995605469 988.063354492188 995.920959472656 1001.60235595703 1000.22308349609 1016.70465087891 1008.63842773438 1005.77331542969 997.379638671875 992.927062988281 987.5908203125 985.21337890625 992.072021484375 1007.19445800781 1006.18267822266 1017.17803955078 1000.74230957031 1001.27203369141 1009.82189941406 1006.86907958984 1011.32751464844 1016.94000244141 1024.17883300781 1040.99768066406 1052.453125 1057.56042480469 1059.72546386719 1061.45629882812 1063.81274414062 1064.85290527344 1067.13635253906 1061.09387207031 1055.14477539062 1052.03295898438 1053.21142578125 1047.21569824219 1040.68676757812 1025.95239257812 1025.03491210938 1032.32238769531 1033.88830566406 1041.27917480469 1045.27001953125 1050.50122070312 1047.90026855469 1049.8818359375
963.875671386719 963.407104492188 963.73095703125 960.998840332031 959.219909667969 959.554748535156 965.948120117188 976.44287109375 966.971374511719 968.4716796875 965.926879882812 960.319213867188 952.183166503906 955.768676757812 952.034606933594 949.110595703125 952.258605957031 950.390441894531 955.423950195312 961.262573242188 960.131958007812 952.519470214844 969.931274414062 965.562927246094 965.117492675781 961.21630859375 954.3408203125 951.643005371094 947.391723632812 947.051147460938 946.168273925781 948.255676269531 954.305480957031 951.722412109375 949.819946289062 951.260070800781 942.4921875 954.342712402344 951.915161132812 941.615783691406 944.361999511719 941.971923828125 949.287780761719 955.35791015625 955.064025878906 949.58642578125 945.974975585938 951.600219726562 946.735168457031 954.280700683594 956.776184082031 954.690490722656 961.401794433594 960.262512207031 957.124572753906 963.374633789062 960.616638183594 966.117065429688 964.8583984375 963.290588378906 964.7841796875 967.477905273438 969.26123046875 968.108825683594 972.604675292969 966.569946289062 972.969299316406 965.532897949219 966.140441894531 969.427124023438 970.7568359375 968.377746582031 966.680236816406 965.184387207031 960.346008300781 973.91162109375 979.688171386719 971.304992675781 968.908325195312 966.358520507812 966.0244140625 967.649108886719 969.982299804688 976.867065429688 981.02099609375 969.820068359375 968.291687011719 965.780395507812 969.245910644531 969.684997558594 968.232666015625 972.138916015625 974.141174316406 970.367919921875 970.935363769531 974.396667480469 972.395324707031 972.391845703125 974.516174316406 973.091247558594 981.273803710938 985.564575195312 989.027282714844 987.092956542969 983.228637695312 988.985717773438 1001.21276855469 1002.37835693359 1007.29632568359 1008.96575927734 1010.38415527344 1009.25689697266 1003.95672607422 994.281127929688 992.718078613281 993.098266601562 1001.38391113281 1010.28302001953 1007.77362060547 1012.83020019531 1008.93194580078 1001.31433105469 1001.81030273438 1009.88934326172 1017.65411376953 1017.56121826172 1020.69702148438 1031.97155761719 1040.078125 1043.84887695312 1047.60375976562 1046.12036132812 1045.20874023438 1055.07055664062 1055.083984375 1054.56787109375 1057.93493652344 1049.86584472656 1045.79699707031 1040.04748535156 1040.91528320312 1028.42700195312 1025.77429199219 1026.26696777344 1033.8564453125 1030.31457519531 1038.80017089844 1044.80236816406 1039.1240234375 1047.88708496094
963.153625488281 961.319519042969 963.065856933594 963.158996582031 956.493225097656 961.197631835938 970.024597167969 967.141479492188 965.714172363281 964.908996582031 957.342956542969 962.761291503906 958.076416015625 956.173522949219 952.666809082031 941.889770507812 946.632690429688 947.053588867188 947.798828125 954.108581542969 953.332458496094 946.896667480469 956.229187011719 964.417846679688 951.983703613281 946.922790527344 950.892150878906 960.243103027344 949.070495605469 940.028869628906 941.921936035156 933.664672851562 936.893432617188 944.069458007812 944.889709472656 945.176452636719 943.345764160156 954.282470703125 947.572570800781 943.896240234375 938.355407714844 946.795776367188 949.896301269531 963.987548828125 965.799743652344 951.633117675781 950.68603515625 944.39501953125 951.273010253906 947.978942871094 948.492309570312 945.887573242188 953.6396484375 957.890502929688 962.64697265625 955.548645019531 962.562622070312 965.385986328125 965.791625976562 967.016845703125 971.990173339844 961.702209472656 967.325866699219 970.600708007812 967.608764648438 969.90576171875 963.676696777344 968.545776367188 967.778076171875 965.2958984375 964.393798828125 975.148010253906 972.747375488281 970.011169433594 968.9013671875 974.143005371094 980.648315429688 970.115966796875 969.550659179688 965.024658203125 966.812561035156 968.277893066406 971.397399902344 976.592590332031 972.375061035156 984.194641113281 980.566955566406 977.365356445312 973.155395507812 973.861694335938 971.430969238281 967.043640136719 968.64501953125 965.594665527344 968.988342285156 973.874206542969 972.261352539062 977.646484375 984.439575195312 983.207153320312 982.493835449219 984.583984375 990.904052734375 987.567932128906 988.772888183594 988.130493164062 1005.96697998047 1001.40264892578 1008.64086914062 1003.67138671875 1008.83489990234 1012.17584228516 1010.01068115234 1005.53509521484 999.474182128906 1011.08026123047 1007.09136962891 1010.65832519531 1013.65905761719 1021.60656738281 1012.57348632812 1008.89837646484 1012.08404541016 1009.57513427734 1010.56860351562 1017.74224853516 1020.41339111328 1025.25671386719 1031.33068847656 1034.59753417969 1038.4130859375 1043.20544433594 1047.96508789062 1053.01708984375 1046.14990234375 1053.95043945312 1048.52978515625 1045.53405761719 1052.94702148438 1039.82397460938 1033.49975585938 1024.11218261719 1017.4609375 1024.49096679688 1029.01599121094 1028.49572753906 1030.77075195312 1035.04638671875 1046.76721191406 1035.7705078125
967.91259765625 965.089172363281 960.760681152344 963.779174804688 952.545471191406 970.446899414062 962.744995117188 973.592590332031 962.273803710938 960.728271484375 955.384582519531 957.489990234375 961.109008789062 952.664733886719 952.734313964844 941.829528808594 948.818115234375 940.413757324219 947.917175292969 950.391967773438 950.55712890625 944.730529785156 944.494934082031 948.165832519531 948.579040527344 941.701965332031 949.196533203125 955.718200683594 948.304809570312 942.067626953125 945.149841308594 941.945922851562 936.63818359375 939.29541015625 942.578674316406 943.369018554688 952.853698730469 958.662231445312 956.579162597656 953.990661621094 943.393676757812 945.189453125 948.956909179688 965.727905273438 959.809509277344 959.730651855469 956.999450683594 950.253662109375 950.174865722656 950.094848632812 940.81591796875 943.768493652344 942.527587890625 946.338806152344 956.527160644531 960.003112792969 965.117431640625 966.272521972656 974.786071777344 976.613220214844 975.119750976562 970.671752929688 971.997924804688 976.314575195312 966.783386230469 964.81103515625 963.19775390625 971.079467773438 967.372680664062 966.15087890625 973.044067382812 967.034851074219 965.408142089844 966.245910644531 966.047729492188 972.548706054688 975.79345703125 964.794006347656 971.545166015625 959.275024414062 970.09130859375 965.261596679688 971.798278808594 975.754760742188 976.489074707031 977.201904296875 977.528564453125 978.594482421875 983.102722167969 973.154113769531 971.432678222656 963.892578125 955.250915527344 967.726501464844 966.47900390625 970.918395996094 971.809204101562 985.097778320312 986.760314941406 981.168273925781 980.354431152344 983.551391601562 1000.35107421875 996.057434082031 994.15380859375 995.348937988281 998.776062011719 998.393310546875 999.095397949219 1002.36871337891 999.480529785156 1005.67749023438 1009.76098632812 1006.52551269531 1002.61871337891 1012.65869140625 1017.29168701172 1014.39611816406 1018.40930175781 1017.89385986328 1017.07507324219 1009.08361816406 1016.90051269531 1016.27386474609 1016.73876953125 1015.91900634766 1015.546875 1018.52874755859 1024.7529296875 1024.90954589844 1033.88098144531 1035.33361816406 1043.7421875 1049.90637207031 1047.42565917969 1048.02319335938 1051.69677734375 1049.0400390625 1046.74731445312 1045.59729003906 1027.42431640625 1022.04449462891 1021.25378417969 1019.61224365234 1028.21618652344 1023.52008056641 1033.9736328125 1034.8447265625 1027.02465820312 1026.92150878906
961.253662109375 960.114440917969 962.206176757812 957.13330078125 960.594848632812 963.205749511719 959.049682617188 956.241271972656 953.199645996094 958.272033691406 957.766357421875 947.833374023438 947.776611328125 949.439453125 940.481140136719 938.463195800781 943.803588867188 946.722290039062 947.241821289062 952.665710449219 940.416076660156 947.431335449219 936.621520996094 934.985229492188 944.939697265625 947.1875 943.904602050781 942.924621582031 949.722595214844 949.768615722656 950.396850585938 946.682250976562 942.870788574219 939.156005859375 949.713439941406 949.687622070312 961.85791015625 963.924560546875 954.728637695312 954.458618164062 948.456909179688 948.713134765625 951.858276367188 959.147521972656 958.239624023438 955.046691894531 956.949768066406 949.201782226562 951.5751953125 944.740844726562 952.255676269531 945.136474609375 948.443359375 957.158081054688 962.875732421875 961.943908691406 965.643249511719 969.292053222656 970.252807617188 972.628173828125 971.959350585938 973.159973144531 974.303527832031 973.421997070312 976.124877929688 972.090026855469 958.736999511719 961.644409179688 966.4169921875 964.696105957031 969.049072265625 973.149108886719 969.551025390625 969.595581054688 966.117065429688 974.366333007812 978.831970214844 968.151184082031 969.474792480469 969.283813476562 973.266235351562 972.357788085938 977.213562011719 982.1279296875 986.987609863281 974.315063476562 976.15625 974.434265136719 978.0830078125 968.856689453125 968.759094238281 960.939270019531 960.42431640625 971.82177734375 971.955261230469 970.255187988281 975.883239746094 982.049926757812 995.131896972656 988.534851074219 976.872802734375 993.367431640625 995.104919433594 1000.05151367188 994.877868652344 998.862243652344 1002.29962158203 995.039916992188 992.87890625 996.150451660156 997.804565429688 1002.22155761719 1006.70721435547 1012.86633300781 1016.22833251953 1017.57861328125 1026.82067871094 1026.90856933594 1016.23065185547 1014.31335449219 1015.58813476562 1013.67150878906 1012.74652099609 1017.76281738281 1019.33374023438 1019.17761230469 1025.99658203125 1028.21166992188 1034.68432617188 1028.15930175781 1031.33312988281 1038.91967773438 1046.88708496094 1045.31494140625 1047.33569335938 1038.25 1040.30603027344 1035.99426269531 1041.56201171875 1035.65307617188 1021.89862060547 1019.68420410156 1020.86071777344 1018.79302978516 1026.27124023438 1024.57202148438 1028.59301757812 1018.01861572266 1013.34802246094 1017.43511962891
