NCOLS 150
NROWS 37
XLLCORNER 7394249
YLLCORNER 4842899
CELLSIZE 30
NODATA_VALUE -9999
957.130187988281 952.591918945312 954.282531738281 966.450500488281 975.652282714844 974.567260742188 970.09912109375 970.343688964844 975.448791503906 972.704772949219 975.42578125 974.051330566406 971.004272460938 963.566101074219 969.074157714844 966.730041503906 968.643005371094 969.255798339844 984.751281738281 991.707214355469 989.606018066406 985.0966796875 988.757080078125 991.150024414062 990.072814941406 983.768676757812 984.287475585938 988.555969238281 978.329650878906 970.919677734375 976.693237304688 984.706176757812 981.180541992188 983.223083496094 978.48779296875 982.51025390625 982.462951660156 986.188781738281 981.468627929688 980.309509277344 978.137268066406 978.725341796875 984.036315917969 985.275756835938 987.533081054688 980.868286132812 979.494384765625 980.92236328125 975.154235839844 976.662719726562 981.762512207031 979.142944335938 977.587890625 979.113830566406 971.316467285156 971.359619140625 986.885986328125 997.760070800781 999.050231933594 991.407653808594 982.834594726562 975.738891601562 983.366821289062 980.029907226562 991.641906738281 986.929504394531 990.468688964844 982.330078125 973.272399902344 973.660583496094 971.368286132812 987.164123535156 988.174194335938 979.4853515625 978.804443359375 980.734069824219 986.005249023438 984.887512207031 986.605651855469 991.08251953125 988.433288574219 998.248718261719 994.6787109375 995.408081054688 999.235900878906 1006.29656982422 1004.15759277344 1007.01971435547 1001.39569091797 1014.45550537109 1007.69183349609 1013.19714355469 1010.42340087891 1005.49322509766 1011.67565917969 1006.61254882812 1004.11779785156 1010.71362304688 1011.11737060547 1011.89855957031 1021.92132568359 1016.47894287109 1004.63726806641 996.544677734375 1003.54095458984 1015.24462890625 1004.27423095703 995.483703613281 992.8876953125 995.963745117188 983.742309570312 982.687805175781 967.675048828125 962.313781738281 954.186401367188 965.214050292969 967.997131347656 968.860473632812 975.078979492188 981.140686035156 991.302795410156 999.212951660156 1007.74652099609 1009.08227539062 1019.52081298828 1023.78900146484 1027.17102050781 1022.74176025391 1022.35131835938 1020.75671386719 1018.51208496094 1020.26647949219 1015.62487792969 1024.10522460938 1021.94665527344 1019.44653320312 1017.33154296875 1032.49243164062 1044.2744140625 1052.38146972656 1070.44909667969 1074.31994628906 1079.21484375 1090.60473632812 1104.38781738281 1109.7998046875 1117.42431640625 1116.8310546875 1124.92529296875 1122.10876464844
950.478149414062 953.950744628906 962.74072265625 964.735412597656 970.799682617188 970.217224121094 968.015380859375 976.662475585938 976.772644042969 976.057373046875 962.328735351562 964.333068847656 964.817993164062 963.192077636719 976.359680175781 978.342590332031 969.670166015625 965.639221191406 982.500915527344 992.7080078125 980.96337890625 982.769653320312 985.959594726562 997.834777832031 998.423889160156 989.839172363281 981.427795410156 976.280395507812 974.58984375 979.865600585938 974.671813964844 984.61767578125 979.580688476562 980.011657714844 981.755065917969 984.180847167969 979.6162109375 980.057739257812 971.968322753906 974.023681640625 977.791931152344 983.280639648438 983.631103515625 979.498168945312 972.679870605469 969.314514160156 969.001525878906 977.262451171875 974.495422363281 977.305541992188 982.218872070312 983.823303222656 977.557800292969 975.140258789062 973.368103027344 974.084655761719 987.353637695312 988.428100585938 987.174438476562 978.707275390625 984.895568847656 979.067138671875 977.004943847656 982.804077148438 989.18115234375 983.187072753906 994.020935058594 988.869201660156 969.77099609375 966.932861328125 968.381408691406 972.870361328125 985.103942871094 976.899719238281 982.075256347656 981.885620117188 977.496398925781 975.999267578125 985.468322753906 993.661376953125 991.014526367188 999.819702148438 998.818481445312 989.734008789062 1003.45574951172 1006.46136474609 1006.54528808594 1008.85327148438 1002.53350830078 1002.42236328125 1011.82928466797 1010.92565917969 1011.39739990234 1013.96502685547 1008.4013671875 1005.07019042969 994.683959960938 1000.83258056641 1004.64947509766 999.435852050781 1011.83489990234 1001.50933837891 992.416137695312 990.204711914062 1000.44854736328 998.209228515625 995.885375976562 987.907165527344 988.573852539062 993.489013671875 996.649475097656 988.357482910156 980.192565917969 965.749084472656 963.206420898438 968.528442382812 984.950805664062 982.539428710938 986.52880859375 991.402770996094 991.261047363281 1000.29254150391 1002.466796875 1012.31939697266 1017.29058837891 1016.28118896484 1015.9208984375 1023.42388916016 1017.47515869141 1024.85461425781 1012.94403076172 1010.64288330078 1014.90075683594 1015.49810791016 1021.15802001953 1017.43188476562 1028.45593261719 1038.2158203125 1048.5009765625 1052.37768554688 1073.0703125 1082.86181640625 1083.94165039062 1093.97827148438 1110.56481933594 1122.70544433594 1132.87023925781 1128.18957519531 1135.63366699219 1131.64782714844
950.803161621094 954.100402832031 962.468383789062 964.249206542969 967.961730957031 971.827514648438 972.127746582031 974.357543945312 963.964050292969 973.590393066406 956.857849121094 967.106567382812 960.876708984375 960.153625488281 964.427124023438 965.246398925781 969.225952148438 970.461059570312 971.949951171875 978.07080078125 979.989562988281 979.104125976562 984.131103515625 991.444396972656 993.232666015625 994.649719238281 986.396911621094 978.49658203125 972.230895996094 975.475830078125 980.167053222656 982.702819824219 986.083557128906 987.316772460938 989.475158691406 984.236755371094 983.154479980469 976.903564453125 977.376647949219 978.893371582031 977.133972167969 983.984497070312 983.881286621094 978.458984375 964.520385742188 961.274719238281 965.888793945312 976.03466796875 974.264831542969 976.696166992188 985.835388183594 980.10693359375 970.318725585938 974.624267578125 975.291687011719 975.41796875 985.851806640625 982.033874511719 977.002319335938 982.002075195312 986.154418945312 985.814636230469 978.057006835938 985.217529296875 985.325134277344 991.254638671875 982.633117675781 983.114868164062 974.554931640625 973.122192382812 974.947143554688 975.597351074219 979.279541015625 972.202697753906 974.251647949219 979.547607421875 974.159301757812 979.274841308594 988.642639160156 995.188720703125 985.550476074219 989.753723144531 995.682739257812 1002.3671875 996.859008789062 1004.65551757812 1009.43933105469 1009.79852294922 1000.14465332031 1000.88635253906 1004.67761230469 993.623962402344 1011.01141357422 1017.22467041016 1010.27911376953 998.971313476562 997.351989746094 997.203308105469 991.928833007812 995.234436035156 992.12548828125 995.954711914062 993.997192382812 1003.52899169922 992.678283691406 990.97607421875 995.034423828125 991.139831542969 988.324951171875 994.542053222656 998.4208984375 989.579467773438 981.964538574219 985.536804199219 975.520690917969 989.434326171875 997.251708984375 989.678344726562 994.247802734375 1000.95184326172 996.449829101562 999.38525390625 1014.53717041016 1011.90081787109 1016.12451171875 1015.57177734375 1012.29461669922 1011.51092529297 1021.86083984375 1014.67523193359 1007.41577148438 1004.95275878906 1007.52911376953 1015.52496337891 1017.20159912109 1026.09387207031 1036.552734375 1049.42309570312 1053.77905273438 1064.76440429688 1080.21691894531 1082.40161132812 1097.19848632812 1105.41442871094 1108.728515625 1123.35192871094 1121.4443359375 1124.84655761719 1125.81030273438 1129.24401855469
951.575866699219 958.128845214844 962.368347167969 958.054992675781 962.938659667969 966.081848144531 971.514099121094 969.77294921875 967.228088378906 971.300354003906 966.600891113281 971.82421875 969.550476074219 965.046875 964.344970703125 967.691650390625 964.546325683594 972.965637207031 972.411926269531 971.557250976562 981.500793457031 977.5537109375 979.703247070312 979.745849609375 979.725280761719 979.678161621094 980.178771972656 981.502502441406 969.807006835938 976.394592285156 978.183227539062 979.643920898438 984.009582519531 985.371337890625 986.647888183594 983.66015625 976.618896484375 979.303955078125 984.328125 979.96044921875 967.910217285156 977.135681152344 982.599670410156 975.649169921875 976.694885253906 971.172485351562 968.398498535156 976.711730957031 981.392517089844 971.202514648438 975.199401855469 972.174499511719 970.064147949219 971.263305664062 973.914611816406 973.84521484375 973.740234375 975.300659179688 980.508972167969 982.918395996094 975.166381835938 981.968811035156 986.664001464844 990.212829589844 987.3271484375 983.874755859375 973.735778808594 981.630859375 980.239135742188 976.527038574219 971.818298339844 970.909790039062 980.52880859375 977.035705566406 970.382934570312 974.245483398438 972.915405273438 982.911315917969 986.538879394531 991.722106933594 990.749450683594 993.477172851562 990.747802734375 993.045776367188 997.549987792969 1000.90576171875 1008.97760009766 1005.71978759766 998.696899414062 991.511901855469 990.125122070312 995.672424316406 994.702392578125 1009.34051513672 1000.57891845703 992.728088378906 991.337219238281 997.327392578125 996.41259765625 996.569396972656 996.112487792969 989.652587890625 991.429382324219 992.286071777344 993.610290527344 987.064575195312 989.485290527344 990.582153320312 995.541564941406 989.816589355469 998.110412597656 1000.18414306641 1002.20520019531 990.565246582031 987.47314453125 989.844787597656 997.023864746094 989.790100097656 992.303527832031 997.926452636719 1006.63208007812 1004.98553466797 1011.01501464844 1006.82171630859 1013.3828125 1012.60931396484 1015.29931640625 1009.22149658203 1018.66870117188 1020.53881835938 1008.80108642578 1001.84832763672 1005.30535888672 1014.80731201172 1023.01239013672 1025.52624511719 1032.80017089844 1053.14086914062 1060.62646484375 1073.07214355469 1075.09460449219 1088.10876464844 1083.69982910156 1104.35083007812 1114.16284179688 1115.52734375 1117.53625488281 1128.31030273438 1121.89794921875 1126.96118164062
960.052062988281 954.5625 959.361999511719 955.062866210938 962.110595703125 971.367492675781 966.914794921875 974.959167480469 968.440368652344 972.051025390625 969.034118652344 966.157775878906 970.804504394531 960.266235351562 954.415405273438 957.407348632812 975.574584960938 975.042663574219 974.259216308594 979.286010742188 980.349914550781 980.08056640625 977.600402832031 977.777404785156 975.666076660156 977.038940429688 974.725524902344 975.970520019531 971.961547851562 973.253295898438 966.813598632812 976.3701171875 982.317749023438 984.394165039062 982.810729980469 979.303100585938 968.21533203125 976.017761230469 971.600830078125 976.144653320312 978.278625488281 975.44970703125 974.703186035156 978.548034667969 970.46142578125 979.197021484375 978.674621582031 978.696594238281 979.458374023438 970.733215332031 971.703491210938 976.382568359375 971.772521972656 978.492004394531 973.361389160156 974.120971679688 969.319763183594 972.582397460938 980.115295410156 973.422790527344 968.30126953125 974.456665039062 982.586364746094 996.478759765625 985.882019042969 981.512634277344 974.093933105469 973.642211914062 980.281372070312 973.094665527344 976.5556640625 977.666076660156 974.992492675781 972.725036621094 969.095764160156 973.336853027344 965.289855957031 965.281188964844 980.175048828125 992.127807617188 989.154907226562 990.175964355469 990.846313476562 990.893127441406 990.812744140625 988.100036621094 995.006164550781 1002.41424560547 985.53564453125 989.788391113281 985.909851074219 993.98876953125 994.170471191406 1001.07989501953 998.848449707031 990.062316894531 985.953735351562 997.709411621094 997.964050292969 1001.47631835938 996.82177734375 990.753540039062 998.465393066406 993.19384765625 991.237670898438 985.237243652344 977.365661621094 987.957336425781 997.223754882812 990.011108398438 992.298461914062 997.191162109375 997.840881347656 999.650085449219 1000.67706298828 990.239196777344 995.252807617188 1003.36907958984 1003.31970214844 1004.50415039062 1012.95745849609 1007.12054443359 999.533142089844 1015.47515869141 1013.33441162109 1011.44226074219 1006.81115722656 1011.85290527344 1013.38446044922 1010.43859863281 1014.31323242188 1002.99041748047 1011.97985839844 1015.28521728516 1028.1025390625 1028.33056640625 1035.58410644531 1056.69458007812 1064.72802734375 1065.09106445312 1075.95581054688 1082.36926269531 1093.49816894531 1103.46020507812 1118.82006835938 1112.20202636719 1115.1474609375 1117.51220703125 1131.05236816406 1124.25939941406
962.681213378906 965.425598144531 964.177673339844 967.659484863281 963.044189453125 963.4443359375 970.30908203125 960.795715332031 964.193176269531 974.134155273438 967.605041503906 970.511657714844 965.087524414062 973.970764160156 965.330200195312 966.710998535156 963.649597167969 973.525634765625 980.518737792969 979.479858398438 976.891845703125 980.382263183594 971.812438964844 968.236694335938 975.158142089844 970.504943847656 965.351257324219 971.772399902344 971.813171386719 974.024169921875 968.048095703125 968.349914550781 980.447143554688 980.542602539062 981.733093261719 984.971923828125 967.875061035156 968.625305175781 965.689636230469 972.917846679688 971.562438964844 979.612915039062 980.802795410156 972.773132324219 968.885070800781 977.154113769531 979.201110839844 971.369995117188 979.036010742188 979.341125488281 974.255798339844 981.061279296875 983.422119140625 982.089172363281 976.14306640625 963.070373535156 963.475402832031 969.3046875 977.406860351562 972.017211914062 967.4892578125 974.668762207031 985.005065917969 981.416381835938 985.707153320312 985.294189453125 971.507446289062 972.050537109375 973.680419921875 962.828491210938 967.052612304688 973.721435546875 972.476379394531 973.588500976562 965.346252441406 967.218444824219 971.279541015625 979.500183105469 979.506530761719 992.235107421875 991.684448242188 987.138427734375 982.539123535156 987.409301757812 985.976440429688 984.304260253906 989.497314453125 990.942565917969 982.712036132812 996.915405273438 998.881469726562 991.790466308594 998.581298828125 995.725280761719 991.8408203125 995.229736328125 986.467712402344 991.133911132812 990.280151367188 997.377319335938 1002.81915283203 991.386474609375 992.450561523438 989.772766113281 982.996826171875 985.448425292969 976.853332519531 984.935180664062 997.775146484375 991.962341308594 993.276306152344 997.400329589844 1005.10461425781 1002.80963134766 999.716430664062 993.314819335938 1004.625 1009.380859375 1003.67864990234 1005.76318359375 1001.72894287109 1002.77172851562 1003.83062744141 999.711730957031 1003.00854492188 1006.10931396484 1005.92388916016 1001.50689697266 1009.50988769531 1005.81091308594 1016.00970458984 1019.12780761719 1021.78771972656 1025.69555664062 1023.39001464844 1031.82360839844 1031.61730957031 1055.70458984375 1065.20593261719 1071.44836425781 1081.67041015625 1088.39660644531 1095.24072265625 1103.51440429688 1109.95532226562 1114.24987792969 1117.77807617188 1126.25073242188 1126.57202148438 1130.71643066406
961.118225097656 962.625 965.438598632812 970.1435546875 970.141479492188 966.910522460938 968.489685058594 960.5244140625 959.516052246094 960.448852539062 969.732543945312 976.894592285156 973.127563476562 980.770568847656 975.722106933594 974.706909179688 969.208984375 979.947387695312 983.393920898438 986.725769042969 980.467590332031 979.537536621094 962.689392089844 968.896789550781 968.022644042969 975.355590820312 974.008056640625 973.050598144531 963.911682128906 972.308288574219 975.378356933594 978.336547851562 970.557189941406 966.608032226562 978.684814453125 968.73291015625 971.570434570312 963.60888671875 974.333251953125 971.257141113281 970.699035644531 977.853088378906 978.042358398438 979.850280761719 965.896484375 967.59716796875 970.589660644531 966.117980957031 966.728698730469 977.092468261719 984.774597167969 973.322387695312 973.249084472656 973.756225585938 970.660583496094 964.967590332031 964.692932128906 967.24365234375 973.887023925781 975.53955078125 970.263549804688 981.349975585938 969.669982910156 979.395324707031 992.512878417969 973.225402832031 978.01611328125 976.447937011719 967.298217773438 971.079528808594 969.326965332031 972.905090332031 971.253784179688 972.153625488281 967.9033203125 969.782592773438 973.831909179688 986.248474121094 986.086303710938 984.670288085938 994.4560546875 987.305603027344 985.474914550781 996.989196777344 993.301818847656 987.771484375 988.109069824219 997.559936523438 1002.28747558594 1000.14184570312 997.008422851562 993.093627929688 989.601257324219 993.633544921875 993.308349609375 995.305603027344 985.131042480469 986.838012695312 990.849060058594 989.752197265625 994.074279785156 994.494079589844 989.394592285156 993.501220703125 981.778625488281 988.476196289062 989.028503417969 992.427062988281 999.376525878906 997.424438476562 994.601501464844 990.573669433594 993.256591796875 991.726745605469 993.395263671875 998.847595214844 1000.51983642578 1003.90612792969 1002.66546630859 1002.25140380859 999.201538085938 1002.77416992188 992.346313476562 996.901916503906 991.965942382812 998.144165039062 1002.46569824219 1000.05499267578 1007.36468505859 1003.32446289062 1023.32659912109 1021.49591064453 1026.06652832031 1027.28955078125 1031.92517089844 1027.57336425781 1041.40588378906 1057.92114257812 1069.16455078125 1076.6416015625 1091.24462890625 1099.92309570312 1093.91955566406 1097.24230957031 1103.27575683594 1107.24768066406 1119.76257324219 1129.60144042969 1125.53210449219 1133.09741210938
951.310729980469 962.411376953125 971.186096191406 970.468505859375 970.258483886719 967.297973632812 954.00146484375 961.516906738281 960.712280273438 965.033081054688 972.303161621094 976.357543945312 969.619567871094 983.924438476562 985.200256347656 981.163269042969 975.050659179688 976.859436035156 983.298522949219 983.719848632812 982.920104980469 970.840026855469 965.898986816406 964.264099121094 963.989379882812 976.712707519531 978.179809570312 976.111511230469 970.186584472656 972.662902832031 979.288269042969 978.618835449219 978.939575195312 966.05029296875 971.798156738281 967.979248046875 971.507385253906 974.529235839844 975.583740234375 984.640930175781 981.829895019531 981.519897460938 973.742736816406 971.751403808594 965.478149414062 961.778625488281 960.891052246094 966.261474609375 969.490478515625 974.893981933594 982.844909667969 983.031616210938 975.569885253906 971.622680664062 974.110290527344 969.841125488281 971.64306640625 966.763122558594 977.537109375 981.978637695312 973.140380859375 977.298706054688 977.409423828125 980.394836425781 979.47607421875 984.930603027344 974.945739746094 973.325805664062 967.300109863281 967.604675292969 977.4462890625 974.554260253906 975.109130859375 971.483459472656 970.077575683594 976.876342773438 982.881958007812 981.804321289062 988.112243652344 988.49609375 988.748718261719 996.223876953125 993.471069335938 992.76953125 992.924072265625 994.751159667969 998.017028808594 1000.54296875 1000.43432617188 987.36279296875 992.965942382812 988.525573730469 994.233154296875 999.813354492188 996.928955078125 1000.46887207031 984.894287109375 986.665832519531 978.803649902344 989.116455078125 989.955688476562 993.8203125 992.990600585938 988.201416015625 987.717346191406 991.421508789062 982.516723632812 979.319030761719 986.933288574219 988.492553710938 990.715759277344 1001.25177001953 994.238891601562 990.379699707031 990.47705078125 999.709533691406 997.738952636719 997.940124511719 995.566467285156 1003.72937011719 999.22607421875 996.149047851562 1002.32373046875 995.305480957031 999.099243164062 999.870422363281 1000.169921875 1006.86846923828 1009.01965332031 1019.25830078125 1026.88659667969 1033.73669433594 1029.55749511719 1025.44384765625 1035.47058105469 1033.82165527344 1046.50170898438 1063.68725585938 1075.29113769531 1090.61328125 1092.79992675781 1098.16442871094 1101.57958984375 1109.20031738281 1103.74841308594 1111.26135253906 1121.17309570312 1127.44921875 1130.48889160156 1140.09057617188
945.767944335938 952.298095703125 963.54296875 965.942626953125 965.519714355469 959.835388183594 965.385070800781 962.036804199219 964.285583496094 964.744995117188 971.120422363281 970.795959472656 971.170959472656 990.64892578125 989.865234375 986.819641113281 971.678161621094 969.152587890625 969.647338867188 980.970397949219 976.034973144531 965.04541015625 959.67822265625 960.855529785156 970.4501953125 973.145629882812 974.031921386719 968.153015136719 978.886901855469 980.773803710938 980.800659179688 979.085510253906 971.401916503906 968.847595214844 963.104187011719 965.596557617188 969.14453125 978.635375976562 972.193481445312 984.509643554688 981.236511230469 983.603515625 973.739440917969 964.448059082031 963.252380371094 967.240173339844 967.205505371094 964.766296386719 976.150390625 981.8525390625 975.699401855469 972.26806640625 971.277587890625 965.84033203125 967.427673339844 966.518005371094 970.872131347656 971.559509277344 981.068298339844 980.560485839844 977.617309570312 972.868835449219 978.949890136719 980.679992675781 975.298400878906 980.683776855469 977.462585449219 978.541931152344 968.767456054688 973.972534179688 975.566772460938 974.492858886719 970.820617675781 963.062133789062 965.99755859375 974.532653808594 983.467163085938 988.686340332031 981.263000488281 987.016723632812 990.714721679688 987.519653320312 986.953002929688 990.984802246094 986.57421875 991.951416015625 986.304992675781 992.707702636719 989.009155273438 986.51025390625 986.861694335938 990.332336425781 993.950561523438 991.302185058594 997.026245117188 996.503723144531 984.820007324219 981.040649414062 978.985412597656 979.109741210938 983.960266113281 991.412475585938 985.114807128906 982.359130859375 990.555786132812 984.366821289062 990.216674804688 985.373107910156 980.075988769531 986.626525878906 990.234802246094 993.4873046875 991.776916503906 998.602600097656 993.301025390625 995.09326171875 1001.35748291016 995.969116210938 996.533142089844 993.435485839844 988.157653808594 998.166870117188 1000.30432128906 994.811157226562 1003.64508056641 1013.19158935547 1010.55877685547 1017.87493896484 1013.19116210938 1020.77795410156 1023.56353759766 1036.76940917969 1026.52807617188 1026.58544921875 1039.89038085938 1036.76782226562 1053.20092773438 1067.40246582031 1074.77124023438 1080.40014648438 1089.58837890625 1106.81970214844 1109.27526855469 1112.51965332031 1120.49328613281 1119.55969238281 1124.24877929688 1132.47607421875 1130.32299804688 1142.29370117188
937.642272949219 942.37646484375 954.067138671875 959.306884765625 959.648681640625 951.443603515625 961.968811035156 962.600524902344 963.307495117188 961.369262695312 952.558349609375 962.370422363281 975.796997070312 980.542785644531 981.706726074219 987.060974121094 979.139099121094 976.400939941406 974.634460449219 979.904174804688 986.744689941406 969.177490234375 958.820495605469 959.282897949219 962.976135253906 972.646850585938 968.986022949219 978.873840332031 979.793640136719 985.386474609375 977.492248535156 981.305541992188 970.195068359375 962.591857910156 968.294677734375 967.349487304688 975.514221191406 973.053649902344 979.910766601562 981.716247558594 988.434020996094 984.793640136719 972.900268554688 960.372436523438 957.610595703125 964.458190917969 973.183410644531 973.565490722656 971.445251464844 975.425964355469 975.072021484375 965.037109375 972.136596679688 967.321655273438 973.561645507812 968.70947265625 972.997619628906 979.759155273438 977.70654296875 979.832214355469 982.263671875 980.050476074219 978.407470703125 972.405883789062 975.824462890625 972.64990234375 979.908081054688 982.772705078125 980.957458496094 975.466186523438 980.417358398438 975.5615234375 970.0712890625 967.970031738281 962.501342773438 967.2138671875 982.038879394531 986.230834960938 982.662292480469 983.5078125 981.012878417969 976.929931640625 978.62548828125 982.755493164062 991.97119140625 990.774841308594 985.454895019531 982.437255859375 990.252807617188 987.017700195312 981.629638671875 982.178344726562 985.573425292969 992.790344238281 995.169982910156 989.205383300781 982.778991699219 975.916259765625 969.852783203125 973.284606933594 977.308532714844 976.579895019531 982.755798339844 981.939819335938 979.320129394531 980.347839355469 986.44384765625 987.412536621094 982.005981445312 984.809509277344 981.44384765625 981.044067382812 985.827575683594 991.546630859375 999.213806152344 996.618408203125 994.248413085938 995.6796875 996.964904785156 984.11328125 993.330749511719 992.620361328125 989.644775390625 988.729858398438 1005.90863037109 1007.29040527344 1005.37384033203 1019.701171875 1024.90344238281 1029.61901855469 1024.59375 1026.21032714844 1030.81958007812 1036.32153320312 1044.56433105469 1048.21508789062 1057.63537597656 1074.13854980469 1077.77453613281 1084.89184570312 1089.90148925781 1106.77624511719 1111.35913085938 1121.63232421875 1128.48413085938 1127.60864257812 1145.9599609375 1139.59326171875 1138.38513183594 1139.79858398438
945.33935546875 949.711608886719 943.903686523438 953.031921386719 949.074096679688 952.017944335938 955.424621582031 964.665832519531 958.562927246094 962.242919921875 970.062683105469 960.234619140625 974.653564453125 987.615600585938 983.881530761719 982.042419433594 988.006469726562 977.738403320312 978.080139160156 979.256896972656 978.169128417969 966.253295898438 961.220092773438 955.869018554688 955.279724121094 965.992370605469 968.702941894531 976.621948242188 975.135314941406 979.31884765625 977.309875488281 979.105163574219 982.723815917969 968.986511230469 967.36279296875 969.583618164062 977.064819335938 970.711059570312 977.034240722656 988.629821777344 983.2392578125 973.793762207031 965.703308105469 965.567504882812 960.120727539062 968.267639160156 966.609985351562 968.126220703125 965.782531738281 974.459228515625 974.129089355469 965.436645507812 963.27734375 970.332336425781 968.884826660156 965.760375976562 970.359985351562 975.909301757812 978.36962890625 982.319030761719 980.32421875 978.618896484375 976.576049804688 967.380432128906 979.06787109375 968.948547363281 984.164184570312 973.24853515625 976.711608886719 977.732055664062 979.398864746094 982.675659179688 965.276428222656 959.267272949219 956.290344238281 960.673034667969 971.931274414062 977.306701660156 979.412109375 974.005920410156 969.245483398438 968.404357910156 985.422424316406 979.816711425781 985.327880859375 986.389953613281 982.136657714844 990.392028808594 984.850158691406 983.189208984375 982.198852539062 984.3427734375 984.941162109375 983.874572753906 990.003295898438 983.217590332031 982.469299316406 981.698791503906 972.987915039062 967.810546875 974.753601074219 973.050842285156 969.322998046875 976.457336425781 975.372863769531 973.013793945312 986.62841796875 984.419555664062 980.531127929688 984.149841308594 975.763793945312 985.672729492188 1000.68206787109 988.379638671875 995.106872558594 994.027282714844 991.577209472656 993.2138671875 990.908996582031 996.047546386719 993.661254882812 994.222290039062 1005.84747314453 1009.67864990234 1007.77502441406 1013.62725830078 1011.51403808594 1023.24792480469 1033.71716308594 1039.13012695312 1033.72045898438 1038.05810546875 1025.14624023438 1033.22326660156 1043.767578125 1046.63110351562 1050.61376953125 1077.44909667969 1083.37915039062 1085.90209960938 1095.63330078125 1108.63977050781 1116.27270507812 1125.1279296875 1140.53149414062 1145.28564453125 1146.89636230469 1148.96411132812 1148.56237792969 1145.47204589844
950.921813964844 948.851623535156 950.297607421875 950.512084960938 960.316833496094 960.171508789062 961.261047363281 956.081359863281 957.411743164062 958.280212402344 962.037536621094 969.811889648438 974.43212890625 979.691467285156 975.37109375 984.59521484375 990.027160644531 986.33935546875 983.320617675781 977.356689453125 966.742980957031 959.330688476562 968.807861328125 965.988708496094 959.749633789062 961.719665527344 964.298706054688 972.009765625 984.074096679688 983.441284179688 986.233459472656 981.540100097656 980.994262695312 978.934997558594 978.176147460938 978.851379394531 979.160217285156 968.105285644531 969.3330078125 975.29638671875 972.443603515625 978.148193359375 971.852600097656 961.15625 968.559204101562 973.788269042969 967.389587402344 968.550109863281 968.062561035156 965.488525390625 968.807434082031 967.260986328125 967.178649902344 969.005310058594 974.645568847656 975.137023925781 976.028381347656 973.046752929688 980.607482910156 973.268432617188 978.191101074219 974.524169921875 972.667297363281 968.913879394531 967.706848144531 975.15673828125 978.70361328125 971.883972167969 967.521057128906 974.238830566406 973.960510253906 968.503601074219 965.80419921875 967.261779785156 959.259826660156 964.87060546875 973.487731933594 983.690673828125 980.257934570312 977.385925292969 982.332824707031 977.047119140625 982.017883300781 979.269104003906 981.057983398438 980.250732421875 977.114929199219 982.595031738281 981.679443359375 976.434387207031 976.374694824219 978.186218261719 973.056457519531 982.10400390625 982.182556152344 980.725891113281 980.06982421875 982.193298339844 975.715942382812 962.428344726562 968.84375 979.455322265625 978.031799316406 980.010131835938 978.516845703125 980.82373046875 983.982482910156 987.150268554688 990.094787597656 987.037963867188 984.640686035156 994.948486328125 998.016479492188 990.799072265625 996.762634277344 995.292419433594 1006.09448242188 1003.60339355469 1000.99060058594 1001.16119384766 999.348083496094 996.218994140625 1006.21234130859 1004.92309570312 1015.94940185547 1020.20385742188 1022.19152832031 1025.96911621094 1043.81616210938 1041.62829589844 1046.06323242188 1038.81140136719 1037.53173828125 1034.07409667969 1051.03649902344 1051.68359375 1057.01928710938 1070.92004394531 1085.71411132812 1090.70764160156 1103.12329101562 1109.01611328125 1114.150390625 1127.5595703125 1133.28112792969 1141.43493652344 1155.85583496094 1167.51049804688 1162.06811523438 1161.27368164062
951.555114746094 948.268798828125 945.332275390625 951.533935546875 954.233947753906 953.875305175781 963.227478027344 963.594421386719 969.098083496094 963.2421875 963.726379394531 965.281188964844 967.692321777344 965.721130371094 970.171752929688 973.73486328125 976.418640136719 988.2666015625 985.587097167969 979.716796875 964.782287597656 959.247924804688 970.368408203125 959.534790039062 954.707580566406 959.201843261719 968.556762695312 972.104370117188 982.774047851562 978.244934082031 980.756103515625 977.089904785156 977.294067382812 975.329956054688 975.603881835938 973.037658691406 968.921691894531 968.033203125 969.34130859375 967.027770996094 967.806091308594 970.451782226562 973.216857910156 957.252868652344 965.405090332031 973.5 968.161254882812 960.051940917969 971.148803710938 973.23486328125 972.461364746094 969.9306640625 971.037292480469 971.350891113281 966.476440429688 972.852966308594 976.286682128906 979.512512207031 983.279235839844 983.049621582031 982.709777832031 968.417785644531 974.80419921875 972.719787597656 972.140625 965.4267578125 971.547180175781 965.356384277344 965.302673339844 973.298522949219 970.401000976562 967.420288085938 969.750061035156 970.353271484375 963.626037597656 970.214599609375 968.02880859375 972.260986328125 976.42822265625 979.478942871094 981.612670898438 985.515563964844 987.453857421875 982.315246582031 977.829528808594 972.506225585938 973.524597167969 980.178100585938 973.386779785156 975.569580078125 974.652282714844 974.57470703125 971.696533203125 980.893188476562 979.589660644531 972.680603027344 970.163024902344 976.222900390625 974.586303710938 968.260864257812 978.150085449219 984.180480957031 984.179138183594 982.722717285156 982.038696289062 979.49462890625 986.403442382812 991.477783203125 996.011779785156 992.628662109375 994.927124023438 999.20654296875 998.866271972656 1001.38494873047 996.996704101562 1006.50122070312 1005.96917724609 1008.28918457031 1006.85626220703 1001.83361816406 997.238586425781 1006.05004882812 1015.88757324219 1018.76263427734 1017.90692138672 1029.04614257812 1028.45776367188 1039.88366699219 1045.70629882812 1045.36669921875 1045.53869628906 1048.78381347656 1046.91638183594 1045.91931152344 1052.10388183594 1048.88513183594 1067.11340332031 1077.423828125 1080.90661621094 1093.00549316406 1100.92541503906 1106.27294921875 1110.310546875 1123.6953125 1132.23120117188 1127.25305175781 1155.65795898438 1166.46484375 1159.96228027344 1152.79577636719
941.762634277344 947.643310546875 955.435729980469 954.900939941406 953.933288574219 964.358947753906 967.953002929688 965.161010742188 958.715026855469 964.900756835938 965.479431152344 961.4609375 960.325927734375 961.36376953125 965.480529785156 970.788391113281 977.552673339844 987.253540039062 984.713500976562 977.873840332031 958.653381347656 964.05859375 970.746704101562 961.171081542969 960.100158691406 961.059387207031 966.841247558594 976.723815917969 976.908874511719 975.164184570312 977.346008300781 970.631103515625 975.769348144531 969.771362304688 969.987731933594 963.384643554688 972.64892578125 959.861267089844 960.961547851562 961.431762695312 948.967529296875 963.819213867188 962.411010742188 958.114196777344 962.20751953125 965.331604003906 966.002990722656 964.5283203125 970.221618652344 967.193054199219 972.925415039062 976.6396484375 975.687927246094 976.132507324219 964.998657226562 969.940979003906 978.979797363281 975.329833984375 980.161682128906 987.89990234375 978.558837890625 979.109985351562 969.521362304688 968.045837402344 969.195068359375 966.847290039062 963.848022460938 972.972412109375 972.786499023438 971.5927734375 963.983032226562 963.071350097656 963.479248046875 973.30615234375 972.329895019531 978.863647460938 970.769653320312 968.897094726562 967.918640136719 975.442626953125 970.437561035156 979.013977050781 972.005554199219 979.34814453125 971.657958984375 972.524536132812 972.865112304688 973.802368164062 976.790344238281 977.545593261719 965.68408203125 975.167663574219 974.594848632812 976.92236328125 976.782775878906 973.692687988281 972.714477539062 978.835083007812 977.995544433594 979.302429199219 979.002685546875 990.867065429688 990.327575683594 984.646301269531 987.494445800781 989.362854003906 988.951232910156 991.583312988281 998.101135253906 1001.27008056641 997.395141601562 998.438781738281 1000.80938720703 1002.16522216797 1001.62371826172 1012.14422607422 1011.63653564453 1013.80017089844 1008.77374267578 1008.70581054688 1013.88977050781 1015.8779296875 1015.39660644531 1019.69519042969 1024.91247558594 1029.32080078125 1034.09680175781 1040.22033691406 1051.55310058594 1052.59265136719 1048.02026367188 1050.30249023438 1056.8642578125 1049.72546386719 1057.39758300781 1060.38891601562 1057.94055175781 1070.62231445312 1077.2509765625 1082.14318847656 1096.29052734375 1106.77868652344 1104.06909179688 1111.7939453125 1128.29150390625 1135.71154785156 1138.15698242188 1146.52026367188 1140.19311523438 1145.30944824219
942.379211425781 952.131713867188 961.311767578125 959.150085449219 957.013427734375 968.443359375 965.55029296875 958.842834472656 963.877685546875 960.990600585938 968.238952636719 967.926696777344 960.360290527344 970.88134765625 977.377197265625 979.396545410156 982.834777832031 983.976257324219 980.326721191406 975.641052246094 965.801879882812 961.94677734375 966.383483886719 965.448913574219 963.945861816406 957.6884765625 965.721618652344 966.174621582031 964.071899414062 964.499389648438 980.536315917969 984.197814941406 984.284240722656 980.585388183594 978.302124023438 970.462585449219 959.323303222656 957.678344726562 962.903869628906 955.74169921875 951.713317871094 955.463745117188 968.217712402344 958.681335449219 962.797302246094 969.711853027344 956.668090820312 961.9365234375 961.626586914062 964.976745605469 961.292907714844 971.2998046875 978.023864746094 968.7529296875 963.936950683594 959.948181152344 963.637878417969 968.93994140625 975.212280273438 967.478698730469 968.677551269531 973.930358886719 975.980895996094 970.675415039062 971.689270019531 974.424194335938 972.951782226562 977.710021972656 978.479797363281 968.274108886719 962.187805175781 961.199829101562 960.925903320312 963.44775390625 965.704406738281 972.210021972656 968.320739746094 961.952331542969 961.2626953125 967.834655761719 962.268371582031 972.970581054688 981.262634277344 974.335571289062 978.149169921875 975.587036132812 969.279113769531 972.785827636719 972.019775390625 980.281677246094 971.122680664062 979.333129882812 969.184326171875 980.416564941406 972.414611816406 970.172790527344 975.829040527344 976.09619140625 986.715270996094 978.801452636719 981.85009765625 986.51318359375 989.711120605469 990.1328125 998.680297851562 997.163940429688 996.620544433594 991.592651367188 996.222045898438 998.039672851562 1002.09954833984 1003.126953125 1002.73315429688 1006.05950927734 1000.67041015625 1000.58972167969 1002.71453857422 1009.33850097656 1012.41680908203 1016.43005371094 1012.63720703125 1021.89770507812 1017.02294921875 1019.38262939453 1025.01892089844 1037.43786621094 1038.33581542969 1039.00512695312 1048.75280761719 1053.63513183594 1050.56872558594 1052.17956542969 1064.57019042969 1059.35595703125 1064.44482421875 1061.298828125 1063.91943359375 1076.3134765625 1080.7900390625 1097.74523925781 1096.53381347656 1098.97607421875 1103.08752441406 1114.96948242188 1117.53479003906 1131.29113769531 1139.12939453125 1141.12878417969 1138.19360351562 1134.85266113281
949.805236816406 950.118530273438 960.488220214844 966.237609863281 953.007873535156 964.226989746094 967.642028808594 963.534790039062 960.976867675781 961.1455078125 965.159606933594 967.0859375 972.02587890625 984.00439453125 984.859191894531 981.615234375 980.846984863281 980.907592773438 982.644104003906 978.002746582031 960.982482910156 966.876525878906 957.90380859375 962.508911132812 968.312805175781 959.848937988281 966.117797851562 969.306396484375 972.713684082031 973.935119628906 990.137023925781 982.612182617188 985.683654785156 974.7216796875 977.352294921875 962.957153320312 969.910827636719 964.786865234375 963.02978515625 953.146789550781 953.236450195312 962.3994140625 959.927124023438 965.3818359375 961.063232421875 961.085815429688 956.102905273438 962.015563964844 969.681945800781 964.357543945312 965.097351074219 967.516906738281 965.05029296875 966.85107421875 965.249694824219 965.243774414062 970.198364257812 971.968200683594 973.102966308594 969.549682617188 963.377624511719 964.853271484375 966.293334960938 970.389038085938 971.454406738281 970.882690429688 972.627502441406 974.232788085938 974.169372558594 979.749572753906 975.351318359375 961.732666015625 971.619262695312 970.470031738281 964.888244628906 967.18115234375 969.8115234375 963.629211425781 964.682861328125 975.342651367188 972.953430175781 968.821166992188 967.916381835938 978.251831054688 977.186401367188 978.299011230469 968.596862792969 977.16552734375 975.110290527344 973.763244628906 978.532592773438 974.490600585938 968.6455078125 969.050354003906 970.885864257812 972.765991210938 970.387512207031 977.124267578125 982.067565917969 979.696960449219 975.923583984375 990.685668945312 986.629028320312 985.753356933594 989.049255371094 997.794860839844 1000.59545898438 989.622375488281 991.171142578125 994.667236328125 1003.37591552734 1001.41046142578 1006.93591308594 1004.46221923828 1010.38024902344 1003.21197509766 999.665893554688 1011.22113037109 1016.41796875 1015.22521972656 1017.14764404297 1021.99591064453 1024.1513671875 1028.27392578125 1036.03039550781 1038.56433105469 1044.48107910156 1042.74951171875 1045.09106445312 1053.43811035156 1060.55993652344 1055.84741210938 1066.46472167969 1068.62353515625 1061.89306640625 1055.93310546875 1071.81579589844 1081.40112304688 1087.49743652344 1088.47045898438 1093.0986328125 1099.25219726562 1101.4736328125 1108.91381835938 1119.60021972656 1115.14038085938 1124.8642578125 1127.68505859375 1130.62329101562 1129.1279296875
948.660766601562 952.491271972656 963.006530761719 962.356689453125 965.199951171875 965.189819335938 961.495178222656 959.445007324219 968.629333496094 970.434509277344 970.2861328125 968.76904296875 970.626525878906 981.104797363281 986.253295898438 975.991149902344 976.005126953125 979.856750488281 980.780151367188 968.057373046875 963.992126464844 963.400939941406 965.200805664062 964.906127929688 969.448791503906 962.188293457031 961.073425292969 955.609802246094 972.356567382812 978.833740234375 981.791198730469 978.708618164062 979.08544921875 977.912292480469 964.964538574219 974.807922363281 973.619140625 969.534606933594 962.863891601562 956.123596191406 962.453430175781 965.707702636719 960.567993164062 956.294128417969 959.354858398438 958.679748535156 964.694641113281 963.841613769531 967.81787109375 968.978088378906 969.493896484375 973.943542480469 969.282043457031 966.064025878906 970.174011230469 964.739501953125 966.830383300781 980.571533203125 977.225952148438 970.755859375 963.826354980469 970.970397949219 967.333068847656 960.623413085938 966.005737304688 966.926696777344 967.556457519531 973.895812988281 978.859802246094 980.297973632812 978.756408691406 970.852416992188 966.910095214844 968.930480957031 969.139465332031 969.677551269531 965.571228027344 959.31103515625 961.538635253906 971.255187988281 971.588256835938 971.501159667969 967.90185546875 967.405395507812 970.604553222656 972.899719238281 968.196166992188 976.210205078125 974.928588867188 971.0400390625 975.296020507812 972.683532714844 972.079772949219 978.62255859375 970.609313964844 969.059997558594 972.284484863281 979.238586425781 979.090270996094 976.380126953125 979.673034667969 987.946899414062 983.821228027344 992.652893066406 997.686645507812 993.463256835938 990.188049316406 988.604614257812 983.431579589844 990.611206054688 992.400390625 1004.44427490234 1005.71881103516 1000.95233154297 1009.56683349609 1006.21447753906 994.717529296875 1012.349609375 1012.98614501953 1020.30895996094 1025.43920898438 1027.82653808594 1032.4462890625 1036.92761230469 1036.95324707031 1050.79663085938 1043.86877441406 1042.15686035156 1040.94079589844 1053.60485839844 1060.12939453125 1057.78674316406 1070.93408203125 1071.7568359375 1066.98498535156 1076.69104003906 1084.1083984375 1092.73779296875 1098.07055664062 1093.08532714844 1094.05163574219 1094.70703125 1101.04077148438 1110.1259765625 1116.98291015625 1110.89477539062 1116.80615234375 1127.80883789062 1119.09448242188 1110.16711425781
949.523376464844 954.113586425781 955.255126953125 965.356323242188 972.040405273438 969.368408203125 972.015808105469 963.643005371094 977.989501953125 979.158081054688 970.6494140625 975.600646972656 975.091613769531 979.257629394531 976.005126953125 970.058776855469 980.711242675781 981.088806152344 978.833862304688 967.636169433594 965.302490234375 964.957153320312 967.359680175781 969.687438964844 963.310424804688 958.842041015625 961.039794921875 962.003723144531 965.554809570312 972.013732910156 971.12109375 966.60400390625 968.438720703125 970.79052734375 973.483703613281 971.568481445312 966.974426269531 966.280456542969 954.068542480469 960.297668457031 960.934997558594 963.923522949219 959.422241210938 962.560485839844 965.032348632812 967.584228515625 966.581298828125 966.203491210938 972.162963867188 963.751159667969 971.401184082031 971.958740234375 971.748657226562 971.365295410156 979.740905761719 976.381713867188 968.953918457031 975.728698730469 971.740173339844 965.416259765625 959.923522949219 968.189147949219 964.45947265625 968.750549316406 968.7080078125 958.761779785156 952.450378417969 956.397216796875 973.542053222656 978.511901855469 977.662780761719 964.812683105469 964.475769042969 966.274108886719 966.982666015625 962.875 959.912841796875 961.691467285156 952.677978515625 959.850646972656 960.902160644531 969.087280273438 959.166870117188 968.865173339844 965.411071777344 972.742553710938 970.458801269531 971.711853027344 977.511413574219 967.264465332031 968.823913574219 973.1005859375 968.748962402344 973.8369140625 971.529357910156 972.025634765625 972.772277832031 981.927795410156 976.0166015625 971.249633789062 979.480834960938 989.550903320312 985.572326660156 985.03662109375 989.081115722656 991.852783203125 988.249877929688 980.178771972656 986.843139648438 986.412231445312 992.4150390625 996.758850097656 1000.86181640625 999.559753417969 1009.88470458984 995.8681640625 999.192260742188 1000.42388916016 1011.8525390625 1015.40344238281 1015.13140869141 1030.92150878906 1026.25805664062 1031.39135742188 1035.0556640625 1045.81286621094 1043.14892578125 1038.01989746094 1040.17419433594 1045.01257324219 1047.71984863281 1053.1572265625 1062.337890625 1076.072265625 1066.16723632812 1083.95178222656 1088.46154785156 1095.17517089844 1095.32836914062 1087.03588867188 1093.3447265625 1096.74621582031 1101.64001464844 1109.13098144531 1112.45886230469 1109.87805175781 1111.84741210938 1124.29931640625 1110.98217773438 1105.67639160156
942.667175292969 945.910400390625 956.768920898438 968.186706542969 961.039001464844 966.96484375 974.947082519531 971.743957519531 972.728637695312 981.645690917969 969.771911621094 974.31201171875 985.066162109375 979.638366699219 977.987243652344 983.360412597656 969.923156738281 969.207824707031 974.105712890625 978.470458984375 971.16943359375 970.061645507812 973.161865234375 971.801513671875 960.0537109375 957.91064453125 959.054077148438 966.099487304688 966.851318359375 973.0263671875 974.696838378906 963.308715820312 972.490539550781 970.271911621094 978.631896972656 974.724792480469 971.682250976562 958.890869140625 952.232299804688 955.763427734375 956.57275390625 956.3515625 960.216064453125 958.314331054688 966.290466308594 963.288452148438 970.511657714844 969.911315917969 976.774108886719 973.922180175781 965.190856933594 971.341430664062 969.04345703125 966.575561523438 976.326354980469 970.301086425781 969.589416503906 972.018249511719 964.650146484375 962.185607910156 960.715087890625 958.294006347656 955.374572753906 961.056640625 965.532775878906 949.232116699219 949.033325195312 951.182250976562 967.545227050781 971.841125488281 964.459716796875 968.620727539062 966.280456542969 967.489135742188 971.144165039062 963.875 952.300598144531 965.538269042969 957.328308105469 958.2412109375 961.1943359375 957.9833984375 961.80908203125 962.478820800781 962.889221191406 976.029113769531 970.650024414062 965.259887695312 965.013916015625 972.777648925781 966.196838378906 968.996215820312 967.502197265625 971.557312011719 969.390930175781 973.357116699219 977.636901855469 979.328857421875 972.166076660156 966.401977539062 972.288330078125 974.354919433594 975.945495605469 974.13525390625 981.716979980469 984.545043945312 994.982177734375 976.047485351562 982.657287597656 990.005249023438 989.472351074219 990.448425292969 984.264465332031 991.226013183594 989.274353027344 990.3046875 992.591491699219 1007.96710205078 1013.47821044922 1014.06372070312 1009.04693603516 1033.35998535156 1030.419921875 1031.75158691406 1030.47644042969 1041.30163574219 1041.66333007812 1040.22888183594 1040.86584472656 1041.09069824219 1051.72485351562 1062.70593261719 1072.42321777344 1074.20629882812 1074.22351074219 1081.82434082031 1086.0947265625 1086.00854492188 1092.16052246094 1096.30529785156 1096.220703125 1103.07250976562 1113.12658691406 1111.16394042969 1108.13708496094 1112.21374511719 1109.82678222656 1100.78015136719 1107.51733398438 1094.37463378906
944.031127929688 955.941772460938 957.868957519531 962.353759765625 967.904968261719 967.925170898438 970.868103027344 979.841247558594 975.827331542969 987.12744140625 975.239074707031 976.54150390625 978.19287109375 977.415649414062 977.851013183594 977.382263183594 974.883056640625 972.194763183594 972.353881835938 975.532836914062 975.551086425781 964.815673828125 964.121520996094 970.918273925781 959.654052734375 958.100463867188 957.085083007812 960.425964355469 966.159606933594 970.806823730469 972.236450195312 972.81591796875 973.047607421875 967.677673339844 971.828674316406 969.544250488281 965.191467285156 961.04736328125 960.382690429688 963.920532226562 954.884765625 959.806518554688 959.4111328125 958.855163574219 971.22412109375 967.920715332031 963.687683105469 964.529052734375 972.606079101562 968.950744628906 959.051452636719 969.041076660156 967.995727539062 962.682922363281 967.496459960938 971.808288574219 956.179382324219 963.915283203125 959.292053222656 960.529479980469 959.97607421875 957.480712890625 957.004638671875 959.425231933594 950.969909667969 943.300537109375 948.045288085938 960.634216308594 962.000305175781 966.772583007812 961.600708007812 962.709899902344 973.317810058594 968.179504394531 966.243530273438 965.894226074219 956.763732910156 967.187683105469 960.911804199219 961.116516113281 960.1787109375 966.008972167969 966.685729980469 968.952819824219 971.483459472656 973.286682128906 971.333862304688 967.437255859375 965.440307617188 977.121765136719 975.109130859375 979.068359375 978.435913085938 969.705383300781 975.519592285156 982.513916015625 978.212219238281 978.875671386719 970.342224121094 964.568725585938 963.021240234375 971.408630371094 970.037048339844 971.259399414062 975.23486328125 982.285522460938 978.370239257812 974.700500488281 982.524780273438 979.862121582031 979.907592773438 984.353393554688 977.400329589844 982.133056640625 989.320434570312 996.643737792969 1002.71252441406 1007.2734375 1015.78918457031 1005.68646240234 1015.06860351562 1018.35150146484 1017.3623046875 1024.68432617188 1029.78869628906 1039.44921875 1039.60180664062 1044.37817382812 1043.80676269531 1046.85302734375 1051.39123535156 1061.873046875 1067.16320800781 1069.97595214844 1076.71130371094 1081.46020507812 1077.97033691406 1086.91833496094 1086.40270996094 1086.93530273438 1097.31408691406 1111.47802734375 1117.68591308594 1110.09484863281 1108.62377929688 1110.02087402344 1112.12377929688 1102.22497558594 1106.07165527344 1099.33959960938
953.67236328125 959.4326171875 955.491455078125 962.722534179688 967.2734375 972.3955078125 975.511047363281 967.657775878906 976.168823242188 971.978820800781 974.7158203125 968.096374511719 972.793579101562 980.248291015625 970.27490234375 975.709228515625 975.041137695312 972.718566894531 975.291442871094 973.560913085938 974.707214355469 967.308837890625 965.860595703125 962.586059570312 962.831726074219 954.973266601562 956.468200683594 957.001342773438 958.936706542969 968.48046875 962.321228027344 962.872192382812 969.829895019531 965.523864746094 969.208923339844 955.784301757812 957.615600585938 956.098876953125 954.946228027344 970.043823242188 962.902160644531 968.431701660156 968.243225097656 958.673217773438 965.586608886719 964.358581542969 966.391845703125 964.523498535156 977.369445800781 963.319641113281 959.863403320312 959.595764160156 961.798400878906 960.049377441406 962.084289550781 961.498107910156 961.189758300781 954.705627441406 965.383178710938 957.936340332031 957.458190917969 958.510803222656 960.429016113281 952.0400390625 952.702575683594 959.754699707031 955.595397949219 959.522644042969 962.397888183594 966.136291503906 957.836364746094 962.972839355469 964.057983398438 970.773010253906 969.328674316406 967.341674804688 961.850708007812 961.629943847656 958.668579101562 954.185974121094 955.860778808594 963.924987792969 962.252258300781 966.873229980469 970.650390625 967.982788085938 977.985778808594 972.782775878906 971.11328125 977.076538085938 976.138854980469 976.222900390625 972.391296386719 963.504211425781 974.132934570312 969.923278808594 974.023254394531 971.649963378906 978.576416015625 966.929931640625 967.418212890625 971.97216796875 966.646667480469 965.069274902344 976.794372558594 980.724182128906 980.445068359375 982.164794921875 983.204162597656 980.187072753906 979.072509765625 982.026733398438 974.990905761719 987.2001953125 990.644470214844 1003.41693115234 996.673034667969 1006.47747802734 1012.74011230469 1012.39007568359 1015.62579345703 1021.37927246094 1019.96228027344 1023.03765869141 1030.77990722656 1028.99755859375 1038.94104003906 1040.90344238281 1042.27917480469 1047.400390625 1048.74963378906 1057.6611328125 1063.97717285156 1071.58605957031 1082.43176269531 1082.171875 1088.74768066406 1087.72216796875 1081.32177734375 1094.67797851562 1102.82482910156 1110.77819824219 1108.32299804688 1103.25598144531 1099.52624511719 1092.20483398438 1103.20471191406 1100.66796875 1104.09106445312 1104.69323730469
954.880615234375 957.555847167969 954.777587890625 959.717407226562 973.272338867188 975.443786621094 975.56689453125 977.858764648438 969.529479980469 964.513549804688 975.173767089844 975.026977539062 977.064575195312 981.610778808594 971.501403808594 976.01904296875 971.159118652344 969.836669921875 967.092956542969 962.601318359375 962.169067382812 958.89404296875 965.006958007812 961.104614257812 963.630310058594 957.266723632812 958.409362792969 952.037109375 957.148132324219 963.302551269531 966.815795898438 961.955200195312 964.649047851562 965.332336425781 966.219360351562 959.802734375 966.331176757812 958.020263671875 959.113037109375 963.038818359375 964.330139160156 968.955322265625 978.275512695312 964.48046875 956.037292480469 954.328125 958.629089355469 964.544006347656 959.463562011719 952.161682128906 958.332275390625 959.941711425781 958.4638671875 956.481201171875 958.730895996094 955.804565429688 949.095153808594 957.766479492188 966.669555664062 963.818054199219 960.475524902344 961.340393066406 962.262329101562 960.554443359375 964.318542480469 955.898559570312 959.360900878906 967.4189453125 968.572509765625 971.246154785156 962.836242675781 964.491333007812 961.76220703125 960.769775390625 972.99267578125 969.71142578125 958.981201171875 958.5927734375 953.016967773438 961.813232421875 953.554260253906 968.525451660156 964.198547363281 970.388977050781 974.250427246094 968.113159179688 970.676330566406 970.547607421875 976.475280761719 979.055480957031 974.307250976562 974.720336914062 970.5625 968.164855957031 970.836486816406 967.151428222656 982.26806640625 978.411743164062 982.395812988281 975.978759765625 972.597229003906 971.74560546875 965.274780273438 962.914306640625 974.463806152344 974.261596679688 981.035400390625 986.064025878906 984.06201171875 973.58935546875 970.507385253906 975.135925292969 982.681579589844 995.225952148438 994.068664550781 987.732727050781 993.470092773438 996.357604980469 1005.74011230469 1011.38153076172 1015.9912109375 1013.35540771484 1020.00341796875 1021.22332763672 1032.62365722656 1031.88366699219 1033.86791992188 1033.76257324219 1037.87744140625 1044.359375 1047.78369140625 1058.87426757812 1065.00646972656 1063.04663085938 1076.0107421875 1085.14123535156 1100.97302246094 1098.12377929688 1093.44714355469 1094.232421875 1098.1650390625 1105.10168457031 1101.27697753906 1096.07153320312 1092.75561523438 1086.93115234375 1087.46350097656 1098.92578125 1098.03771972656 1100.1064453125
969.682556152344 962.750610351562 962.870544433594 961.84765625 965.810913085938 969.054321289062 972.50390625 979.183532714844 970.211669921875 969.424011230469 969.709289550781 977.092163085938 973.724182128906 975.434143066406 979.468566894531 976.559753417969 972.495971679688 973.646057128906 970.125 961.749328613281 961.495727539062 958.420288085938 961.803955078125 962.114135742188 960.708862304688 945.817199707031 942.616027832031 949.1943359375 952.327514648438 963.073181152344 967.510498046875 965.969970703125 956.929504394531 959.319213867188 960.438720703125 963.359924316406 968.080749511719 959.805908203125 958.947021484375 953.621704101562 955.939819335938 964.523254394531 962.812561035156 959.812133789062 952.399353027344 955.558044433594 954.4130859375 963.536743164062 949.823425292969 947.808044433594 954.432006835938 957.724182128906 961.093994140625 954.596740722656 952.391906738281 953.414916992188 957.796081542969 956.517761230469 953.991088867188 958.810668945312 953.503540039062 956.008728027344 956.430603027344 963.136657714844 955.747924804688 963.352661132812 959.318786621094 964.328002929688 966.958557128906 960.138305664062 971.745910644531 961.04052734375 957.450317382812 962.550354003906 967.102478027344 969.872192382812 966.396728515625 961.946533203125 958.048400878906 960.818786621094 963.062744140625 969.615539550781 978.638732910156 975.638854980469 972.393920898438 970.236633300781 976.224182128906 969.763671875 962.432861328125 969.156860351562 973.185241699219 971.33642578125 975.306518554688 968.958190917969 967.021850585938 977.1552734375 976.427429199219 980.118957519531 986.531005859375 979.544860839844 972.621032714844 981.507568359375 969.941467285156 963.922973632812 968.6708984375 979.403625488281 988.341186523438 990.042846679688 990.961242675781 988.021728515625 979.357238769531 983.376831054688 989.919067382812 993.008544921875 993.440673828125 996.771118164062 989.599487304688 987.4345703125 996.162292480469 1001.98944091797 1017.58819580078 1021.36492919922 1021.39178466797 1022.24761962891 1032.49975585938 1036.73791503906 1033.7216796875 1041.04626464844 1044.78344726562 1036.91943359375 1048.87377929688 1055.13354492188 1057.08264160156 1062.86938476562 1077.13134765625 1089.88122558594 1094.26391601562 1096.04223632812 1091.90905761719 1090.34619140625 1081.93737792969 1089.07922363281 1098.45080566406 1093.27587890625 1080.09582519531 1083.51904296875 1081.5703125 1083.90808105469 1088.2919921875 1084.29626464844
973.548400878906 975.345458984375 965.302429199219 965.299438476562 975.864807128906 973.327453613281 972.091064453125 973.146301269531 964.619018554688 964.202026367188 964.551635742188 969.733520507812 970.801513671875 981.965454101562 985.990295410156 979.867980957031 979.140625 972.559448242188 965.209655761719 960.152038574219 958.137512207031 965.156799316406 971.257995605469 962.830932617188 951.848449707031 947.427490234375 943.619873046875 947.78564453125 952.807189941406 959.546020507812 963.59619140625 966.425964355469 968.745422363281 968.405334472656 961.879516601562 968.026672363281 965.168518066406 963.438537597656 949.360229492188 960.756591796875 955.162109375 958.3974609375 955.079406738281 951.06640625 954.68017578125 960.623596191406 955.685974121094 958.9638671875 952.11767578125 958.490905761719 944.159423828125 952.804138183594 954.039367675781 960.354675292969 942.4267578125 944.692749023438 952.731628417969 956.812072753906 956.222900390625 957.237487792969 951.339233398438 951.798400878906 952.29931640625 946.212829589844 952.688171386719 956.129211425781 956.093383789062 958.184326171875 963.716125488281 960.381774902344 968.424621582031 964.307189941406 957.31689453125 961.408874511719 956.08740234375 964.988647460938 952.522277832031 960.772521972656 956.677551269531 961.186340332031 962.981811523438 970.8759765625 975.514831542969 971.702453613281 968.452697753906 973.360656738281 974.417907714844 968.085510253906 968.634094238281 965.625793457031 962.971374511719 975.065307617188 972.610656738281 971.127136230469 970.252746582031 978.676635742188 979.353454589844 983.323608398438 994.90380859375 980.281494140625 973.828369140625 979.01318359375 968.503234863281 975.539123535156 984.787109375 985.573547363281 984.659057617188 991.52392578125 990.848022460938 985.992797851562 988.393615722656 987.511108398438 987.111694335938 993.950256347656 992.846069335938 996.765319824219 988.817077636719 983.858642578125 997.645874023438 1006.66766357422 1020.80187988281 1027.00866699219 1030.76013183594 1031.59838867188 1030.40612792969 1021.63470458984 1032.63513183594 1041.28625488281 1049.25134277344 1041.06567382812 1051.806640625 1056.45373535156 1070.31823730469 1062.67553710938 1075.4599609375 1089.68884277344 1088.01806640625 1079.1240234375 1081.35461425781 1077.77062988281 1086.94421386719 1087.92956542969 1085.67224121094 1077.44104003906 1085.36633300781 1090.09851074219 1079.31396484375 1069.310546875 1071.93103027344 1075.15783691406
974.363342285156 976.102722167969 973.191711425781 969.88037109375 971.858459472656 981.382751464844 978.487243652344 968.347900390625 960.271606445312 954.509338378906 954.096374511719 964.858032226562 980.00439453125 977.656433105469 976.549987792969 978.023986816406 980.003784179688 971.24169921875 974.068969726562 966.704345703125 955.744323730469 959.617126464844 963.807983398438 954.745666503906 956.269226074219 951.527465820312 957.168334960938 950.707885742188 956.913330078125 954.434814453125 959.829528808594 959.240173339844 964.320556640625 963.289184570312 969.146179199219 960.19482421875 960.052490234375 953.859130859375 952.982177734375 952.607543945312 955.390380859375 953.644165039062 958.22216796875 952.585632324219 962.227111816406 958.778503417969 958.746887207031 956.761596679688 956.22021484375 955.2236328125 958.646789550781 947.712097167969 952.984985351562 957.626525878906 954.68359375 952.341125488281 952.154296875 956.201232910156 961.160522460938 958.677490234375 956.581481933594 953.931030273438 954.707946777344 951.404479980469 957.552307128906 966.737060546875 954.568603515625 948.379028320312 957.544677734375 964.393005371094 963.786010742188 962.511474609375 957.886474609375 962.919921875 963.5556640625 966.38525390625 958.699462890625 962.637329101562 959.887145996094 962.416687011719 968.990417480469 980.910339355469 976.996704101562 975.436706542969 965.340942382812 965.471069335938 965.205383300781 966.210693359375 962.859558105469 965.816101074219 967.943237304688 967.096130371094 966.828002929688 971.615356445312 966.901000976562 979.841674804688 982.228637695312 981.30712890625 975.349975585938 990.377624511719 973.802612304688 971.55810546875 970.466674804688 976.719177246094 977.046325683594 978.717590332031 990.392211914062 992.679382324219 991.13525390625 991.780700683594 990.202880859375 994.800903320312 995.045166015625 1007.29370117188 997.851440429688 993.162292480469 990.458312988281 988.375671386719 993.058959960938 1005.03076171875 1015.76702880859 1016.47998046875 1019.93621826172 1027.11511230469 1030.27978515625 1029.34826660156 1027.169921875 1035.62561035156 1045.29809570312 1046.865234375 1053.76208496094 1057.912109375 1061.63439941406 1066.63830566406 1075.2685546875 1087.79760742188 1087.71350097656 1081.30432128906 1083.22985839844 1080.65454101562 1073.26159667969 1076.533203125 1076.4912109375 1072.99755859375 1075.33349609375 1078.2939453125 1071.55236816406 1068.55004882812 1064.93103027344 1067.95458984375
975.50390625 970.851013183594 973.041748046875 967.561584472656 973.456237792969 974.632568359375 968.309692382812 967.207702636719 963.257629394531 957.904968261719 959.328735351562 962.233581542969 963.851013183594 968.165405273438 977.030029296875 975.420043945312 971.178161621094 970.379089355469 970.718872070312 955.875366210938 958.9384765625 957.079467773438 959.299682617188 971.040710449219 969.365417480469 963.857421875 958.807800292969 951.106689453125 958.779479980469 966.53466796875 965.739379882812 954.358520507812 955.591796875 961.866882324219 955.43896484375 948.105407714844 948.799072265625 953.876892089844 948.732543945312 942.347534179688 944.297912597656 952.999328613281 949.231384277344 949.717956542969 950.694152832031 951.302734375 957.024658203125 953.484252929688 951.851989746094 951.650390625 949.814514160156 946.522888183594 950.419311523438 950.079467773438 957.74462890625 959.177978515625 946.578979492188 951.924438476562 960.539184570312 964.575439453125 968.835754394531 958.941528320312 960.598876953125 958.70751953125 964.960266113281 967.126098632812 969.347595214844 951.293823242188 956.429504394531 951.347778320312 962.447021484375 968.75732421875 958.504699707031 966.602905273438 965.886657714844 965.040710449219 963.33544921875 967.524536132812 964.959289550781 960.772216796875 965.651184082031 975.744812011719 974.625671386719 972.757080078125 969.12548828125 972.28759765625 965.485229492188 960.447509765625 946.89306640625 955.1005859375 962.850463867188 951.945068359375 963.4873046875 962.692565917969 979.10546875 984.443237304688 982.071960449219 981.260009765625 981.76416015625 976.850463867188 981.529968261719 979.112915039062 973.181213378906 972.437805175781 977.941223144531 983.419860839844 991.976684570312 988.638610839844 995.331909179688 994.664916992188 987.968627929688 995.671081542969 1004.61993408203 1005.6650390625 1001.33270263672 987.599060058594 991.969116210938 987.773010253906 990.782531738281 1001.87469482422 1009.31970214844 1017.74279785156 1020.22680664062 1017.03088378906 1029.81408691406 1036.67846679688 1033.85778808594 1039.09448242188 1045.4599609375 1046.6708984375 1052.05041503906 1055.85595703125 1063.404296875 1069.44348144531 1078.28015136719 1082.46069335938 1079.30383300781 1086.39196777344 1078.85766601562 1070.31018066406 1061.65283203125 1066.07336425781 1068.9814453125 1064.71337890625 1067.60144042969 1064.39208984375 1059.78881835938 1058.70837402344 1060.99182128906 1060.54516601562
973.3671875 975.923095703125 976.547546386719 977.536987304688 970.618530273438 966.115661621094 971.998474121094 964.81005859375 960.243713378906 954.7666015625 969.00146484375 962.29541015625 967.608947753906 969.207214355469 960.429870605469 968.638793945312 964.976440429688 968.084533691406 968.717712402344 949.659484863281 960.481811523438 963.682983398438 960.57958984375 969.500183105469 966.075439453125 964.591735839844 951.284973144531 955.96728515625 957.390869140625 960.686828613281 964.900817871094 963.028747558594 957.72216796875 957.5625 958.206481933594 956.822143554688 951.097900390625 946.893737792969 946.1376953125 947.529602050781 945.278259277344 947.123657226562 944.872131347656 952.479309082031 951.394714355469 956.275207519531 946.87890625 943.193725585938 953.404907226562 959.107299804688 949.419799804688 947.091430664062 953.544311523438 957.989196777344 954.469665527344 959.127380371094 948.843872070312 957.299011230469 961.0712890625 962.123291015625 968.23876953125 965.795349121094 959.869995117188 961.187072753906 957.976806640625 962.599670410156 969.657653808594 957.4736328125 945.463317871094 947.778564453125 959.843872070312 960.64306640625 960.343017578125 964.456970214844 968.59619140625 977.167358398438 973.114929199219 962.612915039062 962.830871582031 965.486877441406 969.423400878906 977.873962402344 962.96484375 961.731079101562 970.001647949219 961.427307128906 961.754638671875 958.194580078125 960.254577636719 946.207763671875 954.929016113281 948.016174316406 955.350463867188 962.473754882812 978.424194335938 977.563598632812 984.264709472656 975.587280273438 971.10009765625 975.338623046875 973.685668945312 977.966613769531 970.437561035156 975.938537597656 983.337646484375 983.722961425781 990.389404296875 998.722595214844 997.473937988281 992.690002441406 991.53662109375 993.397583007812 1003.23559570312 1002.77435302734 998.581604003906 991.734130859375 991.976623535156 991.060119628906 986.348693847656 990.736511230469 1007.97698974609 1011.94952392578 1018.70709228516 1018.05609130859 1024.13208007812 1043.31640625 1037.19665527344 1036.39465332031 1042.94665527344 1042.70959472656 1052.03771972656 1056.32409667969 1067.54797363281 1068.89892578125 1072.65344238281 1072.58740234375 1078.33862304688 1071.21069335938 1061.4130859375 1059.88098144531 1051.12231445312 1050.13537597656 1040.31762695312 1044.7763671875 1043.10864257812 1042.27111816406 1045.13012695312 1048.62292480469 1051.92199707031 1052.26245117188
967.562683105469 970.217834472656 978.3330078125 970.950134277344 974.664733886719 965.7041015625 962.97265625 967.649658203125 966.273254394531 956.250915527344 955.632263183594 955.121887207031 960.0498046875 957.708190917969 954.341857910156 964.292541503906 964.061401367188 963.917602539062 959.976257324219 954.760559082031 955.2841796875 963.318908691406 963.198425292969 957.634521484375 965.304382324219 959.172546386719 939.726135253906 949.693359375 953.847839355469 954.353149414062 967.14306640625 959.580200195312 959.274658203125 947.474243164062 956.349365234375 954.89208984375 952.48974609375 945.073974609375 952.538879394531 949.287414550781 940.646728515625 946.298828125 944.724792480469 948.645202636719 953.103393554688 956.227355957031 952.266174316406 946.012084960938 953.267333984375 957.759582519531 952.039916992188 945.853515625 951.526000976562 957.556823730469 949.226928710938 963.184814453125 956.955322265625 964.788879394531 970.710388183594 966.9794921875 965.42236328125 956.567260742188 957.972106933594 960.551086425781 968.705078125 972.422607421875 970.850219726562 958.792297363281 956.105407714844 964.788146972656 962.770935058594 964.499084472656 962.293518066406 968.778137207031 964.251892089844 970.474914550781 967.853820800781 966.027587890625 968.631469726562 974.648254394531 976.016723632812 971.319274902344 964.822387695312 972.913208007812 971.4091796875 969.501647949219 965.194763183594 963.656066894531 953.508728027344 952.048645019531 957.543212890625 952.591796875 953.309448242188 966.626037597656 974.475219726562 975.249450683594 975.492004394531 968.226379394531 974.063171386719 966.017822265625 965.054260253906 971.0029296875 978.00537109375 980.23193359375 988.236999511719 1000.69195556641 1001.21649169922 997.713195800781 988.393249511719 987.892761230469 989.093322753906 990.455993652344 1001.09942626953 1003.08471679688 995.968566894531 995.970703125 992.173217773438 990.947937011719 991.576965332031 991.018310546875 998.099426269531 1002.08447265625 1017.54974365234 1021.7041015625 1023.34429931641 1028.53747558594 1041.97436523438 1043.88195800781 1037.88586425781 1040.19702148438 1049.78149414062 1057.87707519531 1053.70483398438 1063.04711914062 1074.45373535156 1071.33361816406 1067.95947265625 1057.22448730469 1057.71850585938 1048.96606445312 1049.19689941406 1035.02624511719 1033.63842773438 1046.69287109375 1045.12426757812 1045.32385253906 1037.54553222656 1046.56713867188 1055.26196289062 1049.693359375
970.780212402344 964.423400878906 965.076232910156 965.062927246094 964.911193847656 963.371154785156 961.243103027344 969.427307128906 958.125671386719 956.575073242188 960.221130371094 962.788269042969 957.380676269531 963.364318847656 957.306701660156 949.842407226562 957.910949707031 960.15380859375 953.048767089844 953.399780273438 953.385070800781 960.235717773438 955.307556152344 954.047607421875 963.845336914062 946.719421386719 935.454956054688 943.568359375 949.822265625 957.435668945312 965.500732421875 961.689208984375 950.878845214844 954.573181152344 953.128723144531 950.017333984375 944.262817382812 947.021850585938 954.624755859375 953.110290527344 941.335144042969 945.332458496094 947.202270507812 949.432678222656 950.152038574219 945.564208984375 951.591735839844 955.09619140625 958.513671875 955.022644042969 954.03125 960.905334472656 954.976684570312 957.222961425781 946.66064453125 956.950256347656 967.179260253906 968.783630371094 973.549621582031 969.481628417969 968.351135253906 955.301879882812 955.279113769531 966.371520996094 969.830139160156 963.633056640625 966.095703125 962.820983886719 954.676940917969 966.163513183594 968.244140625 967.534729003906 965.167846679688 971.211791992188 970.25244140625 968.972290039062 968.548767089844 966.65771484375 964.966247558594 974.174438476562 967.8037109375 976.013793945312 976.709411621094 974.114562988281 974.336242675781 970.013977050781 961.941772460938 969.670654296875 971.471801757812 967.528442382812 964.794311523438 959.610656738281 960.120300292969 968.492370605469 964.973022460938 974.06103515625 969.917724609375 967.887023925781 966.183776855469 971.093811035156 968.146911621094 977.22314453125 984.133544921875 998.398254394531 994.171630859375 1003.55810546875 1003.85607910156 1001.05346679688 996.345825195312 992.538208007812 997.75439453125 984.4638671875 997.429138183594 1004.0576171875 1005.03460693359 1008.10504150391 998.55859375 993.880126953125 984.532043457031 978.039184570312 988.211547851562 993.866638183594 1010.49713134766 1018.43511962891 1008.27893066406 1009.92211914062 1021.33129882812 1027.60498046875 1024.00512695312 1037.3115234375 1047.62451171875 1045.22204589844 1059.11840820312 1066.60534667969 1071.75256347656 1071.20227050781 1071.87475585938 1059.30578613281 1049.22729492188 1040.06335449219 1030.66186523438 1021.23065185547 1024.82653808594 1037.02746582031 1037.47705078125 1037.77233886719 1034.48852539062 1036.85668945312 1040.09594726562 1041.95520019531
962.858276367188 965.41845703125 962.142578125 968.481750488281 964.6279296875 966.864807128906 965.16552734375 967.359008789062 962.659057617188 962.280029296875 957.014892578125 957.474609375 955.571594238281 952.086547851562 944.335998535156 951.384887695312 959.438293457031 956.241394042969 951.534729003906 954.973083496094 945.225646972656 952.898132324219 955.346069335938 951.398193359375 939.82373046875 937.056518554688 933.653442382812 940.220092773438 954.716979980469 963.077026367188 958.369201660156 958.485656738281 956.404052734375 954.768798828125 947.041076660156 942.186828613281 945.375732421875 950.634521484375 952.797424316406 956.295654296875 940.593078613281 942.679809570312 944.24658203125 939.762268066406 948.43115234375 945.8408203125 953.8916015625 959.768737792969 964.359252929688 954.817504882812 956.34130859375 954.095764160156 951.610229492188 943.459045410156 951.457824707031 963.27587890625 972.478332519531 978.127136230469 979.993591308594 968.712768554688 972.908447265625 969.333068847656 962.353759765625 974.806884765625 971.239440917969 965.472473144531 968.575744628906 957.44677734375 961.041320800781 967.03564453125 970.493896484375 971.910461425781 972.31640625 972.850830078125 973.423828125 968.050537109375 969.740905761719 966.775268554688 966.330505371094 970.578247070312 974.025817871094 984.153625488281 983.607849121094 991.123901367188 973.1923828125 975.277587890625 976.133483886719 972.630981445312 970.068359375 973.414184570312 969.836853027344 965.879089355469 966.400695800781 970.85595703125 969.941772460938 967.89306640625 968.561767578125 973.95361328125 972.990173339844 966.972717285156 974.152465820312 986.97265625 994.634948730469 1001.78137207031 1003.96697998047 1003.27563476562 1001.75073242188 998.742980957031 1000.40155029297 996.700378417969 996.599548339844 996.457336425781 1004.95977783203 1008.06665039062 1009.27972412109 1005.36761474609 1002.93743896484 999.102294921875 986.141662597656 990.403442382812 992.253234863281 1004.20123291016 1013.37286376953 1016.43817138672 1014.31036376953 1011.82733154297 1017.85009765625 1024.81494140625 1035.15356445312 1034.58166503906 1044.33959960938 1044.025390625 1047.04223632812 1050.39306640625 1068.34143066406 1069.7373046875 1064.41687011719 1056.50256347656 1036.99682617188 1024.28173828125 1028.75427246094 1023.16674804688 1019.68463134766 1029.11303710938 1025.490234375 1031.91455078125 1024.81799316406 1027.32971191406 1021.79327392578 1037.17236328125
963.499145507812 971.406616210938 968.716674804688 957.970153808594 964.648071289062 968.360595703125 959.481018066406 956.269958496094 955.922119140625 951.110046386719 955.515747070312 964.076965332031 956.590576171875 955.266723632812 950.532470703125 949.697021484375 950.92626953125 945.902526855469 949.943054199219 946.192321777344 949.737182617188 945.936096191406 948.361450195312 941.3017578125 936.769287109375 939.151184082031 939.916320800781 942.111328125 947.758544921875 952.605224609375 945.455261230469 953.215087890625 953.364624023438 947.61279296875 949.011962890625 946.234313964844 952.797485351562 952.776184082031 954.555358886719 950.945922851562 950.731994628906 948.970153808594 947.15576171875 941.400939941406 942.665771484375 947.286926269531 961.682373046875 964.318359375 962.012329101562 954.321228027344 952.857543945312 950.402893066406 956.229614257812 963.618103027344 957.169921875 968.7177734375 973.842163085938 974.96142578125 978.874633789062 971.855102539062 965.226745605469 963.595764160156 956.434997558594 963.720520019531 963.062805175781 953.506713867188 960.731994628906 963.010864257812 966.589538574219 977.681701660156 978.327758789062 978.42919921875 964.998657226562 965.701477050781 972.697692871094 968.567443847656 966.95654296875 967.063537597656 966.831420898438 967.725830078125 973.104187011719 982.533874511719 982.899108886719 981.178649902344 980.182312011719 977.029724121094 979.888305664062 979.872497558594 970.945556640625 975.080078125 970.477661132812 967.718933105469 968.140991210938 964.677062988281 966.966979980469 971.085632324219 968.940612792969 975.419250488281 976.927429199219 969.713439941406 973.383178710938 980.114074707031 994.546264648438 988.346252441406 991.925598144531 1003.80224609375 995.993225097656 1004.78399658203 1003.90649414062 1002.51141357422 992.548889160156 998.250122070312 1009.31781005859 1017.57867431641 1011.90509033203 1012.21185302734 1010.42901611328 1008.11260986328 996.482482910156 994.164245605469 990.950134277344 1009.22985839844 1019.72100830078 1011.53869628906 1006.47271728516 1014.70959472656 1020.3486328125 1023.11578369141 1035.15881347656 1029.66772460938 1030.46447753906 1043.12731933594 1041.4345703125 1051.87646484375 1058.02868652344 1057.84252929688 1057.97399902344 1051.42163085938 1039.23950195312 1029.06176757812 1028.58215332031 1023.09637451172 1020.02502441406 1024.17944335938 1021.74975585938 1020.873046875 1017.51544189453 1027.45727539062 1027.33471679688 1033.10131835938
960.409606933594 957.067138671875 958.037902832031 954.873229980469 957.379577636719 953.254821777344 950.311340332031 954.305969238281 949.189453125 945.502746582031 948.313049316406 944.550903320312 950.0400390625 949.753173828125 944.775390625 947.935791015625 947.823852539062 942.927368164062 947.062744140625 949.952575683594 943.678894042969 945.172058105469 946.308837890625 941.593994140625 942.036193847656 941.546203613281 945.018493652344 940.611938476562 941.278198242188 943.937622070312 946.639465332031 956.207336425781 949.052917480469 950.134704589844 950.261535644531 953.239562988281 957.644592285156 965.151428222656 956.914428710938 951.402465820312 949.718139648438 948.466552734375 946.708312988281 950.628662109375 955.595092773438 944.162963867188 960.562805175781 964.598815917969 970.531127929688 962.136474609375 960.311950683594 961.01123046875 961.558166503906 965.460021972656 962.123840332031 967.7490234375 976.081787109375 974.464721679688 974.885314941406 970.998718261719 969.578857421875 961.093322753906 966.809997558594 968.709716796875 961.505310058594 956.249633789062 959.419921875 966.328552246094 971.556701660156 967.707824707031 972.919677734375 974.617797851562 971.433654785156 964.945190429688 963.810180664062 973.748779296875 968.91796875 966.061218261719 967.649536132812 963.7265625 964.141418457031 972.487854003906 980.7685546875 982.531921386719 977.61865234375 979.784057617188 981.521423339844 975.287841796875 980.959777832031 974.255737304688 976.989562988281 977.024780273438 963.77197265625 966.110290527344 967.218627929688 961.397583007812 976.371154785156 971.614135742188 976.618286132812 979.435302734375 974.7021484375 990.091552734375 993.76123046875 985.961242675781 987.548522949219 995.079895019531 996.19873046875 1001.00421142578 1004.28668212891 1009.90979003906 1001.89001464844 993.145446777344 998.622741699219 1007.06524658203 1014.3876953125 1023.89562988281 1025.25341796875 1021.63012695312 1011.47790527344 1003.95501708984 1011.38934326172 1017.27575683594 1020.69390869141 1007.53021240234 1010.09454345703 1013.52337646484 1018.46875 1024.79699707031 1022.86291503906 1024.84020996094 1019.1328125 1039.18359375 1039.25 1040.51574707031 1047.28332519531 1048.89575195312 1048.81042480469 1049.73852539062 1037.79565429688 1033.41552734375 1029.4775390625 1022.35205078125 1022.52722167969 1020.56689453125 1021.55938720703 1021.2880859375 1015.78094482422 1017.46234130859 1019.154296875 1020.81555175781
956.813903808594 952.59375 955.175170898438 953.364074707031 950.398132324219 952.889831542969 950.024108886719 940.89794921875 947.739624023438 950.131042480469 940.945861816406 940.478637695312 952.049926757812 949.607055664062 945.748901367188 943.625915527344 945.949584960938 945.261962890625 945.277954101562 953.03955078125 945.453369140625 940.242309570312 940.189697265625 940.74951171875 943.755310058594 941.774169921875 940.967712402344 949.619812011719 941.992309570312 949.292236328125 951.216552734375 955.116821289062 952.270446777344 949.018005371094 948.249755859375 958.377990722656 959.742004394531 965.170593261719 964.032470703125 957.227966308594 952.976379394531 956.423034667969 962.105163574219 951.325866699219 961.748779296875 962.725158691406 966.500427246094 970.316955566406 975.439636230469 971.084045410156 969.915100097656 957.743225097656 968.298461914062 967.087585449219 967.874694824219 971.618835449219 972.590209960938 977.737609863281 979.070922851562 969.769470214844 964.492919921875 972.935546875 978.325317382812 971.663818359375 955.941223144531 966.144226074219 962.632019042969 971.491577148438 963.043395996094 967.008422851562 971.074157714844 972.20263671875 970.503967285156 967.38720703125 971.638122558594 974.33251953125 970.508728027344 967.044616699219 965.870910644531 966.27880859375 971.562438964844 966.959533691406 974.481384277344 985.097229003906 978.894287109375 986.3095703125 978.678283691406 976.384399414062 972.85546875 979.689819335938 980.410705566406 970.937194824219 967.6220703125 970.972839355469 977.913024902344 969.961242675781 980.308349609375 982.431213378906 978.542053222656 984.295654296875 987.299255371094 983.787658691406 986.451293945312 991.458801269531 998.248413085938 999.845397949219 1006.14080810547 998.015319824219 999.666870117188 1006.11346435547 999.7490234375 996.313903808594 1000.07446289062 1013.19360351562 1023.92266845703 1031.75756835938 1037.74682617188 1030.90490722656 1026.99658203125 1024.15063476562 1017.83477783203 1024.03198242188 1024.01123046875 1024.17651367188 1022.14819335938 1017.72955322266 1026.5478515625 1021.71179199219 1019.970703125 1015.65435791016 1025.40612792969 1028.50341796875 1034.39025878906 1035.65686035156 1031.12817382812 1031.24206542969 1032.75012207031 1030.5478515625 1031.75183105469 1033.87316894531 1031.22790527344 1023.736328125 1017.22729492188 1026.10791015625 1027.4755859375 1012.94091796875 1010.58325195312 1015.39221191406 1012.45056152344 1018.79461669922
956.509094238281 957.456787109375 954.034423828125 953.992736816406 946.802978515625 960.298767089844 955.843688964844 953.817565917969 941.466003417969 946.179016113281 944.326293945312 950.400268554688 958.017944335938 950.906005859375 942.473999023438 947.597106933594 944.355407714844 941.944213867188 949.272338867188 954.571594238281 943.851745605469 938.186645507812 946.191955566406 940.176330566406 939.918212890625 940.757995605469 944.072204589844 954.857177734375 957.234130859375 951.255249023438 953.778747558594 956.272888183594 951.356750488281 951.947143554688 949.87060546875 960.592895507812 958.807434082031 955.950378417969 959.952453613281 959.946228027344 953.051635742188 954.843078613281 958.059020996094 956.16845703125 964.8984375 964.406677246094 959.523803710938 977.988159179688 973.755004882812 972.027954101562 965.08642578125 962.456726074219 970.64013671875 979.701293945312 972.5537109375 975.50830078125 982.746398925781 976.027954101562 979.031982421875 967.335998535156 968.424499511719 969.847290039062 971.354675292969 962.839660644531 960.385620117188 962.48779296875 970.49365234375 966.060974121094 970.319580078125 978.161010742188 972.551147460938 975.728393554688 979.452514648438 972.992797851562 972.131591796875 974.339721679688 966.976867675781 961.839477539062 962.47412109375 971.018981933594 971.096557617188 974.297058105469 979.1943359375 986.255737304688 979.855224609375 982.517700195312 980.688415527344 977.6044921875 965.431640625 966.089599609375 974.074768066406 962.219116210938 969.672973632812 968.785888671875 968.734252929688 973.059936523438 977.411254882812 994.267150878906 999.656677246094 998.007263183594 992.942749023438 985.245788574219 993.555908203125 999.904357910156 1000.30401611328 989.760131835938 1001.68408203125 996.019958496094 997.802978515625 1009.38598632812 1002.74566650391 995.845336914062 1003.41656494141 1008.34979248047 1020.87145996094 1035.93383789062 1038.89013671875 1040.62182617188 1035.19506835938 1033.14526367188 1034.10485839844 1031.30810546875 1024.89782714844 1022.32312011719 1015.66839599609 1017.49749755859 1021.47381591797 1022.73870849609 1025.32409667969 1020.51605224609 1018.17437744141 1022.1103515625 1026.259765625 1032.41772460938 1021.00756835938 1019.49621582031 1025.17895507812 1025.30456542969 1030.90600585938 1024.51159667969 1016.11138916016 1011.01721191406 1017.68688964844 1015.96813964844 1012.14318847656 1008.61273193359 1008.07745361328 1004.47180175781 1001.95080566406 998.37548828125
966.771728515625 956.683471679688 951.023986816406 950.744873046875 946.425903320312 944.801635742188 950.942199707031 943.6572265625 945.880249023438 939.461120605469 944.332153320312 944.767211914062 953.738647460938 955.1826171875 946.880981445312 944.954956054688 949.130065917969 948.026306152344 946.728942871094 955.913269042969 949.950134277344 949.355834960938 954.473022460938 950.500366210938 945.139587402344 940.670654296875 942.9462890625 953.415344238281 958.404602050781 957.342224121094 957.721069335938 958.085388183594 954.715087890625 951.478637695312 949.914245605469 956.756896972656 964.480529785156 960.180969238281 953.223510742188 954.655090332031 948.432556152344 961.923034667969 953.83935546875 951.249877929688 957.463562011719 965.365173339844 974.176940917969 967.171752929688 966.669616699219 968.740051269531 965.164855957031 967.773071289062 975.192199707031 989.733642578125 980.464721679688 982.858337402344 983.606750488281 971.055969238281 968.235473632812 975.614685058594 978.163696289062 973.672180175781 976.632507324219 963.439636230469 967.513427734375 964.947998046875 964.608764648438 968.199279785156 964.796569824219 973.382080078125 979.12939453125 976.805847167969 982.528442382812 990.5654296875 978.49072265625 976.014404296875 971.220031738281 966.251647949219 964.148071289062 976.993103027344 980.828979492188 981.451354980469 990.0439453125 981.842041015625 980.830139160156 982.709594726562 980.719848632812 979.322204589844 972.738830566406 976.023681640625 966.736450195312 969.22021484375 975.077026367188 970.462280273438 968.127319335938 982.817016601562 986.010314941406 1000.12835693359 1000.06225585938 999.33984375 998.777038574219 999.059509277344 992.659851074219 995.888305664062 998.667663574219 999.186706542969 1005.54840087891 1003.88604736328 997.050537109375 1004.97100830078 1008.36468505859 1004.49334716797 1006.0849609375 1017.0029296875 1027.44506835938 1034.08654785156 1034.25280761719 1038.50012207031 1042.50354003906 1037.64440917969 1038.34790039062 1036.00708007812 1028.630859375 1025.26965332031 1023.02331542969 1022.18225097656 1020.26287841797 1021.78424072266 1019.15270996094 1011.97979736328 1016.82263183594 1024.626953125 1028.65673828125 1028.83178710938 1015.07568359375 1018.32659912109 1023.11206054688 1013.46691894531 1024.46655273438 1021.05334472656 1023.36370849609 1010.00543212891 1015.87854003906 1012.60607910156 1016.88061523438 1005.16186523438 1001.36883544922 998.609191894531 988.227172851562 997.135803222656
966.782470703125 968.679443359375 955.180786132812 947.769409179688 949.351745605469 950.284484863281 949.617858886719 946.847595214844 947.518127441406 941.9345703125 946.492370605469 936.393676757812 947.672790527344 944.314880371094 938.65283203125 942.738586425781 945.305847167969 948.327758789062 954.155151367188 948.02001953125 950.558654785156 950.525817871094 952.543579101562 950.74267578125 947.123718261719 950.055908203125 955.148559570312 956.012329101562 961.715515136719 960.487060546875 957.025268554688 958.042785644531 947.919860839844 951.916198730469 953.784729003906 952.882629394531 966.523193359375 966.341430664062 968.669250488281 964.661010742188 955.320861816406 962.468627929688 962.99951171875 956.238830566406 953.708190917969 965.164184570312 971.923095703125 976.546630859375 975.750793457031 970.9638671875 971.784484863281 973.467529296875 981.211303710938 982.612243652344 985.9951171875 977.981811523438 985.276916503906 970.629211425781 969.407165527344 979.642456054688 978.076599121094 963.011535644531 979.46484375 970.41552734375 969.443115234375 969.882751464844 966.19677734375 973.011108398438 971.56298828125 972.453125 974.137329101562 986.576904296875 983.281555175781 983.113830566406 981.191650390625 984.158752441406 978.303649902344 970.504211425781 969.67724609375 969.503112792969 983.798706054688 984.065673828125 985.909240722656 985.554138183594 987.048461914062 995.42626953125 985.703430175781 984.950622558594 975.04296875 969.266479492188 966.372619628906 977.790771484375 977.967346191406 976.674072265625 975.692138671875 984.069091796875 990.502075195312 1001.20269775391 1008.17132568359 1000.85809326172 1008.00964355469 1004.61486816406 999.086669921875 1003.18829345703 992.905944824219 994.172241210938 1008.62054443359 1006.12506103516 1000.03363037109 1004.40106201172 1013.88604736328 1010.40960693359 1014.72180175781 1024.443359375 1028.39099121094 1034.48815917969 1040.06567382812 1034.06860351562 1040.75769042969 1049.34301757812 1046.72436523438 1034.67419433594 1029.25854492188 1028.5078125 1030.07885742188 1028.72644042969 1021.92498779297 1030.09558105469 1021.02947998047 1012.58898925781 1016.28961181641 1017.61169433594 1021.56628417969 1017.87103271484 1011.22009277344 1011.76983642578 1017.51153564453 1009.09722900391 1016.12640380859 1019.37847900391 1021.17846679688 1016.88830566406 1015.31335449219 1012.84655761719 1016.72271728516 1010.63165283203 1005.80456542969 996.021545410156 994.93701171875 996.288635253906
964.626403808594 957.709228515625 949.601989746094 946.508239746094 944.855590820312 944.54052734375 949.776306152344 943.213806152344 938.308959960938 940.236511230469 950.233093261719 945.183410644531 938.180725097656 940.357360839844 941.948425292969 945.621826171875 943.849792480469 954.792297363281 948.961608886719 945.533142089844 958.680053710938 964.235961914062 967.2880859375 954.743225097656 954.266479492188 955.401184082031 956.227600097656 961.354919433594 959.912536621094 961.69384765625 956.959716796875 952.824035644531 954.805908203125 952.926940917969 954.00927734375 961.81689453125 960.681579589844 965.351867675781 970.459838867188 969.477722167969 963.442687988281 964.68896484375 967.854370117188 970.861389160156 980.037231445312 977.003601074219 981.667114257812 976.486938476562 970.5224609375 975.277465820312 980.35546875 982.265686035156 991.095275878906 997.460632324219 987.107299804688 991.594604492188 980.127990722656 972.649536132812 974.527282714844 967.181213378906 971.825073242188 969.939147949219 969.785217285156 971.178833007812 970.023559570312 976.430480957031 971.137939453125 976.310485839844 984.346618652344 977.374877929688 981.594055175781 977.820617675781 981.78857421875 980.521606445312 977.025451660156 977.091369628906 985.231994628906 974.756225585938 968.617065429688 974.636474609375 982.42236328125 986.418640136719 989.997009277344 983.187377929688 992.146545410156 991.472106933594 985.791625976562 984.003112792969 975.608947753906 970.4091796875 965.423522949219 964.348999023438 974.210144042969 976.679809570312 974.929382324219 982.047119140625 996.041748046875 1001.45812988281 1001.69488525391 1011.45477294922 1006.48101806641 1007.52294921875 1008.70471191406 1001.15930175781 996.58056640625 992.144409179688 999.316040039062 1001.5458984375 1005.07342529297 998.911682128906 1015.02032470703 1016.09338378906 1022.56317138672 1041.06713867188 1040.08325195312 1031.12414550781 1034.09045410156 1038.34020996094 1051.86657714844 1050.32775878906 1050.38415527344 1043.12414550781 1034.27319335938 1027.52880859375 1031.52465820312 1027.94860839844 1027.64819335938 1025.13940429688 1022.88104248047 1019.97906494141 1012.12603759766 1022.99822998047 1016.17248535156 1012.2607421875 1005.60656738281 1007.73040771484 1017.96984863281 1018.51300048828 1011.37420654297 1016.3896484375 1023.77124023438 1020.09631347656 1011.28179931641 1016.76983642578 1015.14569091797 1015.72711181641 1004.33703613281 1002.33630371094 1001.37738037109 990.0751953125
