NCOLS 150
NROWS 38
XLLCORNER 7394249
YLLCORNER 4842359
CELLSIZE 30
NODATA_VALUE -9999
962.012634277344 968.39404296875 975.600219726562 965.280883789062 958.443908691406 956.824951171875 958.652404785156 960.598266601562 968.74560546875 975.685791015625 968.980712890625 976.902282714844 977.503784179688 980.603942871094 985.906616210938 988.2900390625 982.742309570312 973.856628417969 977.927917480469 978.116271972656 975.1484375 970.786315917969 969.969116210938 963.13720703125 964.890014648438 961.482116699219 959.087585449219 976.390747070312 970.070373535156 970.148254394531 971.129699707031 964.539978027344 966.626525878906 964.885864257812 960.976257324219 957.573852539062 963.334716796875 970.191345214844 972.010498046875 963.889099121094 963.341064453125 962.180419921875 961.724670410156 965.254455566406 969.536193847656 965.7880859375 967.673706054688 968.817749023438 971.603454589844 974.940185546875 963.566345214844 963.163757324219 954.640319824219 963.294860839844 963.162658691406 965.877380371094 965.891967773438 960.715026855469 967.422912597656 961.997131347656 969.53173828125 968.635925292969 964.464782714844 967.162292480469 973.778991699219 972.333862304688 961.455383300781 959.850708007812 950.009887695312 958.242309570312 964.700317382812 972.142944335938 973.931762695312 972.348388671875 965.235717773438 958.994506835938 960.794128417969 969.722900390625 969.615844726562 965.653564453125 976.532165527344 976.192993164062 973.450927734375 973.8251953125 980.694641113281 977.929016113281 975.454833984375 967.666687011719 967.770080566406 973.127990722656 970.542175292969 980.709289550781 972.416015625 974.477600097656 969.736022949219 961.085021972656 959.581359863281 965.61328125 976.344787597656 974.273864746094 971.911865234375 981.377990722656 984.908264160156 981.820068359375 979.10107421875 984.943481445312 982.142578125 980.729919433594 991.008178710938 998.719482421875 989.998474121094 986.314331054688 997.610961914062 999.936096191406 993.217834472656 994.53759765625 998.731872558594 995.579895019531 998.708190917969 1002.45715332031 1013.44024658203 1019.12384033203 1024.73046875 1035.66296386719 1039.35693359375 1031.06530761719 1022.48681640625 1032.01782226562 1030.32104492188 1030.73718261719 1043.38366699219 1058.83850097656 1067.5703125 1072.70971679688 1082.73229980469 1089.11608886719 1082.04345703125 1091.67370605469 1097.17834472656 1100.26086425781 1114.38513183594 1114.36303710938 1120.29455566406 1133.26708984375 1138.94311523438 1137.19848632812 1128.81188964844 1131.10083007812 1144.33264160156 1156.94604492188
972.607177734375 967.128967285156 972.789916992188 970.468505859375 962.043151855469 964.704284667969 962.526184082031 971.264892578125 969.620239257812 975.935852050781 970.164001464844 977.972351074219 980.792053222656 979.505798339844 984.036743164062 984.75439453125 985.218933105469 969.439270019531 973.362609863281 974.546264648438 965.717651367188 969.432189941406 959.289123535156 963.16650390625 961.727172851562 958.174987792969 966.767456054688 972.4169921875 967.061279296875 976.292358398438 973.051513671875 970.488159179688 973.53125 962.4755859375 958.659851074219 974.373901367188 967.080749511719 965.305969238281 966.121948242188 960.582824707031 957.533264160156 966.996887207031 955.22705078125 962.040588378906 969.283264160156 965.710205078125 972.894775390625 964.559020996094 968.168151855469 977.122741699219 969.679565429688 962.315490722656 960.220703125 960.501159667969 954.420166015625 961.848815917969 961.45849609375 960.675720214844 965.277587890625 957.246276855469 959.763671875 972.133178710938 966.216491699219 958.843688964844 970.044006347656 975.153198242188 961.986389160156 957.162536621094 953.254943847656 954.3349609375 960.437866210938 967.423278808594 964.564331054688 968.086181640625 966.9990234375 953.951782226562 960.880920410156 966.195556640625 972.578735351562 970.269348144531 975.201721191406 975.970275878906 974.700378417969 972.6357421875 974.367492675781 974.809509277344 975.856262207031 977.7958984375 969.034484863281 972.667114257812 973.759094238281 978.650512695312 978.594970703125 977.685668945312 971.714599609375 970.710815429688 953.484985351562 965.638916015625 975.000671386719 978.341369628906 975.644653320312 978.919128417969 992.643249511719 986.816040039062 982.29443359375 975.519165039062 978.858459472656 983.354553222656 988.721557617188 995.687683105469 983.898254394531 999.824768066406 995.665466308594 999.085083007812 994.617553710938 996.695617675781 999.632995605469 999.575622558594 998.187744140625 1003.44067382812 1014.72595214844 1018.44311523438 1024.37731933594 1032.33959960938 1034.85729980469 1027.22485351562 1038.93969726562 1040.07702636719 1040.60693359375 1039.37097167969 1042.81555175781 1059.32653808594 1067.40625 1079.24633789062 1087.16540527344 1078.48278808594 1090.95922851562 1091.13635253906 1095.6181640625 1097.75866699219 1111.93835449219 1116.02392578125 1115.85888671875 1118.28137207031 1126.94104003906 1118.91125488281 1118.12512207031 1126.509765625 1136.11682128906 1140.54418945312
966.880310058594 966.535461425781 966.876342773438 973.785278320312 976.340759277344 969.31494140625 969.484619140625 973.96875 973.162048339844 976.745178222656 968.8994140625 978.266540527344 984.590270996094 974.050903320312 976.100524902344 981.863525390625 970.278137207031 968.152893066406 971.776123046875 977.085693359375 977.675598144531 965.952392578125 959.350219726562 965.813293457031 956.721557617188 953.408020019531 957.196411132812 963.65576171875 968.15673828125 964.7099609375 972.433776855469 968.994201660156 972.748413085938 959.73193359375 964.373168945312 976.292358398438 972.845947265625 964.242248535156 961.3544921875 961.164123535156 963.712219238281 961.838500976562 967.362854003906 966.588256835938 964.261535644531 966.962951660156 972.979858398438 981.304321289062 977.030517578125 978.151733398438 967.614135742188 961.041687011719 955.752258300781 953.739562988281 953.372741699219 955.744995117188 963.171203613281 975.007080078125 964.443054199219 966.113586425781 959.98876953125 958.118530273438 955.374206542969 956.318237304688 965.244201660156 972.006103515625 959.643676757812 956.452514648438 956.657287597656 954.549194335938 955.279479980469 965.653076171875 962.234558105469 963.417358398438 968.547912597656 962.380920410156 968.114990234375 968.408142089844 968.871704101562 973.27001953125 967.405700683594 965.826354980469 970.869506835938 968.35107421875 968.228149414062 974.094909667969 974.638000488281 974.687316894531 973.705688476562 971.149719238281 977.299987792969 976.371704101562 972.751770019531 973.274963378906 971.149230957031 970.96240234375 965.799560546875 973.207214355469 973.906433105469 971.990966796875 971.997253417969 978.686401367188 988.0068359375 987.485534667969 981.124328613281 981.450378417969 976.675415039062 986.035278320312 986.099487304688 997.799743652344 991.518493652344 992.462036132812 994.989440917969 998.396850585938 990.236022949219 992.373962402344 999.061584472656 996.804077148438 1004.74212646484 1017.87249755859 1015.30377197266 1016.93798828125 1014.41375732422 1025.42333984375 1035.75207519531 1029.10583496094 1030.79150390625 1035.94055175781 1033.35412597656 1042.35913085938 1049.13293457031 1053.84448242188 1068.00500488281 1085.13256835938 1084.99792480469 1079.52368164062 1087.55810546875 1091.84704589844 1095.28198242188 1089.49987792969 1104.10278320312 1106.40759277344 1117.59765625 1122.66015625 1126.65502929688 1120.50854492188 1118.31726074219 1117.32275390625 1120.27319335938 1121.68640136719
967.264099121094 967.202697753906 958.165283203125 963.969848632812 966.122314453125 975.100036621094 972.414184570312 973.976196289062 960.375549316406 971.079040527344 971.341613769531 972.33740234375 973.887878417969 976.919006347656 976.119873046875 971.75537109375 968.658508300781 967.123474121094 976.300720214844 982.809326171875 983.588623046875 971.166687011719 967.956665039062 965.552001953125 959.905212402344 957.388916015625 951.957641601562 969.35498046875 965.220031738281 964.379638671875 970.709350585938 968.714477539062 966.116027832031 965.217468261719 972.278198242188 967.237060546875 972.654418945312 965.989379882812 964.3193359375 961.58447265625 961.815185546875 963.836486816406 961.849792480469 966.631530761719 967.319946289062 970.665649414062 969.559631347656 977.983032226562 978.339599609375 977.759216308594 979.505554199219 967.767333984375 960.448669433594 958.77685546875 958.909912109375 960.867919921875 970.949096679688 969.11279296875 963.772216796875 957.170837402344 960.258728027344 957.478210449219 951.471740722656 954.101806640625 966.806030273438 962.249755859375 955.073913574219 957.90771484375 956.0390625 954.335876464844 964.995239257812 963.944885253906 961.400817871094 961.491088867188 964.475830078125 965.640625 964.023498535156 958.752807617188 962.64794921875 962.168823242188 967.479431152344 959.782775878906 958.743225097656 962.639831542969 971.77880859375 973.420288085938 975.837951660156 968.254455566406 965.116882324219 968.794128417969 977.877807617188 972.903564453125 969.412902832031 976.09130859375 979.574523925781 971.3720703125 970.91455078125 969.740234375 971.70361328125 972.786926269531 967.523803710938 977.556884765625 981.023254394531 972.100463867188 973.853515625 980.020690917969 981.303771972656 986.382568359375 985.863159179688 983.96875 992.18798828125 987.367980957031 991.334533691406 994.514282226562 1003.29644775391 996.661437988281 997.164245605469 991.400512695312 1003.76013183594 1015.22009277344 1006.44311523438 1009.43865966797 1013.12084960938 1018.865234375 1021.75372314453 1024.42822265625 1033.89233398438 1037.29638671875 1030.88134765625 1040.20324707031 1039.30249023438 1053.90173339844 1065.55639648438 1075.76196289062 1086.86999511719 1090.8251953125 1089.39990234375 1089.42956542969 1089.82080078125 1092.00622558594 1100.97314453125 1108.00061035156 1116.64099121094 1120.65734863281 1117.15942382812 1117.91540527344 1113.03759765625 1096.88391113281 1106.76232910156 1115.21899414062
962.012451171875 963.17578125 965.884704589844 967.464660644531 975.794677734375 974.1572265625 972.458251953125 971.963928222656 972.284545898438 977.763244628906 972.132202148438 964.76513671875 968.847412109375 964.455688476562 969.971557617188 974.352172851562 967.93701171875 964.602111816406 979.880859375 981.13623046875 976.135681152344 963.873168945312 972.614318847656 963.046020507812 950.624145507812 952.662475585938 950.498291015625 965.152160644531 971.932189941406 966.021301269531 967.48779296875 964.972351074219 955.926330566406 958.314086914062 959.893981933594 961.6630859375 966.136962890625 964.418640136719 961.541809082031 960.599792480469 961.520202636719 951.103881835938 956.469787597656 962.519226074219 964.217895507812 964.013061523438 966.592895507812 966.111083984375 975.314392089844 969.830871582031 974.993591308594 967.935974121094 960.817321777344 961.224365234375 968.787231445312 967.756896972656 965.146728515625 972.093322753906 965.409851074219 960.360778808594 959.344421386719 952.002075195312 949.449462890625 954.44189453125 960.110778808594 962.537963867188 952.418579101562 956.971618652344 958.445251464844 964.310485839844 964.995239257812 957.651062011719 958.029296875 958.065368652344 967.180236816406 967.136047363281 965.37060546875 960.186340332031 957.275085449219 961.048095703125 953.811767578125 956.647216796875 970.518798828125 968.133178710938 971.8662109375 972.865783691406 979.49169921875 964.6669921875 969.309753417969 966.726257324219 970.80078125 982.005859375 968.143493652344 973.641784667969 974.559692382812 970.322875976562 970.402038574219 971.268737792969 967.828186035156 973.370300292969 970.19091796875 974.971557617188 966.6162109375 971.829406738281 969.508605957031 976.151184082031 978.039428710938 979.570190429688 982.86328125 981.228271484375 987.654541015625 990.401306152344 991.075317382812 1003.26721191406 994.31103515625 995.738159179688 987.845458984375 991.528625488281 1000.41735839844 1013.92956542969 1002.70379638672 1007.96051025391 1010.55767822266 1014.15234375 1025.99719238281 1019.59954833984 1027.23498535156 1030.52685546875 1041.24145507812 1047.47338867188 1049.58325195312 1064.10791015625 1067.10180664062 1076.05639648438 1084.09741210938 1095.83728027344 1095.802734375 1087.5380859375 1089.94421386719 1092.15686035156 1091.35302734375 1103.92443847656 1099.69250488281 1109.73767089844 1108.15600585938 1107.54223632812 1100.38537597656 1093.75842285156 1093.55749511719 1100.93041992188
971.793273925781 965.736694335938 966.3955078125 970.482177734375 975.145080566406 976.250122070312 972.848510742188 974.703857421875 971.094177246094 965.085876464844 968.163696289062 953.015563964844 948.057922363281 960.537292480469 965.059265136719 971.627807617188 971.42236328125 973.560424804688 977.971435546875 978.745300292969 970.110534667969 960.039672851562 974.221130371094 965.83251953125 954.928955078125 949.28076171875 963.8984375 965.454650878906 964.727416992188 972.296325683594 963.985961914062 964.242248535156 968.597900390625 964.221557617188 958.664489746094 967.451965332031 960.213134765625 964.225463867188 953.736755371094 958.951904296875 960.703491210938 952.913818359375 951.329956054688 956.939208984375 958.338500976562 961.954895019531 960.595825195312 960.616638183594 973.715515136719 973.08935546875 965.196533203125 963.391235351562 955.877746582031 958.382263183594 955.645751953125 966.834045410156 967.694763183594 973.619262695312 975.456665039062 964.709289550781 952.671875 953.089050292969 962.095764160156 956.180114746094 950.854858398438 963.283569335938 955.231262207031 963.939514160156 958.251586914062 956.352844238281 960.35302734375 956.424377441406 954.218811035156 960.038696289062 956.952575683594 958.945129394531 962.565856933594 956.508483886719 957.373107910156 951.939331054688 953.23046875 954.191955566406 964.766540527344 975.447326660156 966.498962402344 966.115356445312 962.564819335938 962.268249511719 965.353210449219 962.399658203125 969.148254394531 975.185546875 969.497802734375 966.867126464844 970.373168945312 962.295654296875 971.211608886719 973.563415527344 974.94677734375 977.978881835938 982.746032714844 969.825012207031 956.311889648438 965.00439453125 971.299560546875 967.930725097656 972.032348632812 969.2890625 969.363403320312 981.733032226562 991.215209960938 987.191772460938 993.328979492188 985.819030761719 992.658996582031 985.124389648438 992.015258789062 990.674926757812 1002.71734619141 1011.44073486328 998.858703613281 1006.59417724609 999.015258789062 1015.0068359375 1011.40911865234 1019.22027587891 1027.58459472656 1033.5078125 1045.47351074219 1043.75024414062 1051.173828125 1049.8486328125 1063.27331542969 1076.81726074219 1087.57922363281 1099.09924316406 1093.44030761719 1088.93041992188 1088.02966308594 1086.451171875 1085.56616210938 1087.38879394531 1098.63708496094 1098.7177734375 1092.79028320312 1100.64367675781 1094.13696289062 1091.9775390625 1086.11511230469 1086.10217285156
969.704772949219 975.5205078125 968.214538574219 978.014038085938 972.590881347656 970.513000488281 969.867004394531 973.3349609375 969.371704101562 969.853149414062 964.600708007812 949.762145996094 950.840393066406 962.5947265625 963.513793945312 965.475036621094 966.998657226562 970.82373046875 981.765197753906 974.118103027344 969.673400878906 967.552368164062 964.784606933594 958.477478027344 959.147583007812 948.927917480469 957.064392089844 967.265319824219 967.032958984375 966.796997070312 956.452941894531 958.568664550781 964.166809082031 970.723327636719 964.631469726562 959.135498046875 957.979858398438 959.468627929688 944.902954101562 954.393676757812 960.251098632812 954.151428222656 955.775024414062 957.309753417969 959.287109375 961.455505371094 953.451904296875 960.254272460938 960.617858886719 966.536499023438 965.153503417969 961.608520507812 948.182434082031 950.869323730469 952.153564453125 956.867309570312 961.150756835938 970.112121582031 958.833618164062 959.665100097656 956.359680175781 957.460144042969 951.112182617188 955.224914550781 950.749694824219 950.336303710938 962.432922363281 964.94970703125 966.011840820312 974.967712402344 960.293090820312 955.331481933594 951.083801269531 953.103759765625 962.422790527344 961.039245605469 963.278381347656 957.060913085938 958.670654296875 958.447509765625 962.421569824219 961.294738769531 972.154235839844 969.406616210938 968.126403808594 965.328063964844 966.465515136719 972.382568359375 970.558044433594 962.747802734375 969.493957519531 963.77783203125 970.360656738281 961.517333984375 964.850341796875 967.509582519531 971.146118164062 973.8125 989.577697753906 979.520141601562 970.705017089844 972.761352539062 969.380187988281 970.175964355469 977.491760253906 967.982116699219 970.807922363281 971.754089355469 980.624450683594 989.028930664062 999.441955566406 995.932495117188 994.959777832031 988.491760253906 978.802612304688 988.166564941406 989.859069824219 1003.78363037109 998.556335449219 1003.26708984375 1006.04864501953 1007.55169677734 1006.5849609375 1010.74761962891 1003.04962158203 1011.45831298828 1020.03350830078 1031.45251464844 1042.65539550781 1046.91723632812 1054.46313476562 1055.8759765625 1059.90209960938 1076.94006347656 1087.96887207031 1101.32055664062 1096.24645996094 1087.86401367188 1082.31213378906 1082.10266113281 1082.34130859375 1085.28356933594 1087.72778320312 1090.15710449219 1082.85803222656 1092.48608398438 1090.46740722656 1093.83178710938 1080.1435546875 1084.22521972656
967.407836914062 969.999084472656 975.540893554688 964.514282226562 970.043151855469 973.894409179688 972.777954101562 972.936889648438 977.497863769531 968.999267578125 967.614318847656 951.483764648438 950.873962402344 962.101806640625 965.125183105469 968.934387207031 965.046264648438 967.096923828125 966.235900878906 963.349853515625 961.446044921875 966.27490234375 958.956420898438 960.007995605469 962.898315429688 955.597778320312 951.265563964844 957.001159667969 963.385437011719 962.241821289062 955.696105957031 953.773254394531 961.829406738281 960.097412109375 965.205139160156 955.746887207031 960.828125 964.224975585938 956.331970214844 949.345703125 952.305908203125 953.452941894531 959.564025878906 964.445678710938 962.111450195312 949.250427246094 944.298034667969 952.732971191406 951.365173339844 956.738525390625 964.712524414062 953.611999511719 949.870910644531 944.470275878906 948.269165039062 960.131164550781 954.415649414062 960.435729980469 961.411315917969 961.843688964844 958.313415527344 959.150268554688 960.194213867188 960.387145996094 959.620300292969 958.979125976562 970.715759277344 964.19873046875 957.50390625 960.974914550781 957.021423339844 950.409912109375 946.994995117188 961.640747070312 956.449157714844 954.449768066406 957.215209960938 961.400146484375 955.117858886719 960.12255859375 974.119140625 976.868774414062 972.956115722656 967.920349121094 967.556030273438 963.078247070312 969.13525390625 972.556823730469 976.610534667969 970.166748046875 969.18212890625 966.462768554688 966.962036132812 961.899658203125 973.947082519531 979.880798339844 980.602966308594 980.032470703125 983.143859863281 977.711975097656 975.990539550781 975.370910644531 974.057312011719 982.831726074219 984.424438476562 984.870178222656 983.949279785156 981.457641601562 980.100219726562 982.467468261719 991.659912109375 987.182250976562 984.224060058594 985.644165039062 986.887329101562 991.370971679688 994.028991699219 1009.01684570312 995.029113769531 993.954528808594 990.38232421875 995.861633300781 1005.39361572266 1001.06256103516 998.457641601562 1005.77886962891 1026.43078613281 1036.43298339844 1041.53564453125 1055.85632324219 1059.50866699219 1060.07275390625 1065.45178222656 1078.10168457031 1093.89123535156 1087.90026855469 1085.31457519531 1082.00122070312 1078.97912597656 1083.2265625 1071.34899902344 1078.72448730469 1084.94079589844 1083.6865234375 1078.5673828125 1077.98559570312 1091.4267578125 1085.33642578125 1079.27917480469 1076.51037597656
974.712951660156 968.3671875 968.058898925781 964.914123535156 969.605895996094 973.414123535156 976.104797363281 974.72607421875 974.497375488281 973.308715820312 966.219787597656 956.519348144531 963.3662109375 967.379699707031 969.257690429688 966.416137695312 962.306030273438 965.210144042969 961.727905273438 951.867492675781 961.460998535156 958.504333496094 956.475646972656 948.235473632812 953.634826660156 958.039001464844 958.991882324219 951.057434082031 957.61865234375 948.82666015625 964.356750488281 955.140625 962.09326171875 952.38134765625 957.656677246094 961.609313964844 957.9560546875 945.348510742188 955.390869140625 956.84521484375 951.278259277344 949.678833007812 957.216064453125 960.458740234375 957.991882324219 947.162292480469 945.047790527344 945.079162597656 950.281188964844 960.101989746094 952.936096191406 952.296813964844 940.54736328125 938.242370605469 947.400817871094 953.315979003906 956.132446289062 953.146118164062 970.408752441406 965.091918945312 958.087951660156 957.854797363281 962.731506347656 961.99755859375 963.245056152344 963.30517578125 967.258422851562 965.344848632812 961.637817382812 949.436767578125 959.152587890625 955.870178222656 964.489318847656 963.162658691406 958.115966796875 961.854431152344 965.311767578125 968.570556640625 960.561889648438 964.771667480469 969.882873535156 986.76318359375 972.23583984375 971.713623046875 958.207275390625 966.527648925781 964.34130859375 974.405456542969 973.627807617188 978.279724121094 969.649536132812 965.826416015625 965.725341796875 965.216796875 970.722229003906 977.567626953125 973.346435546875 979.609680175781 986.091186523438 973.601684570312 977.327819824219 982.193725585938 976.014343261719 978.634521484375 983.890991210938 993.227355957031 990.195007324219 988.470703125 988.445373535156 987.762634277344 992.961853027344 997.865966796875 994.290283203125 994.346069335938 997.496459960938 998.741088867188 1002.46154785156 1001.67565917969 998.312561035156 995.281616210938 993.284973144531 992.635498046875 992.611572265625 991.004272460938 1003.18048095703 1007.85455322266 1018.90112304688 1032.31506347656 1051.70336914062 1060.54382324219 1066.98217773438 1070.755859375 1070.39587402344 1075.39636230469 1079.8896484375 1081.55700683594 1075.76342773438 1079.61010742188 1074.49670410156 1066.77392578125 1058.7119140625 1064.08618164062 1063.55261230469 1067.47399902344 1072.22326660156 1065.87670898438 1078.43371582031 1066.95581054688 1063.11779785156 1068.73352050781
984.751953125 968.414123535156 965.718811035156 971.63134765625 974.940063476562 979.646728515625 975.057922363281 978.14697265625 975.05517578125 971.105895996094 965.141174316406 963.107116699219 956.96484375 961.8046875 962.530578613281 965.700378417969 966.372802734375 967.015869140625 964.529479980469 958.170227050781 956.692443847656 946.431945800781 946.904296875 947.120239257812 943.284484863281 950.035461425781 953.858459472656 956.320617675781 950.952880859375 951.019226074219 950.927368164062 957.021789550781 952.057800292969 950.296936035156 953.933654785156 959.773010253906 943.161193847656 947.842468261719 944.276489257812 950.394470214844 951.497375488281 951.56591796875 952.322814941406 962.389831542969 957.574523925781 948.331298828125 943.488403320312 948.34814453125 949.615539550781 963.100952148438 961.726440429688 949.654541015625 942.993347167969 947.052062988281 946.711853027344 946.157043457031 952.340209960938 958.4228515625 964.544006347656 969.628845214844 962.844665527344 965.01220703125 957.621643066406 966.731689453125 962.220581054688 959.300170898438 966.621337890625 961.445007324219 959.247680664062 952.836547851562 955.789367675781 958.511474609375 964.980224609375 968.142333984375 963.006958007812 966.099792480469 969.9267578125 964.41552734375 964.408264160156 966.741516113281 972.057861328125 978.369262695312 975.58447265625 966.457641601562 965.432250976562 965.056335449219 970.906127929688 965.259765625 964.469665527344 968.786193847656 969.09130859375 965.662658691406 961.440612792969 966.069580078125 967.259033203125 970.797912597656 967.253967285156 973.825622558594 971.537536621094 979.192138671875 973.201171875 985.183776855469 979.647888183594 977.56494140625 979.805603027344 987.9853515625 991.739990234375 998.320922851562 998.892150878906 1000.16412353516 1000.51544189453 1002.27380371094 994.686950683594 1010.77752685547 1006.08557128906 1007.88336181641 1008.3798828125 1007.32757568359 1002.48431396484 997.738342285156 995.928283691406 998.544860839844 997.003845214844 1002.78735351562 1010.04632568359 1012.95501708984 1023.39294433594 1035.08911132812 1044.0576171875 1057.99377441406 1060.71557617188 1065.08239746094 1066.55017089844 1067.19873046875 1074.12170410156 1077.9931640625 1068.38146972656 1068.97619628906 1066.93408203125 1063.78088378906 1050.130859375 1060.25366210938 1045.53955078125 1047.93798828125 1051.51416015625 1051.50268554688 1056.07763671875 1058.51782226562 1058.49780273438 1062.09338378906
977.701049804688 979.728210449219 974.806640625 969.761108398438 975.260437011719 982.529418945312 981.389099121094 969.936218261719 966.735717773438 961.051452636719 960.192260742188 958.75390625 960.76611328125 949.51806640625 953.034606933594 956.0302734375 954.3046875 958.812133789062 961.789184570312 960.322692871094 947.385803222656 940.105346679688 942.246459960938 944.741333007812 948.559997558594 950.074951171875 946.653686523438 945.487060546875 946.30517578125 952.36083984375 954.853149414062 947.247314453125 952.911254882812 953.283508300781 951.445190429688 954.218017578125 953.803771972656 945.305541992188 952.928588867188 951.635681152344 938.485168457031 942.420776367188 952.572509765625 959.874694824219 958.086059570312 937.997802734375 945.419677734375 948.75537109375 954.898132324219 955.933288574219 961.935668945312 956.485168457031 956.103271484375 949.561462402344 953.725341796875 945.851318359375 949.15283203125 962.008605957031 972.133605957031 961.102661132812 965.466430664062 961.015319824219 960.667053222656 960.632690429688 967.788696289062 975.215087890625 968.189758300781 964.440612792969 965.253356933594 964.078430175781 962.82861328125 963.757568359375 961.794250488281 964.131530761719 966.001342773438 961.910583496094 962.959838867188 964.6083984375 960.117858886719 966.403137207031 966.528625488281 969.033935546875 967.658264160156 963.215026855469 966.624694824219 958.352722167969 967.146179199219 970.829467773438 966.807250976562 967.444580078125 972.414611816406 973.391784667969 975.764465332031 970.526672363281 969.215942382812 973.010437011719 969.638854980469 972.991821289062 976.930969238281 973.895202636719 979.282470703125 982.306823730469 982.829040527344 980.486206054688 982.204528808594 988.198669433594 987.025695800781 995.327758789062 1001.21087646484 1006.37677001953 1002.47308349609 997.611206054688 1004.91180419922 1006.08117675781 1016.38830566406 1013.31646728516 1012.72937011719 1022.31213378906 1012.12713623047 1006.62786865234 996.919006347656 998.735900878906 1003.63836669922 1006.28521728516 1007.75555419922 1018.53533935547 1030.73400878906 1027.89013671875 1035.17309570312 1045.65686035156 1059.744140625 1054.01171875 1054.97912597656 1059.90673828125 1064.1240234375 1061.65002441406 1062.14135742188 1060.1162109375 1068.41845703125 1059.66870117188 1048.48571777344 1040.15747070312 1031.05786132812 1044.05505371094 1035.4345703125 1036.50659179688 1036.97180175781 1055.54260253906 1058.05749511719 1054.60266113281
979.046691894531 976.143920898438 967.942932128906 963.671936035156 978.531311035156 976.687744140625 970.897399902344 962.345275878906 962.965026855469 955.618469238281 951.035400390625 959.977478027344 958.818908691406 954.166320800781 953.480041503906 953.281066894531 956.078979492188 958.297485351562 946.673950195312 947.286804199219 939.817932128906 936.942138671875 936.184814453125 941.144714355469 945.883117675781 950.304260253906 946.62841796875 944.265075683594 949.523315429688 950.42626953125 948.399841308594 949.514343261719 952.385559082031 953.726623535156 942.545349121094 952.709045410156 953.0703125 947.953735351562 938.330810546875 950.077209472656 939.621520996094 947.397521972656 953.659729003906 957.074584960938 956.9189453125 947.523864746094 948.480590820312 954.749206542969 962.258178710938 957.532470703125 961.372924804688 960.520568847656 950.9169921875 953.750854492188 955.451232910156 953.509033203125 960.598571777344 960.40771484375 960.563232421875 962.2724609375 968.651306152344 970.659118652344 956.977783203125 958.317749023438 957.820678710938 973.640319824219 983.223205566406 971.684265136719 968.187561035156 975.484191894531 974.830932617188 970.43408203125 973.648742675781 966.286743164062 962.086303710938 961.309448242188 966.738891601562 961.884887695312 965.826049804688 971.129455566406 969.164489746094 970.732238769531 967.606872558594 966.1806640625 973.109069824219 968.89306640625 974.125 969.851013183594 970.972473144531 973.382019042969 969.300537109375 981.612487792969 973.471008300781 969.627868652344 971.268188476562 973.505615234375 980.056823730469 977.091430664062 979.346435546875 967.812255859375 978.31298828125 985.820495605469 991.107604980469 988.1435546875 988.269470214844 985.712280273438 986.172790527344 996.699035644531 1007.08984375 1005.99859619141 1002.56976318359 1001.43383789062 1012.44464111328 1017.30651855469 1019.70477294922 1028.26904296875 1022.78161621094 1015.18481445312 1014.19519042969 1005.66534423828 1000.97027587891 1010.08374023438 1011.18530273438 1007.60125732422 1006.71966552734 1013.47009277344 1024.19799804688 1031.38879394531 1029.70129394531 1032.18371582031 1048.63891601562 1049.11376953125 1047.26965332031 1048.12158203125 1053.43737792969 1056.49914550781 1050.68969726562 1046.56225585938 1056.8046875 1056.71337890625 1042.345703125 1024.3603515625 1023.73834228516 1023.56158447266 1021.31463623047 1032.05749511719 1037.09729003906 1044.90026855469 1047.73034667969 1049.2119140625
963.242126464844 959.905822753906 959.155456542969 963.080505371094 970.05517578125 960.711608886719 965.515625 966.004333496094 962.597229003906 958.304565429688 952.920349121094 944.176879882812 950.70263671875 947.77783203125 948.123657226562 954.39794921875 955.421142578125 946.811828613281 937.45166015625 934.562255859375 938.794067382812 938.706848144531 940.950744628906 946.469360351562 939.494384765625 950.754028320312 943.903991699219 939.733642578125 945.436706542969 956.509643554688 955.080627441406 957.060668945312 952.929260253906 942.048889160156 942.542236328125 948.509948730469 942.220153808594 947.021789550781 940.934997558594 943.454772949219 942.17626953125 950.68994140625 950.941467285156 953.559875488281 953.662109375 952.216979980469 950.938354492188 962.154479980469 965.8837890625 960.061584472656 960.411254882812 958.50244140625 948.161010742188 951.167846679688 954.17138671875 955.828002929688 972.377258300781 971.646057128906 965.91650390625 966.997436523438 966.259033203125 960.95556640625 953.410827636719 962.807922363281 960.177673339844 971.165405273438 973.915222167969 970.75830078125 962.985473632812 965.160888671875 974.635009765625 981.640563964844 980.886779785156 970.967956542969 961.651184082031 967.615234375 966.982543945312 964.870239257812 969.456909179688 975.209228515625 972.488037109375 969.254577636719 978.192932128906 977.85791015625 971.765075683594 972.784301757812 975.944885253906 980.292297363281 981.862670898438 969.551940917969 970.379638671875 965.446838378906 967.818176269531 967.466796875 976.093627929688 970.718933105469 983.936828613281 981.131591796875 980.651611328125 976.913879394531 990.989318847656 989.974304199219 987.692199707031 989.905090332031 984.102905273438 987.25634765625 998.651489257812 1008.53344726562 1007.92980957031 1016.92468261719 1013.30206298828 1005.94354248047 1023.08959960938 1023.77368164062 1027.37707519531 1034.31005859375 1032.87487792969 1028.65197753906 1020.25842285156 1022.31274414062 1019.23553466797 1012.57312011719 1008.21691894531 1015.51934814453 1013.50128173828 1013.59350585938 1023.48846435547 1025.21875 1027.81591796875 1029.19213867188 1038.01171875 1044.78161621094 1047.71459960938 1048.2255859375 1052.08276367188 1047.7353515625 1040.779296875 1032.537109375 1049.06237792969 1044.48449707031 1038.73449707031 1030.02075195312 1012.11248779297 1020.24359130859 1030.69128417969 1025.47387695312 1034.49682617188 1044.85681152344 1043.43957519531 1042.84289550781
962.472534179688 959.748107910156 955.838500976562 952.847412109375 957.668823242188 949.739196777344 962.407775878906 966.31005859375 962.926330566406 959.479553222656 944.11865234375 937.307861328125 937.589050292969 939.147338867188 943.586547851562 954.229309082031 954.668518066406 951.261413574219 934.905944824219 934.240417480469 932.854309082031 941.306030273438 946.47509765625 949.622436523438 947.110534667969 938.3408203125 938.711608886719 946.478210449219 950.120727539062 959.543640136719 959.005004882812 956.316650390625 951.660949707031 943.522399902344 943.932983398438 945.649719238281 943.924011230469 948.066040039062 954.338073730469 951.103515625 955.898254394531 950.009765625 952.765014648438 953.408752441406 953.835815429688 962.199523925781 968.60302734375 963.025451660156 965.928527832031 965.524719238281 967.9072265625 969.524169921875 951.204345703125 963.785400390625 958.462158203125 960.749633789062 965.001831054688 975.596008300781 972.690246582031 970.364379882812 970.60400390625 956.210876464844 947.627746582031 957.418579101562 961.980529785156 970.127502441406 974.474365234375 976.067749023438 971.005493164062 968.878540039062 972.615783691406 976.792541503906 979.870971679688 967.079345703125 975.316650390625 964.954650878906 971.595581054688 966.443969726562 968.086181640625 978.87353515625 980.19482421875 973.119873046875 981.898742675781 982.7724609375 982.802795410156 976.263610839844 983.825317382812 978.208801269531 980.011352539062 972.897155761719 976.000122070312 974.347534179688 968.499694824219 967.713806152344 978.902282714844 977.040283203125 985.720031738281 979.073120117188 985.994812011719 991.620849609375 988.674621582031 986.411743164062 991.612915039062 996.151306152344 991.478881835938 991.587829589844 998.64697265625 1004.95220947266 1003.67370605469 1007.34771728516 1012.49749755859 1009.29681396484 1022.36187744141 1019.68334960938 1017.22631835938 1022.91674804688 1028.29357910156 1030.24145507812 1025.06701660156 1024.50329589844 1024.35681152344 1023.10607910156 1022.24639892578 1016.87982177734 1019.16772460938 1019.21252441406 1012.81823730469 1030.34240722656 1022.728515625 1025.60913085938 1045.42761230469 1051.42883300781 1052.45617675781 1054.37854003906 1046.19836425781 1047.52648925781 1042.31018066406 1039.72595214844 1036.96264648438 1038.57495117188 1038.09020996094 1023.73266601562 1018.19769287109 1020.99438476562 1031.43896484375 1032.8037109375 1040.39819335938 1028.99975585938 1023.21337890625 1031.84716796875
957.934204101562 961.644592285156 951.896484375 951.798217773438 961.423645019531 957.12939453125 956.910522460938 954.233581542969 950.746704101562 954.25341796875 947.508422851562 936.124328613281 933.996032714844 940.090026855469 946.516845703125 947.927062988281 953.659484863281 955.160400390625 947.638671875 944.637817382812 936.168762207031 947.882934570312 948.859619140625 943.797119140625 941.36083984375 941.599548339844 938.228637695312 936.754333496094 950.601867675781 951.941528320312 945.485168457031 951.774475097656 953.140991210938 952.223205566406 944.623168945312 943.778015136719 940.784118652344 939.941223144531 955.44091796875 957.942138671875 958.673278808594 960.423461914062 953.076171875 952.251037597656 951.174560546875 957.9501953125 967.776977539062 969.244140625 972.198913574219 967.675048828125 968.005249023438 963.869079589844 962.353088378906 965.1904296875 962.446350097656 962.630004882812 970.232849121094 968.966796875 969.726196289062 970.842407226562 971.6943359375 955.631103515625 952.5517578125 964.954284667969 961.783325195312 968.9013671875 971.192504882812 975.492858886719 980.077819824219 972.23974609375 970.768981933594 979.489562988281 982.277160644531 976.90185546875 974.751586914062 972.14599609375 976.958068847656 973.811889648438 969.204162597656 977.074768066406 979.183044433594 970.509216308594 978.720153808594 981.595764160156 981.428649902344 978.754150390625 984.210083007812 979.786193847656 979.264831542969 981.448181152344 977.458251953125 971.644470214844 967.400146484375 966.585388183594 976.036865234375 980.8056640625 981.622131347656 979.305541992188 983.905639648438 999.036071777344 995.075805664062 994.757263183594 995.158081054688 991.557434082031 995.043151855469 1002.28662109375 1003.83734130859 1001.61212158203 1000.51806640625 997.905639648438 1003.45147705078 1008.85870361328 1004.65838623047 1011.62249755859 1010.90466308594 1014.54888916016 1025.93884277344 1033.08666992188 1029.7998046875 1031.51647949219 1031.65356445312 1032.8671875 1021.66479492188 1020.77447509766 1023.22448730469 1018.29968261719 1016.78765869141 1025.37609863281 1032.15869140625 1027.59167480469 1048.09057617188 1052.61352539062 1056.09802246094 1052.75134277344 1056.78649902344 1049.30053710938 1040.28405761719 1036.61743164062 1040.67077636719 1038.76477050781 1021.90490722656 1019.90545654297 1020.68322753906 1018.67346191406 1027.86694335938 1027.50793457031 1026.42822265625 1018.88397216797 1021.30554199219 1018.33087158203
954.408386230469 956.605773925781 954.864013671875 954.872314453125 955.707397460938 953.432983398438 948.531188964844 953.202941894531 950.175720214844 955.931091308594 953.568115234375 943.0302734375 942.569152832031 938.855041503906 945.698547363281 942.21923828125 941.708068847656 944.350769042969 943.328796386719 945.497680664062 949.387939453125 945.780029296875 948.292236328125 940.291015625 940.686889648438 940.407470703125 930.480529785156 941.133056640625 949.896667480469 944.427490234375 947.88623046875 950.268249511719 948.757629394531 952.758544921875 948.297302246094 943.31640625 948.074462890625 945.043029785156 957.239135742188 952.097839355469 955.981506347656 957.108459472656 952.864074707031 951.469482421875 957.661743164062 962.062255859375 964.19873046875 969.678588867188 978.359375 975.162475585938 972.535095214844 968.304626464844 967.719360351562 971.565612792969 970.087524414062 968.492919921875 973.559753417969 971.855773925781 969.551452636719 973.99169921875 980.565368652344 975.77978515625 964.375793457031 966.762329101562 959.178894042969 961.507507324219 967.761047363281 973.625915527344 972.001770019531 977.475891113281 976.121520996094 982.718566894531 982.288024902344 979.403137207031 981.33349609375 971.593383789062 974.090759277344 973.976257324219 975.350646972656 975.847717285156 976.479736328125 975.69384765625 979.057250976562 978.303100585938 982.886657714844 979.399169921875 983.755920410156 983.903747558594 987.407409667969 985.63330078125 971.7744140625 974.056762695312 968.01171875 968.672668457031 977.932739257812 983.91796875 986.214782714844 988.443237304688 984.766235351562 994.095336914062 1001.19879150391 997.066345214844 999.221801757812 1001.03546142578 997.27392578125 1006.080078125 1003.38128662109 1005.72985839844 1003.82177734375 1007.01245117188 1001.59106445312 1003.16973876953 1006.57470703125 1015.53784179688 1015.34826660156 1025.66198730469 1031.58410644531 1035.03161621094 1039.63220214844 1034.27319335938 1037.4111328125 1036.34265136719 1032.95922851562 1020.15423583984 1021.94836425781 1018.98388671875 1024.38000488281 1022.45452880859 1025.75183105469 1031.33068847656 1043.32360839844 1049.0048828125 1056.21936035156 1052.25146484375 1048.07287597656 1051.95349121094 1043.31469726562 1040.54125976562 1039.16625976562 1028.97607421875 1023.34637451172 1016.50701904297 1015.29846191406 1013.76300048828 1026.162109375 1023.97686767578 1019.00146484375 1014.36108398438 1014.79644775391 1009.56024169922
959.166320800781 959.644409179688 949.780456542969 957.030212402344 957.629821777344 959.283752441406 957.908020019531 952.936950683594 943.364807128906 949.791442871094 947.489562988281 949.337829589844 944.721069335938 949.237365722656 952.529052734375 940.716552734375 945.292907714844 948.588989257812 945.937683105469 951.135192871094 945.895812988281 948.206359863281 949.901977539062 950.822875976562 938.0224609375 939.722961425781 939.773559570312 940.215759277344 949.348205566406 947.073181152344 946.230651855469 950.05859375 946.195922851562 958.685546875 952.926086425781 944.279541015625 941.902160644531 952.197937011719 953.23876953125 953.489868164062 952.716552734375 958.133117675781 962.687866210938 957.764831542969 953.363403320312 954.183959960938 964.043640136719 971.344482421875 973.848022460938 979.620239257812 974.279296875 984.544006347656 981.479797363281 987.772277832031 984.6337890625 980.056091308594 975.317504882812 970.353820800781 967.288696289062 964.985229492188 972.994873046875 974.435302734375 970.144470214844 960.605102539062 958.8154296875 957.170959472656 964.427917480469 972.145812988281 974.258972167969 987.054260253906 975.85791015625 977.994384765625 977.966918945312 968.495178222656 973.938354492188 972.788879394531 971.985229492188 970.259094238281 973.037048339844 977.953796386719 975.18701171875 981.671264648438 983.058166503906 983.042907714844 982.86572265625 982.908203125 975.650939941406 985.348937988281 985.102905273438 984.613647460938 975.945739746094 970.706359863281 976.799865722656 972.0126953125 978.658752441406 985.899353027344 985.81689453125 991.674011230469 990.580932617188 993.852661132812 999.181213378906 1000.75714111328 1001.33575439453 992.649108886719 1003.28942871094 1001.42626953125 1002.31951904297 1003.22595214844 996.079528808594 989.718994140625 999.458679199219 1006.14013671875 1008.92828369141 1020.3662109375 1024.19470214844 1027.236328125 1029.01977539062 1045.77954101562 1038.52954101562 1028.15026855469 1034.0341796875 1040.42004394531 1035.28649902344 1026.9404296875 1030.39953613281 1021.21966552734 1023.29174804688 1031.82263183594 1021.79382324219 1033.91174316406 1046.75415039062 1045.15112304688 1046.73864746094 1053.83056640625 1050.30749511719 1042.474609375 1046.74816894531 1043.73999023438 1033.1181640625 1028.57141113281 1019.70947265625 1017.71087646484 1015.73846435547 1024.4072265625 1026.88952636719 1026.78234863281 1006.24780273438 1004.71160888672 1010.98211669922 1015.96673583984
940.696716308594 950.262268066406 952.408081054688 953.965576171875 954.270446777344 959.77880859375 947.159362792969 947.124694824219 943.622497558594 939.989379882812 942.287048339844 945.287963867188 946.374450683594 955.060974121094 948.539978027344 938.3544921875 947.592346191406 955.93115234375 951.919860839844 955.29443359375 947.361694335938 944.722900390625 956.405395507812 945.950866699219 947.117248535156 942.997497558594 944.080200195312 945.822631835938 951.90283203125 952.583129882812 948.560668945312 949.49560546875 953.154174804688 954.747375488281 951.476135253906 965.476379394531 960.172424316406 953.768737792969 954.428283691406 947.731201171875 954.894836425781 967.649353027344 963.925354003906 965.041625976562 967.921203613281 966.558654785156 963.747680664062 971.399841308594 978.580688476562 979.568054199219 982.423767089844 981.34130859375 982.368713378906 985.471862792969 986.406433105469 981.78125 982.242797851562 978.561889648438 975.10791015625 964.273803710938 970.602172851562 971.518737792969 966.013000488281 964.880554199219 964.570983886719 959.199157714844 963.632263183594 959.665161132812 971.378784179688 985.428161621094 985.718872070312 980.8056640625 981.0283203125 968.488647460938 977.470764160156 974.348266601562 988.391906738281 973.943359375 972.964904785156 966.538635253906 967.126647949219 973.308227539062 983.707214355469 983.342468261719 984.623046875 973.195129394531 980.036010742188 990.396911621094 979.583312988281 977.393920898438 976.978210449219 978.654663085938 974.764709472656 971.6083984375 972.288818359375 981.987243652344 991.924743652344 994.533447265625 1005.41552734375 1002.76867675781 1008.67932128906 1006.16491699219 1004.65075683594 996.138671875 994.637390136719 990.108947753906 995.65283203125 999.13525390625 1007.49987792969 1007.68499755859 1010.53112792969 1010.67120361328 1020.54876708984 1024.80432128906 1030.25427246094 1032.20458984375 1031.37036132812 1035.96704101562 1044.25256347656 1036.61315917969 1045.841796875 1041.50305175781 1037.77209472656 1033.025390625 1041.55151367188 1031.86474609375 1029.04760742188 1033.44604492188 1028.81860351562 1034.72839355469 1041.73474121094 1043.75744628906 1047.67626953125 1044.23754882812 1040.80444335938 1041.41015625 1038.90405273438 1039.33190917969 1029.31225585938 1019.24066162109 1023.83569335938 1010.38293457031 1008.34265136719 1016.84411621094 1014.22778320312 1014.87023925781 1013.19885253906 1007.45416259766 1007.47747802734 1011.82928466797
934.440734863281 955.121154785156 949.443054199219 957.372924804688 949.16357421875 951.928466796875 944.276184082031 933.827270507812 945.877075195312 942.20703125 939.752624511719 936.581665039062 944.532836914062 958.570617675781 952.017395019531 949.7939453125 948.61669921875 956.608520507812 950.823120117188 953.301452636719 949.645568847656 952.093994140625 957.295959472656 953.942016601562 958.173645019531 948.521179199219 951.725646972656 955.421875 950.881164550781 958.923767089844 952.66796875 957.383178710938 957.688903808594 955.845275878906 956.860900878906 957.750427246094 959.441711425781 956.0537109375 955.372680664062 959.757995605469 954.320373535156 971.332824707031 961.813537597656 968.881774902344 973.421630859375 974.429931640625 973.536193847656 969.477233886719 978.648681640625 976.367248535156 987.843444824219 983.567443847656 975.568054199219 975.201110839844 979.977355957031 983.892578125 976.847351074219 980.52099609375 976.879272460938 977.909545898438 975.561462402344 975.479064941406 970.562438964844 971.150268554688 961.685119628906 961.704467773438 965.286254882812 965.680603027344 981.302124023438 986.603088378906 988.4150390625 982.916320800781 974.986267089844 969.697448730469 979.227966308594 978.685852050781 983.130737304688 974.437744140625 973.800659179688 960.099914550781 964.119873046875 973.938537597656 981.337280273438 995.822692871094 985.757019042969 981.627258300781 980.899963378906 988.598571777344 984.212707519531 981.769775390625 983.858093261719 979.515258789062 975.557800292969 975.649047851562 970.10791015625 979.389465332031 996.154907226562 990.365417480469 1005.05157470703 1014.09503173828 1016.67596435547 1013.43060302734 999.691772460938 994.448913574219 993.384948730469 989.857299804688 989.053039550781 999.6904296875 1010.46771240234 1008.45574951172 1010.96685791016 1017.51977539062 1028.89758300781 1034.97778320312 1030.79797363281 1035.12536621094 1039.20202636719 1040.46276855469 1044.48754882812 1039.93090820312 1049.53833007812 1044.75524902344 1042.55908203125 1047.10827636719 1031.19372558594 1028.73229980469 1026.95837402344 1019.26910400391 1021.09399414062 1029.23400878906 1040.7666015625 1040.8037109375 1033.50939941406 1032.607421875 1028.40515136719 1034.95666503906 1031.70532226562 1024.76428222656 1022.18609619141 1013.43005371094 1013.35223388672 1009.81848144531 1008.0224609375 1007.68414306641 1006.15081787109 1005.01593017578 1001.85021972656 998.047485351562 998.034973144531 1003.11431884766
941.956481933594 950.854919433594 950.784973144531 951.972961425781 955.843627929688 953.344360351562 940.525390625 939.33837890625 939.204833984375 932.103942871094 935.746704101562 943.061340332031 948.438415527344 961.970520019531 961.650939941406 956.464538574219 951.808044433594 954.041748046875 957.270324707031 955.748352050781 953.460205078125 946.198669433594 953.151000976562 956.987060546875 957.618530273438 956.105895996094 953.593627929688 958.752258300781 958.583679199219 961.965087890625 960.351806640625 951.877563476562 955.825744628906 952.161193847656 955.124816894531 961.340270996094 963.356750488281 963.935485839844 957.08203125 963.209777832031 962.228942871094 969.614929199219 972.338745117188 971.983764648438 979.516845703125 988.592529296875 981.688720703125 986.482788085938 977.463928222656 980.93408203125 986.101257324219 985.203491210938 976.875732421875 975.742919921875 972.857727050781 990.801513671875 983.508850097656 978.795959472656 971.372802734375 977.747192382812 966.750915527344 975.228698730469 966.3623046875 973.037841796875 966.257995605469 964.25537109375 970.183471679688 975.567932128906 980.776550292969 987.569763183594 985.409362792969 982.357299804688 979.931945800781 978.096984863281 979.557373046875 971.314147949219 982.202514648438 974.92529296875 969.757873535156 970.222473144531 972.8671875 976.654846191406 993.118347167969 992.073669433594 992.192199707031 984.064208984375 984.849670410156 987.149353027344 984.826721191406 977.606811523438 978.417236328125 974.230834960938 976.066833496094 977.29931640625 983.016784667969 981.974060058594 993.491943359375 995.8720703125 1007.07153320312 1007.9306640625 1012.09796142578 1007.86181640625 1014.224609375 1008.50482177734 997.125427246094 999.793334960938 993.715637207031 1003.87219238281 1017.84289550781 1022.52996826172 1019.22814941406 1030.08044433594 1027.35668945312 1032.07995605469 1031.86389160156 1034.75341796875 1035.27648925781 1035.88159179688 1042.62561035156 1047.66784667969 1044.7685546875 1048.87841796875 1043.55126953125 1039.37060546875 1032.55688476562 1025.78405761719 1031.36181640625 1023.5888671875 1023.93408203125 1020.86151123047 1036.72729492188 1024.76782226562 1022.89703369141 1025.41247558594 1019.25042724609 1026.94189453125 1029.84973144531 1021.61010742188 1017.58642578125 1007.29626464844 1009.78454589844 1009.25018310547 1004.39630126953 1005.99487304688 999.897338867188 995.690124511719 996.811645507812 998.169250488281 992.660400390625 992.939331054688
951.840148925781 955.167724609375 946.29345703125 947.728942871094 950.872192382812 954.792358398438 942.994384765625 936.8544921875 935.333190917969 924.299072265625 916.043273925781 942.706176757812 950.338500976562 957.103820800781 967.494140625 964.252502441406 959.914306640625 952.8642578125 958.491943359375 965.86767578125 965.125 955.32763671875 958.336181640625 960.923095703125 967.199279785156 971.018737792969 964.24072265625 967.595153808594 969.718322753906 966.439331054688 965.701232910156 960.702331542969 954.677856445312 963.236328125 961.769409179688 967.076049804688 971.974243164062 963.979248046875 967.814697265625 968.442016601562 966.489013671875 974.093933105469 975.310791015625 987.019714355469 995.279052734375 991.080932617188 986.753295898438 988.056518554688 983.652099609375 981.548461914062 987.6826171875 980.236877441406 977.311950683594 973.877807617188 976.102783203125 982.525695800781 984.703186035156 983.260070800781 978.791259765625 985.433349609375 978.379211425781 971.507507324219 973.18310546875 977.530883789062 980.012145996094 970.683044433594 976.559265136719 979.504821777344 979.838500976562 986.244140625 985.683715820312 983.135620117188 982.211669921875 980.8466796875 981.478149414062 977.400207519531 978.139709472656 977.12939453125 985.297180175781 980.613952636719 976.812377929688 980.206481933594 988.120422363281 994.3447265625 996.999389648438 987.780151367188 989.334289550781 982.731384277344 980.687438964844 981.781433105469 978.388793945312 975.7314453125 975.812316894531 982.845642089844 987.280700683594 991.805786132812 991.566589355469 997.613891601562 998.832763671875 1010.88726806641 1008.24920654297 1022.11688232422 1021.86853027344 1011.9697265625 1011.26428222656 996.180786132812 999.37646484375 1009.36480712891 1017.13323974609 1015.17272949219 1029.32849121094 1031.05541992188 1029.40258789062 1027.09155273438 1026.51513671875 1025.478515625 1039.44665527344 1044.77490234375 1050.32861328125 1054.55358886719 1052.82214355469 1048.17102050781 1048.76940917969 1035.04504394531 1027.17272949219 1025.22448730469 1019.10040283203 1026.18530273438 1018.26226806641 1022.41625976562 1022.61364746094 1016.64807128906 1031.13781738281 1028.07995605469 1018.66149902344 1029.7109375 1025.62768554688 1021.21173095703 1015.54028320312 1016.92828369141 1008.22277832031 1007.39617919922 1006.31378173828 999.024169921875 996.243041992188 1000.81195068359 995.798889160156 999.018676757812 991.058349609375 987.85595703125
948.130126953125 956.408081054688 941.050354003906 938.635681152344 946.264953613281 943.324035644531 943.726379394531 942.236694335938 934.191467285156 925.780456542969 933.198120117188 942.630004882812 956.675170898438 959.307922363281 961.184326171875 967.627502441406 969.754211425781 957.693969726562 961.784362792969 958.20263671875 961.489990234375 963.958618164062 966.823120117188 967.718933105469 970.73974609375 971.16162109375 967.859375 968.183959960938 966.38427734375 977.92626953125 967.010986328125 962.871520996094 963.9765625 963.514282226562 967.268005371094 968.673828125 981.915161132812 973.1298828125 972.380249023438 970.4287109375 974.731994628906 978.551147460938 986.501220703125 994.063903808594 994.783325195312 995.470703125 988.844970703125 986.804016113281 990.324890136719 990.430908203125 989.532836914062 980.143371582031 978.275329589844 972.362731933594 987.929443359375 981.446411132812 987.580078125 974.682250976562 980.540222167969 979.9951171875 979.007995605469 973.134216308594 977.498168945312 978.959289550781 968.44384765625 979.827941894531 975.83154296875 973.622192382812 975.58984375 976.719421386719 983.258850097656 982.846557617188 980.006164550781 973.109741210938 985.459594726562 984.238647460938 983.657775878906 987.272094726562 984.284484863281 986.247131347656 988.892028808594 985.073364257812 991.958190917969 992.324035644531 991.052429199219 981.024108886719 988.702697753906 991.489990234375 986.401123046875 984.898010253906 977.205993652344 969.907531738281 974.043762207031 983.761779785156 987.430114746094 990.219848632812 996.998413085938 997.22216796875 1004.56488037109 1009.48864746094 1010.32196044922 1031.30517578125 1019.85980224609 1017.30603027344 1008.90783691406 1006.17266845703 1011.76928710938 1012.67163085938 1015.28460693359 1024.20727539062 1031.25109863281 1030.45129394531 1028.45654296875 1024.03063964844 1024.41833496094 1030.09228515625 1033.16162109375 1042.58703613281 1051.46838378906 1049.58056640625 1045.68237304688 1052.50744628906 1046.412109375 1035.9189453125 1026.7236328125 1031.09521484375 1020.84295654297 1011.90515136719 1017.98089599609 1022.83251953125 1018.36541748047 1016.24157714844 1026.88781738281 1021.24182128906 1025.34912109375 1025.818359375 1023.03393554688 1019.74047851562 1010.58337402344 1015.80456542969 1005.53082275391 1006.17749023438 1008.66058349609 999.135681152344 994.484558105469 995.170349121094 997.205200195312 1001.34301757812 994.712829589844 984.677673339844
946.793823242188 947.205871582031 948.61572265625 937.189392089844 936.463012695312 935.761535644531 936.535827636719 945.056213378906 939.681213378906 927.343444824219 932.709350585938 937.197692871094 953.809448242188 959.353454589844 966.226989746094 973.133056640625 972.835693359375 968.077209472656 974.714965820312 976.064147949219 972.84375 973.484619140625 973.134338378906 975.074645996094 975.565979003906 970.935485839844 968.74462890625 965.382446289062 968.959228515625 971.4931640625 969.590209960938 966.148864746094 967.246643066406 959.937561035156 967.262023925781 975.1953125 981.197326660156 982.543762207031 983.891418457031 976.203002929688 985.805847167969 990.264465332031 984.642517089844 992.200744628906 991.15966796875 996.253540039062 986.715637207031 994.357421875 996.603332519531 987.345886230469 984.716003417969 978.977905273438 980.594177246094 980.270751953125 984.561157226562 982.0859375 982.393798828125 985.590087890625 984.013671875 983.5419921875 977.795288085938 977.339965820312 978.716369628906 974.48779296875 973.456298828125 977.607849121094 984.957580566406 975.480590820312 983.068481445312 982.459899902344 980.546691894531 979.711364746094 982.790466308594 992.317626953125 989.840087890625 987.379577636719 989.708312988281 987.381225585938 988.578430175781 986.313293457031 985.744262695312 988.512878417969 993.002075195312 986.309753417969 984.074279785156 993.013610839844 988.006042480469 984.335876464844 985.685729980469 991.562072753906 986.37451171875 973.76025390625 971.206848144531 975.692626953125 996.744873046875 993.319091796875 1003.94696044922 1010.57165527344 1011.7587890625 1009.20672607422 1016.77001953125 1027.9267578125 1023.2998046875 1014.94281005859 1015.84619140625 1009.90960693359 1014.64367675781 1011.52868652344 1022.70172119141 1027.10021972656 1029.16088867188 1026.47668457031 1016.95776367188 1021.19348144531 1022.25158691406 1026.66662597656 1027.94128417969 1033.50549316406 1042.40844726562 1038.0634765625 1035.56665039062 1037.47644042969 1042.56811523438 1041.36267089844 1031.47961425781 1021.83715820312 1015.98968505859 1015.46221923828 1013.15972900391 1018.72760009766 1019.66394042969 1009.01092529297 1016.763671875 1014.13500976562 1022.35046386719 1024.68896484375 1018.79284667969 1024.06188964844 1016.02429199219 1017.28863525391 1008.1064453125 998.653625488281 1006.22985839844 1002.04412841797 1003.03442382812 1002.32177734375 999.123474121094 1002.66882324219 992.927429199219 980.198425292969
933.398681640625 942.157409667969 944.450378417969 939.100280761719 939.722717285156 936.581237792969 935.448791503906 937.932495117188 942.901977539062 936.933715820312 941.06494140625 942.728698730469 956.556274414062 965.758422851562 975.109008789062 977.570373535156 986.977844238281 982.293334960938 976.508239746094 986.325988769531 984.031555175781 975.375549316406 978.129638671875 983.923034667969 979.841674804688 978.255187988281 978.574279785156 972.116516113281 973.88671875 968.368286132812 962.751831054688 963.385131835938 961.679565429688 956.692199707031 971.817565917969 976.261535644531 987.463806152344 984.597045898438 982.111328125 985.782165527344 983.521667480469 993.633239746094 1005.11273193359 1003.845703125 998.070739746094 995.707702636719 1003.54541015625 1005.32165527344 1006.62060546875 994.456970214844 981.443786621094 988.754028320312 987.599609375 986.797058105469 980.099853515625 983.878234863281 984.88818359375 983.926513671875 980.481872558594 975.424682617188 979.82470703125 978.440979003906 972.359802246094 983.0087890625 977.83984375 987.425231933594 978.593383789062 980.439147949219 983.348937988281 988.536499023438 979.881896972656 977.944396972656 985.762756347656 987.477966308594 993.46240234375 996.677368164062 989.658813476562 995.040100097656 990.288269042969 987.930847167969 987.357238769531 993.629272460938 992.731506347656 985.265808105469 983.494689941406 992.228698730469 992.859191894531 984.331298828125 986.965759277344 979.598571777344 978.244384765625 980.824645996094 989.687377929688 982.674194335938 993.865356445312 997.852294921875 1000.20202636719 1000.75201416016 1003.13031005859 1010.49908447266 1016.11468505859 1012.84887695312 1018.45428466797 1012.47790527344 1010.93823242188 1006.56982421875 1012.69946289062 1013.45159912109 1019.81597900391 1026.36145019531 1012.65319824219 1023.17913818359 1028.89807128906 1028.044921875 1022.40228271484 1019.40606689453 1027.61535644531 1035.25805664062 1033.05529785156 1035.38818359375 1031.13732910156 1025.5234375 1023.48785400391 1031.58520507812 1029.26782226562 1026.77954101562 1016.89910888672 1008.52954101562 1007.1484375 1012.33270263672 1021.33770751953 1019.53576660156 1017.65460205078 1013.482421875 1026.54479980469 1019.29754638672 1017.09625244141 1020.83154296875 1014.66156005859 1014.77331542969 1001.15447998047 991.991577148438 992.060119628906 1004.84930419922 1001.71270751953 1007.12823486328 1003.57202148438 995.060485839844 983.578125 980.860656738281
931.537170410156 934.238708496094 940.156921386719 933.384582519531 927.864929199219 937.153930664062 934.028259277344 943.544311523438 942.480346679688 944.24609375 934.657470703125 941.041198730469 962.745361328125 975.392578125 982.4150390625 983.117248535156 995.054382324219 988.768920898438 989.799011230469 991.328186035156 987.694274902344 985.184631347656 987.923278808594 976.731994628906 978.906860351562 980.417419433594 978.604675292969 974.140625 974.448974609375 967.863342285156 966.944763183594 968.716857910156 962.8017578125 964.838623046875 962.443481445312 969.167114257812 985.273559570312 987.393920898438 988.416564941406 988.152404785156 994.018005371094 1002.72833251953 1010.93823242188 1008.15264892578 1010.22509765625 1011.57696533203 1008.89294433594 1006.94616699219 1010.04260253906 1001.30529785156 998.702270507812 994.823791503906 990.621887207031 996.617736816406 983.084777832031 988.285095214844 978.412841796875 988.457946777344 980.905334472656 980.262634277344 980.015625 972.947387695312 971.601196289062 973.693237304688 978.004333496094 970.776916503906 970.601379394531 980.457092285156 981.379699707031 985.070556640625 981.965942382812 983.604064941406 999.081848144531 987.367797851562 988.494018554688 986.384399414062 985.203430175781 990.975036621094 992.941833496094 992.736083984375 986.8662109375 997.840270996094 986.978637695312 989.714477539062 989.850769042969 987.040954589844 989.198425292969 983.342590332031 996.620361328125 987.327209472656 987.69873046875 982.457275390625 985.400695800781 987.18994140625 990.534545898438 993.69140625 1002.73461914062 1003.08551025391 1009.09307861328 1006.51025390625 1017.86016845703 1014.21496582031 1012.59887695312 1012.033203125 1011.09375 1015.63305664062 1022.11907958984 1015.84014892578 1023.59460449219 1018.13336181641 1025.42199707031 1027.78527832031 1033.251953125 1026.20593261719 1029.66101074219 1023.84686279297 1022.88922119141 1023.18103027344 1023.65777587891 1031.541015625 1024.74609375 1022.75213623047 1014.69995117188 1018.73541259766 1024.82995605469 1020.79968261719 1010.46234130859 1000.70184326172 1013.56622314453 1010.884765625 1012.23443603516 1011.97113037109 1008.88690185547 1018.55029296875 1029.06115722656 1014.05303955078 1017.70422363281 1011.48107910156 1017.70397949219 1009.14709472656 1002.71588134766 988.683349609375 987.391540527344 994.165100097656 1002.90570068359 996.956420898438 999.836364746094 995.556274414062 995.654296875 989.321411132812
935.084899902344 942.770568847656 930.373046875 936.011047363281 925.389526367188 932.2509765625 936.396362304688 940.135498046875 944.842346191406 941.2294921875 945.777404785156 956.787719726562 967.832824707031 978.985046386719 981.793029785156 982.8447265625 987.415832519531 1000.35772705078 996.992004394531 995.45166015625 992.877624511719 986.078735351562 982.114135742188 982.141357421875 981.232421875 987.505065917969 986.236511230469 971.312805175781 971.252563476562 966.909484863281 972.583068847656 971.7255859375 970.334899902344 967.341064453125 974.943359375 971.044189453125 984.424560546875 987.901916503906 990.349304199219 990.36767578125 994.506652832031 1008.80895996094 1005.78698730469 1012.72424316406 1018.10418701172 1019.04931640625 1015.61993408203 1011.12268066406 1005.78204345703 1009.22314453125 1000.55303955078 994.8291015625 986.763427734375 994.972290039062 988.966552734375 980.685546875 981.594970703125 978.836303710938 974.75732421875 978.582824707031 988.161437988281 974.65966796875 968.837280273438 977.45068359375 976.347473144531 977.568298339844 969.81640625 968.055908203125 975.234008789062 984.409423828125 981.938842773438 982.80126953125 994.009948730469 993.863403320312 989.615356445312 986.695861816406 991.031921386719 996.577453613281 997.415466308594 994.893371582031 996.219482421875 993.248413085938 997.2646484375 998.206787109375 992.076354980469 989.720947265625 989.408569335938 987.274353027344 985.1875 986.491821289062 987.568298339844 985.004272460938 982.682739257812 985.460021972656 979.776489257812 990.250854492188 993.490173339844 999.857543945312 1005.57263183594 1007.59600830078 1003.69024658203 1000.41595458984 1007.80426025391 1010.78887939453 1011.89392089844 1015.0322265625 1015.44317626953 1021.01885986328 1025.4365234375 1032.78295898438 1023.22613525391 1029.1484375 1040.90966796875 1030.10620117188 1023.70935058594 1015.58728027344 1012.37768554688 1010.36871337891 1017.33685302734 1021.70556640625 1011.26440429688 1012.83209228516 1013.37762451172 1007.48168945312 1022.84033203125 1021.90124511719 1006.88952636719 1006.17846679688 1006.48706054688 1007.73822021484 1007.47302246094 1006.60064697266 1006.52557373047 1009.03497314453 1016.52178955078 1016.16540527344 1014.14477539062 1013.64562988281 1009.16229248047 1008.27197265625 998.658447265625 995.807678222656 996.840698242188 1000.00042724609 999.315002441406 992.778259277344 989.289184570312 993.2666015625 1001.6123046875 1000.2607421875
938.884826660156 934.937622070312 927.970581054688 931.24560546875 930.885009765625 928.788696289062 927.967834472656 938.2216796875 941.542114257812 945.595886230469 951.676025390625 958.924072265625 973.511413574219 976.621765136719 971.832885742188 986.010803222656 993.559997558594 1001.13000488281 1004.14971923828 995.885559082031 990.942321777344 994.123657226562 986.28369140625 989.488220214844 987.506103515625 991.005920410156 988.018249511719 978.097473144531 974.268676757812 981.103820800781 966.105163574219 967.197143554688 971.646606445312 970.12939453125 978.505554199219 983.093566894531 984.602111816406 991.259094238281 990.005432128906 992.104797363281 1005.80438232422 1010.66662597656 1008.5908203125 1020.05224609375 1016.01245117188 1017.23406982422 1016.22406005859 1017.59692382812 1016.26129150391 1009.28533935547 1006.57696533203 1002.89477539062 991.961242675781 987.395690917969 982.972839355469 979.237243652344 973.889038085938 981.922546386719 975.306762695312 972.532836914062 975.477233886719 978.928039550781 975.664733886719 973.281616210938 975.403076171875 972.300109863281 975.838073730469 969.592041015625 978.559204101562 983.938903808594 982.957092285156 989.38134765625 993.316162109375 995.544738769531 990.215759277344 981.924987792969 985.0556640625 989.892333984375 997.817138671875 993.226684570312 1001.25408935547 999.44677734375 1003.82122802734 1001.6884765625 995.654968261719 993.679992675781 989.923095703125 983.056579589844 984.255737304688 986.949035644531 981.397338867188 983.2060546875 977.79736328125 980.867431640625 986.250427246094 992.977600097656 994.457336425781 1005.05120849609 1009.15576171875 1008.61517333984 1008.37133789062 997.552673339844 1002.32257080078 1010.64624023438 1016.22222900391 1023.33203125 1021.32568359375 1023.31018066406 1025.82141113281 1026.48364257812 1026.109375 1031.38549804688 1039.64733886719 1033.0849609375 1027.17810058594 1016.47619628906 1014.67260742188 1010.22338867188 1010.89007568359 1012.27191162109 1019.06243896484 1010.64154052734 1010.13177490234 1013.65704345703 1021.35040283203 1019.29217529297 1016.16387939453 1014.05267333984 1005.24475097656 1001.61590576172 1002.98748779297 995.71337890625 997.281616210938 998.576049804688 1006.62322998047 1002.80364990234 1001.05847167969 1008.19067382812 1018.69165039062 1009.11553955078 999.619384765625 989.373901367188 989.922241210938 1001.52386474609 997.23095703125 992.154113769531 983.101745605469 987.822265625 998.762451171875 992.381286621094
938.774291992188 940.261413574219 934.818603515625 930.759582519531 938.5595703125 933.373474121094 933.087768554688 945.08154296875 946.943298339844 946.442687988281 971.319091796875 963.650756835938 974.00537109375 976.868957519531 970.948547363281 976.775817871094 977.185791015625 993.980346679688 1003.31536865234 998.546081542969 996.011779785156 999.546264648438 990.704895019531 991.815307617188 989.355834960938 1000.75256347656 981.460205078125 988.839477539062 981.280700683594 980.958679199219 975.304382324219 979.298095703125 986.635498046875 977.866333007812 980.623229980469 988.895874023438 992.629516601562 1001.26257324219 1004.39898681641 1007.75244140625 1007.39404296875 1016.24206542969 1015.27380371094 1015.24676513672 1011.16204833984 1013.24462890625 1013.02288818359 1017.60632324219 1015.58166503906 1011.63751220703 1009.67828369141 1006.31671142578 989.87060546875 989.341552734375 977.767883300781 973.21826171875 970.443176269531 970.911682128906 978.244689941406 976.458740234375 977.49853515625 978.126892089844 989.277160644531 978.850036621094 969.6083984375 976.13720703125 969.467102050781 970.906982421875 977.060546875 981.885375976562 981.400695800781 988.469787597656 989.927673339844 988.72216796875 988.237548828125 983.617065429688 983.119873046875 984.801940917969 992.061462402344 998.593444824219 1008.57232666016 1011.89776611328 1003.09808349609 1012.29742431641 1003.90887451172 991.11767578125 1000.72332763672 991.480102539062 991.918884277344 988.833312988281 983.11669921875 988.950561523438 983.93505859375 988.880554199219 989.697814941406 1007.22277832031 1000.33117675781 1002.07098388672 1004.36322021484 1006.2119140625 1009.71313476562 1000.98937988281 1008.94213867188 1007.72473144531 1017.55157470703 1019.38677978516 1018.88934326172 1020.03082275391 1026.61437988281 1026.5810546875 1033.00207519531 1028.86584472656 1037.06030273438 1033.2900390625 1027.89440917969 1024.22729492188 1013.04302978516 1017.99310302734 1009.92211914062 1009.47985839844 1015.94561767578 1006.91998291016 1012.36578369141 1013.64709472656 1019.19213867188 1021.05126953125 1030.72180175781 1022.78942871094 1008.50994873047 1004.0810546875 1002.63696289062 1005.92889404297 998.843627929688 1001.66125488281 999.367614746094 998.706726074219 998.062438964844 1005.61773681641 1005.99639892578 1003.78442382812 995.118286132812 991.58642578125 994.93701171875 992.329772949219 992.964599609375 993.484741210938 987.999328613281 980.18994140625 990.2119140625 985.343200683594
947.540405273438 960.148559570312 951.228454589844 947.762451171875 941.375 930.528930664062 933.724060058594 947.757507324219 958.159973144531 962.834411621094 970.518493652344 967.113159179688 975.128723144531 981.953979492188 975.17431640625 979.270080566406 983.337097167969 993.089599609375 990.107788085938 989.188659667969 1000.80981445312 989.728393554688 997.99267578125 994.815673828125 995.533630371094 988.706787109375 978.880249023438 978.901733398438 972.553527832031 982.147155761719 980.759033203125 978.917175292969 991.894226074219 987.607849121094 987.265258789062 988.152648925781 994.132934570312 992.908203125 997.520629882812 1017.44268798828 1020.64251708984 1017.90936279297 1020.40551757812 1006.85455322266 1005.93878173828 1014.14288330078 1009.14776611328 1012.34289550781 1016.62341308594 1004.68023681641 1006.85723876953 1009.8310546875 1005.43640136719 992.294738769531 979.687072753906 970.986572265625 972.308410644531 972.99658203125 982.690185546875 978.928405761719 979.359375 985.364318847656 978.616027832031 979.291748046875 974.873962402344 968.276062011719 979.472778320312 981.040161132812 978.5927734375 977.74169921875 986.756958007812 985.046264648438 994.451354980469 995.534484863281 994.710388183594 988.365539550781 986.844482421875 993.072631835938 993.113403320312 999.421203613281 1015.09216308594 1012.50341796875 1007.86376953125 1009.04937744141 1006.07696533203 1001.9833984375 1006.54400634766 996.424377441406 988.581604003906 990.519287109375 994.095764160156 987.724853515625 991.942138671875 990.783752441406 996.075988769531 1000.69598388672 1007.85119628906 1010.08544921875 1002.06903076172 1001.48028564453 1005.30078125 1000.96716308594 1009.33477783203 1015.14575195312 1018.99780273438 1018.23999023438 1019.28564453125 1023.79174804688 1023.24285888672 1032.98193359375 1036.55554199219 1034.20471191406 1032.90185546875 1030.51293945312 1029.00537109375 1018.91333007812 1023.69653320312 1023.07141113281 1012.74633789062 1001.62145996094 1007.57708740234 1005.39038085938 1016.05712890625 1018.47705078125 1021.81176757812 1031.61730957031 1026.59826660156 1028.16564941406 1012.18109130859 1012.15759277344 1013.052734375 1011.33416748047 1012.28094482422 1009.47381591797 1007.58093261719 1004.52880859375 1001.04235839844 1007.17449951172 1005.02954101562 1004.98565673828 994.773315429688 995.269897460938 987.098083496094 986.341735839844 988.891540527344 982.019104003906 980.605346679688 980.534790039062 994.447448730469 989.786071777344
955.392517089844 961.992797851562 959.334167480469 955.19482421875 942.157775878906 940.46337890625 939.489196777344 947.5400390625 958.624389648438 970.559753417969 979.546325683594 978.538635253906 978.808166503906 974.196960449219 979.521850585938 983.443969726562 988.869201660156 978.587829589844 985.988220214844 988.1416015625 987.273559570312 992.640075683594 1000.53332519531 996.575134277344 992.587036132812 989.915100097656 984.69482421875 988.560119628906 978.931274414062 979.544921875 989.078552246094 982.499389648438 982.331848144531 983.313903808594 988.276123046875 985.971923828125 989.267150878906 990.787963867188 1000.80981445312 1011.48052978516 1010.39282226562 1022.00012207031 1017.98736572266 1005.55914306641 1001.50769042969 1007.85400390625 1011.03552246094 1010.13330078125 1006.22039794922 1011.65997314453 996.958068847656 1009.28491210938 1004.85766601562 990.514831542969 982.573425292969 977.357604980469 980.784790039062 984.617248535156 982.754333496094 976.892333984375 985.267211914062 985.264038085938 976.875793457031 972.828002929688 968.867309570312 968.341064453125 983.826354980469 984.770751953125 984.523010253906 984.802490234375 988.442504882812 985.701110839844 989.427551269531 1004.07098388672 990.322204589844 975.708435058594 986.011962890625 988.435852050781 995.09130859375 1003.56304931641 1008.79888916016 1003.85882568359 1001.48962402344 1007.34411621094 1005.46673583984 1004.22741699219 1002.55139160156 997.348266601562 993.463989257812 994.317749023438 999.600891113281 999.73681640625 986.255798339844 992.089965820312 993.349548339844 994.911804199219 999.090087890625 1005.53826904297 1002.74420166016 999.139099121094 1002.69732666016 1004.97351074219 1018.07922363281 1021.38623046875 1017.16668701172 1017.515625 1014.85992431641 1020.62585449219 1017.06195068359 1022.87341308594 1039.16577148438 1045.2568359375 1043.05859375 1040.86486816406 1038.56457519531 1028.14758300781 1028.34851074219 1020.60113525391 1015.31201171875 1004.47418212891 1006.28991699219 1005.65521240234 1008.05084228516 1012.7822265625 1021.75054931641 1019.21154785156 1020.33837890625 1014.13629150391 1015.18054199219 1010.22180175781 1013.06451416016 1017.25579833984 1015.73687744141 1013.86932373047 1013.43627929688 1007.16357421875 1006.91998291016 1000.82153320312 1000.05523681641 994.507080078125 990.237915039062 987.307678222656 986.530944824219 977.992919921875 983.112548828125 983.162963867188 985.872253417969 979.288024902344 988.85205078125 992.4697265625
958.553039550781 956.4384765625 957.558288574219 948.078735351562 947.314514160156 938.419616699219 937.304565429688 955.568664550781 957.874633789062 969.385498046875 975.76806640625 975.459594726562 973.049377441406 977.507690429688 973.221618652344 975.963439941406 967.893371582031 970.381530761719 984.30078125 977.140441894531 985.280822753906 989.077880859375 995.396789550781 992.767578125 989.969543457031 983.7421875 994.538818359375 989.161560058594 982.816528320312 982.783386230469 987.715698242188 987.187744140625 992.381408691406 983.98046875 986.177062988281 991.156921386719 995.458679199219 993.025756835938 992.696411132812 1006.07727050781 1010.65478515625 1011.56951904297 1005.12567138672 1005.81420898438 1006.81585693359 1004.46063232422 1012.13464355469 1016.15618896484 1012.78442382812 1016.56799316406 1004.98168945312 1006.20989990234 991.670227050781 984.542419433594 984.242126464844 983.87890625 987.539306640625 981.903869628906 984.249389648438 984.1865234375 993.020080566406 985.239685058594 979.573059082031 976.152648925781 970.024963378906 969.245727539062 982.746398925781 987.746215820312 980.371215820312 980.155090332031 985.214904785156 974.874267578125 987.71044921875 990.670532226562 989.167846679688 980.511535644531 980.145202636719 987.543823242188 998.476379394531 1004.82928466797 1006.57562255859 1003.06140136719 998.723266601562 998.024353027344 998.932067871094 1004.04663085938 999.390502929688 1002.60583496094 1000.41937255859 998.770874023438 998.8818359375 997.18212890625 995.384765625 990.171508789062 984.572326660156 986.450561523438 992.63525390625 997.657897949219 1000.38891601562 994.249877929688 997.4208984375 1008.27044677734 1013.64636230469 1014.47979736328 1022.62841796875 1019.41668701172 1017.64575195312 1013.16790771484 1015.93719482422 1022.13262939453 1033.10266113281 1044.06518554688 1045.30053710938 1042.96557617188 1041.16357421875 1038.99035644531 1034.71704101562 1024.23840332031 1013.19183349609 1010.78448486328 1007.66491699219 1005.09143066406 1010.34088134766 1013.14318847656 1009.19372558594 1010.74908447266 1010.94311523438 1009.09002685547 998.026977539062 998.448852539062 1005.57550048828 1013.81372070312 1017.38983154297 1008.85559082031 1014.87432861328 998.545349121094 1001.00598144531 995.064331054688 988.35888671875 991.313537597656 990.682922363281 984.799560546875 977.663269042969 967.19921875 977.374389648438 983.072509765625 982.933166503906 991.270324707031 989.0712890625 991.685424804688
944.838256835938 948.166870117188 949.712768554688 946.600708007812 940.996704101562 935.813171386719 941.40283203125 950.117492675781 958.368041992188 963.970825195312 964.448425292969 975.461791992188 975.287048339844 976.867614746094 970.610778808594 972.282592773438 965.895080566406 976.605773925781 974.068237304688 974.295166015625 975.679443359375 980.134521484375 985.940124511719 983.894226074219 986.649719238281 982.028442382812 983.287780761719 991.562805175781 982.40478515625 972.714233398438 977.197875976562 980.851867675781 985.115234375 986.006530761719 981.136291503906 982.775573730469 989.190124511719 994.135986328125 996.550170898438 1002.13073730469 1005.08386230469 1002.04034423828 992.616149902344 998.932800292969 995.571350097656 997.147155761719 1003.50970458984 1007.13604736328 1011.37237548828 1013.65142822266 1004.95233154297 998.326354980469 994.173400878906 987.276489257812 986.220581054688 988.331787109375 985.696655273438 983.381530761719 984.673950195312 992.848693847656 992.253784179688 987.1298828125 986.465942382812 980.388366699219 977.724670410156 972.275146484375 975.440063476562 981.921630859375 981.105651855469 982.230590820312 992.184997558594 993.754821777344 996.920288085938 991.285034179688 981.944763183594 988.741394042969 989.171936035156 994.995483398438 1002.26318359375 1009.68005371094 1006.63018798828 1003.15716552734 1002.18218994141 1000.67297363281 1007.33660888672 1002.64031982422 997.136901855469 999.833374023438 999.845092773438 994.652404785156 999.456665039062 1002.34393310547 995.850036621094 992.418762207031 993.310546875 993.335998535156 995.736022949219 998.565368652344 991.96826171875 999.121948242188 996.482788085938 999.052368164062 1010.25329589844 1013.83465576172 1023.19189453125 1015.90875244141 1017.17559814453 1019.52459716797 1024.79858398438 1030.10180664062 1040.18090820312 1045.94958496094 1044.09655761719 1051.32678222656 1043.22644042969 1041.90014648438 1027.41125488281 1028.64562988281 1010.78857421875 1007.70678710938 1007.21954345703 1012.48565673828 1006.85223388672 1007.87658691406 999.912109375 997.9013671875 996.0380859375 994.378295898438 985.228454589844 983.651672363281 992.581665039062 1000.85729980469 1002.19537353516 1006.57751464844 1001.28167724609 990.749633789062 994.210205078125 988.496520996094 989.063354492188 981.908569335938 984.527709960938 975.3408203125 965.028686523438 970.203735351562 978.92236328125 976.608459472656 983.234497070312 983.352844238281 997.345092773438 995.137451171875
945.944885253906 937.723876953125 940.60205078125 938.684631347656 934.732727050781 936.0244140625 941.9873046875 948.207458496094 957.185180664062 957.14501953125 965.877563476562 981.474670410156 972.732360839844 970.235290527344 963.058288574219 956.621704101562 961.94140625 965.708679199219 970.876953125 980.589965820312 975.963012695312 973.15966796875 980.431091308594 985.355224609375 986.192260742188 979.783081054688 979.302978515625 976.49658203125 973.50390625 971.829711914062 975.864318847656 977.186096191406 980.632507324219 980.724792480469 989.551818847656 987.647277832031 986.673889160156 991.776977539062 986.925170898438 995.397521972656 990.230346679688 990.567749023438 989.770629882812 987.156311035156 986.581726074219 986.407043457031 995.516479492188 1000.86968994141 1005.25518798828 1003.74743652344 1004.07482910156 1002.98870849609 997.922973632812 983.110595703125 985.292907714844 985.448852539062 985.012939453125 986.019226074219 990.24560546875 980.149841308594 991.514221191406 986.622497558594 989.973815917969 984.756652832031 971.59375 969.214294433594 973.828674316406 985.196472167969 977.220520019531 986.313110351562 990.4599609375 987.403198242188 989.051635742188 999.722839355469 987.067749023438 985.142333984375 987.685791015625 992.068481445312 998.750183105469 997.225830078125 999.331237792969 1002.75695800781 998.492370605469 1000.19885253906 1002.57666015625 1003.37329101562 994.38671875 996.236511230469 994.7578125 994.894897460938 995.599060058594 1001.33721923828 997.204162597656 987.6494140625 988.886291503906 992.118103027344 992.339477539062 1006.91693115234 993.139221191406 983.384399414062 986.460205078125 996.895385742188 1001.51879882812 1003.14196777344 1005.82556152344 1020.23370361328 1020.59368896484 1018.66973876953 1028.15063476562 1035.08923339844 1046.50939941406 1054.28088378906 1055.64538574219 1054.44885253906 1049.55883789062 1037.52563476562 1033.10107421875 1026.1806640625 1028.66247558594 1019.75701904297 1029.06750488281 1024.99011230469 1017.78546142578 1006.19409179688 994.148254394531 989.813354492188 1000.93615722656 988.156311035156 985.644653320312 984.994323730469 980.796691894531 983.064392089844 992.268676757812 995.230834960938 982.90185546875 990.19873046875 993.948852539062 983.296691894531 978.197509765625 984.086730957031 972.470703125 972.679870605469 968.815124511719 966.804443359375 977.785461425781 977.56005859375 974.152526855469 976.513000488281 990.847961425781 1004.27838134766
941.387145996094 933.412231445312 938.5185546875 941.848266601562 932.49267578125 941.790649414062 940.229248046875 949.629638671875 947.435485839844 957.017700195312 973.748291015625 975.261474609375 967.090637207031 954.466796875 960.291564941406 956.940734863281 957.17138671875 953.765319824219 964.525329589844 966.191162109375 971.706787109375 970.705017089844 967.895629882812 980.132507324219 980.323059082031 972.517333984375 967.713439941406 972.450744628906 973.435241699219 971.218200683594 975.954162597656 974.067138671875 974.634521484375 972.3447265625 985.203186035156 983.853698730469 987.73046875 985.801452636719 989.355163574219 993.35009765625 990.096252441406 985.250732421875 988.7578125 996.619873046875 990.5673828125 987.678527832031 984.735656738281 996.110656738281 1001.71124267578 998.950561523438 1002.27276611328 1004.16687011719 996.338500976562 980.4052734375 979.997985839844 988.1767578125 987.4501953125 989.946899414062 980.312316894531 982.658142089844 982.147094726562 981.407592773438 981.331970214844 978.564758300781 975.584899902344 977.111633300781 980.747863769531 980.477966308594 986.461608886719 977.452392578125 984.682556152344 987.924560546875 986.847412109375 996.237121582031 993.82470703125 977.959716796875 984.147216796875 990.025329589844 991.143188476562 991.762817382812 989.64111328125 1001.90734863281 995.622192382812 997.027282714844 996.097351074219 995.773254394531 993.856018066406 986.080322265625 995.128723144531 995.234069824219 997.5234375 1004.48449707031 994.000793457031 987.023315429688 992.076721191406 998.254577636719 995.608520507812 1003.03363037109 1000.85125732422 993.527893066406 1002.74328613281 1001.33020019531 995.681701660156 1001.68322753906 1011.41021728516 1017.39147949219 1014.20367431641 1019.88415527344 1029.87573242188 1048.25219726562 1058.10107421875 1055.82141113281 1060.98498535156 1052.44665527344 1056.36254882812 1053.44763183594 1042.38537597656 1035.11694335938 1035.32373046875 1024.37097167969 1029.47192382812 1034.21765136719 1031.82434082031 1011.82067871094 1000.61065673828 997.804321289062 992.675537109375 984.731079101562 988.655212402344 989.524536132812 983.913024902344 980.295227050781 984.980163574219 991.793212890625 987.278259277344 985.126037597656 989.123168945312 987.055358886719 982.340759277344 977.881896972656 978.99169921875 973.348388671875 969.211120605469 975.696716308594 978.466552734375 971.833312988281 968.900329589844 967.565246582031 990.072631835938 984.578247070312
945.660705566406 942.565734863281 942.610412597656 941.886840820312 943.202026367188 939.539978027344 941.633056640625 938.911743164062 942.453430175781 963.616027832031 968.156677246094 962.988159179688 955.833251953125 950.867492675781 957.947814941406 957.752685546875 950.6953125 953.483703613281 956.65283203125 969.069458007812 955.502319335938 959.9580078125 958.211181640625 963.046630859375 970.558654785156 967.139770507812 962.995422363281 957.185424804688 970.352478027344 965.446472167969 963.645324707031 961.607849121094 963.096435546875 974.869873046875 978.136657714844 990.89501953125 975.85302734375 981.621704101562 986.774353027344 986.190185546875 988.011962890625 997.031005859375 996.90087890625 987.132873535156 981.277587890625 988.757141113281 989.457275390625 990.138854980469 1005.00659179688 1006.39300537109 1005.66784667969 1001.95788574219 991.216247558594 986.741394042969 982.373352050781 988.149536132812 986.579650878906 985.992553710938 988.025634765625 983.848937988281 983.434692382812 984.78369140625 987.032470703125 992.104736328125 979.830871582031 989.720642089844 977.573181152344 981.502014160156 986.347412109375 979.835571289062 988.263549804688 980.736999511719 983.457946777344 990.058471679688 990.089233398438 986.221130371094 987.587036132812 979.187377929688 982.398071289062 981.006408691406 981.865844726562 996.158935546875 995.449340820312 991.240051269531 998.459228515625 1004.39874267578 995.444580078125 998.733154296875 992.841796875 998.972045898438 994.195495605469 998.349548339844 999.507934570312 994.830749511719 1002.40051269531 1004.21313476562 1006.55737304688 1009.29809570312 1007.72393798828 1005.01086425781 1007.48797607422 999.943420410156 1008.91326904297 1011.283203125 1010.3310546875 1019.63049316406 1023.06976318359 1023.57342529297 1035.35949707031 1053.17797851562 1050.64208984375 1054.80029296875 1060.26782226562 1063.50256347656 1057.48486328125 1060.44421386719 1056.91906738281 1051.52709960938 1043.03918457031 1034.62536621094 1031.32543945312 1028.77612304688 1029.01708984375 1013.5078125 999.213073730469 993.546875 990.952026367188 984.585815429688 982.374877929688 982.673461914062 982.450561523438 982.188232421875 981.246643066406 979.573425292969 975.771240234375 976.013366699219 991.984741210938 987.569152832031 983.010192871094 983.792419433594 979.705810546875 976.146057128906 972.497924804688 971.568786621094 973.373779296875 972.402709960938 967.843933105469 974.628784179688 984.251586914062 980.54638671875
947.072509765625 943.972900390625 945.785034179688 943.027404785156 936.928588867188 934.857971191406 933.198364257812 941.431091308594 940.541748046875 950.128173828125 956.410522460938 955.50341796875 956.261901855469 953.003051757812 949.726928710938 947.505432128906 954.998107910156 954.948303222656 959.66015625 963.818054199219 956.563415527344 954.175231933594 958.966003417969 965.730773925781 954.6513671875 959.94482421875 954.993835449219 957.432678222656 959.701171875 960.520751953125 959.811828613281 966.689880371094 962.511596679688 965.506652832031 974.347900390625 981.576904296875 981.978881835938 974.6044921875 983.617919921875 977.939697265625 986.446411132812 996.479309082031 988.569885253906 984.616455078125 984.551635742188 983.908264160156 980.670166015625 994.438537597656 990.537048339844 993.08642578125 999.361083984375 1003.31927490234 993.053405761719 992.880004882812 991.011657714844 996.013061523438 990.044921875 993.677734375 988.846252441406 989.491760253906 990.527770996094 989.024169921875 997.59423828125 990.201232910156 990.171508789062 993.76025390625 988.161499023438 977.730346679688 981.751770019531 981.999389648438 989.240173339844 987.029602050781 988.136657714844 991.181579589844 991.917419433594 995.914916992188 985.179382324219 984.531494140625 978.624938964844 990.904418945312 988.972595214844 992.787353515625 992.703918457031 994.208557128906 998.589904785156 1004.41619873047 1002.84417724609 994.588562011719 991.622741699219 995.554016113281 1005.70788574219 1000.66027832031 997.17138671875 1005.14636230469 1002.21038818359 1010.12902832031 1013.91754150391 1013.30267333984 1012.63226318359 1011.18969726562 1008.10607910156 1013.33862304688 1019.41607666016 1008.72467041016 1015.61444091797 1017.96752929688 1020.22137451172 1025.49084472656 1026.75402832031 1050.90307617188 1060.453125 1062.61181640625 1065.22717285156 1063.23999023438 1059.07360839844 1065.30651855469 1062.51684570312 1055.66955566406 1044.69982910156 1041.80480957031 1029.66296386719 1029.45288085938 1014.37316894531 1011.59857177734 999.6171875 997.983764648438 990.259765625 989.202270507812 976.043884277344 973.618103027344 981.680358886719 978.106567382812 978.991577148438 987.311401367188 986.326354980469 984.61962890625 985.623046875 982.979614257812 975.155822753906 979.010681152344 970.776550292969 969.436157226562 966.401245117188 966.815856933594 969.592468261719 969.951538085938 973.426940917969 975.483276367188 971.667114257812 973.495666503906
944.931518554688 942.306884765625 945.620971679688 941.216491699219 940.286804199219 933.082153320312 933.784118652344 943.302795410156 954.075012207031 947.053100585938 951.390014648438 953.414184570312 953.619689941406 949.212524414062 942.545227050781 949.66650390625 949.420654296875 960.101806640625 952.005798339844 961.230529785156 958.125366210938 956.757629394531 950.8857421875 951.350708007812 952.067810058594 958.103393554688 958.033264160156 963.080627441406 960.192932128906 958.066040039062 953.276428222656 960.4130859375 962.637023925781 959.455322265625 968.068725585938 969.395141601562 975.267395019531 972.019104003906 969.728759765625 973.581604003906 973.967712402344 986.017944335938 992.087463378906 988.496032714844 982.262268066406 987.239868164062 986.309753417969 994.340148925781 995.136047363281 987.582763671875 994.440063476562 1000.51599121094 992.834594726562 994.855407714844 997.858215332031 1001.11224365234 994.506286621094 996.238342285156 1006.25592041016 995.028991699219 982.498413085938 983.840515136719 988.489501953125 989.498107910156 992.388916015625 983.929931640625 989.188110351562 982.206848144531 983.769592285156 988.506958007812 996.338195800781 986.65185546875 991.696655273438 998.280212402344 995.209228515625 989.465087890625 986.548217773438 992.322204589844 990.308044433594 990.246520996094 988.001953125 986.866088867188 990.36083984375 996.835693359375 1007.51043701172 1007.67498779297 1006.40747070312 1007.05303955078 1003.32781982422 1002.50787353516 1000.22222900391 998.668518066406 1003.56707763672 1007.23327636719 1003.74182128906 1005.64782714844 1016.1435546875 1019.84130859375 1011.15539550781 1021.12921142578 1020.19567871094 1023.75219726562 1029.37890625 1024.55322265625 1017.03253173828 1013.19555664062 1019.2841796875 1035.76123046875 1039.44641113281 1055.25964355469 1050.36572265625 1061.59216308594 1067.3759765625 1065.56811523438 1072.25109863281 1069.42834472656 1069.91735839844 1056.02478027344 1049.92041015625 1042.77905273438 1044.84643554688 1038.15747070312 1020.060546875 1003.07318115234 1001.26892089844 1004.99584960938 992.810974121094 987.372497558594 982.12744140625 977.000183105469 979.449401855469 979.859680175781 979.825012207031 978.289123535156 988.023071289062 985.792541503906 976.705505371094 976.142761230469 971.372924804688 969.657592773438 968.600524902344 965.280944824219 964.272705078125 962.765930175781 971.521057128906 969.995788574219 972.015380859375 974.553344726562 980.776428222656 977.511657714844
944.08447265625 942.688171386719 944.471252441406 944.116394042969 947.966918945312 940.051574707031 939.171875 942.405395507812 947.069763183594 946.445373535156 948.119079589844 952.921325683594 940.681335449219 946.575866699219 940.562622070312 946.899536132812 951.661682128906 958.171264648438 951.656066894531 957.0859375 957.075256347656 946.71484375 954.571533203125 956.966796875 960.69873046875 965.150390625 972.378173828125 963.85302734375 961.715454101562 954.11865234375 952.447265625 963.649597167969 965.554992675781 971.704284667969 971.322692871094 963.188110351562 969.755920410156 967.427490234375 968.218994140625 969.019958496094 976.640930175781 985.869384765625 989.867370605469 985.774169921875 990.338989257812 986.609130859375 986.303833007812 987.769226074219 982.0380859375 980.855102539062 1000.16845703125 991.190246582031 987.511962890625 998.900085449219 996.228149414062 993.8125 1000.64855957031 1007.11456298828 1002.02911376953 994.772338867188 988.659301757812 992.210754394531 992.388488769531 998.938781738281 996.030822753906 996.338806152344 987.0078125 982.401794433594 988.276550292969 990.120910644531 990.505065917969 990.98046875 992.951904296875 993.022399902344 994.438354492188 987.793579101562 984.078491210938 989.248352050781 991.591674804688 989.612854003906 993.635437011719 1005.77667236328 990.525939941406 983.159729003906 997.831604003906 1002.99499511719 1005.28326416016 1003.01409912109 1008.52886962891 1003.4638671875 1002.29541015625 1001.04302978516 1011.95672607422 1008.82183837891 1005.94927978516 1008.04534912109 1012.89343261719 1021.32287597656 1016.79339599609 1024.17517089844 1028.36560058594 1023.39367675781 1026.82971191406 1026.68103027344 1022.48553466797 1021.68176269531 1028.24743652344 1030.54931640625 1044.9560546875 1052.5625 1058.17919921875 1068.41687011719 1069.18640136719 1072.27954101562 1069.48828125 1059.38024902344 1056.8134765625 1056.25244140625 1050.92895507812 1049.94128417969 1039.78955078125 1034.63818359375 1024.73718261719 1015.02923583984 1008.74798583984 1007.93902587891 999.272155761719 984.00537109375 989.602783203125 980.646484375 975.783752441406 988.090698242188 979.122314453125 972.7890625 976.575256347656 973.783386230469 964.195861816406 973.095703125 974.693359375 965.55322265625 962.494445800781 960.1796875 964.40234375 969.872436523438 966.332153320312 961.90283203125 967.467956542969 966.563171386719 974.791198730469 976.690856933594
