NCOLS 150
NROWS 37
XLLCORNER 7394249
YLLCORNER 4843319
CELLSIZE 30
NODATA_VALUE -9999
967.017822265625 972.157470703125 969.850891113281 956.832885742188 963.627380371094 965.256103515625 980.799377441406 968.554443359375 970.103759765625 970.060668945312 957.612670898438 966.539489746094 965.1953125 963.739868164062 962.042297363281 956.837646484375 961.904602050781 968.7509765625 973.371215820312 974.24755859375 966.4755859375 971.172668457031 969.634399414062 981.81396484375 1004.60198974609 1014.828125 1007.03863525391 1005.24432373047 1007.92840576172 1010.36029052734 1016.68518066406 1022.66839599609 1018.32019042969 1022.80322265625 1022.48980712891 1027.29553222656 1025.52416992188 1025.41491699219 1031.18676757812 1037.55432128906 1029.84985351562 1046.25476074219 1041.60485839844 1039.63549804688 1030.11059570312 1025.54956054688 1016.85247802734 1009.5849609375 1007.33758544922 1000.50744628906 998.691955566406 1007.2607421875 1002.06646728516 1003.96740722656 1004.66857910156 1003.41223144531 1003.43841552734 1013.01708984375 1019.48406982422 1017.85900878906 1017.29656982422 1026.95861816406 1028.51000976562 1020.19641113281 1025.75476074219 1024.06323242188 1023.25958251953 1027.11328125 1026.51123046875 1015.65106201172 1021.58001708984 1025.94067382812 1022.80584716797 1033.82446289062 1027.86767578125 1024.56433105469 1018.46258544922 1023.13800048828 1031.09582519531 1036.35852050781 1024.95446777344 1020.39031982422 1011.03308105469 1013.56768798828 1021.22399902344 1021.41564941406 1018.86267089844 1008.83264160156 996.520324707031 994.433532714844 988.782348632812 987.374633789062 989.191040039062 989.611572265625 1003.86865234375 1007.34912109375 1004.97930908203 991.294311523438 994.010681152344 994.688659667969 992.249816894531 991.188720703125 991.369323730469 984.651062011719 986.714416503906 986.115295410156 980.594360351562 967.398986816406 964.430297851562 962.820068359375 964.298400878906 965.233825683594 949.272033691406 941.433654785156 942.804870605469 937.462951660156 934.529479980469 935.096069335938 942.838562011719 944.33984375 958.727783203125 980.587585449219 979.636962890625 986.414001464844 1001.69805908203 1003.25085449219 1015.19274902344 1019.05078125 1036.81799316406 1039.44494628906 1040.07861328125 1040.07922363281 1038.83776855469 1044.29272460938 1043.09619140625 1047.41418457031 1049.53991699219 1061.90942382812 1066.84606933594 1080.34619140625 1077.88977050781 1086.10815429688 1082.77685546875 1088.20593261719 1092.37377929688 1090.36474609375 1102.36669921875 1102.57604980469 1090.96472167969 1094.37927246094
963.739135742188 965.036560058594 955.56005859375 963.807922363281 960.675720214844 962.560241699219 969.115661621094 980.61767578125 972.298400878906 972.345581054688 965.5771484375 966.169616699219 963.525695800781 959.766174316406 961.849914550781 964.63720703125 961.953491210938 960.794189453125 975.469055175781 966.48095703125 964.574951171875 970.854309082031 966.560729980469 986.303527832031 994.479370117188 997.200256347656 1003.35546875 1001.33947753906 1007.48510742188 1005.81988525391 1019.64611816406 1018.73937988281 1014.87017822266 1017.06591796875 1021.28802490234 1024.49731445312 1024.34033203125 1022.01202392578 1035.94812011719 1040.20910644531 1030.41027832031 1038.8935546875 1038.45654296875 1041.52282714844 1017.49188232422 1020.09893798828 1010.29895019531 1002.95056152344 1005.87408447266 1003.91589355469 1000.34112548828 1004.82495117188 998.657653808594 995.106750488281 1005.19641113281 1010.23175048828 1010.82476806641 1004.11987304688 1005.30303955078 1004.91143798828 1003.28204345703 1020.41516113281 1023.54364013672 1025.61242675781 1026.82666015625 1017.29339599609 1010.83367919922 1028.40905761719 1030.20947265625 1023.83471679688 1027.53063964844 1013.96697998047 1018.87762451172 1030.701171875 1029.39538574219 1021.51135253906 1015.42541503906 1025.92016601562 1017.072265625 1028.67443847656 1017.03771972656 1014.88818359375 1018.99310302734 1023.11242675781 1009.86944580078 1015.57531738281 1015.16394042969 1011.21807861328 1007.09881591797 1000.14721679688 997.692932128906 1013.06518554688 1009.71691894531 999.824401855469 1011.59002685547 1012.16571044922 1008.61346435547 1007.34411621094 1003.58709716797 1004.18048095703 1009.32238769531 993.874450683594 993.396301269531 982.698486328125 979.08251953125 980.566772460938 979.769775390625 976.0322265625 965.614807128906 967.816955566406 960.546936035156 953.552856445312 957.726501464844 945.135314941406 938.683959960938 934.072875976562 938.003967285156 942.378051757812 944.088806152344 952.796752929688 961.802490234375 980.585388183594 985.970947265625 990.966430664062 993.588256835938 1010.89959716797 1023.31433105469 1031.42468261719 1040.42834472656 1042.18920898438 1040.41076660156 1036.83544921875 1039.63171386719 1044.60925292969 1048.01647949219 1041.64074707031 1054.75720214844 1063.34301757812 1069.5947265625 1075.39770507812 1083.26696777344 1082.74157714844 1091.81140136719 1084.3681640625 1078.10546875 1089.248046875 1092.4267578125 1095.4716796875 1100.4716796875 1098.47705078125
960.792419433594 956.884155273438 956.384338378906 958.671508789062 962.322143554688 962.832153320312 969.603088378906 975.3291015625 972.659973144531 971.034912109375 962.362915039062 961.8134765625 953.981872558594 958.570556640625 955.391235351562 954.709838867188 950.384216308594 952.135314941406 960.455017089844 966.939880371094 964.917846679688 961.617065429688 963.408935546875 970.66845703125 990.118286132812 996.044982910156 998.380187988281 999.533752441406 1000.88415527344 1011.03857421875 1010.99047851562 1011.50390625 1013.10473632812 1013.05419921875 1023.65490722656 1023.96008300781 1020.92370605469 1023.37390136719 1028.20263671875 1033.92932128906 1031.88208007812 1036.4873046875 1035.73266601562 1023.06091308594 1021.1162109375 1017.06872558594 1003.60412597656 1012.16754150391 1002.49194335938 1005.10864257812 1000.85955810547 996.773132324219 997.856384277344 991.169555664062 1003.072265625 1008.53234863281 1010.65600585938 1005.10095214844 1004.35229492188 1003.70758056641 1005.04949951172 1006.67517089844 1016.30212402344 1016.89898681641 1025.12634277344 1012.33465576172 1017.20782470703 1029.25219726562 1021.55828857422 1021.98651123047 1028.13452148438 1019.36798095703 1020.91632080078 1019.28839111328 1014.81378173828 1016.60614013672 1012.88629150391 1018.7294921875 1018.18109130859 1022.15222167969 1015.45941162109 1019.35180664062 1024.79541015625 1016.28601074219 1016.64630126953 1013.19012451172 1007.48461914062 1008.07800292969 1013.57067871094 1006.68609619141 1009.76721191406 1003.69030761719 1014.13043212891 1012.29205322266 1017.46014404297 1025.046875 1021.90698242188 1013.24993896484 1012.10748291016 1017.61730957031 1013.55645751953 1007.85662841797 991.108642578125 985.773010253906 989.7509765625 991.367736816406 986.302612304688 978.5361328125 969.469665527344 964.025695800781 961.9541015625 952.035583496094 957.484375 947.69189453125 940.346130371094 934.392456054688 938.483703613281 939.359741210938 950.482604980469 964.257202148438 969.347595214844 983.976928710938 993.529479980469 993.173278808594 1000.94781494141 1016.63195800781 1023.35961914062 1030.84802246094 1043.33117675781 1043.31457519531 1035.21728515625 1037.61181640625 1034.92944335938 1041.19360351562 1042.82165527344 1044.2138671875 1051.84423828125 1064.48364257812 1063.68542480469 1071.99523925781 1085.71032714844 1082.23156738281 1083.34814453125 1078.94213867188 1083.78100585938 1088.29565429688 1089.31994628906 1092.70336914062 1096.30200195312 1100.86791992188
944.304931640625 948.671264648438 952.370727539062 949.633605957031 961.128540039062 961.781982421875 955.716186523438 961.461181640625 963.084716796875 973.575134277344 963.251525878906 954.424499511719 954.668640136719 959.760070800781 949.741149902344 949.007263183594 953.228759765625 953.933776855469 963.375061035156 958.805480957031 965.474182128906 954.676025390625 958.406066894531 968.975036621094 982.28125 998.173583984375 997.533142089844 998.933898925781 999.440490722656 997.539367675781 1010.09448242188 1019.51190185547 1011.56475830078 1011.37414550781 1016.96575927734 1030.52392578125 1023.66607666016 1033.49682617188 1029.70532226562 1035.81994628906 1027.23168945312 1029.32934570312 1024.39758300781 1016.99395751953 1004.34332275391 1005.47027587891 1007.18658447266 1011.22613525391 1005.95233154297 1002.01385498047 1001.63482666016 989.273315429688 999.208862304688 985.349060058594 1001.01300048828 1004.52044677734 1003.47546386719 996.212280273438 1001.30554199219 1005.76513671875 1009.33770751953 1010.77093505859 1013.08709716797 1022.74932861328 1025.30139160156 1018.51080322266 1019.23931884766 1016.87390136719 1019.01232910156 1020.44018554688 1024.03137207031 1016.72375488281 1016.27954101562 1013.03881835938 1007.97052001953 1003.45764160156 1012.38586425781 1016.49884033203 1020.21557617188 1013.97186279297 1006.56768798828 1014.21557617188 1019.52893066406 1021.82397460938 1011.76544189453 1015.86096191406 1005.02020263672 1001.00433349609 1012.21807861328 1025.20947265625 1016.75 1019.65802001953 1019.62854003906 1017.95159912109 1023.99444580078 1025.83349609375 1023.31231689453 1018.62182617188 1020.70050048828 1019.00793457031 1011.53735351562 999.472229003906 989.320556640625 993.018249511719 989.038940429688 995.200927734375 994.622863769531 983.393371582031 976.066772460938 977.157287597656 967.90234375 963.772338867188 956.841857910156 956.893737792969 944.683410644531 950.252685546875 953.538146972656 955.735595703125 958.424865722656 973.370483398438 976.173706054688 991.593994140625 997.081420898438 1002.82611083984 1007.18322753906 1023.92352294922 1030.50537109375 1037.32763671875 1033.45446777344 1039.75854492188 1044.24914550781 1051.27404785156 1039.61926269531 1041.09777832031 1048.64770507812 1043.24633789062 1050.47058105469 1053.76037597656 1055.06030273438 1063.77844238281 1078.76428222656 1073.20593261719 1078.78979492188 1073.56335449219 1079.99975585938 1081.02514648438 1086.52014160156 1098.19360351562 1099.09094238281 1099.28869628906
950.916381835938 938.229125976562 944.439575195312 949.963195800781 955.683837890625 954.039611816406 956.108581542969 947.879089355469 957.183288574219 962.863037109375 958.946166992188 957.268676757812 954.626281738281 956.165771484375 952.990234375 957.642211914062 950.794921875 952.452270507812 961.968383789062 964.494934082031 961.091125488281 956.712219238281 958.799255371094 970.118225097656 979.341125488281 995.883544921875 1000.22406005859 1006.97216796875 1012.22021484375 1002.51812744141 1008.30218505859 1012.80389404297 1010.60687255859 1010.34118652344 1012.48565673828 1013.93780517578 1019.35119628906 1029.16772460938 1027.31213378906 1025.32434082031 1029.2978515625 1024.60803222656 1019.85943603516 1020.9111328125 1012.08477783203 1011.54296875 1009.15576171875 1004.52673339844 1009.54223632812 1008.35186767578 997.876647949219 1000.31176757812 987.883422851562 988.572814941406 996.154968261719 993.983215332031 997.681335449219 997.332336425781 998.526733398438 1003.38861083984 1013.71264648438 1013.10290527344 1021.14489746094 1019.90612792969 1022.10363769531 1017.00671386719 1020.73974609375 1010.75231933594 1016.32989501953 1020.20880126953 1015.80346679688 1013.50433349609 1006.90155029297 1002.529296875 1010.85369873047 1004.04815673828 999.768737792969 1004.36181640625 1016.42712402344 1010.99597167969 1010.70947265625 1014.50482177734 1012.14501953125 1014.95446777344 1014.9580078125 1012.30657958984 1009.34027099609 1007.4248046875 1017.54235839844 1018.50512695312 1020.67474365234 1019.71832275391 1025.73583984375 1019.47332763672 1024.67419433594 1027.62243652344 1010.54327392578 1012.25286865234 1010.24957275391 1010.18206787109 1005.09008789062 1009.75512695312 1000.09313964844 993.262084960938 999.865173339844 1003.05303955078 1000.42590332031 995.350219726562 987.029907226562 981.060546875 969.666809082031 965.091979980469 962.173400878906 954.63623046875 954.220031738281 957.474914550781 954.895080566406 960.401306152344 973.937866210938 979.503234863281 984.081604003906 992.620178222656 1003.861328125 997.819030761719 1008.77313232422 1017.63385009766 1028.15991210938 1035.26965332031 1039.201171875 1048.16650390625 1052.4033203125 1047.35766601562 1047.10900878906 1049.90026855469 1048.34094238281 1050.45043945312 1051.23449707031 1053.99926757812 1066.44287109375 1063.11828613281 1069.18371582031 1076.04455566406 1079.85815429688 1077.32873535156 1076.18603515625 1086.27612304688 1091.46923828125 1093.57861328125 1111.02941894531 1107.41540527344
950.966613769531 947.063049316406 947.827697753906 951.118225097656 949.939514160156 952.479797363281 954.154907226562 949.85400390625 961.233581542969 961.598571777344 960.38916015625 965.011657714844 956.459228515625 957.788757324219 965.833557128906 959.335815429688 952.919372558594 955.705993652344 968.266845703125 964.154052734375 965.770324707031 957.8056640625 962.307922363281 969.360229492188 976.5205078125 988.502990722656 996.789367675781 1004.57257080078 1003.06811523438 1007.98999023438 1009.35119628906 1008.34924316406 1009.80316162109 1003.63720703125 1001.51007080078 996.81298828125 1014.41107177734 1014.45086669922 1021.62158203125 1023.76397705078 1020.66784667969 1016.37908935547 1017.22357177734 1019.75897216797 1006.47619628906 1012.09899902344 1005.48614501953 994.232666015625 990.171020507812 997.175903320312 994.673461914062 989.327514648438 981.596923828125 986.766235351562 990.129455566406 999.843933105469 990.085144042969 991.52880859375 997.421447753906 999.148864746094 1009.39111328125 1022.93316650391 1020.36981201172 1017.26080322266 1016.92797851562 1021.35772705078 1013.7314453125 1014.62731933594 1018.74188232422 1017.18194580078 1015.12445068359 1003.56384277344 1010.85095214844 1000.78649902344 1006.6689453125 997.941284179688 997.622436523438 1002.02465820312 997.3828125 1006.62738037109 1008.99792480469 1012.82531738281 1005.57354736328 1008.53015136719 1015.05432128906 1017.22180175781 1007.27044677734 1003.29205322266 1012.96752929688 1016.92852783203 1014.08721923828 1015.15618896484 1015.10754394531 1015.82623291016 1027.71594238281 1028.13244628906 1024.17651367188 1020.92724609375 1013.38415527344 1006.00970458984 1005.06500244141 1006.26708984375 1002.18786621094 998.671081542969 1011.76440429688 1009.50860595703 1008.88012695312 997.736267089844 998.659790039062 983.556335449219 973.308288574219 965.090576171875 967.402648925781 954.349182128906 962.353332519531 962.262817382812 952.849243164062 963.810241699219 968.940063476562 982.983032226562 998.1181640625 1006.33605957031 1009.13916015625 1009.01184082031 1006.50366210938 1022.71337890625 1031.13220214844 1041.69067382812 1048.86022949219 1055.6865234375 1057.02526855469 1050.068359375 1055.02722167969 1056.67651367188 1063.92724609375 1066.41271972656 1062.56982421875 1071.19592285156 1064.8642578125 1060.41784667969 1069.71923828125 1069.1552734375 1082.51892089844 1081.39514160156 1086.9599609375 1094.87280273438 1098.54711914062 1112.123046875 1114.24645996094 1107.50329589844
949.216369628906 941.82958984375 941.090698242188 940.21240234375 948.177917480469 955.966369628906 958.491149902344 958.428100585938 953.84765625 960.822204589844 967.89990234375 965.940002441406 968.992065429688 967.681762695312 960.10546875 963.248779296875 958.429504394531 961.127014160156 975.680908203125 977.940368652344 982.115539550781 974.671142578125 970.093078613281 970.286376953125 978.012939453125 980.201965332031 990.60888671875 1001.15264892578 1002.10809326172 992.984191894531 996.571716308594 1003.26556396484 995.82958984375 994.044799804688 995.238891601562 1010.11468505859 1015.68341064453 1021.72192382812 1020.1474609375 1020.16516113281 1014.96563720703 1017.73156738281 1017.49639892578 1012.69799804688 1009.71215820312 1005.30432128906 998.859069824219 990.431213378906 984.870422363281 989.817504882812 993.561584472656 980.885620117188 986.207763671875 988.578491210938 996.919921875 993.352600097656 984.9365234375 994.81103515625 997.905456542969 1010.30456542969 1011.14617919922 1014.24035644531 1017.13330078125 1019.97680664062 1017.28173828125 1016.78479003906 1016.23077392578 1016.27972412109 1015.35363769531 1012.49761962891 1012.25006103516 1008.76776123047 1014.20123291016 1007.51928710938 1004.11462402344 1005.12707519531 998.348999023438 1000.58056640625 1001.52227783203 1008.92132568359 1013.79937744141 1007.38439941406 1009.06286621094 1005.62542724609 1008.63854980469 1007.42120361328 1013.185546875 1010.25720214844 1011.15509033203 1014.55450439453 1014.74060058594 1019.85693359375 1010.20184326172 1018.70391845703 1022.66638183594 1013.97546386719 1020.71649169922 1019.37951660156 1010.74401855469 1002.90612792969 1001.83526611328 998.376770019531 998.650695800781 1004.29705810547 999.535339355469 1004.89361572266 1002.42645263672 995.77392578125 991.119995117188 984.317321777344 973.656982421875 972.167724609375 965.611755371094 944.476196289062 946.43359375 953.984802246094 955.084533691406 962.216125488281 980.143127441406 987.33642578125 1001.67205810547 1007.93780517578 1008.35516357422 1017.62377929688 1019.34814453125 1029.34216308594 1029.80493164062 1033.33959960938 1042.98095703125 1050.56140136719 1051.52600097656 1043.66345214844 1051.69616699219 1057.15393066406 1059.96728515625 1068.76965332031 1068.62805175781 1064.37377929688 1065.251953125 1069.66040039062 1069.19860839844 1078.5205078125 1078.55102539062 1083.37438964844 1093.52404785156 1095.15942382812 1108.90466308594 1119.21606445312 1115.37219238281 1114.1171875
953.702941894531 939.843566894531 941.477844238281 952.338989257812 953.145812988281 956.7470703125 960.507995605469 954.007934570312 954.811706542969 960.835571289062 963.206115722656 965.344421386719 968.460205078125 965.55078125 959.71533203125 958.308898925781 966.348083496094 968.896057128906 985.123840332031 983.810119628906 979.597839355469 974.779479980469 973.993896484375 977.742126464844 973.459228515625 985.02099609375 987.228149414062 997.179321289062 993.642272949219 990.394226074219 991.3701171875 995.484436035156 986.612854003906 990.286315917969 997.67626953125 1007.79339599609 1003.46118164062 1013.41143798828 1013.16705322266 1012.02185058594 1006.96875 1005.99371337891 1008.79357910156 1003.27954101562 1007.33978271484 999.69287109375 992.852844238281 988.242004394531 986.72021484375 991.450012207031 985.06640625 977.767150878906 974.197998046875 995.06982421875 994.340393066406 986.644897460938 988.128540039062 989.994323730469 1005.84399414062 1012.82287597656 1008.11254882812 1020.7705078125 1022.94158935547 1019.17358398438 1011.54315185547 1016.76336669922 1013.81079101562 1014.43157958984 1012.70513916016 1012.88171386719 1004.32611083984 1009.41656494141 1008.90356445312 1001.24029541016 999.23193359375 991.58740234375 1007.07574462891 997.927856445312 1000.57122802734 998.114013671875 1002.87030029297 1008.20520019531 998.770385742188 994.461181640625 993.130493164062 1002.00695800781 1012.48034667969 1010.16198730469 1003.77716064453 1009.45440673828 1015.78753662109 1016.07464599609 1016.90362548828 1019.37841796875 1023.77691650391 1021.80706787109 1015.41790771484 1018.77032470703 1010.80615234375 1006.22509765625 1008.8017578125 1006.56652832031 1010.78509521484 1007.02819824219 1003.91333007812 1001.28625488281 1005.31811523438 991.540283203125 985.296508789062 988.370056152344 979.325012207031 966.677429199219 952.189636230469 939.084838867188 940.288391113281 944.920532226562 965.335388183594 967.415222167969 987.419921875 997.24072265625 1005.86578369141 1010.50903320312 1023.4365234375 1020.04858398438 1028.93518066406 1033.57995605469 1035.44079589844 1039.078125 1042.91589355469 1046.58752441406 1046.37487792969 1037.05212402344 1042.63891601562 1046.47412109375 1059.29504394531 1061.40893554688 1063.31567382812 1067.0224609375 1064.41552734375 1068.12280273438 1073.76147460938 1077.0615234375 1084.46606445312 1091.21838378906 1100.05346679688 1102.37121582031 1109.49951171875 1118.70239257812 1118.76159667969 1116.62512207031
952.64208984375 955.990905761719 953.851684570312 950.966796875 959.481567382812 960.458557128906 957.360107421875 960.667785644531 967.098937988281 967.537048339844 968.619323730469 968.480834960938 973.972534179688 963.833618164062 959.582397460938 960.889221191406 974.146728515625 984.004638671875 986.344421386719 982.809692382812 985.35595703125 984.326721191406 977.912963867188 968.313842773438 983.442260742188 985.808654785156 990.033935546875 984.539001464844 982.209228515625 989.841979980469 989.194946289062 987.353271484375 982.990966796875 985.82958984375 987.589233398438 1001.73645019531 1001.90185546875 1009.10504150391 1011.23992919922 1005.31433105469 998.862487792969 1005.01733398438 993.096496582031 998.060424804688 1001.84637451172 1002.0380859375 995.000366210938 988.020935058594 985.185546875 991.971984863281 990.256225585938 983.562622070312 989.124084472656 990.225891113281 994.792175292969 990.671875 979.064331054688 987.875305175781 1003.94879150391 1010.91809082031 1007.97039794922 1025.24194335938 1017.8662109375 1014.75268554688 1009.02593994141 1010.35192871094 1009.02862548828 1007.09295654297 1001.16711425781 1001.70989990234 1000.1083984375 1003.45941162109 999.581115722656 1002.63244628906 1004.77612304688 998.329711914062 998.574096679688 998.19140625 997.021362304688 991.74658203125 1005.1162109375 996.906921386719 984.20703125 988.196838378906 995.2509765625 1004.26165771484 1008.34143066406 1006.06744384766 1008.45166015625 1018.0322265625 1015.86859130859 1018.92852783203 1018.82458496094 1022.17614746094 1029.17272949219 1020.662109375 1012.70861816406 1011.0361328125 1000.47113037109 1003.60333251953 1011.85357666016 1007.15673828125 1010.02209472656 1011.26617431641 1012.48608398438 1005.12133789062 1001.60852050781 994.076843261719 985.337463378906 983.252868652344 976.143615722656 960.089172363281 952.062194824219 942.642944335938 944.187866210938 948.219665527344 958.6240234375 976.031982421875 983.894653320312 1000.25006103516 1005.37524414062 1006.91986083984 1020.27679443359 1022.50671386719 1032.24011230469 1032.78674316406 1030.47937011719 1036.96166992188 1037.91833496094 1041.92736816406 1039.30834960938 1044.58728027344 1044.64282226562 1052.4326171875 1051.20776367188 1060.61865234375 1054.39990234375 1062.97814941406 1064.31298828125 1062.52124023438 1078.77685546875 1079.11474609375 1086.51770019531 1094.59460449219 1109.0439453125 1115.74609375 1111.88549804688 1120.74816894531 1120.35693359375 1124.6005859375
949.317138671875 958.537902832031 958.976745605469 953.686828613281 951.766235351562 961.270080566406 959.583557128906 959.177307128906 961.728332519531 975.663940429688 981.274658203125 975.238830566406 969.062316894531 974.695922851562 980.649353027344 973.218078613281 974.686279296875 990.450134277344 998.010803222656 987.347351074219 978.449340820312 983.104797363281 974.450134277344 973.802612304688 981.761962890625 990.591918945312 987.807861328125 985.877136230469 985.137451171875 990.403015136719 991.642944335938 986.364624023438 987.889404296875 982.875305175781 981.0908203125 998.789916992188 996.8095703125 998.58935546875 1002.04498291016 1000.19244384766 996.809326171875 999.886291503906 1000.20886230469 994.017150878906 993.850219726562 996.133605957031 998.174133300781 991.238220214844 981.542419433594 986.670166015625 984.110473632812 981.780395507812 984.296203613281 981.790710449219 992.411987304688 989.566589355469 987.281188964844 985.971374511719 991.656677246094 1008.24438476562 1011.51672363281 1015.38385009766 1017.00561523438 1010.14263916016 1005.17425537109 1004.68127441406 998.767028808594 998.766906738281 998.992919921875 989.70068359375 997.005859375 1001.08117675781 1004.578125 993.663879394531 992.135681152344 994.880737304688 994.452209472656 1000.10821533203 999.559875488281 994.154357910156 998.617126464844 994.668884277344 979.865600585938 986.179565429688 989.710876464844 1002.21936035156 1007.33972167969 1005.72442626953 1006.94940185547 1018.76000976562 1025.39758300781 1021.07257080078 1025.1533203125 1025.13305664062 1030.37683105469 1018.48022460938 1004.90893554688 1007.46276855469 1009.37567138672 1000.43640136719 1002.66741943359 1001.93402099609 1003.64086914062 1006.85363769531 1006.82672119141 1009.45733642578 1001.37951660156 1000.43200683594 991.898254394531 989.792663574219 979.708618164062 956.309692382812 946.474060058594 935.834777832031 942.488464355469 945.838684082031 958.236572265625 973.074584960938 981.189331054688 995.098205566406 1000.92602539062 1003.59606933594 1014.61596679688 1022.64331054688 1017.83471679688 1033.58715820312 1038.44860839844 1037.78576660156 1040.30456542969 1039.53942871094 1050.86706542969 1053.28381347656 1042.158203125 1051.65368652344 1048.43139648438 1046.79040527344 1055.80151367188 1060.93408203125 1055.89758300781 1066.96716308594 1071.08984375 1085.02429199219 1090.55285644531 1096.62951660156 1101.90991210938 1107.36706542969 1114.57580566406 1118.37915039062 1122.87182617188 1121.84399414062
950.590087890625 963.588134765625 958.702758789062 960.404907226562 959.4931640625 954.519653320312 959.426391601562 959.251953125 957.722106933594 970.691040039062 984.7548828125 981.388366699219 979.815612792969 968.170532226562 971.439697265625 978.914184570312 978.740783691406 991.310607910156 993.775024414062 988.372863769531 979.675415039062 994.63134765625 991.1884765625 984.53125 989.880187988281 987.17138671875 986.815551757812 985.382934570312 979.705200195312 983.369262695312 984.305908203125 982.736450195312 983.299377441406 982.246520996094 983.651916503906 985.792541503906 987.7998046875 994.06982421875 992.36279296875 991.446533203125 993.212707519531 987.951171875 985.699401855469 985.808288574219 996.267517089844 988.785461425781 988.943786621094 986.257873535156 986.838073730469 985.659118652344 973.045837402344 972.166748046875 968.610717773438 975.384094238281 983.902954101562 988.427673339844 989.747009277344 990.312316894531 991.371154785156 1002.10833740234 1005.97381591797 1005.94482421875 1007.40216064453 1007.62475585938 1005.22955322266 999.812927246094 1001.51904296875 1000.53131103516 1000.09503173828 1002.85211181641 1000.82977294922 993.238891601562 994.893188476562 985.017578125 985.654968261719 988.598449707031 993.87841796875 1002.50183105469 1003.04528808594 994.893859863281 994.474792480469 994.287353515625 992.119934082031 990.60205078125 992.221069335938 994.635314941406 999.414916992188 1008.15081787109 1011.85437011719 1016.73272705078 1026.57641601562 1034.41223144531 1029.84558105469 1029.72863769531 1016.74346923828 1015.47735595703 1000.49700927734 1003.26684570312 1006.07897949219 999.891967773438 995.132080078125 1004.51116943359 1007.53857421875 999.539489746094 1012.60192871094 1008.55157470703 1006.09155273438 998.241760253906 992.506713867188 987.460693359375 965.245788574219 955.254516601562 946.590576171875 939.554931640625 945.244201660156 953.119812011719 969.627624511719 974.633666992188 985.924865722656 990.425048828125 1004.32769775391 1007.02056884766 1019.58917236328 1031.72961425781 1025.51708984375 1033.03747558594 1039.69787597656 1038.73010253906 1035.18322753906 1040.97802734375 1048.22668457031 1051.13256835938 1044.5048828125 1044.13391113281 1047.50500488281 1048.84106445312 1057.15283203125 1059.87829589844 1057.49426269531 1062.82995605469 1067.48229980469 1079.63830566406 1097.97253417969 1104.97680664062 1107.99145507812 1112.62573242188 1113.43786621094 1122.46313476562 1115.97241210938 1121.22607421875
950.631469726562 964.975280761719 957.007873535156 958.368896484375 970.5849609375 965.231811523438 966.500732421875 964.427978515625 963.235961914062 972.1552734375 980.502014160156 975.823181152344 974.684387207031 975.737670898438 972.904907226562 975.662902832031 981.201293945312 982.04736328125 996.954956054688 988.733459472656 980.997009277344 984.487060546875 987.921752929688 998.990112304688 995.522155761719 996.172607421875 995.638671875 993.647583007812 982.90283203125 979.389465332031 984.589050292969 976.360717773438 983.866943359375 987.763916015625 989.731506347656 989.298522949219 983.888977050781 984.717407226562 978.08935546875 981.60546875 982.031921386719 984.49951171875 990.228515625 990.429504394531 988.166625976562 989.011047363281 976.220153808594 985.895629882812 982.986999511719 969.716979980469 975.109497070312 984.802429199219 969.282348632812 972.716979980469 983.042053222656 990.067932128906 992.633483886719 996.131103515625 994.086547851562 998.414428710938 1002.95324707031 1006.69195556641 1004.11370849609 1011.45178222656 1003.00201416016 1000.19006347656 994.221862792969 994.773742675781 991.704467773438 1001.59478759766 1003.72863769531 990.649291992188 981.382141113281 975.681457519531 974.279846191406 982.864135742188 992.370544433594 996.775756835938 987.318237304688 993.496398925781 986.308471679688 989.34423828125 1001.90911865234 1005.11700439453 994.664611816406 1003.94537353516 998.195373535156 1007.40087890625 1010.55877685547 1019.37951660156 1023.53814697266 1026.58312988281 1018.47747802734 1020.89630126953 1014.35827636719 1014.15344238281 1008.67065429688 1001.64123535156 999.8076171875 994.996276855469 1002.21337890625 1000.48760986328 999.445739746094 993.242370605469 1002.71032714844 1007.85229492188 998.297058105469 992.291198730469 981.706115722656 976.4765625 966.816955566406 958.032348632812 948.723693847656 945.456909179688 947.891784667969 957.996643066406 965.020141601562 980.635803222656 998.278869628906 997.278564453125 993.446166992188 1008.79260253906 1010.203125 1020.28100585938 1022.20123291016 1027.541015625 1036.65185546875 1037.10583496094 1032.49523925781 1028.89477539062 1034.57604980469 1037.1416015625 1035.99609375 1036.22570800781 1045.41271972656 1047.10205078125 1048.69030761719 1056.79528808594 1059.25805664062 1060.52697753906 1072.91638183594 1086.40307617188 1100.89697265625 1103.09509277344 1114.65283203125 1118.08654785156 1121.02185058594 1128.25659179688 1123.79797363281 1121.09130859375
960.092041015625 964.259704589844 967.907043457031 967.615417480469 969.929870605469 971.8369140625 974.449157714844 968.398315429688 969.709533691406 971.931640625 977.461120605469 979.133972167969 978.730834960938 976.186157226562 976.565185546875 972.079895019531 983.282592773438 985.883972167969 979.741760253906 982.843627929688 978.303955078125 977.989501953125 986.014770507812 997.841186523438 990.015197753906 986.813354492188 986.036254882812 985.189880371094 977.021850585938 982.384094238281 983.965576171875 989.110046386719 988.683898925781 991.895690917969 988.927062988281 982.203796386719 988.393493652344 989.301025390625 979.837646484375 976.255126953125 978.395629882812 981.738342285156 988.684936523438 987.709838867188 993.993896484375 988.992797851562 974.156372070312 974.101806640625 980.824829101562 967.885070800781 976.1171875 976.760009765625 979.939758300781 979.528930664062 987.204406738281 993.562194824219 995.796447753906 990.703063964844 997.511901855469 992.713073730469 998.545227050781 989.289123535156 989.170654296875 1004.22399902344 1005.88519287109 996.942321777344 990.645568847656 989.4345703125 995.233337402344 993.374938964844 1002.03833007812 993.286682128906 983.313537597656 979.685729980469 983.662353515625 984.583251953125 987.457092285156 991.819519042969 984.120483398438 990.537536621094 991.006225585938 985.028015136719 995.967407226562 989.527587890625 998.927368164062 1003.15057373047 1004.48681640625 1008.50012207031 1004.32257080078 1016.66271972656 1017.640625 1022.95715332031 1021.18493652344 1019.79711914062 1020.81433105469 1009.79113769531 1003.93572998047 1005.15155029297 1003.34100341797 1002.9853515625 1004.12048339844 996.306701660156 994.893188476562 994.320861816406 995.98779296875 997.946655273438 1001.18347167969 992.71337890625 984.634460449219 972.549011230469 966.971862792969 960.909301757812 951.655334472656 953.042663574219 955.503601074219 956.072265625 975.153198242188 978.900451660156 998.892944335938 994.318786621094 1000.47033691406 1001.96130371094 1011.12835693359 1020.82092285156 1014.51428222656 1030.90014648438 1030.88818359375 1030.54223632812 1022.51617431641 1033.19299316406 1034.61755371094 1031.69396972656 1032.23461914062 1035.74060058594 1035.69299316406 1029.76208496094 1035.88903808594 1046.80310058594 1062.47497558594 1070.03430175781 1073.46166992188 1085.97082519531 1099.16516113281 1104.79541015625 1109.17907714844 1116.40356445312 1126.486328125 1138.67761230469 1140.10290527344 1131.28259277344
961.438415527344 964.829223632812 978.098388671875 976.552124023438 969.762023925781 979.53564453125 971.517333984375 967.177368164062 974.793701171875 973.776489257812 970.888366699219 973.787231445312 978.784973144531 984.278076171875 981.572326660156 981.343017578125 981.585693359375 982.650085449219 983.203247070312 978.868835449219 984.151733398438 980.407348632812 975.140502929688 985.626892089844 987.415222167969 979.903198242188 970.36376953125 978.66455078125 984.160583496094 981.749694824219 985.2451171875 981.504638671875 988.542907714844 983.706848144531 975.756042480469 972.964233398438 990.128173828125 984.305297851562 984.68505859375 987.453735351562 976.776733398438 984.869873046875 990.868774414062 990.122680664062 991.405151367188 984.925048828125 981.473571777344 982.295471191406 979.841613769531 981.203125 974.051879882812 981.64501953125 977.215515136719 989.880065917969 996.079895019531 988.985961914062 985.044982910156 989.803649902344 993.835815429688 987.67138671875 990.152648925781 989.026916503906 996.42236328125 994.549133300781 995.71337890625 994.352478027344 986.352172851562 986.742919921875 991.446411132812 995.743347167969 1000.72448730469 987.199523925781 989.23876953125 983.391967773438 985.840209960938 983.99755859375 987.005920410156 993.033081054688 979.836059570312 983.811340332031 988.29296875 987.924743652344 992.913330078125 992.4443359375 990.795776367188 1001.931640625 1002.94396972656 1007.23773193359 1011.82202148438 1017.80603027344 1023.05627441406 1026.66955566406 1021.12524414062 1019.15570068359 1024.08508300781 1006.75708007812 1010.82019042969 1014.53411865234 1015.34741210938 1014.19097900391 1006.40454101562 997.8671875 999.196533203125 998.243408203125 994.861206054688 1002.66107177734 993.211669921875 990.571228027344 988.192199707031 990.140991210938 972.649536132812 962.435302734375 956.1806640625 963.117431640625 960.962829589844 961.780151367188 964.942016601562 972.398254394531 985.569885253906 992.8935546875 1004.0849609375 1003.12860107422 1007.96899414062 1010.1259765625 1003.06915283203 1017.48266601562 1022.83428955078 1022.28295898438 1018.38488769531 1020.22247314453 1025.46655273438 1025.58959960938 1025.22619628906 1028.03234863281 1027.29077148438 1018.8623046875 1017.21545410156 1029.5703125 1051.14147949219 1065.15576171875 1072.7998046875 1072.62915039062 1091.24108886719 1108.07971191406 1115.48107910156 1125.23876953125 1130.72326660156 1137.73413085938 1142.06481933594 1140.15783691406
956.646728515625 966.888061523438 973.018127441406 973.293762207031 969.687133789062 969.984252929688 968.761901855469 975.324157714844 972.733276367188 970.234680175781 974.536804199219 976.931701660156 975.43505859375 973.680053710938 980.004821777344 976.514465332031 971.4140625 973.151489257812 981.925842285156 982.035522460938 977.909057617188 979.59033203125 975.209716796875 979.101257324219 978.236511230469 982.8125 983.265747070312 976.163635253906 972.400329589844 978.462951660156 976.438659667969 983.045288085938 985.039978027344 986.244262695312 984.956848144531 985.250183105469 989.301086425781 990.012512207031 976.90478515625 985.021545410156 974.036437988281 977.860534667969 977.116271972656 986.4365234375 987.027282714844 983.858215332031 987.589538574219 980.981323242188 973.80517578125 980.552551269531 975.139343261719 973.581787109375 978.359497070312 985.210510253906 981.443359375 980.598510742188 979.418518066406 985.725036621094 980.452880859375 978.128845214844 980.851623535156 985.479675292969 980.934814453125 976.539245605469 991.744079589844 994.127563476562 985.057434082031 987.744873046875 988.773315429688 996.972534179688 994.402282714844 992.631042480469 992.662841796875 982.348449707031 979.7802734375 988.941101074219 988.050598144531 985.044311523438 980.120788574219 985.009582519531 995.053955078125 999.907470703125 998.025451660156 1001.43682861328 1001.95544433594 1000.22705078125 998.555419921875 1007.86395263672 1012.17547607422 1001.72613525391 1022.22686767578 1028.99084472656 1016.171875 1017.77044677734 1014.42858886719 1006.29821777344 1003.05004882812 1011.11761474609 1009.08660888672 1006.58117675781 1000.07604980469 995.235290527344 1000.28265380859 995.851745605469 998.221069335938 993.479309082031 987.860473632812 996.969848632812 1000.82287597656 993.515686035156 978.8427734375 979.966674804688 977.126770019531 969.000549316406 963.30322265625 959.444152832031 965.948486328125 980.256652832031 990.610046386719 999.365600585938 1003.97186279297 1002.36859130859 1000.82019042969 1008.49035644531 1004.62951660156 1018.72271728516 1029.36364746094 1023.83404541016 1018.77514648438 1010.93493652344 1012.61273193359 1013.72991943359 1019.14385986328 1025.1240234375 1018.33404541016 1018.26898193359 1017.39074707031 1033.474609375 1047.09924316406 1056.1240234375 1060.61193847656 1079.28955078125 1088.28442382812 1107.41149902344 1117.44372558594 1131.28234863281 1131.79919433594 1142.25817871094 1135.525390625 1139.54113769531
956.458984375 961.391296386719 963.418212890625 969.762084960938 968.480773925781 966.833251953125 972.165954589844 972.226928710938 970.045776367188 975.568542480469 974.547058105469 970.94287109375 969.787414550781 980.329650878906 982.564147949219 973.663940429688 962.547790527344 962.076232910156 975.8330078125 972.749389648438 977.907653808594 980.446411132812 978.711791992188 977.8095703125 980.114990234375 985.455261230469 989.2490234375 978.947265625 975.551452636719 973.960571289062 982.111999511719 989.632873535156 994.202331542969 996.096069335938 989.637023925781 979.351501464844 988.707580566406 982.140014648438 983.727661132812 981.954284667969 974.268310546875 985.963134765625 984.610778808594 985.450500488281 993.358154296875 978.211120605469 982.584106445312 982.028015136719 982.980224609375 983.990417480469 971.194030761719 967.6396484375 973.875610351562 971.102478027344 975.304931640625 982.017822265625 987.208801269531 981.208618164062 986.567199707031 977.187072753906 972.844360351562 972.463073730469 981.054321289062 982.859558105469 991.380798339844 994.86279296875 977.4033203125 976.715759277344 984.916748046875 989.165954589844 993.840454101562 990.904479980469 984.472717285156 976.70751953125 971.682373046875 980.762512207031 974.720520019531 976.035888671875 978.344604492188 992.685180664062 995.117370605469 996.336059570312 996.066711425781 1005.67236328125 1005.81939697266 1004.77014160156 1000.73022460938 1002.55560302734 1014.18707275391 1002.60314941406 1017.71142578125 1016.90380859375 1007.20825195312 1009.18133544922 1007.40863037109 1007.31640625 1006.77258300781 1010.59338378906 1011.62115478516 1007.60028076172 998.153686523438 988.9287109375 991.416748046875 995.475891113281 1000.12268066406 991.383483886719 995.486145019531 1004.15441894531 997.685546875 991.079833984375 990.802062988281 989.434387207031 978.928100585938 967.146850585938 970.848327636719 964.38720703125 970.870910644531 975.868103027344 982.031127929688 994.70458984375 999.915466308594 1005.38177490234 1003.90698242188 1006.57836914062 1017.49102783203 1019.74548339844 1023.22198486328 1013.85778808594 1009.78363037109 999.920715332031 1007.15875244141 1013.10949707031 1011.59729003906 1013.54919433594 1017.06579589844 1015.2724609375 1010.65808105469 1028.81750488281 1036.02075195312 1047.1650390625 1053.53344726562 1075.24096679688 1084.0009765625 1101.03430175781 1121.54992675781 1117.92932128906 1131.73132324219 1136.15673828125 1134.26501464844 1143.54040527344
952.050720214844 954.201171875 961.081909179688 960.935852050781 964.526428222656 966.957824707031 960.435546875 968.839416503906 970.214660644531 969.189331054688 974.7646484375 973.208251953125 977.48193359375 981.273315429688 987.342590332031 973.505859375 971.673400878906 971.884826660156 987.610534667969 980.745178222656 987.422973632812 981.705200195312 969.643310546875 968.41748046875 976.505554199219 978.157775878906 982.989013671875 977.890991210938 976.854064941406 971.294555664062 983.591979980469 999.40625 996.645690917969 991.595703125 993.356872558594 991.295166015625 993.442260742188 988.661865234375 979.389770507812 975.287475585938 980.067199707031 983.171264648438 983.607604980469 990.928771972656 998.136291503906 977.779846191406 979.412353515625 982.149475097656 980.141418457031 975.463684082031 973.433288574219 968.430847167969 972.073120117188 968.931701660156 974.197692871094 982.376098632812 981.604675292969 985.36376953125 987.174194335938 979.426452636719 973.418640136719 971.587341308594 973.385070800781 981.602661132812 986.407104492188 982.047790527344 981.281372070312 979.015075683594 976.512268066406 987.489074707031 982.620239257812 975.468566894531 980.093078613281 977.817504882812 975.749267578125 978.798889160156 980.82470703125 979.53125 986.659973144531 993.889221191406 998.749267578125 996.729919433594 997.977600097656 998.225402832031 1006.80499267578 1010.69134521484 1000.30230712891 995.076232910156 1008.51025390625 1010.51245117188 1016.22180175781 1009.59912109375 1003.70562744141 1010.59320068359 1003.76348876953 1010.61529541016 1003.79437255859 1004.60858154297 998.778686523438 1000.30102539062 999.370056152344 993.108825683594 988.28955078125 983.578063964844 983.311584472656 984.825134277344 983.620239257812 988.333923339844 992.733154296875 993.857055664062 996.466613769531 995.246032714844 991.09521484375 976.5126953125 973.687255859375 981.003479003906 982.614318847656 982.705139160156 991.292297363281 1003.52374267578 1001.40112304688 1011.16058349609 999.682434082031 1002.50988769531 1012.41442871094 1020.28668212891 1020.21948242188 1016.69915771484 1013.70013427734 1009.06939697266 1003.94360351562 999.472717285156 1007.03997802734 1013.28601074219 1017.52819824219 1011.50122070312 1023.77722167969 1036.91918945312 1035.99035644531 1042.68725585938 1062.41870117188 1074.79370117188 1094.10021972656 1104.1875 1119.06811523438 1121.19592285156 1136.4580078125 1141.51635742188 1137.8515625 1137.85668945312
956.857788085938 953.187927246094 956.016052246094 968.81103515625 962.598510742188 965.614318847656 964.877563476562 968.714965820312 970.932556152344 973.324584960938 968.18701171875 976.411437988281 971.511840820312 976.197143554688 979.811096191406 979.314880371094 979.051330566406 977.928100585938 984.859558105469 984.362731933594 976.890380859375 978.381896972656 970.955505371094 966.77294921875 971.959899902344 976.116943359375 979.997497558594 974.795837402344 968.808044433594 973.729919433594 976.573303222656 985.930053710938 995.76318359375 990.1123046875 988.015686035156 982.999694824219 985.971984863281 982.348815917969 978.187622070312 974.848571777344 976.378295898438 980.768676757812 975.237976074219 977.461303710938 977.21435546875 970.722717285156 979.371032714844 973.851440429688 972.594665527344 973.757080078125 973.486145019531 976.457153320312 974.729064941406 964.168579101562 976.315307617188 970.023986816406 980.855041503906 979.940734863281 981.965515136719 971.424987792969 974.1513671875 967.781616210938 976.383911132812 987.444396972656 985.335021972656 973.138427734375 976.030029296875 978.369995117188 978.387329101562 980.252624511719 972.453308105469 985.288696289062 980.714538574219 981.226196289062 976.5185546875 974.968383789062 976.320495605469 975.341125488281 979.633178710938 998.967102050781 1003.91571044922 1008.888671875 997.258850097656 997.374389648438 1012.69635009766 1018.11444091797 1002.65301513672 991.15771484375 1006.68096923828 1013.28192138672 1011.85070800781 1003.38031005859 1005.677734375 1007.31127929688 999.192810058594 1000.20251464844 1004.80548095703 998.092163085938 993.985778808594 996.181823730469 1003.10296630859 995.981994628906 984.768737792969 986.655395507812 996.082153320312 982.80517578125 987.061645507812 986.21875 996.123352050781 1000.84753417969 1004.54852294922 1000.70050048828 996.012023925781 993.783508300781 988.68115234375 991.292419433594 992.309387207031 987.578247070312 991.961669921875 999.065673828125 1010.11376953125 1010.02911376953 1007.12817382812 1004.92901611328 1002.27825927734 1014.21368408203 1011.91015625 1005.2763671875 1013.9638671875 1009.66961669922 1004.37237548828 1011.13854980469 1010.61077880859 1016.22662353516 1015.74713134766 1017.54565429688 1030.28747558594 1036.59240722656 1044.10620117188 1057.09777832031 1073.13903808594 1082.61999511719 1096.30029296875 1106.53869628906 1131.24963378906 1131.61694335938 1130.17749023438 1135.29406738281 1137.20336914062 1136.9541015625
965.319458007812 963.721862792969 963.016723632812 969.351257324219 967.482055664062 964.549926757812 968.931030273438 966.496765136719 964.311828613281 965.77978515625 968.21337890625 967.504577636719 970.300720214844 968.319458007812 975.296875 968.400085449219 974.180297851562 981.386962890625 983.920471191406 984.844421386719 987.233825683594 983.732971191406 973.047058105469 972.927062988281 975.343811035156 985.254638671875 981.378479003906 971.210876464844 970.056030273438 978.125915527344 978.531127929688 979.950622558594 987.708740234375 986.424682617188 984.055786132812 984.94091796875 987.754821777344 976.211730957031 971.551025390625 974.140014648438 968.7958984375 972.147094726562 978.757995605469 975.660339355469 966.377380371094 966.147644042969 966.798828125 971.689331054688 972.42578125 975.292419433594 973.632507324219 983.549682617188 979.501342773438 973.222717285156 973.644592285156 969.407104492188 965.658447265625 974.893676757812 976.154296875 974.057678222656 968.253479003906 969.652648925781 981.967712402344 982.016174316406 977.740417480469 969.760070800781 975.554504394531 976.230407714844 981.584411621094 973.260681152344 973.937072753906 976.756225585938 979.778259277344 980.096496582031 981.558715820312 972.7939453125 972.987365722656 975.314331054688 984.322998046875 994.205017089844 1000.69696044922 1007.06231689453 997.085693359375 1002.57775878906 1008.42468261719 1006.09124755859 992.855651855469 999.169860839844 1005.82659912109 1016.87432861328 1012.83703613281 1011.19232177734 1002.51007080078 997.604675292969 991.750244140625 1001.96282958984 994.799255371094 997.591369628906 996.555786132812 995.461486816406 989.300048828125 992.549743652344 992.405883789062 987.621520996094 993.32470703125 988.484130859375 985.093322753906 989.046630859375 988.598022460938 991.54443359375 997.080627441406 993.945373535156 1001.43450927734 1004.45587158203 992.706665039062 989.923400878906 990.055114746094 984.001831054688 999.430480957031 999.878112792969 998.078979492188 1003.26690673828 1004.66625976562 1004.04461669922 1003.18414306641 1006.30194091797 1008.31018066406 1010.78088378906 1011.70727539062 1013.44818115234 1018.75103759766 1017.8291015625 1008.44244384766 1021.44244384766 1027.00451660156 1032.59252929688 1037.63000488281 1051.16674804688 1065.220703125 1070.50109863281 1085.24011230469 1091.33911132812 1099.27563476562 1112.5185546875 1130.46752929688 1135.14318847656 1133.48986816406 1135.21008300781 1135.99548339844 1138.31481933594
957.280639648438 969.798950195312 960.1494140625 973.486511230469 969.225891113281 974.405639648438 977.243286132812 971.829345703125 966.088500976562 956.22412109375 960.798583984375 965.856994628906 972.861145019531 967.939636230469 968.557250976562 971.324279785156 964.029968261719 978.93310546875 975.291259765625 977.299377441406 986.3525390625 978.164489746094 973.036804199219 979.015930175781 979.506408691406 980.843139648438 975.9609375 973.401733398438 974.253723144531 971.443420410156 987.583740234375 988.66845703125 979.274719238281 971.742736816406 981.515563964844 981.117492675781 982.971130371094 978.234436035156 973.668273925781 976.868774414062 971.607482910156 973.706787109375 975.045349121094 972.296325683594 966.447570800781 967.588134765625 966.079772949219 970.700256347656 971.965209960938 979.079284667969 972.506286621094 984.907348632812 980.468627929688 976.767639160156 968.767395019531 975.137634277344 968.588317871094 965.958801269531 976.823974609375 966.6240234375 961.550537109375 965.455261230469 970.93896484375 971.727294921875 971.458618164062 972.77978515625 973.86474609375 982.550231933594 979.606994628906 971.845886230469 966.050231933594 972.613342285156 976.843933105469 981.066772460938 975.770141601562 978.176879882812 984.850463867188 984.63525390625 994.301025390625 986.741943359375 996.172119140625 999.976257324219 994.138061523438 997.171936035156 996.826354980469 999.069274902344 990.087951660156 1000.36883544922 1003.05017089844 999.180603027344 1007.82238769531 1006.50421142578 1000.09936523438 993.466735839844 983.530090332031 983.174194335938 986.340026855469 993.554870605469 997.7265625 987.167602539062 996.87109375 993.445983886719 993.770629882812 994.348754882812 995.308532714844 991.350341796875 981.921997070312 982.997985839844 983.758422851562 993.822937011719 995.562622070312 994.600891113281 998.84521484375 999.042175292969 999.114379882812 992.982543945312 994.734313964844 987.993896484375 997.227905273438 996.155395507812 1002.03778076172 1005.16125488281 1001.84735107422 998.716674804688 1005.07080078125 1001.04272460938 1006.34808349609 1012.75134277344 1010.73229980469 1007.56964111328 1015.63201904297 1016.02038574219 1017.86614990234 1032.94677734375 1035.5068359375 1037.56481933594 1040.515625 1047.02416992188 1059.56188964844 1082.22863769531 1090.80773925781 1094.96875 1103.31530761719 1117.03173828125 1138.78930664062 1136.97583007812 1132.26293945312 1134.24084472656 1132.7509765625 1139.787109375
948.485595703125 962.160217285156 958.126586914062 966.332824707031 965.017944335938 972.100524902344 975.9931640625 976.231201171875 968.976013183594 961.309753417969 961.488830566406 969.666198730469 977.965576171875 971.012390136719 972.507507324219 969.9248046875 966.383483886719 977.759704589844 975.121520996094 974.646057128906 979.138854980469 968.290893554688 972.89892578125 981.149353027344 980.145141601562 982.926513671875 976.749206542969 973.609985351562 973.589599609375 978.354797363281 978.500427246094 974.228759765625 970.637512207031 973.694702148438 981.301452636719 987.641662597656 983.012939453125 985.77587890625 980.976196289062 974.004821777344 974.791137695312 970.154235839844 971.259155273438 967.575988769531 973.868957519531 979.432495117188 971.025268554688 967.953125 975.751953125 974.843200683594 978.711364746094 975.49853515625 978.487548828125 977.798583984375 974.692626953125 970.408447265625 959.120239257812 964.512084960938 962.581787109375 956.792602539062 963.017639160156 969.266845703125 980.516967773438 971.224487304688 966.660278320312 972.812438964844 983.399230957031 990.790771484375 984.830383300781 969.450866699219 965.079833984375 967.991027832031 965.832641601562 974.397888183594 968.051696777344 981.473022460938 986.656616210938 987.879333496094 990.500793457031 983.927001953125 993.049926757812 990.078247070312 990.365173339844 994.041687011719 991.538696289062 991.857849121094 985.91748046875 990.036437988281 992.834655761719 998.234008789062 1000.87945556641 993.577026367188 997.175598144531 992.026489257812 987.222717285156 991.290954589844 988.449890136719 993.566833496094 993.720703125 983.713012695312 996.443481445312 995.535583496094 996.023803710938 1000.72283935547 1003.23278808594 987.341796875 984.929321289062 984.947937011719 970.123901367188 982.49609375 1000.5869140625 997.482788085938 997.495422363281 998.316040039062 995.348083496094 995.639099121094 987.502563476562 994.5732421875 1004.73937988281 996.293090820312 996.633483886719 1003.83215332031 1000.72448730469 992.424011230469 994.894104003906 993.590209960938 1007.46844482422 1013.17858886719 1008.28552246094 1020.04217529297 1017.08972167969 1025.66003417969 1028.75048828125 1034.96887207031 1043.53063964844 1045.1845703125 1048.75952148438 1060.82861328125 1066.19384765625 1081.51940917969 1086.53576660156 1101.91748046875 1104.82153320312 1126.24353027344 1130.99304199219 1135.01428222656 1141.59106445312 1139.86242675781 1137.22766113281 1138.12463378906
946.254821777344 951.265014648438 954.211791992188 951.300659179688 962.490356445312 967.586791992188 972.432250976562 974.042236328125 970.573425292969 961.554565429688 958.72705078125 967.829345703125 977.346069335938 970.604187011719 974.134521484375 978.233764648438 978.164123535156 980.144958496094 968.672912597656 968.617980957031 976.566223144531 969.941467285156 965.625793457031 961.311950683594 970.078125 968.592407226562 979.64794921875 977.726806640625 981.888549804688 979.750244140625 982.154357910156 983.244384765625 975.656799316406 974.891357421875 973.934631347656 977.047180175781 994.971618652344 987.523010253906 979.636657714844 978.172180175781 982.8486328125 967.586303710938 968.462951660156 973.515258789062 977.465454101562 976.099792480469 982.421630859375 967.018188476562 978.627624511719 977.105407714844 975.831787109375 979.419982910156 981.591003417969 979.884521484375 974.262573242188 972.194885253906 971.627807617188 967.168762207031 969.754943847656 973.944946289062 970.368896484375 973.536682128906 969.382690429688 973.390319824219 969.852905273438 978.005859375 983.540100097656 994.720947265625 988.369995117188 979.502319335938 962.764526367188 963.994873046875 971.271362304688 968.842163085938 965.866821289062 972.375366210938 985.100524902344 988.161193847656 984.223388671875 979.072021484375 988.384582519531 990.242492675781 990.8056640625 994.268737792969 989.588684082031 989.87109375 985.100219726562 984.745361328125 998.427185058594 997.129333496094 996.0029296875 992.878479003906 985.007507324219 990.204772949219 1000.38214111328 994.687622070312 983.81689453125 991.61572265625 997.372375488281 986.40283203125 991.8857421875 997.006591796875 1002.04449462891 1008.17236328125 998.175048828125 986.7021484375 983.232482910156 979.702331542969 980.313598632812 985.473876953125 994.97900390625 999.84765625 994.906127929688 997.201599121094 998.843933105469 1001.13244628906 995.34765625 983.621948242188 993.862426757812 1003.22839355469 998.161499023438 993.489929199219 992.594360351562 996.19921875 995.774597167969 998.03466796875 1001.61968994141 1016.35119628906 1015.00811767578 1020.73699951172 1026.18469238281 1026.47790527344 1034.21691894531 1031.00170898438 1038.65942382812 1045.45861816406 1050.423828125 1071.77514648438 1068.62121582031 1082.61877441406 1093.6015625 1107.83190917969 1121.080078125 1134.29223632812 1140.0478515625 1146.32336425781 1141.43347167969 1146.41552734375 1146.94140625 1162.59716796875
943.780212402344 954.490234375 948.630981445312 947.070129394531 961.998413085938 965.09326171875 968.392028808594 965.296020507812 972.372497558594 963.102233886719 971.513916015625 974.565612792969 973.498413085938 975.235900878906 974.036987304688 972.647338867188 982.695190429688 980.12548828125 963.312683105469 969.042297363281 972.28076171875 972.641479492188 971.399169921875 972.191467285156 971.178588867188 972.66357421875 971.227416992188 978.386901855469 977.26123046875 975.33203125 973.060974121094 979.281433105469 972.109802246094 985.038940429688 982.064086914062 982.087585449219 984.686279296875 979.756652832031 978.720764160156 975.813232421875 973.914367675781 970.908386230469 968.276428222656 965.157531738281 972.828796386719 977.406982421875 970.22412109375 964.726623535156 967.109985351562 976.413024902344 974.150085449219 977.932922363281 983.337890625 971.762512207031 969.129150390625 970.655700683594 974.891052246094 977.905029296875 974.51025390625 975.335632324219 978.153137207031 975.225158691406 973.410217285156 975.05078125 975.117736816406 982.649597167969 985.457214355469 992.727600097656 988.105224609375 972.577209472656 962.311096191406 959.0322265625 974.311645507812 971.703491210938 967.014282226562 972.685974121094 979.517944335938 976.601440429688 969.50048828125 968.270812988281 983.072509765625 984.296936035156 986.486145019531 987.994567871094 990.265930175781 984.572082519531 991.169250488281 991.981201171875 989.636047363281 996.329040527344 990.702270507812 994.683654785156 990.557189941406 992.579040527344 994.9267578125 992.873840332031 987.851501464844 988.074279785156 992.472534179688 991.746154785156 992.677368164062 993.523132324219 995.107604980469 991.188659667969 987.930480957031 986.675170898438 988.121215820312 984.380126953125 988.796020507812 986.245910644531 988.305908203125 994.123596191406 991.967712402344 996.999450683594 994.530517578125 995.904296875 998.425415039062 984.695007324219 992.063171386719 990.424743652344 992.133422851562 989.709594726562 997.381774902344 995.207153320312 1001.08404541016 1009.38946533203 1008.37835693359 1023.96850585938 1026.64685058594 1035.79406738281 1034.89660644531 1036.94970703125 1043.07543945312 1035.396484375 1045.40185546875 1054.34033203125 1056.40576171875 1070.24377441406 1072.59875488281 1086.30236816406 1104.52111816406 1117.12951660156 1126.80505371094 1141.65539550781 1144.83996582031 1159.69006347656 1161.57678222656 1153.3603515625 1157.30236816406 1159.693359375
944.784912109375 944.823608398438 951.682250976562 955.357177734375 953.6982421875 951.677917480469 968.947509765625 960.809265136719 960.097961425781 974.152099609375 978.731201171875 970.023864746094 977.570739746094 974.180847167969 978.828247070312 975.5234375 970.272644042969 979.238098144531 980.984130859375 974.361022949219 966.767700195312 968.070129394531 975.295288085938 972.589050292969 973.527587890625 965.550720214844 965.171875 977.415283203125 977.096801757812 970.179870605469 974.628479003906 976.854553222656 980.213989257812 980.962829589844 978.876892089844 979.42578125 976.60986328125 979.306091308594 976.961791992188 983.235900878906 971.682434082031 976.053527832031 969.705749511719 966.942993164062 959.913208007812 973.956420898438 976.065673828125 967.106506347656 967.475769042969 969.85498046875 973.174133300781 980.454162597656 974.417846679688 977.576477050781 970.731628417969 964.704956054688 971.596496582031 986.67236328125 977.059936523438 970.982421875 973.093444824219 975.865356445312 969.639099121094 972.659545898438 983.751831054688 977.127868652344 980.263793945312 980.199157714844 965.474487304688 970.294982910156 964.18896484375 960.483032226562 970.833312988281 967.501403808594 972.550170898438 969.637023925781 974.522277832031 973.557312011719 969.700805664062 964.000610351562 971.631713867188 982.661682128906 989.592956542969 994.13037109375 986.54296875 989.595886230469 987.529541015625 985.336975097656 981.847839355469 984.791442871094 985.651611328125 985.789306640625 989.413452148438 988.92626953125 991.956115722656 986.68115234375 987.192138671875 983.556030273438 990.276489257812 992.179504394531 994.684265136719 988.250183105469 991.737731933594 982.160705566406 986.517639160156 979.708923339844 978.340270996094 984.765258789062 982.889831542969 989.853759765625 994.502807617188 982.246765136719 988.107055664062 993.123168945312 995.189819335938 993.438354492188 984.488891601562 991.552490234375 990.266479492188 988.65380859375 994.606567382812 993.447692871094 993.224975585938 1009.14642333984 1020.57409667969 1015.14727783203 1019.41168212891 1032.9736328125 1028.40307617188 1038.25659179688 1036.51831054688 1033.59912109375 1035.78210449219 1042.85498046875 1051.79809570312 1064.49658203125 1057.53332519531 1067.38684082031 1078.27502441406 1087.94982910156 1098.39013671875 1113.40441894531 1128.29150390625 1140.85144042969 1153.82202148438 1164.71984863281 1157.10827636719 1162.111328125 1170.9951171875 1172.81884765625
939.863037109375 945.639099121094 956.3671875 952.0029296875 954.168884277344 953.84814453125 957.036865234375 960.126525878906 960.426818847656 971.259826660156 968.155456542969 976.077026367188 979.034790039062 978.952331542969 971.636779785156 975.127258300781 964.442138671875 969.906433105469 971.713989257812 970.713562011719 973.677978515625 967.806762695312 969.526428222656 969.721801757812 963.565246582031 965.702087402344 972.7216796875 982.530334472656 985.704711914062 983.788818359375 981.432495117188 981.764404296875 981.387268066406 973.861328125 965.316711425781 975.140869140625 978.318786621094 982.792846679688 975.074401855469 980.549438476562 975.096374511719 972.258850097656 963.398559570312 970.613586425781 964.929260253906 970.4677734375 978.445007324219 969.100524902344 964.288818359375 963.338256835938 975.521667480469 976.576293945312 972.527404785156 969.597839355469 971.044311523438 968.698608398438 971.520080566406 988.073669433594 978.452392578125 977.129821777344 975.372192382812 972.747253417969 976.722900390625 985.533142089844 984.069091796875 971.487976074219 976.253540039062 969.939880371094 963.639404296875 964.860229492188 962.479797363281 966.413330078125 968.722045898438 970.218200683594 962.189453125 961.840087890625 966.944213867188 974.646667480469 978.126403808594 975.192565917969 975.911376953125 983.955871582031 983.934997558594 995.06884765625 985.659118652344 987.33203125 983.1640625 980.302917480469 982.752807617188 982.110107421875 978.914428710938 980.28857421875 986.448364257812 984.482788085938 987.376342773438 990.803161621094 981.721069335938 985.744140625 982.757507324219 987.612487792969 994.648803710938 984.899780273438 980.476013183594 987.80078125 979.135925292969 983.758361816406 983.431396484375 983.659423828125 982.778930664062 990.084838867188 984.526123046875 992.742248535156 990.311401367188 989.913330078125 990.79736328125 997.594604492188 993.436645507812 993.368408203125 994.493957519531 1000.60113525391 1003.34875488281 999.174926757812 1005.51043701172 1008.37036132812 1014.34490966797 1010.06164550781 1020.40582275391 1032.763671875 1039.9189453125 1040.61987304688 1043.15478515625 1043.96264648438 1046.72314453125 1055.45837402344 1067.81762695312 1073.56665039062 1085.26318359375 1085.12805175781 1093.86486816406 1101.03515625 1112.22106933594 1120.0185546875 1134.73413085938 1142.41882324219 1165.55627441406 1164.45190429688 1157.36779785156 1165.1376953125 1175.02978515625 1172.0302734375
938.765380859375 935.00048828125 950.297546386719 953.115966796875 952.990966796875 958.00830078125 957.618591308594 968.447509765625 962.543334960938 966.214782714844 969.575500488281 966.33056640625 971.884521484375 973.968505859375 966.781616210938 976.020690917969 970.092590332031 972.732604980469 979.62841796875 977.556457519531 980.239868164062 971.398803710938 965.839904785156 965.368835449219 964.185180664062 966.510559082031 971.801025390625 983.335388183594 992.726745605469 996.211364746094 985.229858398438 976.699768066406 978.842895507812 965.127807617188 964.590881347656 975.718444824219 972.012145996094 982.538391113281 988.523498535156 974.301879882812 977.767700195312 965.822692871094 971.409484863281 977.106689453125 969.889343261719 972.651306152344 970.799133300781 961.195434570312 961.878173828125 962.801879882812 965.424133300781 972.477722167969 969.637512207031 978.976989746094 975.724609375 973.9619140625 974.956726074219 981.5263671875 982.791809082031 973.411987304688 981.777160644531 977.196716308594 977.136962890625 978.672180175781 985.176940917969 976.826416015625 971.820495605469 971.266296386719 961.264282226562 966.731994628906 963.029724121094 974.830932617188 965.93310546875 960.426147460938 966.488525390625 968.097229003906 968.214721679688 964.824096679688 968.728576660156 973.389526367188 968.449951171875 971.161193847656 977.332641601562 977.589172363281 980.72509765625 979.235473632812 977.198974609375 978.142639160156 982.290466308594 976.194702148438 972.822509765625 979.582824707031 982.329223632812 983.465942382812 985.531066894531 982.664733886719 975.712768554688 971.361267089844 976.582702636719 976.126708984375 984.156677246094 977.729125976562 971.260314941406 979.84765625 983.175842285156 982.47705078125 977.693725585938 985.818054199219 981.750427246094 990.561645507812 987.226623535156 983.739501953125 993.900695800781 993.976745605469 992.460327148438 991.470764160156 995.740051269531 992.511474609375 996.49951171875 999.978759765625 1005.31024169922 1008.79455566406 1003.73187255859 1007.45837402344 1008.70977783203 1011.57891845703 1026.90197753906 1038.21362304688 1047.80810546875 1045.77026367188 1050.76257324219 1056.9228515625 1062.69787597656 1066.07751464844 1088.61828613281 1095.02868652344 1095.95727539062 1093.86462402344 1099.83764648438 1103.3193359375 1117.23364257812 1126.70666503906 1142.52673339844 1143.89172363281 1147.73388671875 1154.07678222656 1156.52221679688 1165.39794921875 1172.51196289062 1169.14733886719
935.392150878906 940.502197265625 946.634521484375 951.708251953125 945.784484863281 961.652404785156 961.893920898438 966.528625488281 962.923400878906 970.099243164062 961.093505859375 961.203186035156 962.964233398438 964.243103027344 972.924133300781 972.906433105469 974.896240234375 980.126098632812 974.404052734375 972.853698730469 974.851501464844 983.827209472656 970.762512207031 964.640075683594 970.473205566406 966.001037597656 969.768005371094 984.068359375 985.119384765625 992.309204101562 981.747680664062 977.871765136719 977.159057617188 974.763854980469 966.393371582031 968.746032714844 973.708923339844 977.390197753906 972.895385742188 976.769836425781 980.884704589844 969.44677734375 964.624816894531 972.067687988281 974.751281738281 969.497924804688 960.677978515625 958.35302734375 966.797912597656 970.77001953125 974.601318359375 969.918212890625 976.893981933594 970.286560058594 976.470092773438 980.363342285156 978.0322265625 977.866577148438 982.346801757812 980.624633789062 983.161865234375 977.516174316406 979.941284179688 978.853515625 976.910095214844 976.557861328125 973.6806640625 960.978759765625 957.03564453125 969.437622070312 969.57470703125 973.296264648438 964.921325683594 964.305236816406 959.651123046875 970.933776855469 975.462829589844 974.408203125 968.620483398438 970.12939453125 971.803039550781 967.550842285156 975.741516113281 973.178833007812 971.931335449219 972.1923828125 968.515563964844 979.918701171875 978.137084960938 981.305419921875 977.956665039062 979.206237792969 986.080017089844 984.065734863281 974.221801757812 976.235046386719 976.95263671875 967.172546386719 972.777526855469 978.662048339844 979.156372070312 974.334899902344 974.698059082031 977.11962890625 980.145446777344 986.335693359375 994.472045898438 986.543884277344 983.743835449219 989.189514160156 998.010498046875 990.477600097656 998.48486328125 997.778259277344 991.445007324219 994.685363769531 995.47314453125 1005.25903320312 999.939636230469 1003.22131347656 1006.77526855469 1011.05035400391 1008.22216796875 1009.95703125 1014.35913085938 1017.85339355469 1024.36071777344 1036.04028320312 1044.11987304688 1046.01086425781 1046.42932128906 1063.59765625 1069.82482910156 1085.09094238281 1091.00280761719 1094.55041503906 1101.12329101562 1103.74633789062 1107.68835449219 1107.0654296875 1118.75793457031 1121.4697265625 1141.982421875 1146.77099609375 1152.16149902344 1152.24743652344 1159.26171875 1171.64526367188 1167.64038085938 1170.17456054688
941.975769042969 946.091735839844 941.895935058594 947.511169433594 953.337097167969 961.634826660156 954.797180175781 963.829040527344 963.795349121094 965.934997558594 958.441650390625 956.87939453125 959.916015625 961.209228515625 973.767761230469 971.449890136719 978.015075683594 977.772033691406 976.658996582031 971.744262695312 966.792297363281 969.362121582031 968.207397460938 966.506103515625 963.199584960938 970.212219238281 964.102172851562 980.974670410156 988.407958984375 988.01220703125 979.232971191406 976.224975585938 974.7939453125 968.547790527344 972.215942382812 966.534851074219 966.891296386719 970.688049316406 965.902526855469 980.356567382812 973.551696777344 967.029724121094 962.196105957031 965.449829101562 960.879211425781 960.058227539062 956.774230957031 959.6201171875 963.040344238281 966.789245605469 968.217651367188 967.304382324219 970.910461425781 963.142761230469 967.022827148438 973.366455078125 971.981262207031 971.687377929688 974.849731445312 974.213684082031 971.146057128906 975.884765625 967.626892089844 970.736145019531 973.171569824219 973.279602050781 971.853271484375 956.730102539062 951.500183105469 959.481506347656 969.262451171875 969.17626953125 965.265808105469 965.100280761719 967.01708984375 967.530395507812 974.338317871094 973.025085449219 968.111755371094 969.436218261719 968.773620605469 972.540954589844 971.770202636719 970.315185546875 964.709350585938 972.496276855469 976.725708007812 975.77392578125 974.846130371094 977.282165527344 977.794372558594 984.775085449219 990.847961425781 982.060180664062 977.264343261719 971.168518066406 969.268249511719 967.960693359375 971.4931640625 981.130554199219 975.263610839844 978.610229492188 976.388916015625 988.730041503906 983.276245117188 994.643920898438 987.687316894531 989.436218261719 987.475341796875 995.218872070312 999.591430664062 1004.17749023438 1003.00042724609 1001.46881103516 991.475769042969 1005.81781005859 1007.0361328125 1005.26068115234 1007.47106933594 1006.57598876953 1009.43292236328 1013.2626953125 1014.44976806641 1009.04571533203 1012.12365722656 1013.25714111328 1017.51623535156 1035.27172851562 1045.16796875 1056.91882324219 1057.45544433594 1071.45300292969 1075.06457519531 1089.71459960938 1099.53149414062 1095.40124511719 1097.49621582031 1106.17749023438 1107.63049316406 1104.46594238281 1112.99401855469 1118.427734375 1133.39965820312 1138.0380859375 1144.85998535156 1152.34204101562 1151.96838378906 1154.85461425781 1162.80078125 1156.28002929688
945.821655273438 945.900573730469 948.683471679688 951.105773925781 952.206298828125 964.166687011719 962.174560546875 962.796875 961.848510742188 963.903503417969 959.812561035156 961.465209960938 964.917785644531 964.824401855469 979.2041015625 970.626281738281 981.307800292969 970.331359863281 976.553161621094 973.53125 971.181884765625 965.739929199219 960.95849609375 965.7294921875 964.138366699219 965.871948242188 972.220458984375 975.007141113281 980.206909179688 978.588684082031 985.299621582031 978.865661621094 975.340881347656 967.418090820312 958.941162109375 965.590270996094 957.3203125 964.897399902344 965.897399902344 970.291809082031 973.204711914062 970.09228515625 960.821105957031 958.093627929688 955.92529296875 958.873718261719 958.930053710938 956.055786132812 963.453308105469 964.05859375 964.419494628906 968.34326171875 966.45751953125 969.380554199219 967.093933105469 965.245239257812 960.149597167969 970.411315917969 968.667419433594 965.605407714844 970.689086914062 963.805114746094 967.875610351562 973.301635742188 967.60546875 968.84912109375 953.955749511719 955.635620117188 960.123413085938 961.159240722656 964.1103515625 964.396484375 969.830688476562 969.453430175781 969.138427734375 970.478393554688 973.018920898438 971.302185058594 963.963500976562 958.983703613281 966.040771484375 970.187316894531 969.558715820312 970.487731933594 967.748168945312 968.15869140625 968.50634765625 974.694458007812 972.132507324219 975.33154296875 971.058044433594 981.411071777344 975.776794433594 983.156677246094 978.495666503906 976.572814941406 969.072326660156 967.1806640625 979.280517578125 981.2490234375 978.919128417969 982.452453613281 990.04296875 996.914001464844 994.483337402344 986.672485351562 992.535034179688 995.440856933594 1000.56652832031 996.235656738281 999.980651855469 998.085754394531 1006.02276611328 1003.02526855469 1004.88787841797 1002.5576171875 1014.30236816406 1010.25842285156 1014.72546386719 1009.54571533203 1009.59735107422 1011.61572265625 1004.48175048828 1008.54913330078 1015.79248046875 1013.91650390625 1019.85681152344 1040.22790527344 1047.46301269531 1060.85290527344 1063.14624023438 1080.18811035156 1077.02807617188 1084.44909667969 1087.76049804688 1101.85717773438 1097.68444824219 1107.20617675781 1103.02185058594 1109.35778808594 1110.15002441406 1122.6591796875 1127.65161132812 1141.85473632812 1140.23181152344 1148.82629394531 1150.70397949219 1154.84362792969 1158.38684082031 1143.701171875
952.892761230469 944.861206054688 953.771362304688 958.703369140625 958.735473632812 961.248596191406 965.3837890625 962.869750976562 962.21630859375 962.73388671875 963.845031738281 966.774658203125 968.628662109375 971.322570800781 975.429260253906 971.885498046875 973.388671875 968.921936035156 970.472778320312 966.032958984375 967.442932128906 962.360717773438 959.458801269531 966.813842773438 970.16064453125 968.733154296875 962.9619140625 968.744140625 979.392822265625 972.518798828125 975.026489257812 984.974182128906 982.323852539062 971.399353027344 961.942138671875 964.908203125 957.41357421875 962.307250976562 964.622436523438 964.69677734375 963.236877441406 970.303039550781 962.627685546875 958.925842285156 951.854309082031 956.043395996094 961.368103027344 958.683410644531 966.776916503906 968.402221679688 967.289733886719 962.524841308594 966.202453613281 963.715881347656 964.301147460938 965.494262695312 967.466552734375 964.489929199219 967.185485839844 965.14697265625 959.050537109375 955.468933105469 967.305358886719 969.924499511719 962.795959472656 960.498046875 956.49072265625 962.675415039062 960.08154296875 957.121337890625 961.563171386719 965.030578613281 963.995788574219 965.704406738281 971.685241699219 972.023559570312 979.065307617188 970.349609375 972.880554199219 962.712524414062 972.855529785156 965.075622558594 970.351440429688 978.610534667969 963.045715332031 972.295959472656 977.445129394531 981.838439941406 975.6708984375 975.4443359375 974.023132324219 971.850280761719 979.054809570312 981.285522460938 982.3056640625 967.890869140625 972.506958007812 978.38330078125 989.339538574219 984.938415527344 981.534301757812 982.656982421875 988.338562011719 988.022644042969 987.831420898438 993.8916015625 986.936828613281 987.198181152344 991.930297851562 1002.44293212891 996.0625 1007.5458984375 1009.76831054688 1000.03826904297 1006.69671630859 1011.47668457031 1013.33343505859 1019.45098876953 1020.69879150391 1012.41937255859 1015.45874023438 1020.61517333984 1017.88696289062 1012.75909423828 1021.99084472656 1031.63012695312 1030.36584472656 1041.72045898438 1049.634765625 1063.16271972656 1073.44836425781 1073.76916503906 1083.68505859375 1094.26147460938 1096.41870117188 1095.93237304688 1102.34057617188 1098.73425292969 1093.37329101562 1106.2890625 1114.43774414062 1122.6513671875 1121.669921875 1131.67297363281 1146.30932617188 1143.919921875 1148.67907714844 1154.1572265625 1144.57470703125 1142.68786621094
954.05615234375 958.167663574219 958.337768554688 957.672180175781 959.214111328125 967.537780761719 975.167785644531 970.478942871094 962.495239257812 962.603149414062 966.575439453125 965.291687011719 966.65283203125 979.282104492188 971.072204589844 978.10009765625 969.921264648438 974.848876953125 961.766479492188 965.384216308594 962.211059570312 954.060241699219 961.093811035156 965.0234375 957.751037597656 964.071716308594 966.585327148438 963.251892089844 967.353759765625 973.312927246094 973.46630859375 979.44970703125 978.410400390625 977.175170898438 971.130981445312 971.543029785156 967.843078613281 974.108703613281 970.824584960938 964.911193847656 959.322509765625 954.966369628906 964.136169433594 956.704711914062 957.34765625 963.255676269531 963.612854003906 957.580139160156 956.891540527344 967.590087890625 966.135070800781 965.365295410156 966.816345214844 967.804565429688 963.790771484375 964.993957519531 973.583190917969 964.596008300781 958.798217773438 953.193298339844 956.134155273438 959.291259765625 957.622802734375 965.41162109375 962.783386230469 962.580261230469 959.165405273438 957.313110351562 958.570373535156 961.393676757812 959.802673339844 962.577087402344 961.58154296875 956.227355957031 958.842224121094 969.915344238281 968.48583984375 973.863830566406 980.314392089844 963.356872558594 970.527160644531 970.173583984375 966.799194335938 970.464904785156 964.70361328125 966.944274902344 982.334594726562 977.025024414062 975.415649414062 970.648010253906 971.089721679688 972.493530273438 980.567321777344 981.999633789062 976.218383789062 969.721008300781 972.815490722656 978.54638671875 982.530700683594 977.651611328125 983.435974121094 978.857788085938 977.26416015625 988.70556640625 983.145446777344 979.63232421875 984.10107421875 990.983276367188 989.465209960938 990.0654296875 994.449279785156 1004.75640869141 1005.12286376953 999.708129882812 1009.51843261719 1001.60284423828 1011.4091796875 1012.66778564453 1013.55529785156 1017.16717529297 1014.26147460938 1014.03967285156 1016.37261962891 1018.4208984375 1031.09741210938 1032.91003417969 1036.43542480469 1045.47521972656 1049.67504882812 1064.00659179688 1069.54895019531 1067.63464355469 1084.73706054688 1086.21997070312 1084.12890625 1087.59375 1095.55480957031 1088.96862792969 1096.24938964844 1101.08068847656 1108.81555175781 1111.42993164062 1122.88452148438 1135.33972167969 1136.19799804688 1143.10009765625 1145.9423828125 1144.34851074219 1140.42041015625 1137.57702636719
954.021362304688 964.558959960938 957.103088378906 957.225952148438 957.551147460938 964.777160644531 969.559875488281 972.329467773438 973.443420410156 973.179260253906 975.925720214844 977.546081542969 982.500549316406 974.890747070312 977.457458496094 978.907592773438 979.529602050781 964.361572265625 958.881896972656 963.51318359375 955.292907714844 948.701171875 955.740051269531 958.139099121094 961.8076171875 967.826721191406 960.967346191406 959.89208984375 962.145324707031 975.3740234375 969.722717285156 974.149719238281 979.174133300781 966.375061035156 965.443420410156 970.03564453125 968.323852539062 981.541748046875 965.449035644531 966.1591796875 961.548400878906 956.9208984375 958.628173828125 966.492126464844 964.389404296875 964.593383789062 962.907104492188 963.633544921875 960.627624511719 963.700317382812 966.210266113281 972.015258789062 969.767211914062 968.885620117188 963.695373535156 964.553833007812 968.989990234375 963.336669921875 958.167663574219 952.539916992188 958.84521484375 955.736083984375 965.913208007812 973.918212890625 967.095703125 968.077331542969 963.005065917969 965.844421386719 959.974670410156 968.312133789062 962.164855957031 965.970397949219 967.631591796875 963.419006347656 961.396423339844 955.289733886719 969.6328125 973.698669433594 978.729064941406 966.731140136719 962.581848144531 973.931823730469 975.694213867188 964.641235351562 967.208618164062 974.08642578125 976.612426757812 977.146667480469 971.868713378906 965.861511230469 969.752197265625 979.274780273438 984.696960449219 983.167602539062 973.329284667969 967.063903808594 973.472473144531 969.7626953125 977.235778808594 980.978942871094 980.185546875 978.456604003906 985.205627441406 989.806213378906 978.369445800781 974.148742675781 978.60595703125 982.203918457031 981.076904296875 984.73779296875 994.189208984375 993.844909667969 996.827758789062 1003.68304443359 1000.50646972656 1001.11737060547 1010.98468017578 1016.71136474609 1010.90618896484 1020.01452636719 1009.92993164062 1009.82861328125 1014.40185546875 1025.64123535156 1042.15014648438 1038.72875976562 1038.81579589844 1045.6513671875 1054.21459960938 1066.57409667969 1064.36486816406 1073.66430664062 1094.33251953125 1089.8125 1082.36059570312 1083.74450683594 1092.54211425781 1088.59802246094 1094.30773925781 1089.34887695312 1095.05444335938 1103.15930175781 1107.96838378906 1118.44372558594 1132.92785644531 1130.40661621094 1137.34008789062 1131.68334960938 1131.65783691406 1131.29077148438
957.463806152344 962.691955566406 959.221557617188 963.539245605469 957.415283203125 961.117309570312 968.901977539062 978.695617675781 979.136474609375 984.184936523438 979.414123535156 974.480163574219 977.320190429688 977.160034179688 975.450622558594 976.984680175781 968.54443359375 975.205810546875 958.228759765625 959.424621582031 951.760009765625 958.849609375 955.086120605469 964.236389160156 960.099060058594 955.869201660156 956.614501953125 962.815490722656 962.938354492188 968.456481933594 974.1318359375 967.536499023438 972.358276367188 967.542358398438 963.665283203125 973.841735839844 975.828979492188 974.580871582031 954.154174804688 954.9140625 957.712463378906 959.095336914062 967.908264160156 966.091064453125 960.340393066406 967.773315429688 966.736755371094 966.167053222656 961.047668457031 961.295288085938 966.918823242188 971.156860351562 966.045959472656 964.451110839844 962.026489257812 964.069885253906 958.792846679688 967.158386230469 956.280700683594 956.703430175781 963.793518066406 966.843566894531 966.446044921875 973.728515625 963.413696289062 963.397033691406 961.683410644531 971.94677734375 966.507202148438 962.9228515625 967.625244140625 978.436401367188 966.304565429688 963.267150878906 963.026428222656 967.707641601562 965.47021484375 967.465942382812 965.719543457031 966.60009765625 965.95703125 968.310729980469 974.824523925781 971.066955566406 972.935913085938 973.894592285156 971.2900390625 977.525573730469 970.216613769531 957.810241699219 969.023559570312 977.594604492188 977.144409179688 973.240966796875 970.656127929688 967.617126464844 967.803588867188 967.655944824219 980.479675292969 977.215393066406 978.421325683594 977.567016601562 976.96875 973.908264160156 983.946838378906 977.804931640625 976.301086425781 981.436096191406 976.769775390625 992.769226074219 987.848937988281 990.819030761719 990.7412109375 994.430969238281 1000.24053955078 1005.33648681641 1013.33612060547 1013.24291992188 1016.16467285156 1019.46740722656 1003.99896240234 1009.04797363281 1012.26440429688 1019.44073486328 1026.90161132812 1033.20971679688 1041.47692871094 1054.080078125 1059.03076171875 1056.70532226562 1061.79809570312 1071.75451660156 1083.43041992188 1086.7607421875 1087.40319824219 1083.86645507812 1083.95739746094 1080.44604492188 1092.81018066406 1091.70837402344 1091.7080078125 1094.12255859375 1101.43249511719 1112.43884277344 1123.44567871094 1124.73889160156 1128.00939941406 1125.98962402344 1127.06628417969 1126.64929199219
958.175231933594 966.342529296875 970.399658203125 971.101196289062 968.485229492188 964.58349609375 976.266418457031 976.536987304688 976.035461425781 977.47119140625 976.468627929688 973.265197753906 977.374145507812 982.560546875 986.845031738281 970.216979980469 970.750610351562 974.619140625 961.169189453125 953.904968261719 955.503845214844 951.384338378906 968.788391113281 963.627258300781 961.691467285156 958.036682128906 955.274658203125 956.927917480469 967.867065429688 965.804077148438 970.876403808594 971.527221679688 964.562194824219 962.359191894531 969.06982421875 973.355529785156 981.846923828125 975.855834960938 957.756774902344 955.846374511719 963.668701171875 966.215209960938 969.577514648438 966.652099609375 966.920959472656 967.969421386719 964.490539550781 962.381652832031 961.6103515625 966.459289550781 962.026306152344 964.387145996094 959.844543457031 956.91455078125 964.326965332031 961.46044921875 963.818542480469 954.155334472656 950.965576171875 963.18798828125 965.235534667969 967.833374023438 962.179626464844 967.089294433594 969.039794921875 960.709411621094 957.810424804688 962.866333007812 964.27490234375 965.310119628906 967.071533203125 971.296325683594 975.168029785156 962.555786132812 966.094970703125 969.441650390625 962.452697753906 961.084411621094 962.099731445312 966.789428710938 971.479553222656 977.791137695312 969.193420410156 961.438537597656 966.672912597656 973.560974121094 976.121154785156 971.106140136719 965.863342285156 971.223327636719 978.088439941406 975.504211425781 974.441711425781 968.749755859375 965.873352050781 966.676330566406 974.279968261719 975.791687011719 975.258117675781 975.039855957031 985.451843261719 985.390441894531 988.075927734375 980.956298828125 977.289184570312 977.609558105469 980.196166992188 985.064453125 981.989990234375 981.343139648438 991.690368652344 986.881469726562 986.673278808594 996.194213867188 999.05810546875 1008.16174316406 1001.79840087891 1008.35827636719 1010.53735351562 1020.96527099609 1014.51428222656 1007.91027832031 1008.02844238281 1019.01672363281 1033.65783691406 1033.94958496094 1047.84765625 1047.17346191406 1058.28393554688 1051.67932128906 1058.25842285156 1058.40185546875 1073.52893066406 1077.01733398438 1090.41857910156 1095.34887695312 1085.24291992188 1084.41748046875 1083.64123535156 1091.74206542969 1085.91943359375 1089.82214355469 1097.69189453125 1102.77770996094 1113.45336914062 1107.73742675781 1116.10583496094 1119.39538574219 1111.08618164062 1119.66638183594
962.033630371094 967.352905273438 966.976257324219 968.659484863281 970.030029296875 969.73046875 971.099426269531 969.918151855469 975.651123046875 979.746765136719 971.467224121094 974.505859375 980.213195800781 980.374877929688 980.299865722656 964.456604003906 969.654235839844 969.550231933594 967.953125 958.454284667969 958.977355957031 967.993896484375 964.489624023438 969.853759765625 962.494018554688 956.272399902344 959.269653320312 957.038635253906 964.697448730469 962.082946777344 971.533813476562 967.94580078125 959.494873046875 962.317321777344 964.286743164062 970.326354980469 981.704895019531 972.790649414062 965.155700683594 959.399841308594 965.572265625 971.37109375 972.909973144531 975.386962890625 970.548889160156 967.757690429688 961.326538085938 962.832580566406 969.793518066406 966.144226074219 958.938049316406 963.699890136719 965.31591796875 960.877014160156 957.281982421875 961.901489257812 958.178344726562 950.544006347656 963.333068847656 958.477172851562 955.727355957031 952.683349609375 951.473693847656 955.4296875 953.9072265625 957.521911621094 968.393920898438 958.735595703125 959.8818359375 967.007385253906 966.811157226562 958.763610839844 964.239013671875 970.046752929688 961.643127441406 967.122253417969 966.360656738281 967.330627441406 965.375 964.741882324219 958.802368164062 965.321716308594 965.455505371094 966.552185058594 965.638549804688 971.268371582031 969.802429199219 961.8056640625 966.700744628906 972.191284179688 969.236389160156 969.501281738281 976.700561523438 967.820556640625 957.712646484375 970.1513671875 966.269104003906 967.541564941406 967.885681152344 979.516235351562 976.776550292969 983.110717773438 980.816589355469 977.079772949219 980.348083496094 976.629943847656 978.685302734375 982.817504882812 980.66943359375 986.258422851562 989.078247070312 985.781433105469 990.418640136719 997.085510253906 1003.00262451172 1001.84356689453 1000.43920898438 1001.43774414062 1004.85748291016 1015.74859619141 1009.87701416016 1008.35974121094 1001.01159667969 1015.12390136719 1025.83020019531 1026.443359375 1031.48803710938 1039.85803222656 1037.30981445312 1047.71862792969 1056.2119140625 1063.84631347656 1069.94494628906 1074.14904785156 1084.57568359375 1087.63208007812 1092.72668457031 1088.32495117188 1082.16845703125 1090.49877929688 1089.24243164062 1088.4111328125 1096.64208984375 1091.94311523438 1103.3193359375 1108.0068359375 1105.31384277344 1098.74206542969 1110.25500488281 1111.4384765625
967.001647949219 966.494445800781 966.881591796875 968.555969238281 973.503051757812 969.066162109375 968.407287597656 966.439514160156 964.569519042969 977.243530273438 970.179382324219 974.990539550781 974.898193359375 973.457153320312 970.230163574219 972.404052734375 968.570251464844 967.334411621094 975.5517578125 963.239501953125 968.457336425781 969.156127929688 963.851623535156 955.99169921875 961.558959960938 961.651672363281 960.150146484375 957.210632324219 959.772583007812 965.613220214844 965.345092773438 959.670166015625 957.965454101562 956.600402832031 967.001770019531 965.719421386719 971.105285644531 960.253601074219 958.115051269531 958.761657714844 961.743347167969 969.263427734375 973.431884765625 971.759582519531 963.784973144531 958.155883789062 962.953002929688 962.159362792969 958.621215820312 957.639343261719 949.195861816406 960.114013671875 958.498840332031 964.253723144531 971.820495605469 963.661071777344 963.943481445312 958.646606445312 957.608703613281 957.363464355469 951.037170410156 960.623046875 958.838928222656 961.23388671875 951.34326171875 959.421569824219 959.804992675781 955.192626953125 953.230224609375 969.600341796875 968.265075683594 958.867004394531 957.409240722656 959.940673828125 967.70849609375 962.765625 960.195922851562 953.929565429688 962.755310058594 957.442504882812 960.024230957031 962.052062988281 961.516479492188 962.636962890625 966.297241210938 961.303344726562 966.740417480469 957.946960449219 963.684265136719 973.179138183594 972.026428222656 969.388793945312 978.176208496094 969.928894042969 968.816467285156 967.899597167969 967.660522460938 968.821960449219 970.302734375 972.232971191406 979.323425292969 979.535522460938 981.942932128906 983.075988769531 979.290893554688 982.946472167969 978.475524902344 976.151794433594 984.526550292969 984.560546875 986.80810546875 988.441162109375 987.548706054688 997.233764648438 991.556579589844 997.60546875 1004.36120605469 1000.77471923828 1004.81970214844 1016.17987060547 1002.87396240234 1008.41436767578 1005.28820800781 1008.59674072266 1017.64373779297 1023.18005371094 1032.21899414062 1033.96923828125 1035.06640625 1055.45788574219 1059.71752929688 1075.53247070312 1081.05517578125 1082.88745117188 1083.64501953125 1091.37951660156 1086.890625 1090.31945800781 1079.326171875 1078.7138671875 1085.34240722656 1084.73046875 1087.41809082031 1080.27905273438 1083.31591796875 1091.74670410156 1102.7001953125 1097.20190429688 1105.73669433594 1100.87902832031
963.153503417969 961.450439453125 956.226745605469 970.848388671875 968.276916503906 966.73779296875 978.068054199219 965.6376953125 966.821228027344 968.811096191406 967.155456542969 965.748229980469 969.470397949219 976.875854492188 972.8359375 971.40869140625 966.509460449219 965.678771972656 966.143615722656 963.92578125 962.269409179688 970.268005371094 964.200073242188 970.774658203125 960.274291992188 958.292663574219 955.048217773438 954.538757324219 957.883483886719 956.837036132812 956.829528808594 965.110473632812 960.439636230469 959.425903320312 962.45654296875 973.701477050781 963.537231445312 955.028503417969 961.169555664062 959.812805175781 964.170166015625 964.66650390625 967.751403808594 967.130920410156 956.840148925781 967.317504882812 959.113525390625 956.837097167969 950.499450683594 959.433837890625 959.592468261719 949.219116210938 967.220275878906 961.467712402344 962.642578125 971.670043945312 965.012573242188 959.139099121094 957.292907714844 952.938537597656 956.914672851562 964.714050292969 961.994567871094 964.482604980469 957.509826660156 954.202331542969 959.130615234375 959.505004882812 962.747192382812 965.472534179688 963.775085449219 945.588134765625 955.169189453125 960.591064453125 963.991821289062 958.862609863281 953.550720214844 956.903076171875 960.708374023438 970.552185058594 960.654846191406 966.045532226562 962.969665527344 958.333557128906 960.530517578125 962.070617675781 961.918090820312 963.406005859375 965.005004882812 962.728515625 964.755065917969 973.203247070312 982.471008300781 977.01513671875 969.918518066406 967.190246582031 971.985107421875 978.955871582031 967.065246582031 970.174377441406 968.56787109375 968.659729003906 984.305603027344 990.176208496094 987.899780273438 973.973388671875 975.202270507812 980.163391113281 977.828430175781 985.276489257812 979.797058105469 979.948608398438 987.915649414062 987.275207519531 994.666564941406 1003.17657470703 999.69482421875 1000.25744628906 996.610900878906 1000.96282958984 999.24951171875 1001.73596191406 1001.9306640625 1002.61663818359 1015.52099609375 1026.26538085938 1030.18969726562 1026.31848144531 1034.74108886719 1051.57141113281 1062.26220703125 1066.41870117188 1088.04223632812 1091.6953125 1089.99206542969 1096.7412109375 1090.55529785156 1096.54870605469 1084.091796875 1071.85363769531 1078.01159667969 1081.09802246094 1076.79504394531 1080.88879394531 1079.9482421875 1083.19250488281 1085.38208007812 1094.19458007812 1088.83422851562 1091.67529296875
