NCOLS 150
NROWS 37
XLLCORNER 7394249
YLLCORNER 4843469
CELLSIZE 30
NODATA_VALUE -9999
992.995422363281 983.640625 985.627502441406 985.937927246094 982.62109375 990.287719726562 995.412414550781 991.476989746094 987.811828613281 975.206237792969 978.582824707031 982.253479003906 972.185852050781 971.738098144531 976.644226074219 989.312316894531 998.236999511719 991.242248535156 982.638671875 983.516967773438 978.969909667969 982.188354492188 979.682983398438 980.240234375 984.751342773438 987.032897949219 988.703308105469 993.808227539062 997.647399902344 1004.35943603516 1012.42224121094 1016.32232666016 1013.93713378906 1023.39080810547 1025.69860839844 1030.24584960938 1020.95422363281 1035.34680175781 1036.82482910156 1027.87036132812 1040.42895507812 1037.30407714844 1035.94897460938 1024.50158691406 1020.72418212891 1014.01733398438 1012.39605712891 1003.11999511719 1007.79565429688 1014.36926269531 1010.31048583984 999.573181152344 1000.56518554688 1006.00561523438 1009.43896484375 1004.34161376953 1006.89788818359 1015.90338134766 1015.91430664062 1020.07983398438 1017.84057617188 1020.43334960938 1016.55853271484 1006.98370361328 1004.8056640625 1004.53533935547 1013.88891601562 1009.78186035156 1006.4287109375 999.021911621094 992.663269042969 989.009643554688 1003.25891113281 1005.80511474609 1013.35516357422 1031.82177734375 1037.64440917969 1025.95727539062 1027.0810546875 1026.15124511719 1025.7861328125 1028.77355957031 1035.57568359375 1024.85314941406 1028.40905761719 1007.26721191406 996.93994140625 976.433898925781 964.720642089844 959.802551269531 949.52294921875 949.160766601562 944.958374023438 947.315856933594 941.189392089844 938.674438476562 947.46875 951.029479980469 949.2509765625 956.790710449219 970.081726074219 966.888732910156 955.066528320312 959.452697753906 964.146240234375 958.786682128906 957.447631835938 957.47314453125 956.218505859375 954.699462890625 950.330749511719 945.654541015625 932.462646484375 937.963073730469 922.566345214844 921.570251464844 904.751159667969 903.159240722656 921.607055664062 940.566040039062 950.029174804688 966.921142578125 963.388854980469 972.300231933594 980.590637207031 991.101684570312 997.872924804688 1010.42590332031 1012.89154052734 1019.17669677734 1029.17980957031 1025.45153808594 1032.85302734375 1038.49523925781 1047.86865234375 1047.21728515625 1057.32836914062 1069.69812011719 1081.30981445312 1080.48498535156 1089.89538574219 1100.30236816406 1104.32592773438 1112.51916503906 1127.72766113281 1116.03344726562 1116.35559082031 1107.63293457031 1102.31811523438 1094.93359375
993.187133789062 996.946838378906 985.078002929688 989.052307128906 993.465026855469 996.44970703125 982.355651855469 982.450256347656 986.78955078125 973.492065429688 964.7978515625 971.923034667969 969.909423828125 967.681091308594 971.937561035156 986.429504394531 989.14208984375 991.791137695312 981.359802246094 982.5341796875 985.428039550781 982.658081054688 976.426452636719 980.897827148438 981.486389160156 994.851806640625 997.818603515625 1002.66442871094 996.082702636719 1011.51055908203 1012.91564941406 1013.37908935547 1020.89636230469 1025.5205078125 1024.1767578125 1024.63757324219 1030.85180664062 1040.25817871094 1035.28149414062 1037.56665039062 1039.64733886719 1045.42614746094 1034.91247558594 1030.02709960938 1022.36431884766 1024.99353027344 1013.31359863281 1017.82135009766 1014.97845458984 1019.99688720703 1006.63305664062 1000.57556152344 993.894165039062 1003.48638916016 1014.57885742188 999.998046875 1011.28082275391 1018.66461181641 1016.59393310547 1021.14367675781 1012.22467041016 1007.6669921875 1016.07458496094 1016.16967773438 1016.04473876953 1009.42047119141 1018.80517578125 1013.88397216797 1006.73657226562 996.52783203125 1000.68768310547 1000.06231689453 1009.57922363281 1013.00280761719 1024.72607421875 1026.47436523438 1030.37377929688 1027.36267089844 1034.69982910156 1026.52819824219 1016.39526367188 1026.93347167969 1036.40209960938 1031.83923339844 1021.79730224609 1006.36804199219 989.505493164062 974.692443847656 970.517211914062 962.18017578125 946.431945800781 942.921447753906 948.131042480469 943.472229003906 950.450927734375 953.39208984375 955.708435058594 962.039978027344 954.291198730469 967.412475585938 975.380310058594 972.8388671875 969.730346679688 969.442138671875 971.664306640625 972.611999511719 974.515686035156 973.710021972656 976.085205078125 973.804931640625 964.898254394531 951.98486328125 945.031555175781 935.322875976562 927.462768554688 922.555541992188 920.101928710938 918.691650390625 935.386535644531 949.166442871094 954.146728515625 960.639221191406 964.089904785156 971.224243164062 978.960510253906 998.102661132812 998.197570800781 1012.94787597656 1017.00732421875 1025.66796875 1027.69079589844 1035.02990722656 1045.19799804688 1051.361328125 1058.72436523438 1057.89526367188 1067.4892578125 1069.93493652344 1068.49853515625 1084.48620605469 1095.38232421875 1099.26098632812 1099.00378417969 1111.17211914062 1111.53503417969 1117.89306640625 1104.75793457031 1099.79187011719 1108.67272949219 1104.98156738281
987.849548339844 1000.38433837891 991.198303222656 992.223205566406 988.967834472656 985.506958007812 981.762573242188 982.865051269531 984.771179199219 975.115539550781 970.275634765625 973.970703125 966.934875488281 961.339660644531 979.105163574219 979.796752929688 982.018798828125 992.404602050781 984.626647949219 980.384948730469 981.048583984375 983.755615234375 979.041442871094 971.060241699219 983.445739746094 996.107727050781 1004.70001220703 1006.76794433594 1004.24359130859 1007.505859375 1014.82824707031 1021.11193847656 1026.44677734375 1029.529296875 1025.51135253906 1029.12475585938 1031.61755371094 1035.56616210938 1039.62585449219 1041.74487304688 1041.29479980469 1045.03942871094 1040.10412597656 1035.61755371094 1033.87487792969 1019.39495849609 1024.59741210938 1017.78430175781 1013.83068847656 1013.59173583984 1006.73126220703 996.899169921875 997.144714355469 1007.64489746094 1017.01043701172 1018.55462646484 1009.68176269531 1014.72857666016 1016.11682128906 1026.21105957031 1015.08630371094 1020.02514648438 1023.70904541016 1023.57586669922 1025.96655273438 1022.62158203125 1020.55676269531 1022.43579101562 1017.36370849609 1009.59399414062 1010.80572509766 1012.21197509766 1006.58056640625 1012.33966064453 1022.48132324219 1038.56701660156 1037.67260742188 1029.57678222656 1029.71057128906 1020.65032958984 1025.34741210938 1024.02307128906 1028.72497558594 1022.54840087891 1014.66748046875 1002.94689941406 996.284729003906 979.177917480469 970.8515625 960.986877441406 955.099975585938 944.954223632812 944.711608886719 953.742553710938 962.243530273438 974.206420898438 971.932678222656 970.104064941406 962.836608886719 974.118957519531 977.447448730469 976.482604980469 982.635986328125 971.003295898438 982.298889160156 979.167602539062 976.859069824219 989.885925292969 989.52294921875 980.395446777344 967.905090332031 955.48876953125 950.640075683594 946.15576171875 939.361755371094 931.864990234375 924.253356933594 930.406677246094 936.169616699219 952.845031738281 957.444396972656 971.989807128906 976.493713378906 980.434020996094 986.076965332031 993.285827636719 1011.54211425781 1016.87579345703 1024.27783203125 1043.21252441406 1029.93444824219 1039.14343261719 1055.94384765625 1060.34716796875 1070.08508300781 1063.32690429688 1066.697265625 1073.89575195312 1081.19360351562 1079.74377441406 1086.59484863281 1089.1123046875 1095.83837890625 1097.71826171875 1106.28503417969 1114.13037109375 1107.619140625 1104.99731445312 1111.44018554688 1108.4462890625
978.6357421875 979.456604003906 987.007568359375 985.906677246094 982.504211425781 985.910705566406 981.822814941406 980.498901367188 986.639770507812 975.874267578125 974.915649414062 976.0810546875 963.613525390625 969.02392578125 972.726867675781 971.942443847656 978.320129394531 985.002136230469 982.049560546875 974.670593261719 968.191162109375 971.403991699219 973.273803710938 985.635009765625 995.175842285156 997.121887207031 1001.37664794922 996.92919921875 1007.29730224609 1020.61810302734 1023.80786132812 1028.95751953125 1032.45666503906 1038.74133300781 1022.90612792969 1029.03942871094 1025.63342285156 1030.67761230469 1038.76513671875 1038.17932128906 1038.49560546875 1036.55603027344 1039.63928222656 1038.62219238281 1034.85363769531 1020.73602294922 1015.75134277344 1010.87841796875 1007.14245605469 1005.07415771484 1008.25360107422 1001.42102050781 996.528503417969 1010.90911865234 1010.15386962891 1019.70251464844 1022.99737548828 1016.53424072266 1019.71472167969 1015.47760009766 1019.65441894531 1021.81665039062 1033.357421875 1022.36651611328 1027.37976074219 1024.13134765625 1025.41967773438 1024.90466308594 1021.88049316406 1019.2021484375 1017.71405029297 1022.39959716797 1023.25054931641 1023.87030029297 1023.46618652344 1033.04772949219 1026.66320800781 1028.28454589844 1028.71923828125 1017.25927734375 1007.01196289062 1013.62487792969 1015.1806640625 1012.15643310547 1009.33807373047 1014.39837646484 1002.38916015625 991.067810058594 979.327697753906 969.055053710938 962.43359375 962.189758300781 963.363830566406 967.0810546875 975.455078125 978.984741210938 974.244384765625 976.304260253906 972.667419433594 976.393737792969 986.845031738281 992.157653808594 985.061889648438 979.868469238281 982.529541015625 991.413635253906 988.024353027344 1001.48443603516 996.048583984375 985.952087402344 974.340698242188 964.187805175781 955.746765136719 944.340698242188 930.526794433594 938.492797851562 936.690063476562 931.595581054688 938.905029296875 950.554077148438 957.3232421875 974.171936035156 983.338256835938 981.968383789062 987.24609375 991.818115234375 1007.04467773438 1017.59497070312 1027.43273925781 1044.14685058594 1043.19030761719 1047.91955566406 1057.03210449219 1063.29333496094 1067.95434570312 1064.28466796875 1063.38232421875 1069.97839355469 1073.24035644531 1089.73559570312 1089.01232910156 1091.50073242188 1094.72607421875 1097.85681152344 1106.37121582031 1108.45202636719 1120.23779296875 1110.353515625 1117.82092285156 1118.64855957031
969.882629394531 979.509399414062 980.022399902344 974.164184570312 977.166076660156 973.633239746094 967.179138183594 982.950866699219 976.529663085938 976.651123046875 960.877197265625 959.693115234375 963.485961914062 957.677185058594 967.127502441406 968.377746582031 975.54638671875 976.845520019531 973.696350097656 969.964721679688 967.259521484375 969.175109863281 973.010498046875 982.780578613281 1000.52264404297 1001.24371337891 997.916748046875 1003.12646484375 1007.06561279297 1015.39636230469 1023.50317382812 1023.87432861328 1028.73181152344 1032.23266601562 1022.49725341797 1027.08349609375 1020.40856933594 1038.05590820312 1040.9052734375 1039.2958984375 1040.32629394531 1045.65698242188 1038.72985839844 1034.4228515625 1033.11865234375 1023.91790771484 1005.74945068359 1004.42535400391 999.910217285156 1008.55767822266 1012.70135498047 1007.94232177734 1001.01379394531 1014.49212646484 1017.50848388672 1019.69714355469 1025.92492675781 1022.89031982422 1022.61102294922 1016.92779541016 1021.02673339844 1022.13732910156 1023.10424804688 1025.58203125 1024.53930664062 1031.51000976562 1031.59411621094 1029.12377929688 1017.73278808594 1016.37036132812 1022.54931640625 1028.53295898438 1020.69866943359 1024.19396972656 1023.40228271484 1029.44140625 1022.73913574219 1016.88415527344 1018.07641601562 1019.14013671875 1012.91363525391 1017.52160644531 1020.44927978516 1016.70947265625 1010.29357910156 1000.76184082031 1001.20379638672 993.959533691406 975.723510742188 971.003662109375 978.507141113281 972.044738769531 972.655334472656 980.760437011719 982.320251464844 995.232604980469 989.537170410156 981.536254882812 988.459594726562 990.102783203125 990.62158203125 986.9375 984.877502441406 990.48876953125 987.993286132812 982.443725585938 975.240112304688 996.028015136719 993.663818359375 992.402526855469 972.705627441406 952.51416015625 944.615966796875 939.790893554688 932.722778320312 935.84765625 937.900634765625 944.123413085938 936.557739257812 948.752258300781 953.972473144531 973.220947265625 986.941711425781 989.513366699219 994.839172363281 999.2998046875 1001.52026367188 1015.43341064453 1033.29528808594 1043.83813476562 1059.69018554688 1052.28125 1062.19812011719 1060.81994628906 1059.22106933594 1060.28771972656 1064.29077148438 1071.48010253906 1075.52404785156 1085.26953125 1096.78491210938 1081.97778320312 1088.37634277344 1101.84814453125 1106.38415527344 1105.96447753906 1115.17565917969 1117.68798828125 1119.25939941406 1113.7265625
981.431945800781 972.54150390625 966.01416015625 971.7353515625 961.677734375 965.64501953125 973.384704589844 973.391906738281 969.814147949219 964.272521972656 962.741027832031 954.377075195312 957.298645019531 956.425109863281 959.377258300781 962.045104980469 971.198669433594 968.941101074219 973.386047363281 975.900634765625 973.479736328125 975.539245605469 978.351745605469 991.537414550781 996.0439453125 1005.65014648438 1002.40643310547 998.996154785156 1001.52789306641 1007.36163330078 1015.66827392578 1031.36022949219 1030.03771972656 1033.13269042969 1025.95166015625 1025.25439453125 1030.029296875 1030.73449707031 1042.62780761719 1036.73779296875 1039.51196289062 1037.92907714844 1039.955078125 1032.18493652344 1024.08032226562 1019.92681884766 1009.86218261719 1001.88323974609 1000.00909423828 1002.35754394531 1010.43304443359 1005.78271484375 1004.60144042969 1005.00231933594 1012.70178222656 1014.5712890625 1019.17193603516 1033.19677734375 1027.84399414062 1018.74194335938 1017.26550292969 1024.05737304688 1017.52795410156 1022.51690673828 1012.75140380859 1023.48297119141 1036.03137207031 1025.76635742188 1009.52868652344 1013.49340820312 1028.44616699219 1026.13940429688 1027.06909179688 1025.65087890625 1029.01159667969 1028.32568359375 1018.93737792969 1015.77551269531 1015.23175048828 1020.04809570312 1025.14147949219 1020.80603027344 1024.59729003906 1015.47338867188 1004.77325439453 1011.05718994141 1001.50140380859 994.611755371094 994.818542480469 990.059020996094 987.440856933594 985.55126953125 987.114440917969 989.057373046875 995.161071777344 999.046997070312 995.503356933594 996.040954589844 996.995849609375 997.702514648438 986.067504882812 987.977966308594 985.713806152344 991.532897949219 982.545593261719 983.899108886719 986.127624511719 998.887390136719 981.992553710938 982.325561523438 964.847839355469 954.174743652344 941.510620117188 931.983215332031 927.230224609375 926.768737792969 934.595764160156 942.7109375 949.302795410156 951.57177734375 963.403625488281 979.769592285156 986.536376953125 993.417724609375 997.914428710938 1005.02087402344 1004.35040283203 1018.95446777344 1040.07690429688 1039.24462890625 1057.98681640625 1052.45166015625 1059.94738769531 1057.89416503906 1056.34985351562 1057.79418945312 1068.33068847656 1059.00756835938 1071.537109375 1082.50964355469 1088.1640625 1084.24194335938 1083.4033203125 1092.98364257812 1089.08251953125 1099.47290039062 1102.78234863281 1104.64904785156 1114.56701660156 1113.55041503906
969.881774902344 963.918701171875 958.837219238281 960.064208984375 966.760681152344 965.861694335938 967.963134765625 961.835327148438 961.562438964844 965.197692871094 969.8330078125 957.312255859375 954.175476074219 959.927124023438 956.365417480469 968.069213867188 975.487365722656 972.639526367188 976.724060058594 972.975830078125 980.55712890625 977.095825195312 987.765075683594 983.637390136719 993.273742675781 990.9921875 994.458801269531 998.604614257812 1000.10333251953 1004.89178466797 1008.61047363281 1025.91442871094 1035.56970214844 1024.89709472656 1024.61999511719 1027.2578125 1039.1220703125 1038.30395507812 1032.71826171875 1029.85729980469 1033.33984375 1038.77282714844 1032.5888671875 1030.62829589844 1012.43908691406 1008.44732666016 1010.73468017578 1007.58154296875 1005.03430175781 1014.45336914062 1013.17022705078 1003.13916015625 993.196044921875 994.606018066406 1006.61291503906 1014.45141601562 1020.10894775391 1022.18426513672 1024.63244628906 1020.41857910156 1024.59191894531 1027.21948242188 1015.4541015625 1014.67547607422 1012.65307617188 1023.72021484375 1030.12719726562 1024.6865234375 1017.18347167969 1024.81982421875 1021.89685058594 1023.57208251953 1020.57067871094 1027.53161621094 1026.20068359375 1029.39636230469 1019.22320556641 1016.83050537109 1015.63696289062 1019.54400634766 1024.16296386719 1020.46081542969 1014.46838378906 1004.26000976562 1010.57733154297 1012.24072265625 1005.90930175781 997.71435546875 992.633422851562 994.8134765625 998.051330566406 981.060913085938 997.167297363281 1001.97766113281 1009.63580322266 1007.03271484375 1008.24432373047 1002.17401123047 1001.90753173828 1012.68548583984 998.318298339844 990.291870117188 996.92919921875 998.146484375 995.4169921875 993.778991699219 992.603149414062 992.905700683594 986.054504394531 979.945434570312 968.440551757812 960.371948242188 951.528625488281 938.376220703125 936.574890136719 935.208923339844 939.853515625 939.134704589844 942.592224121094 953.111572265625 974.828186035156 975.461181640625 991.332641601562 1005.5234375 997.647216796875 1009.35949707031 1016.09124755859 1015.65124511719 1036.95776367188 1049.49462890625 1051.794921875 1056.91528320312 1061.55200195312 1053.42810058594 1050.16638183594 1052.22399902344 1063.77136230469 1061.35437011719 1076.51843261719 1079.46984863281 1076.23742675781 1078.15246582031 1078.20373535156 1078.64221191406 1083.86853027344 1086.52075195312 1101.427734375 1104.427734375 1109.2626953125 1109.53942871094
965.779357910156 957.993530273438 951.507751464844 953.734069824219 962.268493652344 964.401062011719 959.375061035156 961.389709472656 957.084899902344 958.868225097656 956.579467773438 949.756286621094 950.327331542969 951.299255371094 957.7041015625 964.804626464844 969.702453613281 978.070190429688 984.984558105469 984.705810546875 982.79541015625 986.211486816406 982.986145019531 983.967102050781 994.86865234375 992.524475097656 999.3671875 1000.31353759766 1005.97888183594 1006.04705810547 1020.98742675781 1023.74780273438 1022.49475097656 1018.248046875 1017.25756835938 1022.34161376953 1029.86706542969 1033.03686523438 1027.10510253906 1025.67749023438 1023.13208007812 1027.71801757812 1027.37817382812 1027.80725097656 1016.59020996094 1015.451171875 1012.87805175781 1008.56066894531 998.798767089844 999.62890625 1003.91510009766 994.765930175781 1002.13836669922 993.7392578125 1009.71075439453 1017.71630859375 1008.76110839844 1012.14569091797 1010.3974609375 1015.96502685547 1020.25860595703 1025.91516113281 1015.2724609375 1011.95220947266 1022.01080322266 1020.79290771484 1017.6748046875 1032.69592285156 1027.49328613281 1022.17156982422 1022.64038085938 1015.82659912109 1010.07604980469 1015.90887451172 1017.89807128906 1024.82202148438 1026.86560058594 1016.04132080078 1022.50921630859 1020.24237060547 1016.49169921875 1017.79681396484 1015.14001464844 1001.88745117188 1003.07525634766 1012.18347167969 1011.88073730469 1008.30920410156 998.267395019531 997.489990234375 999.761474609375 995.994384765625 1000.48162841797 1011.42437744141 1017.60498046875 1021.82641601562 1008.72241210938 1004.57287597656 1005.42230224609 1015.56646728516 1005.95855712891 1003.72766113281 1000.37951660156 999.972045898438 994.267272949219 998.140625 996.416564941406 993.638916015625 978.422668457031 976.948120117188 974.818054199219 960.825012207031 957.446350097656 948.255004882812 946.18310546875 937.0703125 941.077941894531 943.225891113281 952.826477050781 970.270324707031 972.641357421875 996.215026855469 998.460632324219 1008.57025146484 1013.19744873047 1012.67718505859 1024.43469238281 1022.88049316406 1032.10095214844 1057.48278808594 1054.21105957031 1059.97326660156 1051.64233398438 1053.9638671875 1051.42614746094 1052.00207519531 1058.69860839844 1062.60766601562 1064.36047363281 1062.91064453125 1065.78295898438 1071.525390625 1060.37609863281 1071.1806640625 1083.642578125 1086.17797851562 1096.46520996094 1099.46643066406 1107.31201171875 1108.0625
961.986877441406 952.815734863281 956.594299316406 946.319152832031 955.629699707031 959.125305175781 956.775695800781 957.418884277344 956.235412597656 959.525695800781 952.5478515625 955.943542480469 954.011108398438 949.498046875 958.232849121094 958.380004882812 960.394836425781 981.575500488281 990.572326660156 996.270263671875 992.754516601562 986.11279296875 990.504943847656 990.145324707031 994.309509277344 992.702270507812 999.882385253906 1004.34881591797 1006.15356445312 1009.07983398438 1009.24713134766 1008.83801269531 1010.42413330078 1011.77294921875 1014.88073730469 1015.35888671875 1025.115234375 1022.00213623047 1024.93151855469 1019.27740478516 1022.74401855469 1029.05932617188 1024.92553710938 1016.61175537109 1010.75891113281 1010.53936767578 1006.53106689453 1006.14007568359 998.068725585938 1001.82922363281 996.99462890625 991.934753417969 1004.20635986328 1007.72961425781 1023.11083984375 1018.32067871094 1013.64031982422 1008.30206298828 1004.8125 1006.20697021484 1008.51403808594 1013.51165771484 1020.88073730469 1019.82269287109 1025.18725585938 1015.43127441406 1023.48211669922 1022.83306884766 1027.55810546875 1021.85675048828 1020.39562988281 1016.02252197266 1012.19488525391 1011.24249267578 1012.07537841797 1015.38446044922 1008.44702148438 1015.58587646484 1011.67926025391 1019.56573486328 1011.90185546875 1010.20593261719 1011.71911621094 1010.25793457031 1011.50378417969 1010.07489013672 1010.40588378906 1011.23034667969 1007.13879394531 1003.10168457031 1012.40124511719 1001.63415527344 1004.43328857422 1019.12646484375 1025.30859375 1026.84252929688 1013.55798339844 1005.85223388672 1016.57269287109 1013.7763671875 1011.12054443359 1008.48260498047 1006.64093017578 999.456848144531 1000.25158691406 997.6376953125 993.998107910156 988.71044921875 989.160766601562 978.92578125 969.188781738281 965.505432128906 952.6357421875 945.274230957031 942.581665039062 945.719421386719 945.526123046875 953.375122070312 969.722412109375 980.666076660156 988.955871582031 999.499938964844 1009.81970214844 1017.86737060547 1014.68560791016 1025.51062011719 1025.17956542969 1032.73071289062 1042.14770507812 1049.18872070312 1050.39331054688 1058.93176269531 1051.71960449219 1041.36962890625 1050.31213378906 1054.61682128906 1055.47607421875 1052.16259765625 1054.37963867188 1057.95227050781 1061.40344238281 1059.20031738281 1066.61950683594 1073.56286621094 1080.47521972656 1078.39184570312 1087.19543457031 1099.71545410156 1103.7763671875 1111.15551757812
955.578918457031 957.319152832031 947.774536132812 943.965087890625 953.857788085938 952.744567871094 954.442260742188 951.78955078125 958.875732421875 956.836547851562 954.819519042969 948.772399902344 951.562683105469 961.213989257812 966.666320800781 960.57568359375 962.889831542969 976.006591796875 981.400573730469 986.686706542969 984.478332519531 986.32080078125 993.403564453125 995.10595703125 995.316284179688 989.829162597656 995.367431640625 1006.47735595703 998.554748535156 1001.70355224609 1004.1650390625 1006.00091552734 1006.37927246094 1004.19464111328 1011.15008544922 1010.19293212891 1019.14678955078 1014.78741455078 1022.33850097656 1023.83709716797 1021.2177734375 1013.96838378906 1013.66418457031 1015.5087890625 1003.51580810547 1006.0966796875 1010.84649658203 1000.08160400391 995.55224609375 994.355285644531 987.786193847656 1000.759765625 1003.54693603516 992.036071777344 1012.62786865234 1012.34716796875 1006.30230712891 1004.9951171875 1001.35388183594 1019.70538330078 1014.27838134766 1017.79010009766 1015.16320800781 1019.89208984375 1021.33770751953 1017.7158203125 1018.47344970703 1016.63989257812 1017.89147949219 1022.69097900391 1013.15533447266 1015.89526367188 1009.32775878906 1007.40960693359 1001.12811279297 1007.80114746094 1005.10308837891 1001.17919921875 1004.86590576172 1004.91040039062 1008.02490234375 1007.92340087891 1004.86358642578 998.681945800781 1004.89343261719 1009.59637451172 1012.20031738281 1009.51409912109 1010.38256835938 1012.13525390625 1015.76641845703 1013.60784912109 1019.4873046875 1021.33612060547 1024.97058105469 1024.70727539062 1024.42883300781 1016.80157470703 1017.03063964844 1018.8447265625 1015.9384765625 1016.47442626953 1001.74230957031 1001.32196044922 1007.83990478516 1001.16931152344 997.332153320312 995.524353027344 988.95068359375 978.910034179688 961.342834472656 960.311218261719 951.173950195312 940.905456542969 939.550231933594 941.600524902344 940.517761230469 958.531127929688 967.957092285156 983.04541015625 992.551940917969 1019.43585205078 1022.52825927734 1018.12731933594 1020.48461914062 1022.80114746094 1031.44860839844 1035.31628417969 1039.28381347656 1049.19702148438 1047.11218261719 1045.42114257812 1053.70361328125 1056.14770507812 1054.59631347656 1058.02978515625 1060.37707519531 1054.79016113281 1060.85119628906 1054.33544921875 1059.35681152344 1064.75024414062 1066.37268066406 1063.16943359375 1073.95190429688 1087.62329101562 1087.53369140625 1099.99768066406 1107.80297851562 1112.87707519531
953.617004394531 957.473388671875 941.36181640625 942.9501953125 949.564025878906 950.36572265625 945.642150878906 948.00390625 955.808654785156 961.834289550781 950.125122070312 950.751892089844 959.859619140625 955.669677734375 963.947021484375 962.413513183594 957.373657226562 968.618469238281 981.348510742188 977.5068359375 974.533264160156 978.585388183594 989.454345703125 987.945983886719 983.311767578125 982.50048828125 1000.36480712891 998.147277832031 1004.34423828125 1001.14776611328 1002.28198242188 1002.57348632812 1006.30615234375 1001.45440673828 1008.66943359375 1008.11688232422 1012.05291748047 1010.23956298828 1016.90521240234 1015.53717041016 1018.55853271484 1019.23651123047 1012.90747070312 999.538879394531 1001.490234375 1009.32800292969 1013.35363769531 1006.86700439453 985.678466796875 996.803344726562 987.453369140625 993.168884277344 997.393249511719 997.675720214844 1004.80310058594 1006.19036865234 1003.09484863281 1002.96362304688 997.237365722656 1011.10638427734 1018.00329589844 1019.60876464844 1014.82897949219 1016.17834472656 1022.25897216797 1023.43316650391 1023.28118896484 1023.04028320312 1025.04797363281 1018.64196777344 1014.89459228516 1018.12292480469 1013.55999755859 1014.66455078125 1005.14825439453 1004.24017333984 1002.24090576172 1010.44671630859 1007.25714111328 1007.56597900391 1006.11676025391 1004.32586669922 996.525207519531 986.6396484375 1001.08666992188 1007.19378662109 1007.43676757812 1020.46807861328 1019.3837890625 1010.39483642578 1012.62036132812 1018.38690185547 1013.04675292969 1019.51715087891 1015.9296875 1024.04992675781 1026.69787597656 1019.10803222656 1009.93542480469 1014.12994384766 1017.55023193359 1013.19171142578 1003.04235839844 1006.58355712891 1012.35961914062 1010.68426513672 1013.36920166016 1003.16815185547 989.167114257812 976.322875976562 963.08056640625 955.79296875 943.572021484375 941.847900390625 943.447265625 945.348083496094 942.199340820312 964.143615722656 979.815979003906 991.9560546875 992.002075195312 1018.45263671875 1023.65106201172 1025.56982421875 1030.65869140625 1029.03308105469 1026.74645996094 1030.72546386719 1045.18969726562 1046.666015625 1039.28881835938 1046.36059570312 1053.65539550781 1041.60290527344 1051.55151367188 1054.65307617188 1066.34509277344 1066.06225585938 1066.45043945312 1061.11218261719 1076.42297363281 1074.73828125 1070.03881835938 1070.3486328125 1081.78503417969 1087.15686035156 1093.93725585938 1098.62976074219 1112.24694824219 1109.63232421875
960.405700683594 959.806640625 959.720520019531 954.644470214844 949.369750976562 953.881103515625 949.315795898438 960.268432617188 960.171264648438 964.151733398438 961.465087890625 960.361022949219 970.439392089844 966.253540039062 962.422729492188 966.544921875 957.448669433594 952.605590820312 965.536560058594 967.853759765625 974.296813964844 978.94482421875 983.751281738281 983.303527832031 978.786437988281 991.653869628906 995.34765625 999.487121582031 999.276062011719 993.538330078125 1003.26623535156 1004.30541992188 1006.58795166016 1007.51379394531 1013.59027099609 1003.64312744141 1010.05267333984 1002.119140625 1008.10882568359 1007.02868652344 1012.40277099609 1007.24993896484 1002.65142822266 997.56787109375 1001.51916503906 1001.56024169922 1011.74475097656 1005.34674072266 993.100036621094 994.410217285156 984.702270507812 986.949462890625 988.458557128906 991.415649414062 998.781494140625 1001.20556640625 999.786499023438 999.735595703125 1009.41009521484 1010.63677978516 1012.76184082031 1014.26416015625 1013.41046142578 1017.71490478516 1020.45355224609 1017.68194580078 1020.34100341797 1024.18127441406 1017.98870849609 1019.09301757812 1020.38128662109 1023.41876220703 1027.83569335938 1016.78338623047 1008.76904296875 1008.53594970703 1009.84643554688 1011.27209472656 1007.29309082031 1000.02807617188 998.621765136719 1000.57922363281 996.614196777344 998.913818359375 1004.27185058594 1005.75903320312 1012.11804199219 1017.14666748047 1014.02130126953 1015.38372802734 1014.36688232422 1010.66833496094 1012.15051269531 1011.23181152344 1017.24481201172 1012.30950927734 1022.49664306641 1014.09985351562 1019.22271728516 1019.13812255859 1024.96875 1019.80505371094 1007.83221435547 1008.94256591797 1014.43133544922 1011.54302978516 1004.58825683594 998.14794921875 983.698181152344 977.052124023438 969.742126464844 945.745300292969 944.245849609375 940.262634277344 949.249633789062 954.333679199219 962.912475585938 968.341735839844 980.660095214844 997.666931152344 997.794372558594 1011.40545654297 1018.29864501953 1025.20751953125 1038.30151367188 1039.53356933594 1033.90954589844 1038.48205566406 1048.09069824219 1045.6748046875 1055.85534667969 1044.44116210938 1052.71081542969 1053.96215820312 1044.45336914062 1051.14624023438 1068.24060058594 1073.32495117188 1062.91516113281 1069.16479492188 1072.97705078125 1079.29357910156 1078.19396972656 1081.93872070312 1089.17919921875 1093.16174316406 1096.60180664062 1097.44689941406 1099.86657714844 1101.75866699219
962.551818847656 964.816162109375 956.112976074219 958.343566894531 952.073913574219 962.388977050781 960.951049804688 969.723510742188 963.592895507812 964.135437011719 964.9296875 969.748291015625 962.240478515625 959.417358398438 960.92626953125 965.598083496094 969.202209472656 965.3212890625 975.284606933594 973.959594726562 973.156555175781 981.442016601562 987.787353515625 983.213439941406 984.439270019531 995.94140625 999.80712890625 995.335144042969 983.2109375 987.16796875 992.107482910156 995.091674804688 1007.56256103516 1003.29077148438 1000.04754638672 1007.94970703125 1002.873046875 1004.54919433594 998.233581542969 998.477172851562 997.200988769531 1000.65222167969 995.151184082031 1003.82751464844 996.684692382812 998.852966308594 1003.58837890625 998.4658203125 997.791137695312 986.438598632812 987.164489746094 978.593017578125 984.149841308594 992.328308105469 991.218566894531 1000.1103515625 1001.43566894531 1002.16870117188 1001.32250976562 998.787170410156 1000.74145507812 1010.35656738281 1011.50402832031 1019.96099853516 1016.5185546875 1010.73999023438 1016.2861328125 1019.53765869141 1023.92010498047 1026.92846679688 1020.12689208984 1012.90258789062 1019.96234130859 1017.74499511719 1002.57073974609 1005.59027099609 1015.10461425781 1011.41522216797 1003.18316650391 992.494567871094 992.002624511719 1003.0830078125 995.161804199219 1003.806640625 998.173767089844 1004.00909423828 1008.86975097656 1012.01983642578 1008.63708496094 1016.50219726562 1012.41497802734 1010.15002441406 1010.91790771484 1001.19213867188 1012.283203125 1011.79162597656 1017.79125976562 1013.27526855469 1017.9794921875 1023.45788574219 1017.18383789062 1017.12878417969 1007.30895996094 1010.72369384766 1008.48046875 1003.11761474609 1007.70434570312 994.26904296875 985.363098144531 978.691345214844 965.8212890625 950.530151367188 946.59033203125 946.350280761719 954.864807128906 954.752136230469 963.89306640625 973.435791015625 987.549560546875 992.240783691406 1005.75299072266 1007.78826904297 1022.51251220703 1030.55822753906 1045.37377929688 1053.36376953125 1044.51733398438 1052.11218261719 1051.75793457031 1046.93664550781 1048.3642578125 1046.95727539062 1048.86669921875 1050.70922851562 1044.29016113281 1053.37072753906 1058.9228515625 1063.64392089844 1069.94079589844 1067.11169433594 1067.64733886719 1076.10668945312 1090.02954101562 1090.04614257812 1088.99584960938 1090.61828613281 1090.04113769531 1095.39672851562 1102.21789550781 1101.18432617188
969.081481933594 957.370971679688 957.417175292969 954.52490234375 962.7138671875 957.548095703125 964.011413574219 964.359558105469 963.101135253906 969.783813476562 968.287414550781 971.898986816406 966.443908691406 963.595703125 972.947204589844 971.984924316406 963.832275390625 972.08203125 971.713989257812 977.806091308594 983.310729980469 985.227661132812 987.439514160156 987.371887207031 988.195068359375 998.791198730469 999.808471679688 999.168395996094 991.8623046875 993.235046386719 997.110168457031 999.315979003906 1001.95556640625 996.911926269531 1006.83459472656 1003.38629150391 1001.0439453125 1008.2373046875 998.596008300781 985.16259765625 984.872863769531 989.999267578125 996.746765136719 997.546142578125 1004.68878173828 997.4833984375 997.073181152344 987.492431640625 988.45751953125 984.351196289062 980.542297363281 973.237670898438 977.128234863281 987.85595703125 994.209533691406 994.062805175781 994.890197753906 985.706726074219 995.130065917969 1004.58569335938 994.658020019531 992.366027832031 1000.28344726562 1006.22924804688 1010.34954833984 1008.74310302734 1002.03332519531 1016.71392822266 1020.13500976562 1016.23779296875 1019.77801513672 1007.06866455078 1004.99383544922 1007.22705078125 1004.05377197266 999.085815429688 1004.32073974609 997.541076660156 1001.05480957031 997.300354003906 994.618286132812 995.701416015625 997.446411132812 999.518737792969 1004.28332519531 1007.96215820312 1009.65130615234 1011.51519775391 1018.11334228516 1017.7958984375 1013.69293212891 1007.56298828125 1008.22430419922 1002.71148681641 1005.84014892578 1004.9296875 1007.32098388672 1011.46337890625 1017.13275146484 1014.75549316406 1016.45202636719 1014.58062744141 1011.53601074219 1010.30718994141 1005.52789306641 1005.86248779297 996.078918457031 988.877746582031 975.919982910156 974.040100097656 963.631408691406 954.593200683594 953.875732421875 958.957885742188 965.343688964844 971.509521484375 975.065368652344 978.698120117188 984.623840332031 995.927307128906 1007.03741455078 1008.80621337891 1018.44500732422 1032.93615722656 1044.43310546875 1039.59130859375 1040.24377441406 1039.95471191406 1045.11926269531 1040.32739257812 1040.13586425781 1045.46716308594 1046.93786621094 1043.05603027344 1038.015625 1046.46875 1053.9140625 1058.81274414062 1065.66540527344 1071.72766113281 1072.19299316406 1071.01000976562 1087.80151367188 1100.39953613281 1094.84265136719 1094.19653320312 1098.04760742188 1102.74572753906 1102.79113769531 1111.54162597656
964.325256347656 970.493103027344 966.055847167969 967.544067382812 967.263000488281 966.592895507812 967.152282714844 966.273742675781 963.135803222656 965.020568847656 977.583740234375 971.145141601562 978.737243652344 979.118286132812 983.945739746094 972.300354003906 978.466979980469 977.383483886719 971.721557617188 981.369567871094 980.023803710938 983.270446777344 986.957214355469 991.710083007812 993.903747558594 994.694580078125 988.850830078125 991.353820800781 992.550659179688 990.669311523438 990.701782226562 995.855529785156 995.879821777344 995.350402832031 995.101623535156 999.446533203125 1002.71124267578 993.249084472656 996.095458984375 999.079162597656 989.623352050781 987.981628417969 990.763366699219 995.351867675781 994.239562988281 996.016418457031 995.94189453125 990.7861328125 985.744445800781 982.342529296875 977.692810058594 971.980407714844 979.738403320312 986.292541503906 989.587524414062 987.121276855469 986.790344238281 990.479370117188 1007.35699462891 1003.724609375 1005.57641601562 1001.33978271484 998.855346679688 1000.83819580078 1004.27886962891 1001.89117431641 1010.24139404297 1017.12005615234 1011.7685546875 1008.24749755859 1006.34564208984 1000.32897949219 1006.61517333984 997.990966796875 998.118530273438 998.773071289062 1004.40856933594 1002.18798828125 998.035766601562 995.413208007812 990.609680175781 990.613342285156 1002.99987792969 1002.7275390625 1007.31335449219 1002.09167480469 1004.35284423828 1006.87725830078 1004.77850341797 1014.13836669922 1017.38684082031 1010.76751708984 1011.47583007812 1016.94384765625 1016.11846923828 1012 1014.05755615234 1011.23193359375 1015.40533447266 1014.7119140625 1013.65057373047 1011.72686767578 1008.83929443359 1001.93548583984 1007.77008056641 996.274597167969 994.34619140625 984.552856445312 972.366760253906 975.214904785156 965.841674804688 953.982971191406 950.531982421875 955.580688476562 955.212280273438 971.659973144531 977.513671875 989.783142089844 994.018432617188 1002.66217041016 1004.54205322266 1010.59912109375 1021.48504638672 1030.58435058594 1037.30004882812 1032.51330566406 1038.93103027344 1035.13000488281 1034.65563964844 1032.43518066406 1041.85791015625 1049.60437011719 1038.23657226562 1027.85559082031 1024.42224121094 1035.37268066406 1043.97717285156 1049.49365234375 1059.50231933594 1069.46508789062 1068.21411132812 1075.65380859375 1080.40100097656 1091.58129882812 1091.10559082031 1095.26501464844 1099.55102539062 1104.84899902344 1111.005859375 1124.76000976562
959.450866699219 968.643981933594 965.280944824219 966.736206054688 968.636901855469 968.105163574219 961.364379882812 963.397644042969 964.603942871094 964.63037109375 971.935485839844 974.59423828125 980.476623535156 978.784790039062 979.646118164062 976.904541015625 980.796325683594 977.549926757812 981.8330078125 994.692199707031 990.184753417969 987.39404296875 992.107238769531 994.78271484375 987.453430175781 989.121154785156 988.880004882812 985.018310546875 987.677917480469 988.349609375 981.323120117188 984.529968261719 983.307739257812 993.903076171875 987.837646484375 993.31689453125 992.557250976562 991.31689453125 990.880554199219 989.578918457031 990.192932128906 992.167846679688 990.962585449219 988.564880371094 988.2841796875 987.350524902344 991.288940429688 993.53759765625 988.188110351562 985.415283203125 979.16943359375 971.350280761719 975.134216308594 986.387756347656 987.8818359375 988.347045898438 988.430236816406 989.6015625 999.4951171875 999.221923828125 1000.09429931641 995.443786621094 988.460632324219 992.445190429688 993.263732910156 1001.61444091797 1009.93267822266 1008.66119384766 1007.56219482422 1014.33209228516 1004.68536376953 993.5087890625 989.010437011719 997.405517578125 998.665771484375 1004.52722167969 1002.95764160156 1003.63159179688 995.233093261719 996.493774414062 1003.77221679688 1004.08001708984 1005.78131103516 1013.5537109375 1019.67718505859 1011.49102783203 1007.54052734375 999.651733398438 997.800598144531 1007.48388671875 1012.44207763672 1013.58673095703 1022.14599609375 1018.12524414062 1017.44848632812 1013.89196777344 1014.63153076172 1016.19970703125 1009.42626953125 1002.58093261719 1008.04431152344 1005.048828125 1004.86584472656 1004.57604980469 1002.51593017578 998.702819824219 996.043151855469 986.391662597656 982.499084472656 974.522338867188 964.807312011719 952.830017089844 953.106750488281 949.401672363281 954.142272949219 958.854675292969 972.879760742188 974.397644042969 984.9111328125 992.405456542969 1001.97296142578 1007.63269042969 1020.14807128906 1025.72973632812 1027.65954589844 1026.85522460938 1026.76696777344 1026.99243164062 1027.19799804688 1029.71313476562 1036.12707519531 1037.58581542969 1041.65563964844 1024.47985839844 1022.84655761719 1023.48181152344 1029.69921875 1036.3642578125 1051.337890625 1055.17419433594 1060.57629394531 1063.75268554688 1073.50207519531 1088.51208496094 1082.95703125 1088.56005859375 1093.90661621094 1109.12658691406 1119.57922363281 1122.76977539062
959.38623046875 966.294555664062 971.43505859375 975.496276855469 961.237670898438 962.008666992188 960.677551269531 967.710998535156 964.836669921875 974.485107421875 966.922729492188 989.639404296875 985.890869140625 992.77392578125 981.177307128906 974.310302734375 975.805297851562 969.83447265625 985.303771972656 996.550415039062 989.969360351562 979.783813476562 984.940612792969 986.050598144531 989.143798828125 988.217407226562 989.963989257812 980.936828613281 987.994445800781 995.572814941406 985.639709472656 979.509887695312 988.805236816406 996.901916503906 985.974975585938 991.75537109375 986.037658691406 985.567138671875 989.883422851562 994.860717773438 994.279724121094 994.774536132812 991.568359375 984.7099609375 981.423583984375 1001.10430908203 988.706787109375 987.184631347656 982.05078125 975.356628417969 975.385192871094 969.09326171875 968.737487792969 985.937438964844 985.389221191406 987.330871582031 981.749755859375 981.613342285156 989.271728515625 989.5068359375 992.888916015625 985.492309570312 994.1240234375 996.769714355469 998.750610351562 1001.03582763672 1006.94506835938 1000.31707763672 1002.00634765625 1007.38098144531 1003.82196044922 998.2685546875 997.378234863281 992.68017578125 985.560913085938 992.053527832031 997.405883789062 995.106689453125 1000.013671875 999.442749023438 998.828552246094 1004.19158935547 1003.09143066406 1008.62579345703 1014.16180419922 1006.56610107422 1010.17108154297 1008.55938720703 1007.61059570312 1005.13153076172 1018.47296142578 1009.93200683594 1017.35394287109 1020.94940185547 1015.74694824219 1012.51171875 1013.93103027344 1010.14862060547 1007.0166015625 995.952758789062 996.400512695312 1002.41595458984 1001.00640869141 993.820007324219 1003.42321777344 1002.57659912109 994.605163574219 985.351318359375 984.515441894531 980.919494628906 969.998962402344 953.13330078125 949.186462402344 941.745361328125 952.086181640625 950.898010253906 961.962341308594 970.862365722656 971.152770996094 984.700561523438 1001.99908447266 1005.76300048828 1015.4677734375 1024.69079589844 1011.63452148438 1018.44903564453 1018.80004882812 1031.62219238281 1032.12780761719 1032.26281738281 1035.00244140625 1032.55261230469 1032.48510742188 1027.61657714844 1025.43103027344 1024.6220703125 1023.25274658203 1036.85034179688 1045.15954589844 1057.41772460938 1050.17712402344 1055.19665527344 1073.56372070312 1084.88195800781 1079.39880371094 1083.95959472656 1101.81640625 1110.34118652344 1118.93701171875 1129.1328125
964.564208984375 960.031860351562 960.552734375 963.8505859375 964.497253417969 964.257019042969 968.737548828125 969.21240234375 970.369384765625 972.616271972656 971.34912109375 983.397521972656 985.993957519531 984.493225097656 978.160217285156 974.805725097656 972.764770507812 979.5888671875 980.024230957031 983.651062011719 987.846923828125 982.093811035156 984.790649414062 991.100952148438 990.480163574219 990.793090820312 984.877502441406 988.176086425781 982.670166015625 988.49560546875 984.103149414062 983.457336425781 980.73486328125 993.072692871094 987.026306152344 991.012939453125 983.966552734375 982.730651855469 991.406188964844 990.276611328125 997.113830566406 989.770874023438 993.286437988281 985.373413085938 988.339233398438 986.448303222656 992.463134765625 984.391296386719 982.171508789062 980.410766601562 976.658874511719 981.25 972.679077148438 977.828063964844 977.045593261719 977.418395996094 969.255554199219 969.360473632812 978.745056152344 970.758178710938 972.273986816406 990.532470703125 995.321350097656 1001.16003417969 991.371520996094 995.168151855469 994.8095703125 1001.16735839844 1001.87457275391 994.344055175781 993.008666992188 992.795043945312 993.30419921875 994.703796386719 992.002502441406 988.189453125 987.539367675781 989.198974609375 989.01123046875 996.202514648438 1000.94622802734 1004.13787841797 1011.30200195312 1001.96997070312 1003.18359375 1002.94421386719 1017.12054443359 1007.39685058594 1015.13903808594 1010.94567871094 1011.27423095703 1027.65844726562 1011.94439697266 1017.51666259766 1014.33099365234 1013.71228027344 1013.37683105469 1005.06921386719 995.801208496094 991.584655761719 994.020629882812 997.355651855469 995.277526855469 993.295166015625 1000.86029052734 993.809143066406 996.998168945312 992.751342773438 989.097229003906 983.599853515625 981.78369140625 961.764221191406 951.974487304688 944.188720703125 944.139221191406 949.180847167969 958.686096191406 970.52099609375 969.549255371094 993.726257324219 997.253112792969 1008.45703125 1012.26635742188 1012.56280517578 1023.69372558594 1016.1689453125 1017.92993164062 1032.75915527344 1029.39025878906 1032.70703125 1029.24182128906 1026.29956054688 1025.99658203125 1021.75158691406 1028.00183105469 1027.51037597656 1026.04418945312 1032.02758789062 1043.72033691406 1046.48071289062 1055.14990234375 1068.35681152344 1075.94409179688 1068.89123535156 1077.73193359375 1091.48522949219 1099.75561523438 1110.57470703125 1117.82470703125 1126.58874511719
961.681213378906 960.985168457031 958.137817382812 956.020263671875 954.097351074219 957.843688964844 971.5634765625 970.717041015625 974.194580078125 965.302612304688 970.804138183594 978.735046386719 981.538208007812 980.327880859375 978.697814941406 972.887451171875 974.344360351562 980.8779296875 984.058532714844 987.259216308594 989.562561035156 987.013793945312 987.930786132812 985.523742675781 985.119750976562 995.722717285156 984.371948242188 985.424621582031 983.527648925781 980.963806152344 993.118041992188 986.351318359375 992.446166992188 987.473937988281 987.686218261719 985.015319824219 980.878479003906 977.133605957031 990.880065917969 989.60009765625 992.103759765625 990.052673339844 989.127380371094 983.45166015625 981.938171386719 985.689086914062 982.670104980469 986.372131347656 983.920654296875 971.39404296875 976.879211425781 977.266540527344 980.997192382812 975.129760742188 971.674194335938 965.104431152344 967.253112792969 964.554626464844 961.669311523438 962.011840820312 974.143859863281 986.824279785156 991.401977539062 991.162475585938 998.625 997.698425292969 996.348449707031 999.04736328125 997.3115234375 994.201110839844 991.530578613281 991.383117675781 999.205810546875 991.847351074219 1002.02355957031 990.978454589844 989.385192871094 986.371154785156 991.599060058594 1004.41564941406 991.487243652344 993.633422851562 997.23046875 1004.72924804688 1013.23547363281 1007.19104003906 1012.69500732422 1006.14343261719 1013.494140625 1010.90594482422 1010.28845214844 1011.98077392578 1013.33764648438 1008.54089355469 1014.58441162109 1010.97235107422 999.988586425781 1001.63452148438 1001.24914550781 996.287902832031 997.487426757812 999.347106933594 991.289306640625 997.304138183594 1004.47863769531 990.347412109375 994.411254882812 996.269958496094 990.402282714844 990.864501953125 972.315551757812 965.408508300781 958.744201660156 946.218872070312 949.442016601562 953.872314453125 967.836608886719 969.962585449219 984.528076171875 988.635864257812 1005.60485839844 1006.50268554688 1000.05590820312 1000.55541992188 1017.76916503906 1021.30230712891 1025.39526367188 1029.89489746094 1024.0234375 1027.50927734375 1020.06176757812 1018.77947998047 1014.45806884766 1021.63214111328 1024.28063964844 1026.93188476562 1028.65759277344 1028.69836425781 1038.39733886719 1046.79760742188 1067.10083007812 1073.06469726562 1072.04479980469 1072.55444335938 1077.19018554688 1091.2060546875 1089.330078125 1104.55798339844 1118.98986816406 1123.61315917969
952.3916015625 958.676818847656 959.425903320312 957.409545898438 958.020751953125 961.241516113281 972.96533203125 974.538818359375 968.724304199219 972.993469238281 974.776000976562 979.136413574219 977.920532226562 969.327270507812 970.647155761719 974.715637207031 982.3076171875 982.711669921875 981.821411132812 987.474243164062 982.480102539062 976.730041503906 979.476867675781 984.670654296875 988.031494140625 991.294860839844 979.027770996094 984.937316894531 986.336975097656 986.070007324219 986.408752441406 995.776184082031 985.329956054688 987.255615234375 986.34130859375 984.06396484375 980.571838378906 986.075378417969 995.883117675781 989.906860351562 986.26416015625 986.991271972656 990.290222167969 978.310241699219 983.709777832031 989.720336914062 986.674011230469 985.963134765625 979.943237304688 983.338806152344 987.207275390625 983.313781738281 978.723266601562 969.006652832031 973.967834472656 965.048217773438 964.208923339844 961.619689941406 958.955627441406 966.073486328125 966.475646972656 972.951171875 985.69384765625 988.957580566406 987.903991699219 993.491638183594 996.183776855469 993.670776367188 987.672973632812 994.411254882812 986.571899414062 991.141174316406 986.503112792969 991.216613769531 994.672058105469 993.495971679688 986.358764648438 993.035400390625 991.765869140625 998.098754882812 1000.66198730469 1003.04779052734 998.723999023438 1002.32373046875 1005.22546386719 1009.23870849609 1014.66870117188 1010.31634521484 1012.16339111328 1010.60290527344 1013.14477539062 1015.99334716797 1006.15533447266 1005.21313476562 1009.36328125 1003.16363525391 995.544067382812 997.861877441406 1000.35565185547 1005.63751220703 1003.51910400391 993.698974609375 989.280822753906 994.608642578125 991.065612792969 1004.05541992188 994.983215332031 998.615173339844 1003.98083496094 997.071716308594 982.361328125 969.85205078125 964.635681152344 953.576843261719 958.903015136719 964.587768554688 974.628845214844 991.30126953125 992.6884765625 1002.76251220703 1002.81610107422 1002.49615478516 998.402893066406 1006.24578857422 1009.28497314453 1020.55523681641 1021.68701171875 1021.58715820312 1024.67541503906 1023.43542480469 1009.06964111328 1011.71417236328 1015.84204101562 1015.49755859375 1015.21221923828 1025.57604980469 1023.0986328125 1032.69763183594 1041.12390136719 1049.41076660156 1051.47814941406 1062.85034179688 1077.48205566406 1066.19909667969 1074.12390136719 1084.64184570312 1099.015625 1107.67944335938 1123.06335449219 1124.63464355469
952.121704101562 957.234008789062 957.244384765625 953.584350585938 957.857299804688 958.406188964844 971.41259765625 971.924255371094 971.345336914062 977.558654785156 976.6005859375 973.272888183594 967.973327636719 961.75732421875 969.68310546875 975.258544921875 982.431213378906 974.0966796875 984.061401367188 984.074584960938 979.156311035156 977.838439941406 971.327941894531 978.782897949219 986.382690429688 981.87744140625 971.341247558594 982.101745605469 975.599792480469 977.557250976562 979.84228515625 984.555908203125 987.170471191406 980.437438964844 986.83349609375 993.890258789062 992.711669921875 982.772705078125 984.502380371094 982.229370117188 977.533142089844 981.083862304688 977.896484375 975.70751953125 976.282409667969 980.723388671875 986.513305664062 980.214233398438 983.911804199219 980.119445800781 983.332397460938 979.308410644531 972.624572753906 965.779541015625 963.735412597656 965.064819335938 972.04443359375 969.712951660156 966.375915527344 963.613159179688 969.728332519531 977.089294433594 982.071533203125 978.259338378906 986.144287109375 990.78515625 988.002136230469 989.731872558594 990.692810058594 994.989318847656 982.480834960938 986.013244628906 982.106994628906 989.226867675781 1001.78363037109 1002.9287109375 1001.94232177734 993.650390625 1005.92669677734 1003.24755859375 996.46923828125 1006.79913330078 997.147644042969 998.249877929688 1006.72723388672 1010.24554443359 1016.73944091797 1014.22698974609 1011.35607910156 1014.35424804688 1011.09405517578 1013.76672363281 1012.42266845703 1009.36468505859 1010.046875 998.862915039062 998.581970214844 1004.63018798828 1008.66741943359 1003.81030273438 1003.14788818359 998.270629882812 995.000732421875 986.62548828125 1000.67694091797 993.750610351562 986.763366699219 993.526672363281 994.735656738281 992.211120605469 989.3955078125 970.767822265625 972.468811035156 962.559997558594 965.238159179688 976.208129882812 985.036315917969 991.210144042969 1005.74310302734 1006.70330810547 1005.1728515625 1000.84661865234 1010.48803710938 1012.67834472656 1013.67370605469 1017.96954345703 1018.60314941406 1017.36291503906 1005.044921875 1009.13299560547 1005.78186035156 1005.00225830078 1008.66772460938 1014.43200683594 1021.54113769531 1025.64538574219 1027.07165527344 1034.34045410156 1037.63610839844 1044.03564453125 1042.18408203125 1058.38549804688 1065.37097167969 1079.97595214844 1084.97448730469 1097.86706542969 1103.60961914062 1112.2705078125 1130.072265625 1125.11999511719
950.626098632812 951.144287109375 958.034484863281 958.132751464844 960.659790039062 966.865417480469 976.326232910156 974.62109375 971.768615722656 976.282409667969 983.218383789062 977.921447753906 966.830871582031 971.701721191406 971.482604980469 972.446411132812 973.78857421875 975.335327148438 985.895385742188 987.801879882812 984.7939453125 976.226318359375 974.459228515625 979.726196289062 975.978759765625 975.207397460938 967.882690429688 970.300659179688 968.508544921875 976.083068847656 984.627075195312 982.4697265625 978.593933105469 988.359497070312 993.026550292969 984.869567871094 994.52197265625 993.1689453125 983.405090332031 975.295715332031 974.327392578125 971.683776855469 982.848876953125 984.344604492188 981.106567382812 971.930603027344 976.755493164062 972.309631347656 980.783813476562 975.202270507812 977.749389648438 975.412170410156 967.796264648438 971.226013183594 964.656127929688 977.134643554688 980.293151855469 972.072631835938 965.25244140625 966.438415527344 966.619995117188 974.444396972656 974.364379882812 977.320922851562 981.777893066406 983.968505859375 991.285705566406 982.774536132812 981.353881835938 980.126647949219 979.784973144531 982.341796875 986.316650390625 992.552368164062 1006.14953613281 1008.31878662109 1007.01379394531 995.855651855469 995.613891601562 991.946472167969 992.430358886719 995.891357421875 997.396789550781 1001.26062011719 1018.56573486328 1014.8359375 1012.54364013672 1018.99829101562 1018.09008789062 1021.67724609375 1019.25402832031 1007.98950195312 1009.12255859375 1009.23547363281 1014.98278808594 1004.49359130859 1007.06689453125 1009.58880615234 1005.81127929688 1003.05163574219 1006.88543701172 999.840026855469 993.739501953125 991.794738769531 992.217956542969 990.79443359375 989.04638671875 990.356384277344 986.214050292969 997.624816894531 987.90087890625 981.896667480469 984.110900878906 981.020080566406 975.447204589844 985.310180664062 986.341918945312 997.558837890625 1003.33050537109 1009.99487304688 1008.95526123047 1012.84313964844 1015.08544921875 1010.45672607422 1012.41003417969 1019.87182617188 1025.78686523438 1016.24346923828 1007.31402587891 1013.64117431641 1005.46337890625 1007.59307861328 1009.0791015625 1010.39489746094 1018.77252197266 1031.50561523438 1029.26965332031 1028.29919433594 1038.021484375 1048.58935546875 1047.77062988281 1052.15002441406 1059.07299804688 1078.48156738281 1092.20556640625 1101.16198730469 1107.47741699219 1109.97888183594 1125.48205566406 1129.06213378906
943.376953125 953.085632324219 961.654724121094 971.810241699219 966.959899902344 969.295715332031 972.882995605469 974.693725585938 972.364868164062 978.857421875 980.806701660156 978.906799316406 982.523986816406 969.933349609375 963.889465332031 967.781921386719 969.839416503906 973.098205566406 977.138549804688 985.922241210938 978.263000488281 978.294921875 979.15673828125 979.141479492188 977.6748046875 971.216796875 969.966369628906 971.24609375 969.406005859375 976.896911621094 983.234985351562 982.469421386719 988.877868652344 987.112182617188 983.356872558594 988.671020507812 996.313842773438 994.989990234375 978.505554199219 970.563537597656 975.752319335938 971.988586425781 979.265625 980.590942382812 973.06201171875 969.505676269531 972.296508789062 971.279174804688 970.128234863281 973.911865234375 978.700927734375 972.003601074219 965.134338378906 969.564025878906 971.861755371094 986.859680175781 981.833251953125 968.93017578125 966.89111328125 972.209045410156 970.856872558594 964.349853515625 970.462951660156 982.059509277344 976.774230957031 983.526733398438 985.066711425781 982.412902832031 982.123107910156 976.781372070312 976.205688476562 982.464477539062 989.232299804688 993.146667480469 990.499938964844 1002.21057128906 1000.78179931641 994.657836914062 985.897216796875 989.820068359375 991.561340332031 998.449401855469 998.936401367188 1010.19989013672 1019.76190185547 1016.76544189453 1013.85577392578 1011.04595947266 1015.56005859375 1020.24206542969 1018.83184814453 1006.64404296875 1005.12048339844 1006.69750976562 1004.84320068359 1007.39733886719 999.991271972656 1003.25073242188 1002.29815673828 1005.73132324219 997.986267089844 992.601806640625 1008.40789794922 1000.40783691406 990.756469726562 985.616271972656 996.1708984375 997.1005859375 992.766723632812 989.527709960938 992.001098632812 994.007141113281 995.890014648438 985.9736328125 988.065673828125 983.024841308594 995.034851074219 994.017150878906 999.829162597656 1012.83917236328 1005.25286865234 1008.48120117188 1008.54724121094 1009.36254882812 1019.43218994141 1022.78161621094 1027.02551269531 1012.39221191406 1013.32470703125 1009.39782714844 1010.85583496094 1009.13800048828 1005.46185302734 1015.93994140625 1025.1220703125 1036.615234375 1039.12683105469 1036.32238769531 1043.55310058594 1054.74340820312 1053.21423339844 1063.67553710938 1066.21313476562 1084.18994140625 1093.28308105469 1102.36608886719 1115.70715332031 1107.52795410156 1127.65454101562 1137.37097167969
948.078186035156 950.139831542969 960.872497558594 968.08837890625 961.687866210938 965.113159179688 977.092163085938 974.943420410156 974.845886230469 976.969909667969 980.997253417969 985.672302246094 976.728210449219 965.114196777344 966.544128417969 972.230590820312 970.412170410156 970.712585449219 987.161926269531 977.595825195312 977.439636230469 980.948913574219 977.985778808594 977.799072265625 979.411743164062 970.93017578125 963.894775390625 965.421081542969 980.46337890625 989.781188964844 984.079162597656 984.730346679688 983.477966308594 986.180847167969 980.798950195312 989.284240722656 988.440307617188 979.096374511719 976.689819335938 983.701416015625 969.527587890625 974.059936523438 975.780639648438 969.940856933594 972.976623535156 968.27880859375 963.599487304688 961.752075195312 967.595031738281 967.069519042969 976.030578613281 979.264465332031 969.179138183594 967.750854492188 965.784545898438 979.509216308594 978.571655273438 976.608825683594 968.5439453125 958.101928710938 966.498596191406 963.815124511719 964.320129394531 976.275207519531 966.84375 974.832763671875 979.867980957031 981.272705078125 978.180114746094 973.017883300781 974.90234375 983.170227050781 989.952819824219 992.453430175781 986.128845214844 994.678039550781 997.036254882812 990.510986328125 984.917785644531 978.433471679688 982.75341796875 988.680480957031 992.383972167969 1013.70263671875 1015.72448730469 1023.40753173828 1015.25268554688 1006.42376708984 1009.53454589844 1016.16320800781 1012.70806884766 1005.28784179688 1001.05841064453 1001.17083740234 1003.46221923828 1010.55181884766 1001.80023193359 998.929931640625 997.123840332031 1010.56085205078 1002.14471435547 995.756652832031 993.34765625 999.155639648438 994.219970703125 994.824279785156 1000.01916503906 987.548461914062 988.586303710938 990.570922851562 997.09619140625 1001.90972900391 999.010437011719 997.402954101562 995.802490234375 994.683898925781 998.155883789062 999.171813964844 1001.673828125 1006.96429443359 998.606994628906 1004.26043701172 1005.25579833984 1004.86322021484 1005.60772705078 1013.05822753906 1020.97003173828 1015.92639160156 1018.15637207031 1012.86297607422 1010.25720214844 1013.00695800781 1014.73400878906 1017.67993164062 1027.90490722656 1036.0126953125 1035.56555175781 1042.73706054688 1042.81872558594 1057.6435546875 1068.130859375 1069.02001953125 1076.65441894531 1091.80285644531 1110.64379882812 1122.76916503906 1127.51391601562 1118.80480957031 1128.7392578125 1133.91296386719
956.114379882812 957.216491699219 968.0556640625 965.188293457031 969.267333984375 970.940124511719 982.346557617188 971.395935058594 972.461547851562 969.585632324219 980.180541992188 983.271789550781 977.364135742188 963.827392578125 965.47998046875 969.32666015625 972.039367675781 976.1201171875 977.043762207031 974.773620605469 984.450622558594 979.854187011719 974.801208496094 974.331359863281 977.636474609375 977.376525878906 966.22900390625 976.614074707031 984.753173828125 981.039306640625 982.14404296875 978.047546386719 980.673706054688 986.099548339844 980.045349121094 988.365051269531 981.347778320312 972.77490234375 975.813537597656 980.309265136719 977.408874511719 973.80615234375 972.792785644531 979.963928222656 968.878295898438 967.468688964844 972.124389648438 970.680236816406 970.358276367188 968.035583496094 975.658752441406 967.931335449219 973.48095703125 970.223815917969 970.913635253906 976.327758789062 970.557067871094 968.9443359375 968.183044433594 966.376892089844 963.045227050781 963.843627929688 961.369445800781 978.653747558594 972.023010253906 974.491088867188 973.839904785156 970.616760253906 966.730041503906 970.139343261719 968.214050292969 970.5009765625 980.159057617188 994.887023925781 978.350036621094 988.226989746094 983.372436523438 981.555297851562 979.630187988281 981.25341796875 982.72265625 992.768798828125 994.200927734375 1005.90869140625 1006.98089599609 1008.87719726562 1008.09875488281 997.714660644531 1013.13018798828 1012.21112060547 1006.44525146484 1002.04724121094 993.161010742188 1005.57470703125 995.354553222656 1000.80603027344 999.594787597656 996.863342285156 999.153137207031 1002.53857421875 991.207824707031 993.005249023438 987.772583007812 987.032470703125 996.388916015625 997.943481445312 1002.45910644531 995.627380371094 992.255493164062 990.032043457031 991.964294433594 1003.7841796875 1001.22174072266 1007.16998291016 1001.82568359375 992.09326171875 1002.05725097656 998.987854003906 1001.20971679688 1001.30560302734 991.205383300781 993.905822753906 991.243835449219 1001.66253662109 999.655395507812 1006.05810546875 1007.96142578125 1018.25726318359 1013.81182861328 1016.57598876953 1019.79321289062 1019.26007080078 1024.888671875 1020.91925048828 1024.34228515625 1037.978515625 1033.4619140625 1050.32592773438 1057.68591308594 1069.2001953125 1075.31811523438 1076.86108398438 1081.46472167969 1090.05419921875 1105.60461425781 1126.96362304688 1128.80786132812 1132.06726074219 1134.0498046875 1142.65637207031
949.61865234375 959.607238769531 964.262817382812 966.33056640625 973.693542480469 973.598571777344 973.151184082031 971.475463867188 970.389038085938 967.201721191406 976.288269042969 978.58056640625 974.515075683594 969.325378417969 967.706604003906 977.370849609375 978.0546875 976.181091308594 982.733581542969 985.868774414062 980.214233398438 978.30126953125 978.015380859375 975.466003417969 975.825317382812 972.170471191406 967.031433105469 972.872131347656 983.287841796875 978.230651855469 984.022521972656 980.294799804688 977.892517089844 977.966674804688 976.184814453125 982.918090820312 978.463500976562 973.603515625 973.201354980469 972.618896484375 981.314453125 970.272399902344 975.613037109375 974.529235839844 981.535583496094 975.429504394531 971.354919433594 968.035400390625 969.811828613281 969.523803710938 963.493591308594 960.068542480469 964.945251464844 971.134216308594 974.031616210938 966.336853027344 970.608276367188 971.8486328125 958.734313964844 966.2568359375 965.719482421875 969.269409179688 969.584228515625 972.250671386719 975.111267089844 973.9501953125 970.8505859375 962.719787597656 967.414611816406 967.994689941406 965.039123535156 963.379577636719 974.77001953125 975.280090332031 981.033325195312 981.219848632812 978.026062011719 976.265930175781 978.019470214844 981.160217285156 987.927978515625 982.051818847656 990.106384277344 1004.32470703125 1003.33868408203 1004.85675048828 1008.91613769531 1002.79644775391 993.868103027344 997.116333007812 999.159851074219 1002.04620361328 1000.90887451172 992.859558105469 991.385070800781 992.232604980469 997.1640625 988.940734863281 987.728515625 988.681091308594 989.932434082031 995.746459960938 981.156494140625 989.377136230469 989.749450683594 993.740844726562 992.702453613281 994.456970214844 989.278015136719 995.6640625 996.484741210938 1006.52105712891 997.972229003906 1002.2841796875 996.120178222656 995.339538574219 996.141235351562 996.925231933594 994.8095703125 995.086242675781 999.801452636719 996.888732910156 996.424926757812 995.816772460938 1000.470703125 996.78759765625 1002.65411376953 1017.08966064453 1017.55157470703 1020.58135986328 1017.10290527344 1024.65942382812 1030.17395019531 1028.18505859375 1028.83813476562 1039.212890625 1048.56616210938 1049.83154296875 1063.18493652344 1068.91931152344 1085.11669921875 1085.26745605469 1087.40148925781 1097.70788574219 1116.07006835938 1130.6787109375 1133.01647949219 1136.91186523438 1140.32202148438 1151.24829101562
945.887634277344 949.0751953125 963.225158691406 968.364501953125 970.446228027344 965.814270019531 962.073303222656 966.06884765625 972.868225097656 967.909484863281 975.610534667969 974.205261230469 970.781616210938 972.856018066406 969.484191894531 979.980102539062 977.075622558594 977.58056640625 978.476745605469 983.926940917969 975.819213867188 977.064636230469 959.787292480469 970.601867675781 969.105712890625 972.023010253906 972.000610351562 972.344421386719 974.898010253906 984.12548828125 981.956115722656 977.009399414062 977.959228515625 981.454956054688 987.469787597656 982.792297363281 980.759155273438 968.647216796875 966.176513671875 969.401794433594 973.420532226562 976.076965332031 969.940856933594 966.688659667969 979.807373046875 978.179321289062 972.782165527344 963.858703613281 966.813720703125 973.061767578125 962.322570800781 960.092346191406 960.180603027344 967.179992675781 972.642883300781 965.243713378906 966.2265625 964.297546386719 969.116271972656 962.445373535156 961.412231445312 970.802307128906 969.188659667969 966.662902832031 972.996398925781 973.77392578125 965.523010253906 958.547668457031 964.885559082031 968.940734863281 971.859802246094 970.1806640625 973.8544921875 976.890747070312 987.876953125 988.961608886719 971.75146484375 978.051147460938 980.536071777344 979.874938964844 981.622863769531 988.862182617188 989.418579101562 992.278686523438 995.267883300781 1003.06390380859 1013.50524902344 1009.18103027344 992.641296386719 994.237915039062 997.037536621094 995.843872070312 990.738403320312 987.990600585938 990.67919921875 999.177429199219 988.876953125 985.261535644531 990.856384277344 991.409851074219 985.050415039062 984.074645996094 988.071594238281 986.71044921875 987.953857421875 992.875793457031 991.848388671875 983.174682617188 982.926086425781 1001.83227539062 998.061828613281 995.518188476562 993.096008300781 997.914672851562 1002.49224853516 1002.13391113281 997.166809082031 996.769958496094 994.097473144531 993.146789550781 985.357482910156 997.3564453125 993.937377929688 998.840026855469 1002.39978027344 1004.96154785156 1004.68566894531 1004.96771240234 1012.30267333984 1024.15783691406 1032.59765625 1036.29077148438 1039.55981445312 1041.01879882812 1042.0546875 1048.94421386719 1053.58752441406 1058.78442382812 1061.07263183594 1074.93017578125 1085.05041503906 1094.43054199219 1095.68688964844 1106.99841308594 1132.09191894531 1133.89025878906 1135.16064453125 1141.52661132812 1154.17260742188 1155.146484375
936.518432617188 948.06298828125 953.464233398438 960.192810058594 957.846801757812 963.1787109375 958.435729980469 963.885131835938 962.623901367188 972.774597167969 966.135620117188 972.360046386719 968.063598632812 963.205383300781 967.904663085938 977.042053222656 975.198547363281 977.32763671875 974.137512207031 974.866760253906 972.73583984375 969.501037597656 971.283264160156 974.65087890625 969.609252929688 967.265380859375 968.373596191406 960.993774414062 967.146362304688 982.361877441406 975.134582519531 979.47119140625 975.906616210938 989.422119140625 985.938354492188 985.47314453125 977.597717285156 977.719787597656 973.45068359375 968.736450195312 975.019958496094 975.703186035156 969.149841308594 972.355834960938 979.150939941406 973.998779296875 982.096496582031 970.313415527344 975.239868164062 975.585693359375 966.204467773438 959.135803222656 962.756652832031 969.831115722656 976.256164550781 971.415283203125 969.668212890625 967.603820800781 953.905517578125 964.168884277344 973.086059570312 968.731994628906 974.541076660156 968.541381835938 970.837890625 970.459594726562 961.67333984375 963.760070800781 961.14892578125 965.480712890625 963.100524902344 971.344970703125 966.444885253906 972.312805175781 974.926696777344 975.215393066406 968.618896484375 979.059265136719 979.535095214844 984.449951171875 990.309204101562 983.613708496094 977.716979980469 995.163330078125 997.006958007812 998.612365722656 994.933349609375 993.155456542969 989.6640625 989.781921386719 990.413269042969 996.711791992188 986.732238769531 975.282531738281 985.436706542969 985.495544433594 989.675476074219 998.013488769531 993.496887207031 989.279113769531 982.731628417969 986.917541503906 983.710021972656 978.630432128906 986.753784179688 992.120666503906 986.815063476562 985.676147460938 984.128662109375 997.734558105469 995.111389160156 1003.99652099609 995.532653808594 1006.77001953125 992.893859863281 994.5048828125 1000.67120361328 993.33349609375 989.543395996094 989.921691894531 990.230773925781 990.646606445312 995.524963378906 995.552307128906 1009.69073486328 1012.79040527344 1011.68316650391 1010.10430908203 1019.1005859375 1028.72607421875 1038.0830078125 1041.13342285156 1046.99108886719 1048.24169921875 1046.95324707031 1056.00573730469 1055.17724609375 1064.45825195312 1068.34851074219 1081.91723632812 1089.44921875 1103.47424316406 1106.00756835938 1112.97705078125 1129.16796875 1138.69079589844 1142.86364746094 1153.58862304688 1157.68200683594 1156.62438964844
929.949768066406 945.920654296875 946.654113769531 963.143249511719 951.790588378906 957.893432617188 962.829650878906 957.990661621094 956.036804199219 957.828186035156 963.461547851562 963.546997070312 972.666320800781 967.896484375 965.626220703125 964.830078125 974.503845214844 979.081420898438 978.871643066406 978.564514160156 978.16162109375 969.686645507812 962.850402832031 966.162902832031 972.252319335938 972.936828613281 974.803100585938 970.255981445312 970.224731445312 982.571350097656 979.108703613281 984.465759277344 990.866638183594 986.8046875 978.787719726562 979.865051269531 976.48681640625 967.685424804688 975.000732421875 973.817565917969 970.586791992188 963.721740722656 970.3017578125 973.523498535156 983.543518066406 981.894226074219 982.119567871094 975.128967285156 978.554626464844 972.83642578125 961.289245605469 964.315063476562 964.279541015625 964.182067871094 969.257873535156 977.474609375 964.076293945312 958.848327636719 959.855163574219 974.210021972656 984.820007324219 979.054565429688 975.294921875 971.535949707031 972.952941894531 971.361389160156 966.377502441406 967.493286132812 959.843505859375 969.418029785156 973.896423339844 964.008239746094 963.721984863281 969.760986328125 968.926208496094 972.322082519531 974.749816894531 986.585205078125 974.609802246094 984.858093261719 983.21533203125 975.870910644531 979.217407226562 990.670837402344 994.643188476562 996.845458984375 991.521362304688 985.385803222656 980.125915527344 979.241516113281 983.878967285156 986.908996582031 978.216491699219 978.915405273438 984.4443359375 986.490600585938 988.511108398438 1002.806640625 996.097106933594 988.873229980469 984.251953125 982.864379882812 985.363830566406 983.283264160156 991.013916015625 990.014282226562 994.510681152344 981.909545898438 983.056579589844 994.128784179688 988.870910644531 992.489379882812 985.933898925781 992.5126953125 987.244812011719 992.010559082031 1002.13323974609 994.792419433594 993.091430664062 991.125366210938 990.423156738281 994.422973632812 996.223327636719 994.864013671875 1003.00030517578 1008.46142578125 1010.62896728516 1019.71502685547 1020.91278076172 1034.60803222656 1037.46801757812 1044.00134277344 1055.08923339844 1062.62658691406 1054.62329101562 1059.09484863281 1059.10168457031 1073.22119140625 1074.6328125 1076.47705078125 1094.20373535156 1101.21203613281 1118.29040527344 1119.80444335938 1141.24047851562 1146.46606445312 1150.09057617188 1161.69445800781 1167.58117675781 1166.34460449219
943.067199707031 946.521667480469 950.503845214844 968.059204101562 953.26171875 953.727844238281 961.773254394531 964.252502441406 961.752502441406 957.430480957031 958.980407714844 965.617858886719 969.46875 960.681274414062 970.321655273438 968.664916992188 967.119445800781 969.557739257812 979.999084472656 982.907531738281 983.102600097656 964.207946777344 969.9755859375 968.533325195312 964.398498535156 975.72412109375 980.642211914062 976.244934082031 979.678649902344 981.134033203125 975.431274414062 981.829895019531 981.403137207031 976.180541992188 971.160705566406 968.023864746094 963.22021484375 965.235412597656 973.087463378906 969.942504882812 970.10546875 968.108337402344 967.360534667969 976.61767578125 982.739013671875 972.337707519531 973.682434082031 982.894592285156 975.934509277344 967.361083984375 961.624328613281 962.630737304688 959.396301269531 971.849243164062 970.281677246094 966.825744628906 962.005798339844 956.559875488281 961.795349121094 969.900695800781 978.088195800781 977.312622070312 988.553283691406 983.417419433594 974.020629882812 974.888488769531 963.137634277344 965.983032226562 969.882751464844 972.214233398438 968.455200195312 973.444213867188 974.134460449219 965.078430175781 964.312072753906 966.341003417969 968.161376953125 967.724182128906 969.699645996094 970.372375488281 976.062438964844 979.215698242188 980.598999023438 982.444396972656 982.798583984375 983.031372070312 988.437255859375 985.133483886719 984.812072753906 971.31494140625 984.050476074219 977.857421875 979.520385742188 971.396606445312 981.106872558594 985.23291015625 980.722473144531 984.742248535156 990.230773925781 986.423706054688 979.186218261719 982.957580566406 987.954406738281 983.848876953125 984.093139648438 984.666809082031 978.657348632812 980.491088867188 981.986877441406 988.315124511719 984.9853515625 989.253784179688 993.420471191406 992.38037109375 996.121887207031 1008.05163574219 1006.60101318359 998.752868652344 997.278503417969 997.474060058594 996.265930175781 998.789978027344 996.231506347656 991.61865234375 1003.77642822266 1007.01342773438 1008.59289550781 1024.71215820312 1030.60009765625 1037.46533203125 1036.34106445312 1044.87438964844 1059.69787597656 1068.58361816406 1060.45715332031 1064.47790527344 1076.166015625 1083.21716308594 1080.546875 1082.03649902344 1096.46362304688 1097.75537109375 1106.98425292969 1125.03076171875 1138.3291015625 1146.98046875 1167.10290527344 1163.5498046875 1159.47521972656 1154.21252441406
943.874450683594 950.4775390625 952.077026367188 955.975524902344 960.084411621094 954.462280273438 951.370971679688 959.460205078125 960.694641113281 968.170837402344 968.554138183594 968.10107421875 964.534729003906 965.540893554688 966.911743164062 970.368835449219 961.928344726562 970.504699707031 972.828247070312 979.635437011719 977.096130371094 966.779235839844 972.517395019531 964.997009277344 961.481750488281 974.273559570312 974.209350585938 978.74951171875 979.696044921875 975.896728515625 978.089416503906 985.718139648438 982.693054199219 975.690307617188 976.594055175781 968.74267578125 964.634643554688 966.017883300781 978.414916992188 969.218688964844 967.230285644531 962.798645019531 966.215026855469 974.7265625 965.366149902344 964.048034667969 974.038879394531 973.616516113281 973.753723144531 965.567199707031 961.473876953125 961.432312011719 969.734558105469 971.624938964844 967.034606933594 968.630126953125 965.213317871094 967.468627929688 965.195617675781 972.010803222656 972.167236328125 977.331176757812 981.297912597656 973.915710449219 976.323974609375 977.716003417969 969.718688964844 965.479125976562 962.997375488281 960.930541992188 967.656677246094 968.885498046875 967.899047851562 965.598754882812 963.395568847656 968.899475097656 963.669250488281 966.446044921875 962.119140625 959.742126464844 966.614929199219 980.770935058594 983.299255371094 980.087341308594 975.771301269531 986.723205566406 986.4384765625 983.422058105469 977.954162597656 975.621887207031 974.70849609375 977.237548828125 974.423583984375 976.039916992188 984.355102539062 979.485107421875 970.308227539062 978.296325683594 976.018859863281 979.303039550781 972.680236816406 980.323852539062 983.079040527344 979.759643554688 981.8984375 981.094970703125 974.260131835938 976.795654296875 981.621520996094 986.624755859375 989.041931152344 991.347473144531 992.729858398438 994.264770507812 1001.19128417969 1002.52697753906 1007.45404052734 1004.15655517578 999.954833984375 1002.38421630859 1000.30517578125 1001.10882568359 1005.23089599609 1005.74188232422 1000.88397216797 1012.52923583984 1010.84521484375 1020.6376953125 1040.44372558594 1037.28564453125 1033.13293457031 1043.35485839844 1055.69738769531 1062.46203613281 1058.60437011719 1064.30297851562 1083.748046875 1073.49096679688 1082.76574707031 1088.42358398438 1102.17956542969 1100.44372558594 1112.509765625 1121.20886230469 1136.63342285156 1152.95764160156 1159.6884765625 1164.95227050781 1161.94006347656 1153.18359375
949.19775390625 939.455261230469 951.072326660156 956.350402832031 956.864624023438 960.813537597656 953.593811035156 957.885192871094 963.986022949219 963.653930664062 970.635375976562 967.0654296875 962.533020019531 966.901428222656 980.103698730469 970.361572265625 976.103698730469 971.628967285156 983.793395996094 966.093627929688 975.695739746094 974.586791992188 963.489135742188 962.9404296875 962.210266113281 974.501403808594 978.710266113281 974.12548828125 980.344787597656 981.696105957031 981.7421875 984.123718261719 979.405517578125 976.281433105469 979.035095214844 976.4013671875 971.311706542969 972.03564453125 976.944580078125 970.273071289062 970.092041015625 963.13330078125 972.832153320312 974.894897460938 960.423461914062 962.1083984375 970.252990722656 970.033020019531 973.321838378906 973.626953125 974.35498046875 969.391174316406 961.683837890625 966.784484863281 968.306701660156 965.027404785156 970.977233886719 974.695678710938 968.371337890625 968.909057617188 978.85107421875 976.985900878906 973.901550292969 963.437622070312 963.338806152344 974.8837890625 975.047119140625 964.712829589844 965.092895507812 966.359252929688 966.433837890625 957.843078613281 962.783081054688 960.376708984375 966.499877929688 967.354125976562 974.35888671875 972.694091796875 963.022094726562 963.469482421875 959.866088867188 969.898864746094 976.826049804688 976.094604492188 978.570922851562 968.657592773438 972.976257324219 977.782531738281 971.68701171875 975.567504882812 975.286499023438 973.419494628906 972.960144042969 974.958557128906 975.444396972656 979.6640625 974.413635253906 968.750549316406 968.073364257812 968.564697265625 969.950500488281 968.991333007812 971.269348144531 973.662414550781 983.852416992188 983.271850585938 983.953491210938 976.986511230469 992.879516601562 987.1611328125 990.225891113281 999.703552246094 1003.08404541016 999.259948730469 1001.38262939453 1006.7919921875 1000.70617675781 1005.65368652344 1010.49267578125 1014.79162597656 1010.88671875 1010.89404296875 1015.73571777344 1020.22436523438 1014.35266113281 1015.49340820312 1010.65808105469 1016.27984619141 1029.8359375 1039.79907226562 1039.35827636719 1039.17419433594 1047.2998046875 1051.96923828125 1061.90661621094 1079.66857910156 1074.50317382812 1083.57824707031 1091.43762207031 1097.86364746094 1107.83923339844 1117.77844238281 1122.43090820312 1130.01098632812 1138.42175292969 1152.14538574219 1165.83093261719 1172.93298339844 1163.93725585938 1156.74633789062
939.585510253906 939.051147460938 943.03271484375 950.45751953125 958.483337402344 958.933654785156 961.439697265625 963.527404785156 967.086303710938 963.470764160156 972.260131835938 970.513793945312 960.888427734375 967.776977539062 962.31982421875 976.301635742188 974.673583984375 972.298950195312 977.303283691406 972.125244140625 964.670227050781 962.703552246094 961.529357910156 953.565063476562 962.919738769531 977.931396484375 969.940185546875 964.763732910156 973.644165039062 983.027099609375 974.185668945312 974.37890625 988.242370605469 979.890563964844 974.143859863281 970.19775390625 965.77734375 962.565368652344 973.761413574219 965.902282714844 968.462829589844 968.924987792969 968.72607421875 964.570739746094 963.350158691406 961.914733886719 966.216979980469 967.154174804688 974.434692382812 970.706481933594 965.299560546875 969.72265625 964.744140625 971.389343261719 970.79296875 974.127014160156 974.371704101562 970.194580078125 973.415405273438 975.272644042969 974.858215332031 959.93994140625 970.925476074219 963.369567871094 961.119506835938 971.494384765625 967.890380859375 961.746154785156 961.377868652344 961.607482910156 968.194580078125 959.1083984375 950.567565917969 962.131286621094 961.92138671875 970.144897460938 974.6923828125 973.215026855469 968.248291015625 971.627380371094 969.361572265625 967.720031738281 985.306274414062 981.587280273438 985.15283203125 968.927673339844 966.900695800781 968.769836425781 982.290771484375 978.193054199219 972.665588378906 971.117614746094 969.934509277344 976.377319335938 970.146118164062 977.815856933594 978.510864257812 971.45849609375 974.432861328125 974.859497070312 972.647155761719 962.924743652344 964.574279785156 975.978088378906 982.818298339844 991.844482421875 989.436828613281 985.583984375 995.8515625 995.347106933594 999.052612304688 1000.07147216797 1007.14038085938 1006.32818603516 1005.4228515625 1001.75549316406 1006.65435791016 1009.12945556641 1007.41351318359 1019.86273193359 1014.86975097656 1014.65350341797 1011.32250976562 1018.78515625 1021.61669921875 1016.52966308594 1022.31011962891 1016.25592041016 1025.75549316406 1037.87194824219 1045.86315917969 1044.00769042969 1045.71716308594 1054.13549804688 1057.9375 1069.26013183594 1080.75732421875 1091.34936523438 1093.61022949219 1102.05700683594 1118.443359375 1117.82006835938 1136.04931640625 1141.20239257812 1141.76171875 1146.22534179688 1156.91906738281 1169.18322753906 1168.72937011719 1156.56909179688
943.956848144531 939.847473144531 945.167541503906 946.64892578125 961.907287597656 962.943481445312 959.816040039062 968.692443847656 968.085266113281 964.256958007812 966.6796875 969.150024414062 965.677734375 968.081115722656 965.770812988281 970.9619140625 966.141479492188 969.803039550781 972.61865234375 978.346923828125 967.733764648438 973.124572753906 958.85498046875 950.055786132812 961.630187988281 970.836303710938 967.519470214844 964.993347167969 981.840515136719 980.637390136719 978.747253417969 974.27099609375 980.748962402344 970.213562011719 969.724853515625 969.075012207031 963.685180664062 969.594055175781 961.099670410156 965.041259765625 958.447570800781 967.102905273438 962.393005371094 966.583435058594 969.399719238281 960.692016601562 962.808166503906 959.6240234375 977.490783691406 968.10498046875 972.82080078125 964.818603515625 966.807373046875 966.117431640625 965.792846679688 975.483520507812 969.745910644531 972.349853515625 974.653137207031 978.780151367188 971.043395996094 967.38623046875 960.697387695312 961.605773925781 967.044860839844 969.80517578125 969.632568359375 968.90966796875 970.692138671875 963.019165039062 961.200744628906 962.560791015625 956.269714355469 959.00390625 965.349548339844 968.456359863281 974.193115234375 975.662780761719 963.339782714844 972.637329101562 969.930053710938 976.632873535156 978.046875 974.994384765625 979.885559082031 972.188537597656 972.663146972656 972.8955078125 973.706848144531 967.250244140625 968.771179199219 971.154174804688 972.874145507812 976.475341796875 983.630187988281 972.2314453125 975.6298828125 980.474914550781 979.742370605469 977.888244628906 980.037536621094 974.071960449219 971.880920410156 979.626342773438 988.528747558594 990.897705078125 993.294128417969 992.596740722656 990.534118652344 993.259460449219 996.919189453125 990.882080078125 1002.43530273438 1008.32806396484 1000.72601318359 1010.24542236328 1017.53704833984 1014.34521484375 1016.80657958984 1022.64685058594 1016.76434326172 1019.45306396484 1009.93798828125 1016.28887939453 1023.34826660156 1012.71112060547 1022.08404541016 1026.00573730469 1033.25927734375 1035.27551269531 1043.85791015625 1055.78112792969 1057.24645996094 1055.96350097656 1060.52478027344 1082.51647949219 1084.29174804688 1096.55419921875 1108.88623046875 1115.42395019531 1125.81970214844 1123.57580566406 1133.74951171875 1135.04333496094 1142.71508789062 1150.95471191406 1161.474609375 1161.52233886719 1152.94384765625 1155.89636230469
949.436218261719 938.670043945312 946.954040527344 952.8359375 960.607971191406 963.808349609375 960.021423339844 964.643493652344 970.27490234375 975.314636230469 965.376342773438 962.543212890625 973.240844726562 970.807800292969 976.103149414062 974.154235839844 969.541687011719 969.920715332031 969.46484375 968.997985839844 961.798156738281 968.917907714844 966.425964355469 957.302062988281 957.806213378906 964.796569824219 969.247436523438 969.594299316406 966.373229980469 973.595458984375 981.175231933594 986.089660644531 982.258056640625 981.72314453125 971.625854492188 978.653259277344 967.661926269531 966.843933105469 962.892700195312 958.459533691406 956.580444335938 967.689208984375 965.48681640625 959.7919921875 965.174865722656 958.90478515625 951.892639160156 959.847900390625 972.465942382812 967.952941894531 976.138732910156 971.420288085938 963.930480957031 960.847045898438 966.165100097656 964.237915039062 972.420043945312 967.034912109375 974.813842773438 973.44580078125 968.958740234375 961.395446777344 954.580322265625 960.287841796875 967.008972167969 953.554809570312 968.623168945312 972.260070800781 964.864624023438 956.424926757812 966.258117675781 967.082214355469 962.412170410156 971.553955078125 968.622497558594 961.873168945312 974.783935546875 972.269104003906 968.441284179688 970.83544921875 965.470397949219 964.601745605469 969.97021484375 972.364501953125 973.163879394531 961.185241699219 962.069641113281 969.537048339844 975.698852539062 972.081176757812 978.004211425781 972.548950195312 969.065734863281 970.928833007812 979.027038574219 976.706909179688 976.06396484375 980.006286621094 981.986328125 983.19580078125 981.775634765625 981.400634765625 988.702453613281 988.385864257812 990.314025878906 990.812683105469 992.4453125 987.318786621094 989.566040039062 990.744445800781 990.638916015625 987.61474609375 992.967346191406 998.211730957031 999.708801269531 1008.85955810547 1019.58709716797 1018.48400878906 1022.13073730469 1022.75042724609 1023.94561767578 1025.43200683594 1012.58270263672 1011.53546142578 1014.66845703125 1016.14868164062 1024.74047851562 1027.51635742188 1029.85119628906 1040.775390625 1035.63525390625 1049.65734863281 1058.94189453125 1053.44311523438 1063.66760253906 1071.98315429688 1079.32055664062 1085.31518554688 1099.40393066406 1111.42846679688 1116.39404296875 1112.28527832031 1123.64172363281 1130.39147949219 1134.89318847656 1147.50817871094 1151.982421875 1158.97155761719 1155.15930175781 1150.41955566406
950.476684570312 949.55615234375 964.089111328125 963.325256347656 967.443969726562 974.542236328125 972.348388671875 971.963684082031 977.002502441406 970.835998535156 968.558654785156 974.337341308594 978.072143554688 975.043090820312 966.560913085938 969.966979980469 977.412048339844 976.004821777344 963.725891113281 959.153869628906 960.073303222656 971.122436523438 967.461181640625 954.316650390625 959.867858886719 958.271423339844 965.290771484375 964.463439941406 964.863708496094 968.510131835938 977.739135742188 986.096069335938 979.420532226562 973.334838867188 977.481750488281 977.029724121094 966.405029296875 954.794555664062 955.649841308594 959.817810058594 961.36328125 958.938171386719 966.561645507812 953.282653808594 950.729797363281 963.1591796875 962.921569824219 957.595275878906 967.372253417969 967.882141113281 970.8232421875 970.230712890625 969.132995605469 964.205200195312 965.253051757812 963.511840820312 964.267578125 963.277099609375 984.189086914062 981.240112304688 970.111572265625 958.853210449219 954.202514648438 962.017395019531 964.34619140625 955.323547363281 960.123657226562 968.195617675781 963.734741210938 961.874572753906 974.773132324219 967.044555664062 981.39990234375 978.494873046875 971.449768066406 966.908874511719 970.449035644531 968.953002929688 965.239013671875 964.003601074219 968.559692382812 974.852600097656 973.309143066406 969.88134765625 972.2880859375 960.265258789062 968.954956054688 965.377136230469 980.143493652344 980.513061523438 967.6083984375 970.213195800781 968.630798339844 966.228149414062 978.881530761719 980.957641601562 969.513000488281 980.278869628906 976.75830078125 976.40771484375 972.803527832031 982.712097167969 987.580749511719 989.100830078125 995.396911621094 989.348388671875 985.220642089844 985.970458984375 985.653564453125 995.409851074219 981.725708007812 980.744201660156 998.156677246094 991.312805175781 1000.82580566406 1007.93182373047 1014.16802978516 1019.48553466797 1019.02703857422 1021.75598144531 1023.53979492188 1024.4306640625 1018.0400390625 1012.98254394531 1009.96520996094 1022.97888183594 1025.9501953125 1025.10876464844 1027.57153320312 1036.19482421875 1045.75830078125 1054.78894042969 1051.24841308594 1061.46472167969 1076.73486328125 1075.84008789062 1075.86901855469 1088.64990234375 1095.22778320312 1105.34436035156 1107.6767578125 1109.01892089844 1110.18518066406 1113.71044921875 1119.8115234375 1127.76440429688 1135.21130371094 1148.75109863281 1148.58410644531 1150.93444824219
951.600463867188 958.634399414062 961.504028320312 964.6845703125 966.556579589844 976.512878417969 969.712463378906 971.599304199219 978.416320800781 975.120422363281 972.592163085938 979.395202636719 975.944702148438 970.521057128906 975.260681152344 968.282531738281 966.656494140625 965.254821777344 959.966674804688 963.836059570312 961.482055664062 964.109069824219 959.452087402344 961.506896972656 963.784545898438 961.761413574219 964.536987304688 969.85693359375 969.990234375 971.816711425781 970.381408691406 977.083801269531 974.230285644531 974.604614257812 978.013427734375 969.306518554688 962.010803222656 960.870544433594 955.203674316406 956.958801269531 970.326477050781 962.1435546875 959.705322265625 960.33984375 963.167846679688 967.540283203125 971.533508300781 965.000366210938 966.986145019531 970.245666503906 967.188537597656 969.29052734375 970.258605957031 965.378784179688 962.103637695312 960.049987792969 958.494140625 961.48291015625 965.198913574219 967.824279785156 965.588195800781 957.712097167969 965.1044921875 959.134216308594 961.960205078125 960.556579589844 964.648315429688 974.637023925781 970.704040527344 974.378173828125 973.380310058594 977.301696777344 976.45849609375 976.004028320312 978.262451171875 971.861206054688 964.952026367188 962.202575683594 968.025390625 961.907104492188 959.493774414062 967.283264160156 960.597045898438 966.006164550781 973.593933105469 967.402587890625 971.414794921875 969.91259765625 966.645874023438 980.928771972656 969.669677734375 962.417114257812 966.736633300781 974.519226074219 976.659118652344 979.112670898438 975.747253417969 969.870178222656 977.245483398438 969.265014648438 977.184204101562 986.276977539062 980.375061035156 988.02099609375 984.644897460938 985.801879882812 984.164245605469 979.319580078125 988.372497558594 995.105224609375 988.239868164062 996.538940429688 988.250122070312 987.479370117188 994.877014160156 1002.4873046875 1008.25207519531 1011.53198242188 1009.044921875 1016.34997558594 1010.28015136719 1018.46649169922 1021.38104248047 1018.14733886719 1020.98974609375 1031.0986328125 1034.05224609375 1038.98815917969 1036.12438964844 1035.96020507812 1046.0927734375 1047.46423339844 1062.0654296875 1071.00268554688 1072.29614257812 1083.76025390625 1083.08361816406 1089.64038085938 1093.61108398438 1099.04248046875 1104.67749023438 1107.58557128906 1101.43286132812 1106.47033691406 1114.44689941406 1120.10607910156 1133.15649414062 1130.23937988281 1145.07556152344 1148.84204101562
