NCOLS 150
NROWS 37
XLLCORNER 7394249
YLLCORNER 4842689
CELLSIZE 30
NODATA_VALUE -9999
949.669067382812 955.012573242188 953.389953613281 955.469482421875 956.287902832031 965.822875976562 962.345642089844 963.985778808594 959.732421875 958.714782714844 961.757507324219 969.754028320312 966.642272949219 971.093505859375 972.906433105469 969.989562988281 971.530090332031 968.249633789062 972.733947753906 985.194885253906 973.996215820312 980.276916503906 986.220397949219 975.549377441406 976.906005859375 973.974243164062 978.958374023438 977.564025878906 986.732849121094 985.264038085938 981.721313476562 975.796264648438 970.462524414062 973.711975097656 976.179748535156 977.513427734375 979.659973144531 980.9169921875 975.770812988281 976.388488769531 971.347534179688 966.654663085938 973.565124511719 976.437255859375 973.9951171875 967.059326171875 971.174926757812 971.492248535156 972.038635253906 981.067138671875 991.53759765625 974.538452148438 969.564697265625 975.629516601562 974.223022460938 969.936889648438 966.160278320312 955.175842285156 958.281616210938 965.466552734375 975.28076171875 975.247192382812 984.688781738281 983.14208984375 983.893249511719 985.235778808594 980.460815429688 969.189392089844 974.293029785156 973.847351074219 963.268920898438 959.170349121094 956.21044921875 973.143981933594 973.80029296875 974.723266601562 976.649963378906 967.8310546875 973.571960449219 987.613891601562 990.125 987.112915039062 993.375122070312 993.561584472656 985.6943359375 996.888610839844 995.426696777344 997.369323730469 986.870361328125 995.238342285156 991.140014648438 989.81298828125 988.826782226562 977.09033203125 978.619445800781 977.290771484375 991.06884765625 995.298156738281 994.885864257812 1005.82086181641 995.588012695312 992.45654296875 990.692199707031 991.069946289062 991.139343261719 986.955505371094 988.700927734375 990.77783203125 983.511657714844 981.546264648438 987.680297851562 994.254272460938 996.779113769531 1001.60302734375 998.99072265625 998.671569824219 995.172119140625 999.461242675781 1000.2822265625 993.048400878906 994.486450195312 997.914733886719 988.011840820312 999.9736328125 1011.92260742188 1014.79028320312 1008.68707275391 1020.76995849609 1016.93078613281 1018.43243408203 1028.34069824219 1030.95532226562 1032.55969238281 1035.16687011719 1039.84582519531 1048.44592285156 1055.72290039062 1067.203125 1069.615234375 1085.61157226562 1090.56982421875 1097.21325683594 1089.38195800781 1097.30749511719 1120.57604980469 1133.39147949219 1140.85485839844 1149.13647460938 1157.18920898438 1140.38745117188
950.230102539062 948.767395019531 948.399475097656 960.614318847656 963.980163574219 963.279907226562 969.8359375 976.71533203125 974.483215332031 970.519470214844 973.432800292969 974.121032714844 971.782531738281 970.252868652344 968.395385742188 977.336303710938 979.044738769531 971.839538574219 974.825622558594 978.7119140625 976.361633300781 977.401733398438 977.544250488281 968.241943359375 973.122802734375 975.975708007812 980.330871582031 980.465454101562 981.323364257812 984.158508300781 980.19091796875 974.735778808594 975.918273925781 978.712341308594 982.641906738281 979.901916503906 979.610595703125 975.885070800781 974.548095703125 973.631591796875 974.376892089844 971.568298339844 975.880004882812 974.837280273438 971.154418945312 966.043029785156 971.856811523438 972.171203613281 970.9228515625 978.38134765625 972.5634765625 974.010803222656 970.215515136719 973.961669921875 977.368896484375 968.826416015625 966.864135742188 955.3447265625 956.145263671875 964.39306640625 959.969482421875 964.338195800781 974.52685546875 982.159912109375 979.477722167969 978.247741699219 975.451904296875 974.171752929688 973.750854492188 972.379760742188 964.205810546875 954.888366699219 965.055847167969 971.704406738281 969.826232910156 974.053771972656 965.108703613281 973.304992675781 978.563598632812 976.11767578125 987.591979980469 983.779541015625 989.348205566406 986.522338867188 986.125915527344 992.950073242188 992.425842285156 991.715454101562 988.98291015625 987.609985351562 990.242919921875 979.169311523438 982.450012207031 974.0263671875 978.926696777344 984.358947753906 991.668884277344 990.190795898438 989.279846191406 993.1826171875 988.729797363281 991.352783203125 992.756286621094 990.717041015625 984.313293457031 987.225769042969 990.438659667969 995.577209472656 987.931762695312 988.057495117188 984.224487304688 990.051391601562 988.268127441406 992.788757324219 997.667846679688 993.802612304688 998.961059570312 999.839172363281 996.887817382812 999.62109375 995.118286132812 992.770446777344 991.740356445312 1001.52239990234 1016.96215820312 1018.24389648438 1009.76287841797 1021.51452636719 1024.1865234375 1022.07653808594 1021.52001953125 1027.3525390625 1043.66491699219 1045.69982910156 1054.74035644531 1049.3115234375 1053.66137695312 1060.1064453125 1068.474609375 1070.80432128906 1080.93920898438 1090.51696777344 1094.3076171875 1101.2255859375 1123.84643554688 1139.86547851562 1153.294921875 1160.27209472656 1163.39514160156 1144.48034667969
948.715087890625 946.643432617188 950.676635742188 949.892822265625 951.618530273438 965.979797363281 968.952453613281 969.909973144531 970.528747558594 971.50341796875 968.56884765625 966.263000488281 969.815551757812 969.103942871094 983.162231445312 977.697326660156 982.608215332031 972.320739746094 977.181457519531 988.950378417969 979.16455078125 974.289794921875 970.586669921875 970.345520019531 966.181884765625 973.828735351562 984.549255371094 974.885192871094 975.549743652344 985.026428222656 982.165161132812 977.451354980469 975.387390136719 974.414184570312 968.461791992188 969.834228515625 967.6708984375 976.988891601562 977.231323242188 970.901611328125 974.562866210938 970.967651367188 969.094787597656 968.160461425781 971.941589355469 964.224060058594 972.279174804688 970.223022460938 967.241088867188 972.504638671875 970.606018066406 971.660949707031 978.437805175781 978.391845703125 976.337646484375 967.590209960938 967.346252441406 964.379699707031 960.424011230469 958.636291503906 966.817810058594 966.511596679688 972.466064453125 977.655212402344 978.205078125 982.843200683594 978.51220703125 979.463134765625 981.309265136719 982.863342285156 977.953125 977.603515625 968.035827636719 969.534973144531 965.407409667969 962.613220214844 968.757995605469 972.393981933594 981.83935546875 980.9990234375 982.56591796875 984.5908203125 990.616577148438 984.850280761719 983.796142578125 989.681884765625 988.96142578125 987.18505859375 984.719177246094 987.512084960938 984.748840332031 987.044067382812 987.018920898438 981.36767578125 987.943054199219 1000.21661376953 989.030822753906 994.478881835938 990.273986816406 992.294677734375 987.31298828125 989.85498046875 992.43896484375 986.357604980469 994.164306640625 984.910400390625 993.762329101562 994.379455566406 988.893310546875 980.693603515625 981.257690429688 984.50537109375 988.319519042969 986.987487792969 993.335205078125 991.839599609375 991.326232910156 994.27001953125 988.270202636719 992.947082519531 998.822204589844 993.544677734375 995.755798339844 1008.71942138672 1012.61956787109 1012.05938720703 1015.40551757812 1020.69207763672 1027.54284667969 1027.06311035156 1029.24340820312 1039.52185058594 1051.234375 1045.71923828125 1052.68933105469 1055.50329589844 1062.37182617188 1053.64892578125 1067.7705078125 1072.998046875 1083.505859375 1095.77062988281 1102.90234375 1114.43737792969 1129.19213867188 1142.73498535156 1166.93017578125 1163.10266113281 1164.99780273438 1158.44458007812
946.618225097656 945.15234375 944.703125 949.101806640625 941.522033691406 952.860168457031 950.458984375 957.112731933594 964.826538085938 973.2021484375 977.595336914062 970.590637207031 970.800170898438 967.674194335938 977.796875 979.032104492188 981.123901367188 978.161499023438 979.258544921875 979.379272460938 972.530578613281 972.413452148438 969.370300292969 963.321655273438 965.442565917969 971.742431640625 969.919616699219 974.58935546875 978.109619140625 980.967407226562 985.247802734375 975.513671875 978.726318359375 969.223876953125 980.298583984375 976.412475585938 968.918273925781 975.87353515625 973.901489257812 969.608947753906 973.384765625 963.863891601562 965.928894042969 966.434875488281 966.627624511719 969.794738769531 968.444152832031 969.966796875 967.364929199219 975.533386230469 967.552185058594 971.236450195312 962.433044433594 967.126342773438 972.314453125 970.921997070312 969.651733398438 968.366821289062 970.726440429688 968.963806152344 976.639038085938 983.431091308594 983.281616210938 979.061401367188 981.817016601562 980.825866699219 983.778442382812 991.067810058594 989.598937988281 981.823120117188 977.883483886719 973.44775390625 969.806884765625 965.310729980469 964.010559082031 966.947204589844 967.653991699219 980.516662597656 983.494384765625 982.572509765625 978.742492675781 979.526489257812 979.914733886719 978.816772460938 981.014526367188 972.01171875 983.499938964844 982.398010253906 976.137512207031 974.686950683594 979.915588378906 978.484436035156 977.741577148438 981.45849609375 987.646728515625 989.407165527344 988.557250976562 997.119873046875 989.984619140625 992.829650878906 990.065002441406 986.443786621094 985.177185058594 983.776977539062 989.906616210938 986.087097167969 993.4033203125 979.068054199219 983.022399902344 980.560424804688 975.720153808594 988.6318359375 985.866271972656 990.406616210938 997.263488769531 989.748718261719 984.896484375 994.644470214844 998.81005859375 999.699645996094 1009.15570068359 1006.91491699219 1002.97766113281 1000.16455078125 1009.52471923828 1008.65386962891 1011.11279296875 1017.08489990234 1016.73345947266 1022.44061279297 1035.00134277344 1039.56604003906 1051.66455078125 1048.60375976562 1055.21350097656 1050.0029296875 1060.01672363281 1057.93884277344 1064.96936035156 1078.56127929688 1089.64575195312 1101.14807128906 1109.02209472656 1124.43933105469 1141.08142089844 1150.6796875 1156.94580078125 1163.15661621094 1163.74877929688 1163.82104492188
954.194519042969 943.041687011719 940.922729492188 935.555358886719 936.013061523438 941.678527832031 945.405578613281 948.284790039062 957.03857421875 965.144958496094 972.74609375 980.670043945312 973.169128417969 961.682922363281 970.537170410156 972.958801269531 972.929077148438 985.888122558594 974.226318359375 970.082092285156 964.741638183594 958.600952148438 961.355346679688 956.786254882812 964.761474609375 963.521728515625 971.445861816406 979.319641113281 981.40380859375 972.063720703125 978.213012695312 979.307739257812 976.806091308594 976.720703125 973.575988769531 980.141906738281 973.22900390625 973.062316894531 971.227661132812 971.352416992188 969.975830078125 969.411865234375 963.514465332031 971.01953125 958.32373046875 959.3359375 965.488891601562 969.864929199219 968.773681640625 976.966735839844 967.633911132812 966.876892089844 968.589538574219 967.338745117188 970.464172363281 968.199645996094 967.759826660156 979.111389160156 975.806701660156 976.224609375 978.858520507812 976.261108398438 973.114074707031 978.807189941406 975.525451660156 975.838012695312 982.154846191406 987.272888183594 989.6611328125 982.581115722656 984.959167480469 972.385131835938 964.707092285156 963.475219726562 969.489807128906 966.534362792969 971.878967285156 977.851318359375 981.972534179688 980.406372070312 974.675537109375 968.170104980469 966.355041503906 975.595153808594 971.320556640625 975.763610839844 972.791137695312 974.224853515625 982.343383789062 983.102111816406 977.787109375 971.633544921875 970.330627441406 976.341918945312 987.51806640625 984.389221191406 985.720520019531 987.138061523438 983.920104980469 986.533752441406 985.637390136719 984.515869140625 989.664123535156 978.134765625 983.843078613281 978.258605957031 986.937316894531 977.086791992188 977.799743652344 978.614990234375 980.963562011719 983.451354980469 994.651489257812 999.393981933594 997.39306640625 993.155517578125 992.825622558594 993.307250976562 1005.98187255859 1003.85400390625 1020.93658447266 1010.13714599609 1002.4345703125 1004.81030273438 1011.42352294922 1009.07684326172 1003.64569091797 1010.75402832031 1008.43157958984 1016.39971923828 1023.23748779297 1033.32836914062 1051.28405761719 1047.80737304688 1047.23364257812 1053.55334472656 1057.07824707031 1061.19702148438 1082.38732910156 1090.86938476562 1090.22387695312 1110.08203125 1121.68237304688 1139.67590332031 1143.48449707031 1153.07556152344 1160.39465332031 1162.27966308594 1165.02844238281 1170.65698242188
944.629089355469 949.202514648438 939.793151855469 938.378845214844 937.210205078125 945.222473144531 949.411193847656 954.667419433594 961.087463378906 969.824584960938 970.820434570312 976.608093261719 968.378051757812 968.257019042969 969.111145019531 974.652893066406 976.037719726562 975.480407714844 979.90625 963.704406738281 958.024597167969 965.431396484375 965.5205078125 967.583618164062 967.227478027344 963.689208984375 971.918518066406 977.686462402344 988.438171386719 973.510559082031 977.591186523438 976.141723632812 974.54638671875 973.434204101562 976.838256835938 970.963745117188 970.506530761719 968.993347167969 969.565490722656 973.302490234375 970.46630859375 966.837951660156 966.363159179688 964.600708007812 960.24462890625 964.772888183594 967.821533203125 969.075866699219 966.204833984375 966.546875 971.468017578125 977.423889160156 973.97021484375 965.892333984375 972.924926757812 969.760009765625 980.975158691406 978.70361328125 981.094299316406 981.465270996094 978.931579589844 969.668701171875 974.755126953125 971.254028320312 976.235168457031 978.772033691406 972.96630859375 975.682800292969 986.908386230469 981.025451660156 976.063232421875 973.547668457031 969.102905273438 974.922668457031 970.302124023438 972.91845703125 975.787780761719 973.666442871094 977.715087890625 970.2001953125 974.092895507812 975.210388183594 964.065795898438 962.469848632812 966.735961914062 968.05810546875 963.410278320312 966.8662109375 977.332885742188 975.283813476562 977.317077636719 969.290710449219 966.410461425781 969.766845703125 977.085205078125 980.862976074219 979.202209472656 989.577453613281 990.990783691406 981.547912597656 979.912902832031 993.119873046875 995.618713378906 987.088134765625 980.725830078125 984.169982910156 985.422241210938 981.545288085938 982.415588378906 985.3623046875 998.159912109375 1001.80712890625 997.109924316406 1003.38330078125 1003.0595703125 1001.62561035156 996.625244140625 998.811401367188 1018.63403320312 1012.07025146484 1018.38671875 1009.52429199219 1012.29180908203 1006.22296142578 1009.19683837891 1013.32391357422 1004.86907958984 1007.3701171875 1010.10491943359 1015.67932128906 1036.62573242188 1038.390625 1049.1484375 1052.19848632812 1057.79968261719 1058.70141601562 1072.14465332031 1074.49353027344 1089.24011230469 1095.44323730469 1102.94458007812 1118.32861328125 1129.27319335938 1138.82434082031 1143.32995605469 1145.35656738281 1160.7666015625 1171.47045898438 1177.37670898438 1167.81591796875
952.925231933594 946.715454101562 938.364196777344 944.28466796875 942.742370605469 953.483947753906 958.677001953125 963.088073730469 965.905090332031 960.067260742188 967.208801269531 969.819213867188 968.79638671875 967.005126953125 966.582458496094 973.761047363281 971.348754882812 975.196655273438 978.814025878906 961.765808105469 960.397155761719 961.719299316406 960.173583984375 970.914733886719 969.237976074219 974.442687988281 964.654052734375 970.650146484375 977.512329101562 978.861022949219 975.768127441406 977.6044921875 974.07177734375 977.712341308594 977.145629882812 975.025573730469 966.998168945312 971.147583007812 973.130737304688 968.660766601562 974.883056640625 973.362365722656 968.344970703125 964.753601074219 963.270446777344 964.148132324219 959.101745605469 967.869689941406 969.910888671875 972.288452148438 966.545776367188 969.496948242188 960.996215820312 963.4521484375 962.135437011719 976.377014160156 980.30517578125 972.20751953125 971.730224609375 973.599487304688 972.784606933594 968.701293945312 969.843322753906 968.191589355469 968.891967773438 966.888977050781 980.675476074219 972.794311523438 974.84716796875 969.790954589844 973.827819824219 967.843017578125 971.771057128906 978.648559570312 976.934326171875 971.103210449219 977.924072265625 970.878173828125 970.3046875 968.125915527344 966.930725097656 972.9287109375 970.179138183594 964.029907226562 968.364501953125 963.129150390625 970.362854003906 969.497009277344 969.721557617188 973.977661132812 973.711853027344 970.776550292969 970.820251464844 972.365234375 975.528991699219 985.790832519531 981.821838378906 994.099243164062 990.872131347656 995.947448730469 984.166931152344 991.371765136719 994.154663085938 996.04296875 987.085144042969 988.797241210938 989.142150878906 992.719970703125 988.367309570312 993.912231445312 999.961181640625 1002.92596435547 994.34912109375 991.617736816406 990.770080566406 999.163635253906 1001.26837158203 1009.57135009766 1018.35778808594 1017.60870361328 1020.61474609375 1014.86352539062 1018.38372802734 1015.57873535156 1016.56579589844 1009.02923583984 1007.18115234375 1011.51849365234 1024.77795410156 1022.41772460938 1036.62768554688 1049.232421875 1060.49780273438 1065.25109863281 1060.93566894531 1073.86474609375 1076.32958984375 1075.48120117188 1085.93041992188 1094.45971679688 1107.068359375 1109.91247558594 1117.37084960938 1132.18432617188 1140.87890625 1151.11535644531 1162.36352539062 1161.90515136719 1171.36071777344 1171.25659179688
946.283569335938 945.549499511719 957.00634765625 949.020385742188 957.890686035156 967.078796386719 962.283020019531 975.334655761719 970.300048828125 971.090698242188 969.230651855469 968.433654785156 967.229553222656 968.395874023438 970.649597167969 976.007873535156 973.822570800781 979.681579589844 975.590026855469 976.194580078125 972.161804199219 960.7568359375 955.491149902344 964.657043457031 968.267395019531 957.680908203125 964.302062988281 968.0751953125 967.750427246094 972.253601074219 966.536560058594 976.886657714844 972.980529785156 972.529479980469 977.425720214844 971.427673339844 964.079895019531 961.357482910156 961.942687988281 960.832336425781 969.26171875 968.878784179688 968.439208984375 963.540161132812 959.571105957031 959.767822265625 962.348510742188 972.146179199219 976.198364257812 974.949829101562 970.344665527344 971.126342773438 965.395263671875 967.548522949219 965.004272460938 975.702331542969 976.488403320312 974.680847167969 974.922302246094 983.410522460938 973.08251953125 973.292602539062 971.756408691406 971.87939453125 967.947387695312 971.79541015625 972.286926269531 970.335021972656 966.791198730469 976.492065429688 973.088500976562 963.596801757812 970.484375 966.310729980469 975.171203613281 975.779907226562 974.832641601562 969.283203125 963.625915527344 971.405334472656 973.134887695312 964.38720703125 968.0634765625 969.370178222656 976.635559082031 969.55712890625 967.328857421875 966.038024902344 975.946960449219 978.851257324219 977.893798828125 971.923156738281 974.120971679688 971.676696777344 981.866943359375 990.59716796875 982.670166015625 981.328674316406 987.527770996094 981.428283691406 984.381286621094 984.646911621094 995.767395019531 981.119323730469 988.929077148438 991.345825195312 994.010009765625 991.712158203125 990.71826171875 1001.70367431641 1000.74005126953 1002.29412841797 990.638732910156 985.942443847656 987.985107421875 990.266784667969 1003.62603759766 1008.54351806641 1007.54632568359 1007.28741455078 1016.82885742188 1017.982421875 1020.97711181641 1024.111328125 1023.77221679688 1024.19506835938 1016.82806396484 1020.56280517578 1024.88012695312 1031.33850097656 1036.93212890625 1048.42724609375 1066.06103515625 1074.48034667969 1074.63659667969 1078.87524414062 1077.43090820312 1073.61474609375 1076.55627441406 1093.2041015625 1106.12463378906 1110.34729003906 1113.6220703125 1125.16271972656 1147.69567871094 1158.65612792969 1163.19128417969 1157.35314941406 1163.59899902344 1156.97277832031
946.446350097656 945.807922363281 965.525573730469 961.738037109375 959.076599121094 960.731079101562 972.356262207031 969.681762695312 974.38818359375 970.118835449219 970.479248046875 967.4267578125 979.54736328125 980.295715332031 969.026062011719 978.325256347656 981.906372070312 981.52685546875 970.023254394531 971.43115234375 965.547119140625 967.935607910156 960.643005371094 964.509704589844 960.39501953125 959.297607421875 957.574645996094 965.036376953125 967.766845703125 963.914428710938 971.220458984375 977.905578613281 974.171142578125 980.914916992188 967.784912109375 971.591674804688 966.267456054688 965.132690429688 960.147094726562 961.584289550781 961.350524902344 965.237243652344 963.290405273438 967.773376464844 959.562622070312 967.088562011719 970.554016113281 974.979736328125 970.329650878906 969.698181152344 973.876159667969 973.093933105469 975.848510742188 977.6240234375 967.868347167969 973.27978515625 973.384399414062 970.062438964844 975.14501953125 979.335205078125 974.739807128906 977.005126953125 981.986022949219 971.988159179688 969.231506347656 964.491638183594 964.328125 974.329772949219 969.670471191406 969.78369140625 967.193908691406 960.722412109375 967.83544921875 962.122680664062 960.90966796875 963.581726074219 962.935974121094 978.039428710938 968.158569335938 971.905029296875 975.655212402344 962.1455078125 968.347351074219 966.415893554688 970.731506347656 968.304931640625 960.067138671875 959.802368164062 967.614501953125 973.618530273438 974.712585449219 974.948425292969 974.679016113281 983.816528320312 985.803466796875 986.218017578125 986.344665527344 973.994079589844 988.188781738281 977.277038574219 981.2255859375 981.9052734375 990.918212890625 991.19384765625 992.067199707031 992.668579101562 994.50830078125 984.837585449219 994.573974609375 1003.08575439453 1006.15930175781 997.375061035156 994.491638183594 990.797119140625 991.602905273438 991.569458007812 994.239562988281 999.741638183594 1005.88116455078 1015.39837646484 1020.56353759766 1019.45147705078 1016.52935791016 1018.06103515625 1021.16552734375 1028.67016601562 1019.65515136719 1027.19885253906 1033.43444824219 1039.00500488281 1040.13952636719 1055.86682128906 1058.35595703125 1062.73779296875 1077.46875 1087.39501953125 1085.74389648438 1086.91955566406 1080.77197265625 1091.47204589844 1103.99475097656 1110.59375 1122.75476074219 1132.36743164062 1142.89245605469 1156.26110839844 1162.81262207031 1161.29260253906 1159.68395996094 1154.11950683594
954.251403808594 956.86083984375 959.755310058594 967.247985839844 971.538757324219 965.849304199219 968.135681152344 974.582153320312 975.908569335938 970.62841796875 966.1337890625 972.164978027344 974.122436523438 975.667846679688 977.245422363281 968.870971679688 979.4404296875 972.874694824219 973.232788085938 964.826538085938 968.539123535156 969.308410644531 959.845642089844 957.297546386719 966.960021972656 962.991821289062 961.550903320312 967.699645996094 963.105407714844 965.690368652344 969.597045898438 972.716735839844 978.489868164062 978.815612792969 976.343200683594 973.194213867188 969.537048339844 964.54541015625 958.4619140625 960.651489257812 960.099304199219 963.402893066406 959.563171386719 959.817443847656 960.846496582031 970.646240234375 970.3525390625 980.368835449219 966.064819335938 961.771179199219 965.023742675781 969.985046386719 975.619079589844 968.602294921875 966.105285644531 966.4921875 965.88525390625 969.83642578125 987.555786132812 978.66455078125 969.437927246094 965.851257324219 964.19384765625 967.908264160156 970.715759277344 964.191345214844 961.24365234375 964.855712890625 967.745483398438 971.150573730469 973.900573730469 962.80908203125 965.532958984375 958.848449707031 956.875183105469 951.451049804688 961.102233886719 965.890014648438 974.515441894531 971.314758300781 977.854370117188 976.851745605469 969.134643554688 960.294006347656 962.115966796875 964.844055175781 972.162780761719 973.5419921875 968.844787597656 966.925354003906 975.0595703125 967.1005859375 976.473571777344 978.289123535156 998.050598144531 994.932495117188 985.115356445312 987.941955566406 984.2998046875 979.788635253906 979.459228515625 979.968017578125 990.042175292969 990.00146484375 988.471496582031 986.196166992188 991.929748535156 993.358581542969 994.360595703125 1005.60125732422 1003.36334228516 1002.63763427734 996.284484863281 993.588745117188 989.8115234375 994.21630859375 998.950988769531 1002.38592529297 1003.94384765625 1006.60095214844 1022.16424560547 1021.30645751953 1019.25030517578 1026.27941894531 1023.75817871094 1026.86047363281 1033.58508300781 1031.90051269531 1033.70068359375 1048.29541015625 1051.37072753906 1058.07604980469 1060.80847167969 1067.04162597656 1079.78686523438 1080.70288085938 1085.19714355469 1086.82873535156 1089.62573242188 1095.00109863281 1101.53039550781 1113.57055664062 1128.96630859375 1130.00280761719 1134.06384277344 1144.77954101562 1146.21923828125 1154.38708496094 1154.13305664062 1157.60815429688
952.021789550781 954.502990722656 960.036987304688 968.051818847656 962.772766113281 963.379699707031 965.384887695312 979.618103027344 975.023681640625 967.124938964844 969.156677246094 977.801696777344 974.296752929688 972.870239257812 972.964904785156 977.916381835938 970.575805664062 967.486999511719 970.75244140625 974.391357421875 963.027038574219 963.582641601562 963.922424316406 963.249755859375 962.688720703125 959.447265625 958.325012207031 960.894958496094 961.127990722656 969.753723144531 972.142517089844 969.138488769531 975.974853515625 975.654907226562 976.821594238281 977.084899902344 969.753234863281 969.265930175781 963.200378417969 974.101196289062 956.606140136719 962.95849609375 956.879089355469 968.087463378906 972.08984375 968.820190429688 974.293823242188 962.677673339844 960.942810058594 958.278015136719 964.512512207031 970.152465820312 967.973815917969 967.366577148438 960.531311035156 961.194152832031 967.058715820312 976.232482910156 972.660949707031 970.705688476562 963.434692382812 960.212463378906 966.75830078125 962.524780273438 957.617919921875 967.432556152344 963.927124023438 970.242431640625 967.305358886719 970.080749511719 971.470764160156 970.674377441406 971.950927734375 962.146240234375 956.76904296875 953.882995605469 961.471618652344 969.549499511719 970.814697265625 971.983215332031 969.019958496094 972.105712890625 966.518371582031 967.232299804688 971.255981445312 967.4189453125 970.990234375 966.152099609375 970.681701660156 974.011108398438 973.802795410156 971.270935058594 967.930908203125 973.45361328125 980.135681152344 985.743469238281 979.753967285156 974.750549316406 977.76416015625 970.165588378906 976.694274902344 984.535095214844 985.545593261719 978.438415527344 991.033630371094 982.831665039062 985.146850585938 984.576782226562 986.908813476562 1001.78698730469 1000.43450927734 994.429565429688 997.445983886719 993.376708984375 998.353149414062 1005.75695800781 1003.56994628906 1001.94189453125 1009.48413085938 1017.30010986328 1020.08020019531 1019.68969726562 1021.31109619141 1032.60083007812 1034.11608886719 1030.14318847656 1041.40808105469 1033.77294921875 1038.37866210938 1040.41394042969 1049.93798828125 1058.48828125 1065.45947265625 1069.36987304688 1070.79638671875 1078.32336425781 1087.68823242188 1095.17883300781 1101.27722167969 1099.10632324219 1101.25317382812 1109.93005371094 1115.98278808594 1123.74365234375 1123.97131347656 1135.31506347656 1157.40161132812 1147.3935546875 1150.68115234375 1146.67321777344
951.682189941406 959.002807617188 968.207702636719 964.97412109375 961.077026367188 963.206665039062 968.971008300781 970.849731445312 965.3818359375 961.159301757812 973.037902832031 977.551818847656 978.882690429688 977.497802734375 975.767639160156 972.107788085938 963.98681640625 967.994689941406 971.359802246094 966.426879882812 965.867065429688 957.437561035156 953.338195800781 958.549133300781 960.456298828125 961.6220703125 964.672546386719 956.838562011719 961.508361816406 971.834716796875 970.048950195312 979.986877441406 977.08837890625 978.044921875 980.3759765625 972.614196777344 973.774719238281 973.75048828125 955.97509765625 957.096496582031 956.060607910156 950.728271484375 959.010192871094 966.363525390625 963.438415527344 966.717651367188 966.854431152344 956.837097167969 947.042846679688 952.105529785156 959.067077636719 961.875122070312 962.082458496094 963.396484375 970.699157714844 965.021484375 972.769409179688 973.283813476562 971.250366210938 967.953430175781 963.265502929688 956.653137207031 958.119262695312 958.823669433594 951.892639160156 961.060241699219 963.9208984375 968.195434570312 973.219848632812 962.225402832031 963.871520996094 965.911315917969 967.673461914062 959.817504882812 962.400329589844 959.254760742188 959.008850097656 967.899475097656 962.360534667969 963.272399902344 963.644897460938 966.653015136719 966.370910644531 971.682922363281 972.484191894531 969.781921386719 976.140563964844 967.954772949219 967.716918945312 979.383117675781 972.429565429688 973.135803222656 971.22607421875 970.622802734375 970.555603027344 976.395080566406 976.042358398438 970.785034179688 968.049987792969 970.48388671875 975.354370117188 983.496032714844 981.578918457031 983.239318847656 980.073425292969 987.432983398438 988.944091796875 982.802124023438 990.454406738281 993.225708007812 1004.89978027344 990.990417480469 993.021240234375 999.013305664062 1008.1171875 1006.62261962891 1004.56848144531 1006.83087158203 1008.85955810547 1014.03771972656 1022.76281738281 1026.92248535156 1017.51007080078 1028.94934082031 1033.89892578125 1036.21105957031 1039.33618164062 1040.36645507812 1036.93383789062 1039.31945800781 1052.99523925781 1061.27465820312 1071.837890625 1078.49865722656 1071.67919921875 1081.10498046875 1085.54956054688 1091.62780761719 1100.51965332031 1087.7392578125 1097.93359375 1109.35778808594 1110.43969726562 1113.43225097656 1121.86401367188 1135.63244628906 1134.40795898438 1135.21936035156 1132.64770507812 1149.36279296875
953.422729492188 963.51123046875 965.5234375 958.983642578125 957.800720214844 961.816162109375 963.87109375 974.755920410156 972.351867675781 955.582641601562 972.919311523438 977.419555664062 975.131103515625 974.1650390625 969.754333496094 966.286560058594 962.319091796875 962.594665527344 961.113159179688 955.142211914062 961.765075683594 957.661499023438 957.125793457031 958.145202636719 961.895202636719 960.045715332031 961.334228515625 959.286010742188 959.409423828125 966.610778808594 970.183349609375 967.682250976562 976.563293457031 978.031066894531 980.587585449219 980.004943847656 975.701049804688 968.686279296875 967.4130859375 956.859008789062 951.659790039062 960.724609375 949.812927246094 952.1640625 959.969482421875 961.078979492188 955.02197265625 949.260498046875 959.011535644531 943.20458984375 952.095947265625 955.370666503906 961.21142578125 961.100891113281 961.680969238281 966.506530761719 968.192199707031 973.421630859375 966.341003417969 958.133605957031 949.731384277344 956.581787109375 960.662170410156 953.205383300781 952.209289550781 955.401062011719 957.165832519531 958.678955078125 965.271423339844 962.967956542969 955.498779296875 962.401489257812 966.889831542969 969.167907714844 959.329345703125 966.321228027344 960.172546386719 969.36376953125 960.689331054688 959.791564941406 959.203247070312 971.60986328125 978.231079101562 988.207092285156 976.03125 977.783447265625 970.571105957031 965.064453125 974.702270507812 974.163391113281 967.664306640625 979.370971679688 984.045959472656 977.656433105469 973.253540039062 978.235778808594 977.878234863281 973.553283691406 977.913879394531 967.107543945312 966.37890625 976.215576171875 977.470336914062 973.791015625 972.973693847656 976.639099121094 988.692199707031 982.219909667969 988.083618164062 984.520690917969 985.115295410156 984.994750976562 991.696105957031 1004.14636230469 1016.32769775391 1013.58166503906 1005.36419677734 1010.44512939453 1009.68707275391 1016.91168212891 1018.95477294922 1023.52612304688 1023.96710205078 1026.03259277344 1028.12805175781 1025.98120117188 1029.09167480469 1034.26452636719 1039.36938476562 1046.46228027344 1059.75744628906 1075.71752929688 1075.09216308594 1070.58154296875 1081.18371582031 1088.17895507812 1083.65515136719 1088.2109375 1095.80590820312 1096.30871582031 1105.07263183594 1111.82019042969 1114.93310546875 1107.7470703125 1115.49304199219 1119.72497558594 1117.486328125 1116.6806640625 1120.60388183594 1137.05969238281
962.703857421875 956.26611328125 964.981689453125 960.446044921875 969.882507324219 970.644104003906 969.065673828125 977.680541992188 970.641357421875 959.658203125 961.951843261719 978.737915039062 974.6708984375 974.075134277344 971.333801269531 970.586486816406 962.789428710938 967.236206054688 962.859191894531 957.145446777344 959.845520019531 963.944763183594 969.667114257812 962.671264648438 957.164428710938 960.272644042969 959.253723144531 973.409545898438 971.407409667969 960.735229492188 962.326965332031 966.753540039062 967.537719726562 977.496032714844 973.360717773438 969.126831054688 967.787231445312 963.530212402344 972.640625 955.376770019531 953.157531738281 954.228576660156 955.681335449219 951.189270019531 956.1083984375 958.244567871094 958.1630859375 952.202209472656 952.649475097656 947.17041015625 952.344848632812 955.537475585938 953.322937011719 961.647338867188 963.442504882812 958.983093261719 963.842651367188 964.370422363281 962.413513183594 957.58544921875 952.486267089844 955.9560546875 954.344543457031 949.628479003906 958.760131835938 952.808837890625 951.147033691406 956.531372070312 957.432250976562 957.345642089844 954.656188964844 962.483093261719 966.989685058594 958.083679199219 962.197265625 954.970031738281 958.768249511719 962.089294433594 966.951293945312 960.444641113281 966.876708984375 974.808715820312 985.162536621094 992.510009765625 979.219848632812 980.957824707031 976.496765136719 968.403869628906 965.076110839844 973.230529785156 978.461791992188 977.930603027344 982.787658691406 988.158813476562 983.01416015625 969.927734375 972.015258789062 967.567626953125 971.870971679688 969.030639648438 971.529907226562 977.886047363281 982.343017578125 973.794372558594 978.109436035156 981.260681152344 982.942199707031 989.491821289062 988.914611816406 977.008728027344 976.075256347656 979.367736816406 984.451721191406 998.874328613281 1012.90637207031 1012.27862548828 1005.08752441406 1007.00445556641 1015.84460449219 1009.40020751953 1016.90637207031 1014.17498779297 1020.91369628906 1023.08477783203 1020.59155273438 1033.53820800781 1026.51745605469 1033.91040039062 1040.56384277344 1050.84057617188 1069.24609375 1076.48608398438 1077.01965332031 1077.79223632812 1086.08056640625 1094.85827636719 1083.02673339844 1086.06689453125 1089.4677734375 1101.12939453125 1099.00720214844 1104.12780761719 1101.98083496094 1103.36181640625 1103.49633789062 1115.54895019531 1117.205078125 1114.95874023438 1111.08386230469 1125.01843261719
968.515625 967.012329101562 972.858520507812 974.040649414062 971.36962890625 973.31982421875 974.108703613281 972.239501953125 960.867492675781 960.770202636719 970.738464355469 977.089782714844 986.186584472656 976.956726074219 972.970336914062 966.572814941406 973.546752929688 976.806457519531 972.109130859375 962.728637695312 966.107543945312 973.502380371094 960.494812011719 964.247314453125 954.002624511719 959.702819824219 964.751892089844 961.073181152344 975.724304199219 962.901611328125 963.57177734375 969.574951171875 956.616027832031 975.029174804688 967.430603027344 971.824157714844 962.697631835938 965.650939941406 967.880615234375 959.343627929688 951.604125976562 956.573486328125 959.908264160156 948.258972167969 949.626281738281 947.74072265625 953.186401367188 950.859924316406 954.411926269531 949.887939453125 950.769287109375 942.693359375 947.204223632812 966.199768066406 964.170654296875 963.255249023438 963.326110839844 957.791381835938 958.793090820312 955.3330078125 958.36962890625 964.092407226562 952.317626953125 961.503662109375 953.198852539062 954.809265136719 958.743347167969 953.007019042969 951.359375 949.567810058594 954.50634765625 964.421630859375 960.020874023438 953.226623535156 952.963439941406 963.513061523438 964.681579589844 960.975463867188 967.723083496094 957.929321289062 970.514465332031 966.694946289062 974.568908691406 977.897583007812 969.015197753906 971.865112304688 968.369201660156 968.611328125 976.608276367188 970.783996582031 972.444641113281 977.020690917969 971.24609375 978.033996582031 974.615661621094 969.376586914062 970.418151855469 962.527282714844 964.915649414062 966.034851074219 972.030456542969 975.673706054688 981.462951660156 978.913452148438 976.6005859375 980.477600097656 976.601928710938 985.153259277344 985.491455078125 978.166320800781 972.36669921875 966.328979492188 982.275390625 996.595886230469 1009.53137207031 1012.03863525391 1005.93737792969 995.856262207031 1001.69989013672 1007.73724365234 1013.62689208984 1016.30126953125 1018.54998779297 1023.43591308594 1017.09893798828 1018.35681152344 1019.08483886719 1022.27532958984 1039.751953125 1047.73913574219 1061.19494628906 1075.74621582031 1078.07458496094 1083.41357421875 1088.66650390625 1088.24267578125 1086.74963378906 1083.4853515625 1089.53955078125 1092.37231445312 1091.95629882812 1090.22680664062 1096.52282714844 1093.13232421875 1096.62731933594 1102.52038574219 1106.77392578125 1111.77380371094 1107.35998535156 1107.74829101562
964.852478027344 971.358581542969 976.835510253906 971.0498046875 976.437927246094 972.838012695312 977.296325683594 975.243713378906 966.981201171875 965.390258789062 974.560302734375 981.720947265625 982.102661132812 983.376647949219 979.591979980469 972.516784667969 971.462585449219 978.369567871094 974.03662109375 964.482849121094 964.785827636719 972.807067871094 969.95361328125 959.980163574219 959.517333984375 951.4580078125 955.328491210938 958.814270019531 962.253662109375 963.291320800781 959.208129882812 952.76708984375 959.464538574219 967.597290039062 970.296936035156 967.934753417969 965.187805175781 969.781127929688 966.259704589844 953.407531738281 957.955383300781 953.538635253906 950.791320800781 949.486999511719 949.117797851562 947.470764160156 951.218139648438 944.064270019531 949.407043457031 945.998596191406 947.902587890625 941.753662109375 944.861633300781 958.73681640625 960.478515625 962.925415039062 959.646301269531 958.692687988281 955.407836914062 948.568176269531 952.831481933594 965.029968261719 955.245422363281 950.764099121094 953.722106933594 960.702026367188 961.787475585938 958.287109375 957.963439941406 948.656005859375 956.574096679688 959.053649902344 956.203125 962.3251953125 954.092346191406 962.04833984375 969.27734375 955.369384765625 961.005798339844 957.690979003906 964.917907714844 973.546630859375 965.230102539062 971.889770507812 969.918395996094 972.6669921875 962.877075195312 967.028198242188 975.713317871094 974.621154785156 972.728942871094 971.955627441406 969.633666992188 970.53515625 968.233642578125 963.400329589844 968.198974609375 974.905639648438 974.267150878906 973.212768554688 973.512573242188 979.471618652344 985.500610351562 977.184020996094 982.723083496094 980.478210449219 982.159301757812 980.343322753906 983.544738769531 982.666259765625 980.606567382812 981.463256835938 986.620910644531 997.189147949219 1000.27301025391 998.288146972656 994.966613769531 992.091491699219 991.693176269531 1002.71105957031 1003.09423828125 1007.71142578125 1007.85760498047 1013.93774414062 1021.09936523438 1011.19757080078 1019.72613525391 1022.52008056641 1031.79284667969 1043.61120605469 1052.56127929688 1062.03686523438 1067.39672851562 1078.20422363281 1086.30102539062 1080.16906738281 1082.72680664062 1087.93395996094 1088.111328125 1087.88049316406 1089.880859375 1083.63488769531 1088.06677246094 1093.79211425781 1085.49682617188 1087.63757324219 1089.4091796875 1097.01098632812 1098.09338378906 1101.9287109375
972.139831542969 979.056884765625 980.239929199219 969.556213378906 972.985290527344 979.505310058594 970.235412597656 966.509033203125 970.215026855469 965.240356445312 972.310485839844 980.276306152344 974.504028320312 974.747741699219 980.325073242188 974.808715820312 978.090148925781 966.338256835938 966.890197753906 969.410095214844 967.426940917969 970.894348144531 966.843933105469 951.56640625 940.645690917969 942.880004882812 944.637390136719 953.018249511719 954.569885253906 952.151977539062 956.217529296875 952.989868164062 952.481262207031 958.923217773438 965.910461425781 961.267211914062 966.273010253906 967.331176757812 971.029113769531 963.753234863281 955.087524414062 959.498107910156 955.237243652344 947.442321777344 963.236083984375 954.634094238281 957.908325195312 955.739685058594 954.50244140625 946.051696777344 940.230590820312 937.630065917969 931.4931640625 957.246704101562 958.276062011719 965.40380859375 959.806518554688 951.810180664062 952.237854003906 945.398559570312 949.18408203125 961.535949707031 957.56298828125 962.439270019531 955.341064453125 956.204956054688 957.691101074219 961.102111816406 962.366821289062 960.669799804688 959.61328125 957.009765625 956.491394042969 960.226013183594 961.639404296875 958.34716796875 961.539001464844 963.240234375 964.540954589844 962.458984375 961.735229492188 964.812622070312 967.75732421875 968.529663085938 967.710998535156 967.578247070312 965.602294921875 971.809448242188 971.510681152344 975.49951171875 971.099792480469 970.3173828125 970.652709960938 969.992248535156 968.669189453125 963.401977539062 976.746826171875 982.651123046875 986.760009765625 989.0458984375 983.684814453125 986.11767578125 982.565551757812 985.084411621094 987.850891113281 982.624633789062 986.659545898438 989.067932128906 986.653625488281 988.612182617188 989.632446289062 986.884338378906 982.683044433594 991.176879882812 1000.89172363281 992.679504394531 998.304138183594 997.535888671875 1002.59582519531 1005.95709228516 1010.591796875 1014.40985107422 1005.69140625 1008.50592041016 1011.52191162109 1010.71527099609 1017.74084472656 1021.74444580078 1025.36669921875 1035.94738769531 1046.95983886719 1057.87365722656 1062.77294921875 1069.79626464844 1076.34631347656 1090.18786621094 1091.83117675781 1079.79956054688 1074.39868164062 1077.7607421875 1080.21875 1076.54504394531 1073.22985839844 1072.21765136719 1074.39831542969 1081.09191894531 1082.05053710938 1093.21252441406 1091.29113769531 1086.63757324219
974.01123046875 982.4873046875 984.364379882812 975.354187011719 971.695129394531 971.87890625 975.547058105469 965.166564941406 961.38134765625 953.484741210938 963.268676757812 971.369140625 978.600524902344 974.240661621094 974.976318359375 978.925659179688 972.95361328125 975.05322265625 968.236511230469 959.549926757812 971.310241699219 966.034790039062 956.482727050781 947.996398925781 941.477844238281 946.063842773438 949.222717285156 952.057434082031 957.264282226562 952.440612792969 949.244750976562 950.227722167969 949.545959472656 951.675109863281 942.199096679688 948.2177734375 955.687805175781 965.040649414062 969.721801757812 959.480712890625 959.048583984375 958.565856933594 962.382629394531 955.465881347656 957.223205566406 956.215087890625 950.526184082031 947.648559570312 948.926879882812 941.059326171875 941.122924804688 943.888793945312 946.378723144531 950.0009765625 960.791748046875 953.445678710938 955.876281738281 951.193115234375 954.545349121094 952.980834960938 959.663269042969 960.777038574219 966.932373046875 962.512756347656 964.478332519531 959.023498535156 956.792602539062 963.963012695312 961.559448242188 959.845703125 961.224060058594 960.88330078125 953.122985839844 956.17919921875 961.909423828125 965.5966796875 962.375183105469 961.601989746094 967.0751953125 958.522216796875 968.972229003906 970.656433105469 971.368896484375 970.994140625 964.777038574219 961.985778808594 961.993835449219 968.00732421875 975.509887695312 973.331726074219 971.258056640625 970.890625 974.923889160156 971.024169921875 970.480529785156 972.485595703125 969.640563964844 972.706359863281 978.888610839844 993.476684570312 992.493835449219 981.424560546875 981.552673339844 984.196838378906 978.106750488281 985.610534667969 985.524047851562 984.157836914062 989.890197753906 994.303466796875 987.15234375 987.725219726562 985.760314941406 989.041015625 996.705444335938 992.843811035156 994.529296875 995.993408203125 1000.92712402344 1019.79681396484 1019.07452392578 1011.73504638672 1014.50036621094 1009.13696289062 1010.81701660156 1011.11267089844 1017.63854980469 1019.79040527344 1019.74029541016 1024.22241210938 1042.49658203125 1055.23657226562 1053.77282714844 1056.66137695312 1071.70690917969 1084.79467773438 1082.78161621094 1077.66064453125 1064.17578125 1065.62609863281 1064.43444824219 1063.52392578125 1065.95104980469 1062.14636230469 1061.55651855469 1071.50402832031 1074.39697265625 1078.9990234375 1088.15783691406 1082.19567871094
974.133544921875 977.309692382812 971.731323242188 970.743835449219 973.485656738281 975.44921875 972.593688964844 970.142211914062 963.626770019531 957.866088867188 959.012634277344 963.020263671875 968.89501953125 978.87451171875 984.32177734375 972.862365722656 968.374938964844 971.999084472656 958.013061523438 956.107543945312 956.909057617188 964.948669433594 958.152465820312 952.647705078125 941.347290039062 949.931579589844 938.577331542969 941.923767089844 942.504516601562 942.467834472656 955.557800292969 951.481018066406 956.142639160156 953.617553710938 944.690795898438 948.693908691406 950.719604492188 962.425598144531 962.441711425781 959.642944335938 955.606384277344 960.109985351562 951.17138671875 950.734130859375 956.700927734375 942.123413085938 943.754577636719 947.865783691406 947.438171386719 946.279907226562 941.252807617188 952.417907714844 957.874328613281 955.789672851562 948.16064453125 956.211791992188 953.08203125 953.759643554688 962.538269042969 961.599182128906 967.669738769531 967.046264648438 965.828247070312 964.022155761719 961.722839355469 969.128662109375 972.931823730469 970.094482421875 960.372314453125 961.790100097656 959.030334472656 960.502197265625 960.404418945312 962.705749511719 963.085205078125 963.466735839844 961.735656738281 957.943115234375 963.771667480469 958.389404296875 964.07958984375 969.597290039062 973.826477050781 969.930236816406 967.558654785156 965.455139160156 963.322875976562 960.823486328125 970.40380859375 972.643371582031 972.529724121094 969.69921875 965.079711914062 967.934265136719 975.032409667969 978.596862792969 980.417907714844 982.110656738281 980.478271484375 980.047607421875 983.675537109375 985.596374511719 983.584533691406 988.635437011719 982.210266113281 982.23779296875 986.2373046875 991.837036132812 1002.52990722656 999.466247558594 993.209289550781 991.798278808594 992.050170898438 987.052062988281 994.846374511719 991.142700195312 993.642395019531 1001.04956054688 1006.98510742188 1021.92510986328 1020.65911865234 1011.00006103516 1009.65948486328 1004.87847900391 1017.44281005859 1015.98486328125 1015.05255126953 1015.10662841797 1017.70812988281 1021.44573974609 1026.29663085938 1039.61218261719 1045.20190429688 1053.61437988281 1060.08422851562 1069.09106445312 1071.27514648438 1056.83959960938 1043.70043945312 1052.22912597656 1051.95471191406 1056.44006347656 1046.87561035156 1042.51696777344 1049.19360351562 1059.83337402344 1064.41259765625 1066.13659667969 1073.96716308594 1071.62963867188
972.535217285156 974.985595703125 969.617919921875 972.084167480469 969.07861328125 979.741638183594 973.493469238281 961.607116699219 961.223388671875 960.211120605469 961.54833984375 961.377380371094 972.5400390625 976.579467773438 974.632202148438 968.028625488281 969.947448730469 962.537048339844 955.793212890625 943.025085449219 949.575134277344 962.665222167969 954.504455566406 945.977172851562 939.210754394531 940.009155273438 939.300048828125 939.016052246094 934.423461914062 937.68994140625 950.54833984375 954.172241210938 949.415649414062 960.474426269531 953.949035644531 952.005920410156 949.5078125 959.121765136719 959.137451171875 955.847717285156 949.650207519531 946.417297363281 941.141357421875 945.971374511719 955.051879882812 953.2001953125 952.809875488281 955.835266113281 951.129638671875 956.302734375 955.831787109375 957.734680175781 946.192077636719 945.988037109375 955.337890625 959.650085449219 955.783813476562 955.165222167969 958.098449707031 965.970642089844 972.125305175781 969.33935546875 962.847778320312 960.011901855469 954.432861328125 956.9150390625 965.961364746094 969.595397949219 962.005310058594 956.717956542969 960.869201660156 970.951049804688 973.122131347656 970.283386230469 963.247192382812 962.893310546875 969.871948242188 965.1435546875 967.066284179688 960.050537109375 966.154907226562 964.521301269531 974.120422363281 966.947265625 971.580139160156 966.423400878906 964.678527832031 958.707458496094 965.554992675781 972.205688476562 974.406066894531 972.499877929688 961.361083984375 966.866943359375 968.48291015625 977.421081542969 980.332641601562 980.605346679688 975.092712402344 977.221435546875 982.43603515625 985.024841308594 978.642944335938 980.425231933594 984.107788085938 986.447570800781 994.226684570312 994.216247558594 997.860778808594 998.5068359375 989.913757324219 991.114685058594 988.663330078125 993.798400878906 996.732238769531 997.499938964844 1005.47888183594 1003.58471679688 1005.74615478516 1005.16369628906 1002.72045898438 1004.30535888672 1009.73675537109 1002.20013427734 1004.36547851562 1010.51519775391 1012.74829101562 1018.11090087891 1017.6357421875 1017.40368652344 1023.98107910156 1036.12548828125 1049.93359375 1055.17846679688 1059.53796386719 1050.06848144531 1052.81213378906 1043.57385253906 1037.61901855469 1039.00109863281 1038.78991699219 1041.89477539062 1038.09619140625 1045.10424804688 1047.75500488281 1052.61022949219 1055.11450195312 1060.59899902344 1060.66760253906 1064.328125
960.688293457031 964.354553222656 973.011047363281 968.616333007812 965.17236328125 977.027038574219 979.303344726562 968.15380859375 960.890258789062 970.1337890625 956.876281738281 961.783325195312 960.185119628906 960.679260253906 965.447204589844 958.757629394531 961.723266601562 964.427978515625 960.106567382812 945.287780761719 947.751403808594 950.852722167969 956.801086425781 948.721740722656 950.879516601562 935.295715332031 943.219421386719 939.437744140625 948.1044921875 937.611511230469 941.865051269531 944.512817382812 950.2314453125 953.921813964844 948.659973144531 941.022338867188 942.483825683594 955.687255859375 958.712646484375 958.590698242188 956.177368164062 944.79736328125 937.692016601562 942.813049316406 946.926574707031 948.170471191406 958.218566894531 959.158874511719 959.110168457031 957.964050292969 966.903686523438 964.764404296875 962.014709472656 960.160034179688 959.318542480469 956.649475097656 955.559631347656 956.473388671875 960.573486328125 963.569946289062 962.429565429688 959.471496582031 956.243469238281 963.593688964844 959.974426269531 959.46044921875 963.076171875 964.156799316406 961.845947265625 957.604553222656 969.071350097656 962.398193359375 972.296142578125 965.330261230469 963.975769042969 977.070251464844 965.864990234375 968.157470703125 967.543029785156 955.031799316406 957.721862792969 969.1435546875 971.377563476562 971.313720703125 972.541320800781 970.693481445312 964.312255859375 961.389038085938 964.601806640625 971.987609863281 973.89990234375 965.899719238281 967.260681152344 975.247802734375 971.628234863281 972.757446289062 973.254577636719 983.720336914062 977.270690917969 980.514282226562 978.023132324219 990.411804199219 983.509155273438 981.668762207031 986.621276855469 990.969116210938 988.525024414062 995.7548828125 988.876098632812 987.907531738281 989.354553222656 989.9794921875 989.344543457031 991.15673828125 997.921203613281 996.326354980469 1004.95825195312 1006.72601318359 1005.08489990234 994.799072265625 1001.32391357422 1011.39001464844 1017.05657958984 1011.00616455078 1009.21087646484 1010.85485839844 1011.60656738281 1014.0634765625 1015.34844970703 1027.17346191406 1029.69995117188 1041.56909179688 1048.94641113281 1053.8203125 1050.52038574219 1037.31030273438 1040.34619140625 1035.83862304688 1026.57397460938 1029.388671875 1040.81982421875 1033.42834472656 1027.00073242188 1036.10461425781 1043.2158203125 1047.02734375 1049.72375488281 1046.68542480469 1054.36206054688 1055.95458984375
959.682739257812 964.910949707031 962.954711914062 965.583862304688 964.273071289062 966.538696289062 976.527648925781 972.27880859375 970.758911132812 971.818054199219 964.361083984375 968.473022460938 971.448852539062 966.356994628906 966.136840820312 960.362487792969 956.375610351562 959.530700683594 945.365783691406 938.270080566406 943.569396972656 945.49755859375 960.813171386719 955.545715332031 947.532104492188 932.306579589844 936.057800292969 937.266296386719 940.974243164062 930.488403320312 937.561157226562 942.594177246094 952.321166992188 948.221557617188 948.795837402344 954.435607910156 951.860717773438 944.689758300781 948.643005371094 961.63720703125 960.845458984375 956.398315429688 946.614501953125 944.724975585938 954.01025390625 959.008056640625 963.974914550781 963.859069824219 962.727722167969 959.880554199219 961.94287109375 969.147705078125 968.16455078125 964.189331054688 963.239135742188 953.943420410156 950.225646972656 954.041137695312 959.58837890625 964.707214355469 960.268737792969 957.079040527344 955.112243652344 954.592529296875 956.328063964844 952.596496582031 967.184204101562 958.744323730469 963.731201171875 961.157653808594 961.570678710938 962.416198730469 966.257934570312 956.803466796875 964.0712890625 979.526062011719 975.586242675781 974.217712402344 964.687377929688 965.095275878906 972.627197265625 972.643371582031 975.557800292969 979.995727539062 975.6455078125 971.170166015625 966.889404296875 965.236694335938 965.190856933594 972.152893066406 966.712890625 966.560424804688 970.406066894531 965.575561523438 961.338623046875 958.985900878906 972.246032714844 975.11083984375 972.255432128906 977.187255859375 979.070373535156 982.941955566406 983.231323242188 987.107849121094 984.182739257812 983.551452636719 982.1533203125 988.685485839844 987.338439941406 988.302124023438 992.415344238281 993.791809082031 998.767822265625 1001.97119140625 997.323852539062 993.197937011719 1001.28857421875 1000.24426269531 1003.42901611328 1003.03399658203 1002.22253417969 1012.83441162109 1011.76293945312 1011.31427001953 1007.78448486328 1013.32183837891 1021.18225097656 1018.19879150391 1019.38433837891 1021.11883544922 1029.85656738281 1035.26379394531 1046.46936035156 1054.59997558594 1047.75549316406 1041.53295898438 1027.22253417969 1028.09875488281 1024.66137695312 1027.45654296875 1034.88049316406 1039.61437988281 1024.7841796875 1031.27136230469 1039.73266601562 1041.62219238281 1038.52941894531 1042.73754882812 1040.23596191406 1047.32336425781
957.681030273438 969.054321289062 959.760131835938 957.996459960938 958.424377441406 959.055480957031 957.081909179688 968.080749511719 963.749755859375 959.988830566406 960.43017578125 955.606811523438 957.634582519531 955.407470703125 949.347717285156 950.1337890625 945.200012207031 946.228271484375 941.926208496094 943.441833496094 943.634216308594 951.92919921875 956.512084960938 948.294128417969 940.907775878906 938.601501464844 936.481872558594 942.315490722656 938.528869628906 933.25927734375 949.432556152344 946.223083496094 948.539245605469 948.089172363281 949.485961914062 954.310302734375 951.439392089844 951.433654785156 950.191284179688 953.163757324219 960.267700195312 948.517456054688 947.230712890625 948.742858886719 950.984436035156 965.475830078125 959.446350097656 959.093200683594 967.274658203125 964.520324707031 966.233459472656 965.267700195312 972.1298828125 964.458374023438 957.272338867188 961.668151855469 957.117553710938 963.837646484375 965.726501464844 966.934509277344 960.537658691406 961.444030761719 965.666137695312 946.974914550781 957.972778320312 956.5947265625 962.413818359375 963.952697753906 954.882690429688 963.704162597656 965.669799804688 964.233276367188 959.344787597656 961.717407226562 964.627746582031 971.138061523438 975.1044921875 972.57421875 973.208862304688 970.630798339844 972.235168457031 978.896911621094 977.70947265625 977.243225097656 982.528564453125 979.365905761719 978.462585449219 971.803405761719 972.126037597656 968.819946289062 965.485717773438 974.722839355469 965.135192871094 965.262878417969 965.07958984375 968.832092285156 971.653625488281 972.351013183594 966.624267578125 977.517211914062 982.218139648438 970.403991699219 977.964050292969 980.469665527344 985.858764648438 982.982482910156 978.698791503906 988.510131835938 991.239379882812 990.584289550781 995.301025390625 994.8037109375 1000.73931884766 996.996398925781 995.803161621094 991.025756835938 996.485290527344 1002.67797851562 1005.69323730469 997.55908203125 1010.97381591797 1017.27130126953 1016.29461669922 1009.12152099609 1013.72314453125 1021.76837158203 1023.36145019531 1026.39367675781 1027.91979980469 1019.17010498047 1027.67736816406 1033.38208007812 1040.2919921875 1038.91235351562 1054.3681640625 1038.20434570312 1039.59790039062 1036.19885253906 1027.72338867188 1034.92224121094 1040.84936523438 1036.720703125 1024.55114746094 1030.2255859375 1033.74670410156 1031.01782226562 1032.98547363281 1035.97668457031 1034.04418945312 1037.37841796875
967.449584960938 966.036499023438 959.546569824219 957.343017578125 949.840515136719 956.69287109375 958.706115722656 952.828247070312 956.051391601562 959.626953125 966.739379882812 955.158325195312 947.054321289062 943.993347167969 947.570068359375 942.808349609375 944.79052734375 946.4697265625 951.355163574219 946.783874511719 955.635437011719 951.60107421875 949.494140625 947.74853515625 938.677307128906 942.946655273438 937.131469726562 944.222839355469 935.83251953125 937.066650390625 947.678955078125 957.623229980469 951.870056152344 954.65625 952.039306640625 953.883056640625 958.655639648438 959.414733886719 952.983154296875 954.438659667969 955.274108886719 955.891906738281 954.211730957031 950.892150878906 957.070617675781 960.6279296875 964.790344238281 965.823364257812 968.456909179688 970.145751953125 976.417541503906 981.528259277344 983.659729003906 969.654113769531 961.768249511719 960.075439453125 960.499450683594 962.976745605469 971.14599609375 964.287902832031 962.04150390625 955.324401855469 968.568298339844 964.777893066406 959.081909179688 967.623596191406 968.285095214844 964.950317382812 966.713439941406 961.565246582031 962.3046875 962.814819335938 964.407043457031 968.775207519531 965.315979003906 971.886291503906 964.113464355469 971.719848632812 970.323913574219 966.624816894531 981.027160644531 977.116333007812 973.724975585938 971.944519042969 973.071350097656 984.959411621094 984.680725097656 985.399230957031 980.729614257812 975.923034667969 972.945373535156 973.061340332031 971.700927734375 965.912292480469 965.131896972656 970.346313476562 982.062683105469 981.509155273438 968.544677734375 977.381774902344 975.522888183594 972.494689941406 976.275939941406 984.857788085938 980.494079589844 979.324401855469 983.778930664062 983.278259277344 996.76806640625 990.376525878906 1000.18041992188 1003.69622802734 1004.19647216797 996.254821777344 1001.95159912109 1004.85876464844 1009.09112548828 1006.83636474609 1010.58435058594 1016.98937988281 1025.20349121094 1023.15777587891 1018.43151855469 1018.92852783203 1026.517578125 1027.70617675781 1025.47875976562 1013.65148925781 1025.3583984375 1022.61529541016 1026.48303222656 1032.29345703125 1036.72692871094 1045.34631347656 1045.25231933594 1041.89050292969 1032.83837890625 1030.49645996094 1036.53466796875 1037.97937011719 1035.19287109375 1043.16320800781 1033.51721191406 1029.24279785156 1031.74987792969 1024.74975585938 1022.57122802734 1021.74090576172 1033.64636230469 1031.03393554688
963.371032714844 958.497985839844 957.444885253906 951.205688476562 956.741149902344 961.371337890625 960.871765136719 942.907165527344 943.429504394531 955.851867675781 952.318359375 950.054138183594 949.780883789062 941.162963867188 938.145080566406 936.967468261719 942.167419433594 947.583740234375 952.632080078125 941.751892089844 939.984313964844 950.531372070312 954.770629882812 948.255493164062 945.202880859375 944.488586425781 948.422119140625 942.828796386719 946.681823730469 942.611083984375 938.301879882812 949.568908691406 944.415832519531 946.958923339844 942.68212890625 951.342468261719 953.744567871094 947.281005859375 949.9267578125 959.028137207031 956.123046875 951.510070800781 957.575439453125 955.577270507812 958.142028808594 956.063354492188 959.406066894531 975.629577636719 971.935607910156 981.678649902344 981.088012695312 977.624328613281 983.796142578125 977.4921875 975.869201660156 968.675109863281 958.789001464844 964.440002441406 970.401672363281 961.820373535156 956.749694824219 954.728332519531 966.471801757812 963.588806152344 962.000671386719 972.908630371094 972.3173828125 969.091796875 976.3701171875 974.571655273438 969.088256835938 971.908874511719 975.136657714844 973.059020996094 965.382019042969 960.39990234375 965.540283203125 964.419494628906 969.99462890625 972.771423339844 976.874938964844 983.490417480469 974.508666992188 973.966735839844 976.837463378906 975.443359375 977.917846679688 986.941467285156 981.053405761719 971.356140136719 979.460021972656 984.211120605469 975.00146484375 966.990051269531 968.957458496094 978.110534667969 978.986572265625 975.3505859375 985.250793457031 982.165893554688 975.276733398438 979.808532714844 985.550537109375 984.162780761719 985.206665039062 978.717712402344 979.172607421875 982.712341308594 1000.08074951172 1002.92437744141 1003.021484375 997.701477050781 1005.53900146484 1006.86083984375 1014.14788818359 1016.1328125 1025.84020996094 1023.76922607422 1012.81927490234 1023.68157958984 1023.42962646484 1026.86364746094 1020.39587402344 1017.42022705078 1021.96722412109 1019.80358886719 1021.82177734375 1022.01293945312 1023.61785888672 1020.23559570312 1018.70861816406 1032.56274414062 1033.72924804688 1038.81848144531 1047.62451171875 1041.06640625 1040.55102539062 1026.7578125 1030.74658203125 1041.50939941406 1045.21313476562 1040.54919433594 1028.89050292969 1029.67919921875 1023.38165283203 1013.56701660156 1009.42315673828 1011.77062988281 1018.84930419922 1029.81201171875
955.708984375 956.091918945312 956.645751953125 961.147094726562 964.661254882812 951.003356933594 952.577941894531 943.818969726562 947.040771484375 957.786376953125 946.656799316406 941.799438476562 943.552124023438 943.015441894531 939.623718261719 943.009643554688 944.286315917969 949.366271972656 938.993347167969 944.578796386719 946.533447265625 950.215087890625 945.988037109375 941.472473144531 948.340698242188 951.593200683594 952.984008789062 950.199096679688 943.465881347656 935.081298828125 936.877319335938 946.568420410156 940.324951171875 938.154479980469 944.60888671875 953.257629394531 958.822570800781 949.589294433594 952.009216308594 959.594787597656 964.85791015625 961.559875488281 956.1669921875 947.876342773438 955.666748046875 959.589904785156 968.238708496094 975.381958007812 976.852600097656 979.692504882812 985.912231445312 979.595520019531 970.830749511719 969.127563476562 969.090637207031 960.604431152344 952.401916503906 966.485290527344 967.294067382812 970.797912597656 960.580871582031 957.137329101562 954.538208007812 959.285339355469 964.619384765625 965.300659179688 966.586059570312 963.861083984375 971.56396484375 978.055297851562 970.6513671875 970.000610351562 979.7705078125 981.487243652344 976.930603027344 968.979675292969 967.6806640625 965.356628417969 971.604125976562 967.63623046875 973.37744140625 981.246887207031 979.862915039062 979.160095214844 981.643432617188 990.505859375 983.764831542969 978.528442382812 977.512512207031 976.970886230469 976.039733886719 973.733276367188 969.877075195312 972.83349609375 975.953735351562 978.816772460938 982.500793457031 982.280578613281 979.869384765625 980.516845703125 988.046569824219 983.1748046875 982.254089355469 985.714416503906 990.502746582031 986.189086914062 984.772338867188 989.269409179688 1004.13262939453 1006.22955322266 1007.81237792969 1002.91717529297 1004.35638427734 1014.27703857422 1014.27630615234 1024.07238769531 1026.8759765625 1025.50720214844 1026.33471679688 1027.43029785156 1028.99694824219 1037.12548828125 1027.79223632812 1028.57080078125 1012.67437744141 1014.64996337891 1017.96221923828 1026.09936523438 1023.83642578125 1023.69183349609 1030.68017578125 1025.46826171875 1030.89025878906 1036.42370605469 1042.90710449219 1034.73608398438 1045.56689453125 1035.18884277344 1033.423828125 1042.95971679688 1045.072265625 1030.86267089844 1030.27331542969 1026.31262207031 1012.93060302734 1019.25366210938 1005.16156005859 1005.14410400391 1009.04937744141 1006.2451171875
948.644958496094 953.328002929688 954.043273925781 957.663208007812 952.384460449219 948.9814453125 952.618774414062 936.302490234375 944.870361328125 948.389465332031 944.2802734375 940.026550292969 933.693603515625 937.94482421875 947.61669921875 944.939819335938 941.827270507812 948.662719726562 941.033447265625 945.995239257812 945.090270996094 949.509033203125 953.219299316406 949.483093261719 954.366271972656 955.102172851562 952.674682617188 947.725952148438 946.104431152344 939.095886230469 933.855346679688 936.031799316406 941.238464355469 941.038330078125 947.502868652344 947.009521484375 955.349914550781 954.510009765625 954.457580566406 955.691833496094 951.382690429688 955.102355957031 951.341735839844 962.724548339844 962.943298339844 963.661254882812 965.013305664062 968.696960449219 972.071472167969 979.396545410156 977.52197265625 976.65576171875 981.534545898438 972.010620117188 966.264221191406 962.730590820312 960.261901855469 971.438293457031 966.607971191406 959.035278320312 955.473449707031 949.93896484375 957.195861816406 959.488403320312 971.382751464844 967.946228027344 969.84033203125 975.361938476562 975.710815429688 978.084533691406 979.765197753906 975.921447753906 977.773620605469 984.56982421875 980.182006835938 975.531433105469 981.692749023438 967.173217773438 973.069885253906 976.733215332031 974.536254882812 984.079833984375 982.366516113281 977.710998535156 975.888732910156 985.374694824219 979.166931152344 978.529235839844 987.846252441406 984.662475585938 974.699157714844 975.763549804688 980.25146484375 973.504760742188 972.685913085938 982.039428710938 987.377136230469 985.471069335938 991.39208984375 991.789306640625 989.209899902344 983.755126953125 987.963806152344 993.607238769531 991.279968261719 991.453308105469 988.864135742188 995.322204589844 1010.36450195312 1008.85552978516 1005.2470703125 1000.38220214844 1008.46350097656 1014.8720703125 1014.30871582031 1019.73858642578 1024.8046875 1029.51342773438 1032.73388671875 1034.04138183594 1032.90759277344 1043.77185058594 1042.35559082031 1031.40026855469 1023.25811767578 1035.07531738281 1034.73791503906 1026.12451171875 1027.51550292969 1038.07238769531 1031.16296386719 1029.92736816406 1027.32592773438 1039.11682128906 1039.55017089844 1034.72998046875 1044.17211914062 1039.88928222656 1029.9267578125 1029.41320800781 1034.86767578125 1025.50524902344 1024.67517089844 1017.44195556641 1008.09075927734 1006.61169433594 1000.84100341797 1000.93817138672 994.954223632812 1003.72784423828
954.499206542969 953.670349121094 952.3203125 953.666259765625 954.035217285156 956.060607910156 945.231567382812 943.395385742188 940.276000976562 942.688354492188 944.190795898438 934.675354003906 933.352783203125 936.132019042969 950.731628417969 948.851135253906 949.079895019531 950.081970214844 954.524353027344 946.180908203125 943.164611816406 950.830810546875 956.763916015625 953.125183105469 955.603576660156 944.535766601562 950.20849609375 950.283630371094 948.908020019531 946.905334472656 943.818481445312 942.154052734375 952.803833007812 956.95458984375 956.533020019531 945.970031738281 956.534912109375 957.977966308594 963.092834472656 961.830444335938 951.115661621094 959.669250488281 962.419067382812 963.682678222656 970.463745117188 971.461669921875 966.01123046875 975.70654296875 982.177062988281 977.212158203125 973.553344726562 971.172790527344 981.953796386719 989.214904785156 973.210876464844 970.984741210938 966.0927734375 977.256286621094 976.60888671875 963.197387695312 962.878967285156 958.426086425781 962.35888671875 960.573547363281 969.148803710938 975.597534179688 975.979064941406 978.214233398438 973.359252929688 973.461975097656 978.375183105469 978.145690917969 979.682189941406 986.507202148438 984.527465820312 985.462524414062 984.684753417969 985.408386230469 984.908142089844 981.933898925781 982.889343261719 986.555480957031 983.224792480469 983.018737792969 982.519958496094 981.494323730469 982.110107421875 979.268432617188 986.120056152344 974.109802246094 980.207275390625 975.712036132812 983.920776367188 976.710021972656 985.77099609375 982.525695800781 989.500305175781 985.728454589844 999.420593261719 987.316528320312 984.141174316406 989.556823730469 992.859313964844 999.315979003906 998.191284179688 993.654968261719 989.684143066406 1002.40228271484 1013.85662841797 1009.90887451172 1013.11401367188 1007.58001708984 1015.05670166016 1014.88983154297 1016.57037353516 1019.724609375 1028.3623046875 1025.94165039062 1035.48181152344 1034.19299316406 1033.33862304688 1036.6005859375 1034.51013183594 1033.33618164062 1031.37023925781 1031.68273925781 1037.74011230469 1035.857421875 1033.32885742188 1031.72265625 1033.34423828125 1016.638671875 1021.22637939453 1027.94445800781 1035.45129394531 1028.01953125 1034.49548339844 1035.23510742188 1029.572265625 1026.15808105469 1017.39892578125 1018.51684570312 1013.33990478516 1009.51263427734 1010.49279785156 1003.58923339844 995.496765136719 993.470031738281 997.427917480469 1007.58392333984
952.944152832031 952.215209960938 957.1806640625 950.316833496094 956.789672851562 948.220825195312 943.041687011719 940.228454589844 940.577331542969 934.354736328125 938.127197265625 937.262878417969 940.623962402344 945.161804199219 945.974060058594 951.730651855469 948.377075195312 952.341369628906 953.9072265625 958.911071777344 952.903930664062 952.675720214844 949.90576171875 952.804565429688 951.750427246094 953.231018066406 961.096130371094 946.702880859375 956.732116699219 951.205871582031 950.427001953125 951.342041015625 959.023986816406 952.682556152344 960.862731933594 955.067138671875 954.239929199219 960.720153808594 963.318298339844 962.967956542969 958.629760742188 956.975341796875 964.424377441406 970.05078125 976.851867675781 977.367492675781 974.777099609375 980.912353515625 984.894592285156 979.758361816406 979.388061523438 976.300842285156 985.687744140625 992.64697265625 975.338806152344 975.070007324219 979.585083007812 973.161254882812 979.225463867188 967.876403808594 967.78271484375 959.501159667969 962.838256835938 967.874267578125 967.996154785156 973.251342773438 966.897277832031 971.19580078125 977.900512695312 971.983703613281 974.692260742188 983.423156738281 984.239196777344 983.479370117188 985.090942382812 979.943481445312 980.771118164062 983.450500488281 985.4482421875 982.56396484375 982.672912597656 991.732177734375 983.445617675781 980.392028808594 977.248962402344 972.549560546875 988.053100585938 986.230895996094 988.62890625 978.069213867188 978.320617675781 970.62744140625 971.652099609375 977.588439941406 983.8720703125 988.432739257812 987.482543945312 992.431762695312 1001.06768798828 998.381225585938 996.082336425781 991.978210449219 991.467590332031 1001.52630615234 1003.36407470703 1002.91674804688 1003.59301757812 1013.07562255859 1009.06817626953 1007.05053710938 1009.24749755859 1009.53039550781 1014.48883056641 1011.03369140625 1021.29541015625 1021.82550048828 1024.46850585938 1026.64892578125 1042.60009765625 1041.86511230469 1042.76879882812 1041.076171875 1040.94750976562 1046.55712890625 1039.34790039062 1027.060546875 1024.86853027344 1028.89978027344 1020.46307373047 1027.92260742188 1032.62280273438 1019.59197998047 1019.53411865234 1022.71942138672 1016.02740478516 1028.03125 1027.41650390625 1024.84741210938 1029.39367675781 1029.83239746094 1014.14923095703 1013.70263671875 1012.53015136719 1013.74310302734 1007.96051025391 1007.81524658203 1006.82592773438 1005.60406494141 1006.06561279297 1014.66680908203
955.963928222656 942.542297363281 945.041015625 947.410095214844 952.548522949219 942.407775878906 941.467468261719 939.950744628906 936.676391601562 937.975463867188 940.500244140625 940.768859863281 937.812194824219 943.044250488281 952.426391601562 951.790893554688 951.2744140625 946.686157226562 953.939147949219 956.028625488281 959.6630859375 950.178588867188 950.189270019531 955.338073730469 955.501953125 962.134643554688 959.859558105469 951.373413085938 952.82568359375 956.796020507812 961.355773925781 960.202697753906 965.335693359375 957.517517089844 957.651245117188 958.617004394531 964.344177246094 956.917175292969 954.720581054688 959.443603515625 962.844299316406 960.124206542969 971.759033203125 972.230529785156 971.349975585938 976.246643066406 979.403259277344 986.114501953125 986.526428222656 983.79833984375 980.61376953125 981.55322265625 989.351257324219 988.709045410156 972.151489257812 962.91015625 974.30859375 978.415588378906 976.214904785156 977.439819335938 972.5986328125 962.664489746094 956.707763671875 971.811584472656 966.903015136719 970.131042480469 977.913269042969 982.390014648438 982.521179199219 975.412292480469 983.623596191406 987.720153808594 983.989685058594 989.119384765625 987.034484863281 987.809509277344 983.571472167969 986.443054199219 983.28369140625 979.243896484375 984.667236328125 986.439331054688 976.537353515625 981.626159667969 977.202758789062 977.832275390625 989.078552246094 981.752746582031 983.5810546875 984.133666992188 980.442504882812 975.176574707031 978.863220214844 975.697937011719 983.572692871094 987.263549804688 992.696594238281 994.691162109375 1000.94671630859 996.57275390625 995.2275390625 993.161193847656 1004.43176269531 1002.97015380859 1006.17150878906 997.187683105469 1005.3427734375 1011.79309082031 1017.1904296875 1020.533203125 1011.76934814453 1012.92663574219 1024.05749511719 1025.41674804688 1026.49060058594 1028.13330078125 1029.37365722656 1027.16528320312 1037.84448242188 1044.3037109375 1050.32189941406 1043.64221191406 1041.77404785156 1037.31225585938 1033.62756347656 1021.23004150391 1019.79406738281 1017.63793945312 1021.03656005859 1024.74279785156 1024.7431640625 1017.91723632812 1024.15405273438 1017.44934082031 1021.30773925781 1024.45251464844 1018.89343261719 1017.12945556641 1010.34613037109 1015.44738769531 1013.20721435547 1012.13519287109 1011.53338623047 1005.38659667969 1007.27783203125 1007.28790283203 1014.46783447266 1004.84674072266 1009.94213867188 1011.48205566406
950.612121582031 943.791748046875 952.465087890625 950.315795898438 941.180786132812 951.252624511719 946.189086914062 935.576965332031 940.378173828125 936.911499023438 945.595031738281 944.702819824219 941.693054199219 943.382629394531 950.782348632812 950.583129882812 949.456115722656 951.393188476562 963.214599609375 968.743957519531 963.60693359375 963.043640136719 954.381530761719 958.311950683594 970.454956054688 967.065979003906 964.92724609375 966.108215332031 965.774841308594 971.637329101562 978.884948730469 968.129943847656 973.201171875 962.092651367188 956.333618164062 965.998046875 963.548522949219 959.591247558594 960.45654296875 962.827026367188 969.954467773438 969.434265136719 968.644958496094 976.766479492188 985.370422363281 984.802856445312 982.239807128906 992.999145507812 986.903869628906 992.756469726562 1000.66326904297 1002.95617675781 994.8603515625 988.548034667969 976.632934570312 972.992431640625 976.023376464844 982.350341796875 982.252075195312 977.272521972656 969.88427734375 959.353454589844 964.955688476562 964.5 978.389038085938 973.151611328125 972.855285644531 975.268493652344 981.325317382812 969.756042480469 979.782348632812 980.7998046875 976.383239746094 981.183166503906 976.582580566406 975.552185058594 980.935302734375 989.629150390625 987.933288574219 974.3056640625 977.882263183594 980.7021484375 978.098327636719 992.327453613281 983.045043945312 990.998840332031 991.786804199219 987.313293457031 981.510864257812 977.038208007812 975.033630371094 974.895629882812 983.033508300781 989.4013671875 987.116821289062 992.4814453125 988.920776367188 996.252624511719 992.425109863281 996.113952636719 998.707763671875 988.715942382812 991.767517089844 999.772277832031 993.607849121094 997.104736328125 1009.09851074219 1008.64715576172 1017.58880615234 1022.43627929688 1023.59301757812 1026.64453125 1022.51318359375 1019.69934082031 1023.99182128906 1029.13745117188 1026.78552246094 1035.11499023438 1049.47412109375 1045.07336425781 1043.36267089844 1048.19750976562 1040.94616699219 1029.16552734375 1023.37994384766 1014.95123291016 1020.95739746094 1008.94250488281 1015.06604003906 1025.3251953125 1014.15600585938 1013.14855957031 1022.31750488281 1017.05670166016 1007.57312011719 1011.20910644531 1008.15942382812 1009.45825195312 1006.21343994141 1007.00744628906 1010.73992919922 1007.03179931641 1005.33984375 1006.00665283203 1006.67742919922 1009.58959960938 1008.98291015625 992.940673828125 1001.65454101562 1008.51690673828
940.652465820312 942.949829101562 943.320373535156 938.534301757812 943.377807617188 947.561401367188 950.418701171875 941.892028808594 941.993530273438 942.002746582031 941.667236328125 946.064208984375 954.033508300781 945.841674804688 952.813720703125 955.160522460938 956.23876953125 957.927062988281 965.704467773438 974.270751953125 965.837524414062 959.043273925781 949.620666503906 955.216125488281 964.954833984375 972.36572265625 965.884643554688 972.17626953125 977.468688964844 982.794616699219 974.245178222656 972.625427246094 974.754821777344 969.635925292969 967.450378417969 966.877624511719 967.088623046875 970.073364257812 968.481262207031 970.548400878906 977.153625488281 973.660400390625 971.707397460938 976.322631835938 984.160217285156 987.051330566406 989.761901855469 993.196411132812 991.022888183594 996.387817382812 1005.14935302734 999.845336914062 989.641906738281 988.723327636719 977.778137207031 992.801940917969 980.242858886719 981.764038085938 974.155456542969 976.241271972656 966.231567382812 956.901794433594 969.596252441406 970.35107421875 970.301696777344 981.36279296875 981.05029296875 985.961730957031 976.813171386719 979.528747558594 976.394104003906 986.345764160156 980.483581542969 983.337158203125 978.932800292969 981.400390625 986.880920410156 992.139587402344 993.15478515625 980.6328125 980.062622070312 987.897521972656 985.722106933594 989.79638671875 982.803833007812 981.095031738281 978.844421386719 979.974304199219 977.585998535156 979.601196289062 972.752197265625 978.840209960938 981.948181152344 985.061401367188 984.12744140625 991.938415527344 994.435913085938 990.991577148438 983.950866699219 992.055297851562 991.542114257812 987.591613769531 985.847351074219 997.240295410156 996.683654785156 1007.80773925781 1004.46246337891 1014.56750488281 1019.92724609375 1010.15289306641 1009.02734375 1015.40661621094 1020.37310791016 1025.76110839844 1026.19055175781 1029.57763671875 1028.97668457031 1033.58837890625 1038.86804199219 1036.68017578125 1040.94860839844 1046.55163574219 1048.8720703125 1043.62316894531 1033.25964355469 1021.36517333984 1027.556640625 1017.55804443359 1017.26544189453 1014.31256103516 1014.4404296875 1014.82977294922 1008.50866699219 1012.86010742188 1011.46832275391 1006.00799560547 1003.94244384766 996.27587890625 993.834838867188 1000.32537841797 1006.93933105469 1001.80657958984 1016.29461669922 1009.36572265625 1010.77960205078 1002.83489990234 999.417846679688 989.669677734375 995.140686035156 1008.10150146484
943.32177734375 945.352172851562 938.94189453125 941.92724609375 951.477844238281 947.165222167969 944.619812011719 939.47021484375 944.385314941406 952.041198730469 955.299682617188 956.447387695312 951.888488769531 961.528747558594 956.5185546875 966.713806152344 958.190307617188 960.96337890625 970.556518554688 976.096008300781 958.702270507812 966.011596679688 957.239929199219 964.331726074219 971.642578125 972.4609375 966.128784179688 969.950317382812 980.580383300781 976.509399414062 974.38623046875 978.252746582031 975.336608886719 975.13720703125 967.808959960938 974.5009765625 968.552490234375 979.480773925781 980.098266601562 975.40625 978.799011230469 982.919616699219 979.270751953125 981.403503417969 989.557861328125 995.961853027344 993.174865722656 996.304443359375 987.61474609375 1003.8203125 1001.37768554688 1006.73468017578 994.00830078125 997.595397949219 995.564575195312 987.977172851562 982.34521484375 979.98486328125 976.087524414062 969.255249023438 964.335571289062 960.900390625 966.052185058594 965.487976074219 974.450927734375 976.743774414062 974.475830078125 977.716857910156 983.345825195312 989.658020019531 984.049743652344 990.839477539062 989.164245605469 982.479858398438 981.560424804688 985.520874023438 993.999694824219 992.979125976562 991.609191894531 991.850219726562 986.562194824219 990.82080078125 982.92333984375 993.289794921875 986.036682128906 986.323913574219 986.070373535156 981.517700195312 978.456481933594 979.177429199219 982.407897949219 982.277587890625 984.190673828125 983.680786132812 985.752746582031 987.52099609375 987.090393066406 988.157775878906 983.124877929688 978.662780761719 987.208557128906 990.1025390625 991.725891113281 990.481323242188 1003.40130615234 1004.84967041016 1015.16003417969 1007.62384033203 1012.84649658203 1003.7333984375 1010.7998046875 1017.13793945312 1030.66796875 1031.69030761719 1029.11560058594 1029.7275390625 1029.82458496094 1031.4755859375 1035.32556152344 1043.005859375 1032.48889160156 1038.53466796875 1044.13684082031 1044.23205566406 1038.81982421875 1026.05224609375 1024.04333496094 1020.18939208984 1014.06024169922 1010.01940917969 1006.86499023438 1005.7646484375 1004.19049072266 1006.06573486328 1008.80731201172 1008.9521484375 1006.19714355469 1003.3134765625 998.806945800781 1002.53796386719 1007.21722412109 1004.00805664062 1016.96429443359 1011.98901367188 1000.88677978516 987.907287597656 990.868835449219 992.176940917969 987.461975097656 1007.66320800781
935.362609863281 935.411865234375 935.540161132812 930.461181640625 942.323852539062 940.000915527344 941.560485839844 938.5048828125 938.031494140625 943.793762207031 951.127380371094 956.696533203125 955.9609375 968.129089355469 967.842590332031 965.014465332031 969.968444824219 968.09912109375 972.576477050781 979.902893066406 976.807922363281 972.970275878906 973.125549316406 961.526550292969 971.599243164062 972.260803222656 984.964599609375 984.4951171875 975.658081054688 978.277893066406 976.952270507812 975.263000488281 970.572875976562 975.5849609375 978.517883300781 969.354125976562 965.04833984375 973.914001464844 975.877624511719 985.179443359375 981.569458007812 979.341186523438 985.92236328125 990.46044921875 983.306335449219 993.632202148438 995.959655761719 1001.29870605469 998.464233398438 1003.05535888672 1000.51171875 1001.67163085938 1001.02661132812 989.385864257812 990.870178222656 977.526245117188 983.955200195312 973.557312011719 976.24365234375 975.961059570312 974.520935058594 970.42431640625 964.96728515625 973.876892089844 972.533935546875 971.41845703125 970.661437988281 978.6435546875 983.092590332031 983.716796875 985.678955078125 986.818115234375 984.4462890625 990.920471191406 992.467712402344 987.135925292969 992.189758300781 988.490112304688 985.805419921875 993.108154296875 988.167175292969 986.303466796875 979.680847167969 978.259155273438 988.719787597656 983.753356933594 986.722778320312 986.814819335938 983.235412597656 988.038330078125 989.344909667969 983.261291503906 980.148864746094 986.709289550781 992.654296875 992.335327148438 986.458679199219 992.451782226562 994.662475585938 991.151428222656 990.02880859375 987.0751953125 1000.61450195312 1003.17785644531 1008.69201660156 1002.15289306641 1005.13787841797 1005.31469726562 1012.87396240234 1009.91864013672 1013.95031738281 1017.72576904297 1024.65600585938 1032.8037109375 1034.31811523438 1028.55725097656 1018.51055908203 1028.40856933594 1022.75988769531 1032.5869140625 1030.96533203125 1028.720703125 1033.54931640625 1037.01477050781 1037.70556640625 1026.49560546875 1022.79382324219 1006.68347167969 1003.68829345703 1009.05310058594 1010.53936767578 1007.02294921875 1008.65148925781 1012.88061523438 1011.18676757812 1012.02038574219 1009.99645996094 1007.00811767578 1008.84887695312 1003.64050292969 997.2490234375 1001.52667236328 1005.10302734375 1004.55328369141 995.940856933594 990.221496582031 991.874145507812 995.398803710938 993.913024902344 1000.15966796875
934.604125976562 928.976013183594 930.654296875 933.251220703125 930.647094726562 935.546264648438 936.688598632812 940.478942871094 938.623046875 946.095703125 953.821838378906 959.275268554688 961.1181640625 978.602294921875 976.874267578125 975.756286621094 980.463134765625 982.767456054688 981.126281738281 993.178649902344 983.262878417969 987.385559082031 979.956909179688 967.202209472656 970.66455078125 972.831237792969 985.327331542969 987.316345214844 970.002502441406 967.400695800781 975.856811523438 970.676818847656 966.688903808594 967.084899902344 976.838562011719 977.05615234375 976.848876953125 979.473754882812 983.173522949219 982.073486328125 978.687194824219 980.66064453125 982.302307128906 986.817199707031 982.894897460938 994.415771484375 997.359069824219 1008.96325683594 997.638732910156 1001.05139160156 997.857666015625 1000.46813964844 995.291442871094 993.836730957031 985.151489257812 972.940673828125 975.37158203125 964.400207519531 973.694030761719 979.499572753906 979.070251464844 972.101318359375 969.569946289062 973.685791015625 975.157470703125 978.991821289062 977.112609863281 977.920715332031 976.889709472656 985.642150878906 988.915100097656 994.875 985.699768066406 984.339538574219 988.406677246094 992.954223632812 989.402526855469 988.924133300781 990.129028320312 983.788330078125 994.219421386719 974.869384765625 982.859985351562 983.523864746094 986.906372070312 990.410217285156 989.664733886719 984.431213378906 986.44287109375 979.359130859375 990.811218261719 993.072021484375 986.218811035156 984.759460449219 979.257690429688 991.718872070312 997.787902832031 989.499877929688 994.605651855469 991.479370117188 995.425964355469 998.722778320312 998.946472167969 1009.7646484375 1007.45782470703 1004.49108886719 1008.18054199219 1004.64019775391 1011.87707519531 1014.46771240234 1015.31500244141 1013.98455810547 1019.71984863281 1032.53723144531 1031.51281738281 1026.72448730469 1020.96569824219 1017.82574462891 1012.96716308594 1017.91986083984 1029.16918945312 1027.81982421875 1031.64233398438 1032.33581542969 1022.15362548828 1021.84655761719 1019.09661865234 1012.03527832031 1008.39221191406 1009.79626464844 1008.04437255859 1015.99908447266 1012.06140136719 1015.40454101562 1009.71697998047 1014.05078125 1013.07745361328 1014.80621337891 1009.16119384766 1003.97930908203 996.320739746094 999.290222167969 999.640319824219 995.094543457031 991.420104980469 987.366577148438 989.523620605469 995.520935058594 1008.04437255859 997.913208007812
938.322448730469 934.272094726562 930.308227539062 935.737365722656 926.383605957031 930.429138183594 928.96142578125 928.629455566406 936.400390625 952.884582519531 956.528381347656 957.941467285156 972.679931640625 972.287048339844 971.534484863281 969.564697265625 971.716613769531 980.521789550781 986.041381835938 993.19091796875 987.01318359375 989.426940917969 983.356140136719 982.401184082031 979.943969726562 982.031311035156 990.590026855469 976.543701171875 967.800354003906 968.629028320312 966.26708984375 966.330017089844 971.116455078125 973.282470703125 980.629333496094 978.777526855469 971.985717773438 970.763732910156 977.984558105469 981.219482421875 980.46923828125 990.81005859375 999.505676269531 999.154968261719 999.05224609375 1003.74188232422 1006.71844482422 1011.50738525391 1017.43981933594 999.608154296875 997.614990234375 997.249267578125 1002.38391113281 1000.09417724609 988.513732910156 978.554504394531 981.510559082031 975.480590820312 976.501220703125 981.418395996094 968.833740234375 965.547973632812 976.39404296875 969.753051757812 976.078430175781 984.207885742188 982.900817871094 983.065856933594 975.38720703125 988.579040527344 988.821228027344 993.084838867188 984.384765625 995.005187988281 992.340942382812 995.460998535156 994.454223632812 983.163391113281 989.781677246094 998.780700683594 994.082763671875 984.787231445312 988.475219726562 982.665832519531 989.716979980469 993.914001464844 991.035400390625 994.063781738281 989.516357421875 987.860229492188 999.234313964844 993.025817871094 981.769287109375 983.177001953125 983.492248535156 995.411254882812 1000.82659912109 999.698181152344 993.643127441406 995.570434570312 1001.02166748047 1004.85852050781 1005.65930175781 1006.73382568359 1009.42761230469 1016.15948486328 1015.8154296875 1012.74700927734 1018.33905029297 1022.23919677734 1026.49011230469 1033.24035644531 1026.65698242188 1029.94287109375 1030.12097167969 1026.1806640625 1021.06365966797 1009.49432373047 1019.19372558594 1024.61889648438 1026.53356933594 1023.77276611328 1024.88159179688 1019.47973632812 1017.09350585938 1022.40270996094 1016.17791748047 1003.83990478516 1004.83154296875 1010.17022705078 1013.79968261719 1005.34106445312 1018.58233642578 1014.96978759766 1008.11370849609 1016.39721679688 1016.16412353516 1010.63153076172 1006.19897460938 999.570983886719 992.591247558594 990.007934570312 993.612243652344 989.738647460938 998.561279296875 993.429504394531 992.210083007812 993.510314941406 999.617492675781 1005.9794921875
942.72412109375 928.137329101562 926.369873046875 934.604736328125 927.701477050781 931.032775878906 937.906616210938 939.767761230469 943.032348632812 950.111877441406 960.109252929688 960.9853515625 969.536987304688 979.015869140625 978.240234375 977.109741210938 980.072814941406 986.429565429688 988.374572753906 986.194580078125 980.875549316406 999.007080078125 992.388854980469 987.551879882812 986.13232421875 990.705993652344 993.169494628906 983.196228027344 987.217651367188 979.696166992188 974.228942871094 967.927307128906 978.597351074219 982.894226074219 979.140197753906 975.852966308594 974.359191894531 976.903747558594 983.059204101562 983.420104980469 987.22265625 988.338684082031 997.985778808594 1001.44592285156 1006.00518798828 1003.10083007812 998.91162109375 1008.21728515625 1022.03375244141 1006.96105957031 988.813903808594 996.362670898438 991.544616699219 991.702331542969 988.934143066406 986.012817382812 978.706787109375 978.331604003906 989.378601074219 986.355224609375 971.444274902344 964.660949707031 974.732482910156 975.86865234375 979.676696777344 985.052429199219 981.099792480469 986.565490722656 976.134399414062 982.326232910156 986.662048339844 985.835083007812 991.868408203125 993.106567382812 989.545593261719 996.677917480469 998.628723144531 990.414367675781 993.536254882812 991.750915527344 994.788452148438 988.011169433594 985.427551269531 983.668395996094 992.334106445312 991.249145507812 987.922485351562 995.706604003906 998.107604980469 999.651123046875 1002.14654541016 996.384887695312 981.413696289062 989.400756835938 995.576599121094 991.743713378906 996.11376953125 1003.03314208984 1003.72900390625 1001.357421875 1001.40118408203 1006.27209472656 1001.55206298828 1005.13800048828 1017.80419921875 1023.60552978516 1015.59313964844 1018.55480957031 1026.06884765625 1036.16235351562 1037.40783691406 1036.03857421875 1030.58349609375 1035.22229003906 1037.20825195312 1022.15673828125 1019.10290527344 1008.55902099609 1014.62298583984 1019.71984863281 1025.91015625 1015.42596435547 1018.62255859375 1028.79345703125 1019.39233398438 1019.47308349609 1017.32794189453 1004.32427978516 993.823791503906 1007.15356445312 1004.30578613281 1016.09423828125 1017.43115234375 1008.32635498047 1007.73962402344 1010.95178222656 1010.41284179688 1003.53521728516 1005.70867919922 1007.58679199219 999.442993164062 995.707214355469 990.914978027344 999.657043457031 991.024353027344 991.72119140625 986.072448730469 984.537048339844 994.330200195312 1002.67700195312
