NCOLS 150
NROWS 37
XLLCORNER 7394249
YLLCORNER 4843499
CELLSIZE 30
NODATA_VALUE -9999
992.828063964844 979.873657226562 980.360961914062 991.107849121094 982.95556640625 988.382385253906 981.150573730469 982.591674804688 979.363708496094 987.230346679688 980.826171875 977.247863769531 975.175231933594 986.330322265625 985.089660644531 996.644592285156 1000.18444824219 998.696716308594 993.080017089844 987.861755371094 987.434509277344 997.422668457031 996.94140625 992.80712890625 992.76708984375 988.421936035156 988.074401855469 1007.11053466797 1007.45178222656 1009.28546142578 1006.68603515625 1014.396484375 1022.107421875 1019.69262695312 1009.28607177734 1017.38116455078 1024.39599609375 1026.33837890625 1027.646484375 1023.57806396484 1024.279296875 1019.36486816406 1026.49682617188 1016.28881835938 1019.26141357422 1016.12054443359 1009.15142822266 1006.95758056641 1014.67010498047 1006.14721679688 999.498657226562 999.516296386719 1011.96301269531 1009.03332519531 1011.48736572266 1011.09808349609 1010.84484863281 1017.64477539062 1016.19555664062 1022.25793457031 1019.65960693359 1023.08245849609 1015.84344482422 1004.95935058594 1006.54937744141 1001.95965576172 995.041625976562 998.136108398438 998.862548828125 990.745544433594 988.069519042969 995.869018554688 997.780334472656 1006.61077880859 1008.85015869141 1023.00958251953 1024.70178222656 1034.17138671875 1037.443359375 1043.66564941406 1034.00439453125 1028.97717285156 1036.40319824219 1028.71545410156 1014.1328125 1000.30841064453 984.445922851562 972.587158203125 961.346130371094 941.56640625 944.122924804688 943.097290039062 943.731018066406 949.08447265625 948.555541992188 939.336303710938 940.311584472656 946.226806640625 941.732360839844 950.266052246094 954.162719726562 960.101135253906 963.009094238281 955.088195800781 956.176391601562 957.041625976562 955.686889648438 951.677062988281 945.903564453125 944.775268554688 944.753540039062 939.373901367188 928.896179199219 932.342529296875 925.346374511719 911.6455078125 908.954040527344 912.778076171875 920.588745117188 927.721130371094 939.076477050781 951.139282226562 949.006958007812 969.478515625 975.11767578125 993.4609375 988.923950195312 1002.08276367188 1012.08856201172 1019.33233642578 1014.43353271484 1020.41430664062 1028.28393554688 1032.27075195312 1044.21984863281 1051.76403808594 1066.74206542969 1074.6904296875 1075.97497558594 1075.11499023438 1083.77734375 1100.51171875 1105.35778808594 1110.13610839844 1119.96936035156 1120.91723632812 1120.0419921875 1123.18310546875 1117.52648925781 1108.21301269531
991.774230957031 979.912780761719 983.724182128906 986.400024414062 986.688232421875 986.323181152344 982.029907226562 983.617980957031 985.61279296875 990.01611328125 984.0458984375 972.356323242188 974.188537597656 979.619323730469 975.902709960938 992.256652832031 998.518188476562 988.329467773438 989.31640625 989.699401855469 988.876342773438 999.129455566406 998.195434570312 992.591491699219 984.869689941406 993.54052734375 993.456237792969 996.899597167969 1003.80456542969 1007.90252685547 1022.19940185547 1016.91003417969 1024.62670898438 1010.93170166016 1014.69580078125 1021.84930419922 1025.30798339844 1035.38171386719 1032.65625 1030.01281738281 1037.29064941406 1034.98559570312 1031.36633300781 1021.74353027344 1030.85693359375 1022.21429443359 1006.47015380859 1004.60748291016 1006.90368652344 1010.10357666016 1003.61340332031 1012.76281738281 1010.11553955078 1014.56365966797 1014.35119628906 1015.90521240234 1010.28521728516 1012.25793457031 1018.92327880859 1014.91217041016 1014.29449462891 1023.07098388672 1013.79864501953 1007.96209716797 1011.36688232422 1009.63323974609 1007.61767578125 1009.1279296875 1006.92956542969 997.628112792969 991.287475585938 996.187622070312 1003.24530029297 1004.07739257812 1009.68103027344 1020.99078369141 1021.93151855469 1029.49291992188 1044.23937988281 1045.92150878906 1041.41674804688 1027.76831054688 1031.95153808594 1019.9052734375 1019.49652099609 993.805358886719 979.848388671875 968.812683105469 954.968872070312 944.103759765625 936.812927246094 945.892150878906 945.256042480469 956.018981933594 952.374145507812 945.860778808594 950.274047851562 952.183532714844 954.1650390625 950.234436035156 956.726318359375 964.627258300781 962.685913085938 961.231018066406 960.425476074219 960.897766113281 962.356018066406 971.996154785156 964.4970703125 962.712097167969 945.120788574219 946.356689453125 948.317932128906 926.972473144531 932.978515625 924.219665527344 920.29150390625 919.814819335938 929.0634765625 930.2685546875 948.078491210938 953.243347167969 955.951171875 975.145385742188 982.260864257812 994.120239257812 1001.44744873047 1006.51147460938 1013.05517578125 1021.29846191406 1016.88861083984 1026.46765136719 1029.18115234375 1038.12646484375 1036.16186523438 1046.56103515625 1053.27917480469 1071.74914550781 1077.4609375 1083.40222167969 1082.533203125 1098.8017578125 1099.74792480469 1107.45935058594 1113.94604492188 1116.42858886719 1118.34790039062 1123.06457519531 1121.99572753906 1114.27978515625
978.953918457031 987.65673828125 986.613952636719 985.816467285156 983.430480957031 982.856689453125 974.696350097656 985.222961425781 989.773071289062 986.0751953125 977.546569824219 975.622985839844 973.183532714844 970.057556152344 965.948852539062 980.959228515625 990.892211914062 990.938903808594 992.4453125 988.510681152344 993.578002929688 993.994995117188 996.906127929688 993.531860351562 990.812805175781 992.325012207031 986.39208984375 997.054138183594 1007.89947509766 1013.88977050781 1016.57818603516 1017.33917236328 1020.84509277344 1019.14147949219 1012.37384033203 1016.90533447266 1028.48291015625 1039.82885742188 1037.63903808594 1037.43273925781 1040.59521484375 1040.95178222656 1037.19018554688 1028.41967773438 1023.04431152344 1022.47827148438 1012.9775390625 1008.73034667969 1005.60803222656 1007.68725585938 1010.66735839844 1010.36535644531 1011.87384033203 1023.15374755859 1026.31970214844 1012.88714599609 1020.97052001953 1012.34460449219 1015.66705322266 1012.50555419922 1018.52758789062 1014.25207519531 1015.67730712891 1022.68713378906 1020.36303710938 1016.08172607422 1016.84777832031 1021.98541259766 1013.34204101562 1007.23486328125 1009.81365966797 1001.45776367188 1005.86462402344 1006.56079101562 1011.32653808594 1014.36236572266 1018.62451171875 1031.12658691406 1040.61889648438 1042.61694335938 1037.22119140625 1037.66931152344 1032.58740234375 1027.8662109375 1018.84069824219 1007.77764892578 983.579772949219 968.241455078125 959.3837890625 955.730529785156 943.659423828125 945.458618164062 946.414367675781 948.831665039062 948.603271484375 947.708984375 956.101928710938 958.389892578125 964.423278808594 965.163391113281 968.064392089844 971.055603027344 972.112976074219 971.285705566406 968.467224121094 973.732238769531 977.009399414062 987.80859375 984.052978515625 973.42529296875 953.019897460938 948.252502441406 941.533081054688 935.136535644531 938.721618652344 930.84912109375 922.686462402344 926.875427246094 935.371337890625 943.443115234375 953.178344726562 959.741882324219 964.164001464844 972.573303222656 990.861572265625 1008.00726318359 1013.3037109375 1014.20141601562 1017.0673828125 1020.09289550781 1024.68029785156 1030.3544921875 1041.81567382812 1035.80810546875 1038.81005859375 1050.41821289062 1060.953125 1075.99877929688 1075.05505371094 1085.25842285156 1088.419921875 1089.47509765625 1093.73071289062 1107.10424804688 1111.89343261719 1108.20153808594 1117.31787109375 1117.65222167969 1122.60876464844 1117.15014648438
978.215026855469 983.179260253906 982.344482421875 978.669738769531 968.707336425781 976.000305175781 980.091613769531 992.405822753906 988.60498046875 980.0439453125 978.496520996094 968.094421386719 969.7783203125 973.672241210938 975.708251953125 983.875183105469 979.882873535156 986.74609375 990.774719238281 988.291625976562 992.024169921875 994.807983398438 990.956298828125 993.309753417969 991.532836914062 995.187194824219 995.956115722656 1005.18695068359 1007.34967041016 1016.78430175781 1020.97003173828 1022.90643310547 1020.93200683594 1024.97143554688 1022.83880615234 1020.63946533203 1026.85595703125 1039.05505371094 1036.46826171875 1032.45788574219 1035.76733398438 1049.02429199219 1043.26672363281 1041.46508789062 1026.91650390625 1032.34985351562 1020.86218261719 1017.25042724609 1015.43676757812 1009.30346679688 1007.96099853516 1015.35748291016 1014.7255859375 1020.24896240234 1021.84460449219 1017.92663574219 1019.79949951172 1008.08630371094 1014.0205078125 1019.40118408203 1018.03955078125 1027.50451660156 1021.35961914062 1019.34954833984 1017.26409912109 1022.94451904297 1024.21704101562 1022.27166748047 1016.15423583984 1013.03247070312 1023.19750976562 1018.68896484375 1012.07373046875 1010.55706787109 1011.48034667969 1013.60430908203 1022.10931396484 1021.06921386719 1036.45788574219 1041.20703125 1041.455078125 1032.16357421875 1031.86669921875 1022.20538330078 1015.66076660156 1009.35333251953 992.829040527344 973.097595214844 962.749450683594 956.661804199219 950.996154785156 954.115173339844 951.815795898438 954.309204101562 960.484069824219 959.830932617188 958.275024414062 967.179626464844 971.191772460938 978.746765136719 979.466857910156 984.143920898438 975.269836425781 977.711730957031 977.985595703125 983.15234375 984.301696777344 981.358520507812 982.989135742188 980.745727539062 967.128479003906 962.034301757812 952.31005859375 942.9541015625 943.367248535156 929.165771484375 932.713256835938 935.012084960938 943.246398925781 952.647216796875 961.567321777344 967.450744628906 971.30126953125 976.149841308594 991.376098632812 1006.77679443359 1018.45056152344 1019.27099609375 1021.10534667969 1027.59301757812 1035.81359863281 1038.3388671875 1055.64868164062 1052.30871582031 1055.4990234375 1060.86145019531 1066.58154296875 1071.96643066406 1083.39685058594 1094.99401855469 1093.96252441406 1083.73620605469 1089.49169921875 1097.42407226562 1103.59423828125 1105.44641113281 1117.54541015625 1126.08837890625 1119.98596191406 1120.05236816406
974.706359863281 980.681762695312 976.95068359375 983.62939453125 982.926452636719 982.661865234375 982.795104980469 980.019775390625 985.269592285156 976.414916992188 973.505432128906 969.251281738281 965.48486328125 972.278625488281 975.7470703125 978.982360839844 975.210266113281 981.426513671875 983.7978515625 986.2470703125 987.528930664062 991.594909667969 984.750610351562 983.398803710938 994.241455078125 998.754516601562 996.76318359375 996.508605957031 1003.05163574219 1010.10040283203 1019.4140625 1018.09790039062 1024.958984375 1024.84643554688 1028.14196777344 1030.41235351562 1028.25012207031 1035.52734375 1041.94372558594 1032.93603515625 1038.4267578125 1044.79614257812 1047.54602050781 1046.29956054688 1037.11791992188 1028.70495605469 1016.89093017578 1014.68920898438 1012.68072509766 1011.16027832031 1013.04248046875 1010.94830322266 1006.33062744141 1014.87115478516 1016.50787353516 1017.77496337891 1022.73657226562 1014.21691894531 1014.29278564453 1017.58435058594 1022.46319580078 1018.89752197266 1020.96752929688 1023.98498535156 1023.43334960938 1025.61083984375 1029.95678710938 1028.47314453125 1017.40197753906 1018.22210693359 1023.68951416016 1018.90710449219 1008.04174804688 1016.55603027344 1016.04357910156 1008.15289306641 1008.72253417969 1011.85443115234 1027.06323242188 1032.0517578125 1030.7919921875 1016.98156738281 1019.83770751953 1017.17144775391 1020.396484375 1010.42944335938 997.827819824219 988.005432128906 979.381225585938 967.762817382812 971.931335449219 971.721618652344 971.87255859375 968.755554199219 971.155578613281 973.93896484375 965.513793945312 976.406860351562 973.181274414062 983.578979492188 989.687683105469 987.244018554688 987.011962890625 977.198120117188 983.809631347656 995.928405761719 991.799194335938 985.722473144531 989.313171386719 985.599670410156 972.08251953125 977.978881835938 954.288635253906 943.299987792969 935.443359375 933.33154296875 929.312072753906 931.211608886719 942.827514648438 959.654418945312 960.283996582031 960.254333496094 973.624877929688 988.129821777344 992.271057128906 1008.54522705078 1013.70257568359 1020.22088623047 1028.82080078125 1025.24194335938 1035.0849609375 1039.65698242188 1051.93188476562 1058.53210449219 1056.30639648438 1064.13317871094 1067.546875 1063.30200195312 1077.75085449219 1082.67309570312 1084.99462890625 1090.62744140625 1091.04296875 1087.85632324219 1101.37353515625 1110.15026855469 1112.35363769531 1124.5380859375 1120.07006835938 1119.3369140625
972.121704101562 971.828552246094 971.045959472656 977.634582519531 979.173828125 974.197814941406 981.383911132812 972.004638671875 970.723754882812 976.771362304688 969.100036621094 962.790161132812 965.078552246094 971.730224609375 975.853332519531 969.7685546875 973.051696777344 965.3173828125 975.22021484375 980.674560546875 985.058654785156 983.153015136719 981.971923828125 994.819152832031 1003.27917480469 1001.99304199219 1002.45959472656 1002.03289794922 1007.84100341797 998.820495605469 1010.65631103516 1014.74066162109 1020.17657470703 1021.32196044922 1028.25415039062 1030.86303710938 1033.60290527344 1035.83410644531 1038.44128417969 1037.70202636719 1048.09692382812 1046.87463378906 1037.955078125 1040.85424804688 1029.90966796875 1026.16223144531 1024.15991210938 1019.39544677734 1006.46942138672 1005.49523925781 1002.01928710938 1004.1884765625 995.039733886719 1006.09478759766 1009.69757080078 1019.48950195312 1021.20452880859 1015.63464355469 1019.23657226562 1017.28381347656 1019.90765380859 1021.34539794922 1019.85858154297 1017.08654785156 1029.23278808594 1028.35717773438 1026.30834960938 1027.404296875 1025.49926757812 1023.53295898438 1026.0087890625 1025.27563476562 1018.22821044922 1015.61273193359 1012.50769042969 1017.95861816406 1010.50109863281 1020.32049560547 1028.77478027344 1029.83227539062 1025.26123046875 1009.55767822266 990.075866699219 995.349731445312 1006.47821044922 1012.72540283203 1003.00506591797 1002.03277587891 993.825439453125 980.682983398438 974.121459960938 982.218444824219 984.495056152344 985.767578125 985.833801269531 988.2685546875 980.983642578125 980.456909179688 980.603149414062 981.435729980469 990.817810058594 996.835144042969 995.072631835938 985.192138671875 992.577453613281 1004.27844238281 1001.66418457031 997.494079589844 990.208862304688 980.554931640625 975.660949707031 963.821899414062 952.575378417969 939.651306152344 930.620361328125 927.901733398438 931.110900878906 930.458801269531 936.126220703125 949.645629882812 955.799011230469 964.235595703125 966.696472167969 982.087158203125 999.244323730469 1014.09588623047 1008.73052978516 1017.13098144531 1035.3271484375 1029.74877929688 1041.77490234375 1046.26879882812 1060.38537597656 1064.57934570312 1066.10791015625 1061.94934082031 1067.4794921875 1066.12951660156 1074.61901855469 1075.98962402344 1080.99523925781 1077.30065917969 1093.74975585938 1094.4931640625 1106.28442382812 1108.31164550781 1113.82751464844 1116.58605957031 1118.91821289062 1118.25451660156
971.914001464844 971.190612792969 969.156616210938 967.44189453125 971.677978515625 968.600524902344 966.518371582031 964.551513671875 961.89599609375 960.746459960938 960.201904296875 954.783813476562 954.310363769531 966.240661621094 969.632934570312 972.321716308594 964.803527832031 967.80810546875 970.294616699219 980.486022949219 987.709777832031 982.504150390625 983.06201171875 983.572692871094 994.808288574219 1002.25518798828 1007.29498291016 1007.95056152344 1015.19512939453 1009.00805664062 1008.75982666016 1019.37487792969 1018.72003173828 1021.72387695312 1025.1787109375 1027.3662109375 1027.61804199219 1030.20007324219 1036.48657226562 1037.87707519531 1047.47534179688 1043.23803710938 1035.79248046875 1035.09814453125 1034.42907714844 1028.69104003906 1023.11755371094 1017.91540527344 1009.24230957031 1007.43450927734 1000.65087890625 1003.95520019531 1002.71276855469 996.729614257812 1008.69195556641 1021.10278320312 1022.30389404297 1018.57629394531 1021.02172851562 1025.50866699219 1021.84527587891 1012.69958496094 1013.64361572266 1017.36883544922 1024.60534667969 1023.54772949219 1025.787109375 1026.17846679688 1023.35894775391 1029.34606933594 1029.92419433594 1023.84393310547 1019.77850341797 1015.81799316406 1015.01110839844 1018.04138183594 1008.89685058594 1015.75958251953 1025.201171875 1032.79187011719 1017.20904541016 1009.83514404297 997.101623535156 992.138427734375 996.122314453125 1011.89605712891 1013.10327148438 1014.70776367188 1004.18267822266 991.886169433594 987.104125976562 991.009643554688 997.109619140625 1002.81793212891 997.149719238281 999.694580078125 992.78466796875 995.584716796875 992.065063476562 989.6484375 1001.93621826172 995.837097167969 1010.14373779297 1004.31854248047 1006.87249755859 1009.08093261719 996.475341796875 988.255615234375 987.045104980469 983.718627929688 979.8212890625 965.571166992188 955.10986328125 936.515869140625 932.731994628906 932.538024902344 940.290893554688 929.661315917969 938.698364257812 946.212768554688 962.141967773438 975.823791503906 981.902404785156 982.2919921875 989.22021484375 1004.30480957031 1013.03802490234 1020.55389404297 1027.2548828125 1028.58837890625 1041.04797363281 1049.53503417969 1046.67309570312 1055.07043457031 1060.07507324219 1063.51477050781 1058.57556152344 1061.19982910156 1072.92211914062 1073.54504394531 1075.60229492188 1079.66638183594 1090.09155273438 1090.63989257812 1102.64929199219 1103.07995605469 1105.07873535156 1112.61437988281 1117.19653320312 1118.45947265625
976.548645019531 971.8720703125 963.436889648438 964.298034667969 962.540466308594 964.837890625 944.100280761719 943.098083496094 950.797729492188 944.452087402344 948.951477050781 944.245361328125 956.48291015625 965.751281738281 964.868713378906 955.365295410156 965.129638671875 967.088562011719 969.3837890625 981.201171875 980.423522949219 985.688232421875 975.060546875 985.893310546875 992.51025390625 998.661254882812 1000.83587646484 1009.04113769531 1016.84606933594 1015.50445556641 1007.61303710938 1013.01031494141 1016.83087158203 1018.04602050781 1019.41632080078 1014.62640380859 1024.76989746094 1021.99359130859 1030.89868164062 1039.29345703125 1040.82531738281 1040.21936035156 1040.21020507812 1036.34765625 1034.38696289062 1021.19189453125 1016.64166259766 1012.83154296875 1005.43566894531 1010.31872558594 1005.31561279297 1001.49835205078 998.972412109375 1003.49487304688 1005.33160400391 1022.41931152344 1024.51843261719 1026.14501953125 1024.40124511719 1027.87719726562 1014.43829345703 1021.62945556641 1012.90093994141 1013.76354980469 1017.21636962891 1022.90612792969 1027.08801269531 1028.68811035156 1016.63256835938 1023.10229492188 1024.04040527344 1026.77124023438 1016.3203125 1014.40783691406 1005.69049072266 1019.11663818359 1008.19836425781 1010.36779785156 1026.37048339844 1029.81481933594 1016.87493896484 1007.55523681641 997.215881347656 995.913391113281 997.236206054688 1012.84753417969 1008.98559570312 1014.80743408203 1007.92071533203 994.33447265625 982.996459960938 997.510192871094 1006.20855712891 1006.06042480469 1008.24566650391 1011.68096923828 1005.15808105469 1000.65692138672 999.740661621094 999.011779785156 1010.06475830078 1012.57727050781 1012.24645996094 1013.43621826172 1007.43353271484 1001.0009765625 999.043273925781 995.201171875 984.396118164062 976.034118652344 979.846984863281 966.696594238281 957.204406738281 945.333679199219 936.742614746094 929.997314453125 941.640869140625 937.155883789062 936.330871582031 952.579650878906 961.747802734375 979.775512695312 988.1123046875 986.916442871094 995.871643066406 1001.08203125 1008.49542236328 1019.47430419922 1028.15734863281 1037.7021484375 1044.57092285156 1044.56909179688 1050.23474121094 1054.8603515625 1052.96252441406 1060.02661132812 1051.31091308594 1059.26916503906 1062.92858886719 1066.57397460938 1071.33581542969 1075.50073242188 1076.56079101562 1086.40673828125 1098.42163085938 1102.52294921875 1106.64770507812 1108.443359375 1115.5224609375 1119.9306640625
970.054260253906 964.7412109375 963.895080566406 957.846252441406 957.473937988281 947.985168457031 939.622985839844 935.53955078125 948.247802734375 943.763732910156 938.307250976562 943.87109375 956.646606445312 959.264587402344 949.837280273438 956.540405273438 958.869934082031 961.530151367188 966.071533203125 974.364013671875 971.837585449219 985.752563476562 990.71826171875 994.813293457031 997.379943847656 1002.88000488281 1000.98815917969 997.308715820312 1006.81103515625 1003.82708740234 997.3037109375 999.597778320312 1008.28912353516 1018.14245605469 1016.07250976562 1021.77337646484 1019.97796630859 1023.26788330078 1030.19274902344 1029.51574707031 1048.66320800781 1035.94799804688 1028.75476074219 1026.03747558594 1025.16271972656 1021.53662109375 1013.94250488281 1007.87298583984 1005.41351318359 1006.37561035156 1002.43731689453 997.941650390625 993.491149902344 999.834716796875 1008.48150634766 1014.57043457031 1028.09204101562 1025.83569335938 1023.88653564453 1013.61846923828 1010.02703857422 1020.26507568359 1023.06475830078 1031.87121582031 1026.06811523438 1025.04431152344 1029.17846679688 1029.60559082031 1021.15447998047 1024.65246582031 1013.91046142578 1019.50170898438 1016.79479980469 1011.12841796875 1005.43615722656 1005.71203613281 1006.19244384766 1010.27203369141 1009.03533935547 1024.06860351562 1020.45208740234 1012.43682861328 996.000671386719 991.871337890625 995.552612304688 1007.71307373047 1012.94293212891 1011.05548095703 1009.24908447266 1005.68041992188 998.174865722656 1009.23620605469 1023.69342041016 1014.99444580078 1025.54187011719 1024.27600097656 1009.17218017578 1007.45404052734 998.920288085938 995.841857910156 1006.68334960938 1005.91461181641 1014.580078125 1013.15002441406 1008.20239257812 1006.61926269531 999.320861816406 993.285766601562 983.718505859375 976.920776367188 972.751708984375 963.450439453125 951.718444824219 949.16650390625 936.453491210938 932.5693359375 937.772644042969 937.672119140625 942.70361328125 959.638610839844 970.178466796875 981.239440917969 994.828674316406 992.404968261719 998.880554199219 1001.51440429688 1013.64831542969 1026.20520019531 1029.01232910156 1047.2568359375 1050.10485839844 1054.49658203125 1053.26220703125 1052.17224121094 1053.16320800781 1053.31201171875 1053.61059570312 1054.38134765625 1058.27368164062 1059.06396484375 1058.53601074219 1063.29211425781 1075.7236328125 1078.89416503906 1091.84191894531 1097.50964355469 1105.80749511719 1113.98645019531 1125.09997558594 1121.44860839844
968.753845214844 956.741149902344 958.218383789062 956.004760742188 947.849182128906 943.057678222656 946.441345214844 942.127990722656 952.705993652344 946.1396484375 942.177978515625 943.952819824219 944.837341308594 960.371948242188 956.001342773438 953.074951171875 956.7041015625 959.806640625 967.605285644531 975.009033203125 981.246032714844 973.073303222656 989.300903320312 994.661987304688 1001.07489013672 1005.35736083984 1002.37805175781 999.184997558594 1006.22583007812 1009.42578125 1002.70599365234 998.615356445312 998.496948242188 1016.86260986328 1006.7919921875 1005.4130859375 1020.69317626953 1033.45458984375 1024.91882324219 1023.91558837891 1030.77685546875 1030.90063476562 1023.48907470703 1020.47296142578 1029.64147949219 1021.66833496094 1010.42889404297 1010.81823730469 1003.93566894531 1005.69104003906 995.556640625 989.126159667969 994.820678710938 1006.33642578125 1008.45233154297 1026.80590820312 1022.279296875 1014.24530029297 1016.11553955078 1014.97186279297 1011.68640136719 1013.50610351562 1023.58154296875 1034.984375 1028.74426269531 1029.80615234375 1025.80578613281 1019.95007324219 1022.58410644531 1020.71514892578 1019.93017578125 1021.22344970703 1011.55017089844 1010.82781982422 1011.78149414062 1015.94885253906 1014.50830078125 1010.41381835938 1014.49090576172 1014.38110351562 1012.34838867188 1002.40087890625 995.947998046875 997.437316894531 1009.1396484375 1011.12457275391 1012.41827392578 1021.13098144531 1005.31646728516 1008.04266357422 1011.20849609375 1014.57348632812 1024.40258789062 1016.18041992188 1022.94226074219 1020.49243164062 1011.18408203125 1007.32745361328 1012.65100097656 1011.32427978516 1001.02056884766 1008.02655029297 1010.61846923828 1008.91650390625 1014.34295654297 1011.59899902344 1008.58184814453 993.531372070312 985.556396484375 974.813293457031 970.50927734375 957.801696777344 948.7080078125 944.369873046875 939.259765625 934.283874511719 938.342407226562 943.748962402344 943.956726074219 955.663818359375 980.630004882812 987.584594726562 988.25146484375 995.55419921875 993.387756347656 997.713989257812 1011.42633056641 1024.9716796875 1038.70080566406 1049.11938476562 1058.80908203125 1059.5693359375 1061.46057128906 1065.50903320312 1057.65869140625 1050.66662597656 1047.12451171875 1053.1533203125 1052.66528320312 1053.52160644531 1047.7978515625 1060.51916503906 1079.22717285156 1077.40612792969 1086.34753417969 1098.0966796875 1101.2705078125 1105.724609375 1115.41552734375 1117.26293945312
961.726440429688 955.503051757812 953.192687988281 947.328125 945.926574707031 939.46630859375 947.000854492188 948.94677734375 946.983703613281 956.304443359375 951.131591796875 953.356872558594 957.627685546875 958.236633300781 961.618957519531 958.425720214844 965.1591796875 960.7998046875 964.103271484375 969.966918945312 975.05908203125 980.161682128906 986.739501953125 993.967651367188 1007.55017089844 1005.79553222656 1000.94836425781 999.196411132812 999.735229492188 1006.78979492188 1001.82116699219 1004.73065185547 997.664978027344 999.66552734375 1005.1728515625 1011.41326904297 1023.130859375 1025.94543457031 1018.30944824219 1014.15319824219 1021.30914306641 1024.47802734375 1026.93908691406 1022.98529052734 1021.94232177734 1025.23388671875 1024.2822265625 1008.67291259766 998.159729003906 1001.10302734375 1006.65899658203 993.344360351562 995.697326660156 1003.80090332031 1010.494140625 1014.02093505859 1015.7587890625 1015.8193359375 1021.91784667969 1010.34729003906 1014.39727783203 1014.34375 1020.57592773438 1036.16003417969 1026.92553710938 1019.68560791016 1025.36303710938 1016.1376953125 1015.64093017578 1024.02270507812 1021.37243652344 1025.36596679688 1007.86700439453 1003.84613037109 1012.6923828125 1010.42614746094 1008.22882080078 1009.68664550781 1007.30535888672 1007.24261474609 1005.89508056641 1003.96838378906 1000.60266113281 1001.51763916016 1010.90197753906 1013.56103515625 1013.22546386719 1010.71820068359 1012.68109130859 1016.84582519531 1015.89239501953 1016.95196533203 1019.89398193359 1018.25634765625 1015.76843261719 1010.759765625 1006.22955322266 1011.26538085938 1017.81213378906 1015.29705810547 1009.33666992188 1007.30541992188 1003.51824951172 1010.57116699219 1008.06396484375 1006.59289550781 1013.52496337891 998.571472167969 981.844360351562 983.504272460938 976.707214355469 960.202819824219 957.224243164062 953.77783203125 948.337646484375 944.380493164062 946.325439453125 954.30419921875 953.08837890625 970.961730957031 976.717041015625 995.064208984375 997.222473144531 1002.30975341797 1004.73944091797 1009.59912109375 1021.54913330078 1028.28503417969 1048.9384765625 1043.521484375 1055.30822753906 1065.03784179688 1059.99865722656 1048.86352539062 1055.15197753906 1062.32104492188 1051.80310058594 1053.77416992188 1054.859375 1060.25500488281 1055.13500976562 1058.94787597656 1080.39270019531 1084.669921875 1087.38879394531 1094.85852050781 1098.57653808594 1114.06799316406 1122.58752441406 1124.91259765625
947.941162109375 955.718688964844 951.359191894531 941.55322265625 952.958679199219 957.165771484375 955.746215820312 943.519836425781 945.242370605469 949.028015136719 949.26025390625 958.357788085938 960.471008300781 964.036926269531 963.686950683594 956.0546875 954.315063476562 959.597534179688 964.423278808594 971.478881835938 982.107299804688 986.234375 991.376159667969 993.823608398438 1006.32562255859 1014.27655029297 1003.33172607422 998.698852539062 986.75 990.756042480469 997.14599609375 999.23291015625 989.532958984375 990.568603515625 1002.15863037109 1006.53967285156 1016.80639648438 1016.92443847656 1007.47589111328 1004.36547851562 1021.60223388672 1021.36218261719 1026.13256835938 1020.26751708984 1019.76910400391 1021.33935546875 1022.33514404297 1008.56317138672 1002.39703369141 993.983520507812 992.550598144531 993.352172851562 1003.39141845703 990.895446777344 1002.25433349609 1009.68988037109 1004.42895507812 1007.86968994141 1009.884765625 1012.41833496094 1007.53332519531 1014.36730957031 1021.60632324219 1030.94201660156 1028.33166503906 1025.92102050781 1022.90435791016 1013.39849853516 1013.15533447266 1020.35491943359 1018.68090820312 1026.26098632812 1006.39477539062 1016.13433837891 1013.80401611328 1010.58209228516 1006.49963378906 997.3388671875 1010.47155761719 1014.19213867188 1014.98162841797 1008.83404541016 1006.20135498047 1004.83935546875 1008.05633544922 1010.36071777344 1008.74835205078 1010.3681640625 1019.63989257812 1026.37219238281 1021.95373535156 1018.48858642578 1020.77038574219 1019.72515869141 1011.02282714844 1011.30072021484 1013.25317382812 1013.49438476562 1022.22161865234 1019.62481689453 1017.25628662109 1005.34106445312 1004.60858154297 1009.82550048828 1011.94720458984 1013.73150634766 1006.14630126953 989.485534667969 979.443176269531 981.398193359375 984.318664550781 969.169006347656 954.511474609375 950.489562988281 943.635925292969 949.829467773438 953.849182128906 961.153869628906 969.415466308594 987.054626464844 997.235900878906 1002.55102539062 1008.67932128906 1004.21954345703 1016.38427734375 1018.16162109375 1023.60424804688 1026.64074707031 1037.48388671875 1046.99841308594 1047.88537597656 1047.84655761719 1038.37243652344 1046.37255859375 1050.32409667969 1051.54174804688 1044.97399902344 1045.05358886719 1055.66760253906 1059.75646972656 1055.96911621094 1063.2685546875 1072.53515625 1083.62744140625 1088.83288574219 1091.36694335938 1099.41198730469 1112.3037109375 1128.99255371094 1132.14501953125
953.731567382812 950.500549316406 955.670104980469 947.830139160156 960.9150390625 963.513549804688 956.9345703125 950.936767578125 948.790100097656 948.114990234375 954.575317382812 959.152709960938 966.795349121094 967.572204589844 975.966796875 966.788146972656 957.903503417969 963.826354980469 968.678955078125 969.294494628906 970.258117675781 975.063171386719 979.028686523438 992.140014648438 1001.24041748047 1005.99188232422 1004.17517089844 999.740661621094 991.526184082031 991.629455566406 996.716796875 990.571533203125 986.139587402344 993.780517578125 1003.77697753906 1005.99389648438 1014.54119873047 1007.76916503906 1006.06744384766 1002.46160888672 1014.20318603516 1005.17150878906 1012.22521972656 1002.68237304688 1018.81896972656 1021.39312744141 1020.47088623047 1009.61901855469 996.915466308594 993.055786132812 988.600036621094 993.262573242188 999.396423339844 993.218139648438 997.074523925781 997.453857421875 990.436218261719 1003.13586425781 999.399169921875 996.307067871094 1004.02331542969 1010.70709228516 1029.33178710938 1022.23815917969 1031.69396972656 1030.54699707031 1013.53454589844 1014.79290771484 1024.59362792969 1021.189453125 1016.76440429688 1018.45263671875 1011.69848632812 1012.44262695312 1010.27178955078 1012.34027099609 1003.11340332031 1009.01190185547 1006.18426513672 1011.50579833984 1013.07476806641 1014.91229248047 1008.16162109375 998.617797851562 1007.68096923828 1001.72528076172 1005.62341308594 1011.13726806641 1016.04376220703 1029.29162597656 1023.15612792969 1024.46508789062 1016.65258789062 1016.34710693359 1015.19635009766 1009.27258300781 1019.07507324219 1027.06884765625 1018.85046386719 1018.28100585938 1008.18725585938 1011.93756103516 1004.63208007812 1017.15551757812 1013.70068359375 1005.35491943359 1004.00848388672 996.980041503906 978.8623046875 976.286804199219 976.623779296875 967.061767578125 956.279846191406 948.520935058594 950.805603027344 944.830078125 961.713439941406 965.3330078125 972.961669921875 997.787780761719 1005.02404785156 1004.57049560547 1020.30242919922 1013.23760986328 1016.61755371094 1019.56787109375 1018.0595703125 1027.22717285156 1035.89428710938 1038.38879394531 1038.50231933594 1046.08483886719 1046.29833984375 1049.35095214844 1044.53283691406 1037.93884277344 1034.76501464844 1047.98095703125 1054.015625 1052.52099609375 1057.33166503906 1059.3173828125 1066.67150878906 1075.9921875 1085.57067871094 1084.17944335938 1097.17065429688 1109.76940917969 1120.59606933594 1122.35717773438
955.683837890625 950.99658203125 959.098388671875 961.027221679688 961.701965332031 965.214294433594 961.080505371094 958.862548828125 959.994995117188 959.640563964844 960.252990722656 962.367736816406 959.857543945312 965.2666015625 972.983093261719 967.744323730469 964.627197265625 965.687377929688 965.715087890625 965.274536132812 973.75634765625 976.1845703125 978.296142578125 990.425842285156 1000.42132568359 1006.46875 996.535522460938 991.022277832031 990.760192871094 988.189208984375 992.788330078125 996.135009765625 1000.14691162109 1000.88122558594 1008.98425292969 1014.15924072266 1015.63513183594 1017.05163574219 1008.25280761719 997.089599609375 1002.33435058594 1011.13470458984 1005.32507324219 998.432373046875 1001.21533203125 1008.30078125 1002.88543701172 992.218017578125 988.4716796875 987.991333007812 985.202453613281 989.886047363281 987.886352539062 989.648315429688 991.967956542969 997.657592773438 992.294799804688 1002.21252441406 1001.75860595703 999.277404785156 989.106628417969 1007.05242919922 1017.43646240234 1018.63128662109 1019.31408691406 1025.24792480469 1017.95404052734 1013.33209228516 1013.68176269531 1013.42413330078 1014.91302490234 1013.16137695312 1001.82342529297 1004.64007568359 1000.75146484375 998.41259765625 992.285461425781 991.502319335938 998.878173828125 998.705017089844 1001.17401123047 1004.72399902344 1005.15008544922 999.031555175781 1001.96636962891 1002.57495117188 1008.81994628906 1014.84222412109 1024.10717773438 1025.96459960938 1027.56201171875 1021.28845214844 1025.26928710938 1016.42486572266 1012.41668701172 1009.99487304688 1014.84295654297 1022.9013671875 1023.37933349609 1018.35607910156 1016.27899169922 1006.83361816406 1004.50897216797 1010.29522705078 1001.21643066406 1005.41491699219 1006.76739501953 994.384155273438 984.631225585938 978.624755859375 966.17529296875 954.488830566406 947.099487304688 943.265258789062 942.923278808594 958.749633789062 970.802917480469 975.492004394531 990.39453125 1001.56872558594 1006.71154785156 1005.55932617188 1016.01879882812 1019.09838867188 1018.60339355469 1025.89208984375 1030.86413574219 1036.73950195312 1030.86901855469 1042.04272460938 1045.76477050781 1043.82153320312 1036.66271972656 1046.70141601562 1048.212890625 1042.84826660156 1042.24633789062 1043.4033203125 1049.74182128906 1048.20703125 1054.23583984375 1060.30651855469 1063.18420410156 1076.64599609375 1091.10925292969 1093.71228027344 1098.77746582031 1102.92529296875 1124.43615722656 1124.11584472656
951.829223632812 949.284301757812 955.714599609375 961.598449707031 963.87353515625 966.689697265625 961.587585449219 959.788757324219 971.532958984375 967.058044433594 970.775207519531 970.882202148438 970.751831054688 970.650390625 974.581604003906 970.018432617188 970.093078613281 964.319396972656 962.687438964844 963.45751953125 969.178161621094 980.781982421875 987.8056640625 996.26220703125 1006.30828857422 998.796875 1000.71545410156 988.572265625 989.982299804688 991.173706054688 992.664611816406 995.283508300781 999.780883789062 998.951843261719 1010.48510742188 1010.83673095703 1013.98571777344 1025.40844726562 1013.41442871094 1003.91107177734 997.579406738281 1000.94287109375 1002.46429443359 995.562072753906 1002.60870361328 1004.12469482422 997.090087890625 996.845275878906 984.725036621094 988.737731933594 989.00341796875 994.881469726562 983.160217285156 981.175598144531 985.306579589844 986.009643554688 992.986145019531 1000.80505371094 1004.29864501953 1003.21942138672 996.126586914062 1001.33410644531 1013.45837402344 1017.50158691406 1010.54809570312 1008.22613525391 1009.69323730469 1007.11773681641 1009.93469238281 1010.13641357422 1013.26483154297 1007.25958251953 997.035339355469 997.110107421875 993.868591308594 991.0234375 991.306518554688 988.53955078125 998.3916015625 990.231323242188 992.807983398438 995.954895019531 1003.28491210938 996.681823730469 999.548217773438 1002.23095703125 1013.30822753906 1018.29516601562 1027.6220703125 1027.16125488281 1018.96545410156 1021.57330322266 1028.55285644531 1017.09686279297 1017.88995361328 1016.80169677734 1017.44873046875 1024.43310546875 1024.78796386719 1019.91564941406 1015.56872558594 1020.06652832031 1003.81292724609 1005.77923583984 1002.69934082031 1003.17797851562 1000.29815673828 994.225463867188 990.100158691406 983.570251464844 965.798217773438 952.991882324219 942.815368652344 929.947998046875 944.058166503906 961.014892578125 970.359924316406 980.123840332031 1000.03131103516 1004.2431640625 1014.18249511719 1011.68371582031 1017.95147705078 1028.6416015625 1018.32849121094 1027.09252929688 1031.10595703125 1039.58349609375 1041.47497558594 1035.65661621094 1039.041015625 1041.38110351562 1039.2099609375 1043.650390625 1042.22314453125 1037.4208984375 1038.06628417969 1044.40759277344 1043.60266113281 1045.537109375 1052.87585449219 1060.12573242188 1068.27563476562 1070.15771484375 1083.57116699219 1092.4521484375 1095.99963378906 1109.4931640625 1122.69152832031 1125.25073242188
960.208251953125 956.318969726562 956.765686035156 959.721069335938 953.928283691406 962.461669921875 974.925109863281 959.38330078125 966.845886230469 970.394714355469 967.9140625 968.459045410156 974.0078125 978.31103515625 968.9189453125 974.459350585938 973.545715332031 975.528015136719 969.42724609375 967.935852050781 965.2646484375 972.875732421875 980.076171875 985.331604003906 991.091430664062 996.663879394531 988.713256835938 983.986511230469 986.817443847656 992.712219238281 984.60986328125 988.152770996094 991.398986816406 1001.23016357422 998.33203125 1002.15106201172 1005.60900878906 1014.29809570312 1015.10870361328 1003.70092773438 986.606506347656 997.535217285156 995.137390136719 999.286437988281 1000.6103515625 1001.31616210938 999.530578613281 995.745788574219 994.024963378906 988.406066894531 996.152770996094 988.919738769531 980.753784179688 982.601318359375 979.668640136719 990.312866210938 991.502380371094 992.2314453125 1002.20428466797 1001.21441650391 1006.01568603516 990.532409667969 1010.05438232422 999.232116699219 1004.63500976562 1000.58581542969 1005.85577392578 1006.55187988281 1010.27728271484 1002.50921630859 1010.12261962891 1008.71301269531 1005.0390625 1000.47900390625 987.506286621094 988.519226074219 989.284790039062 990.081665039062 992.650207519531 992.780639648438 989.737731933594 993.986694335938 995.02197265625 996.323486328125 1004.40997314453 1009.36437988281 1009.91851806641 1021.64538574219 1021.75671386719 1022.61218261719 1021.82885742188 1016.58178710938 1018.03472900391 1021.79693603516 1018.15698242188 1020.25329589844 1020.13793945312 1019.71276855469 1013.78149414062 1014.32507324219 1012.72381591797 1014.20471191406 1010.44757080078 1006.6708984375 1012.82244873047 1005.64862060547 1000.05535888672 993.033752441406 984.539794921875 973.407470703125 970.262390136719 957.875915527344 942.936706542969 931.003112792969 951.782958984375 964.992126464844 975.141418457031 978.931823730469 992.442138671875 1002.45281982422 1007.97137451172 1019.09167480469 1022.60198974609 1022.91516113281 1028.83447265625 1030.68237304688 1040.45581054688 1040.57287597656 1042.15661621094 1040.14245605469 1040.88110351562 1036.92663574219 1037.48376464844 1038.92614746094 1029.66015625 1030.71850585938 1032.95690917969 1044.06750488281 1037.99523925781 1041.07836914062 1048.82702636719 1057.38037109375 1070.21020507812 1075.69604492188 1088.38391113281 1093.20166015625 1095.9169921875 1106.22399902344 1113.71313476562 1118.10913085938
966.581726074219 972.805114746094 971.545837402344 955.684936523438 952.065673828125 955.767639160156 963.78173828125 962.657287597656 965.197875976562 963.953247070312 965.966857910156 968.474548339844 985.152954101562 977.683898925781 979.889770507812 972.567810058594 972.462036132812 964.750549316406 974.478637695312 972.027709960938 968.968444824219 976.965637207031 976.870544433594 983.024658203125 987.242370605469 999.005737304688 989.937316894531 990.393981933594 987.316650390625 988.692504882812 988.292053222656 989.119445800781 988.700012207031 992.779296875 989.818298339844 992.262390136719 1001.92926025391 989.689880371094 1000.42681884766 991.832946777344 991.978332519531 987.686767578125 989.49658203125 995.827758789062 998.012634277344 989.786743164062 989.320678710938 988.522705078125 983.690551757812 985.522338867188 978.770690917969 979.861511230469 984.216247558594 984.095336914062 977.082153320312 986.934509277344 990.917846679688 984.526306152344 985.72216796875 997.204406738281 1003.52325439453 999.614074707031 1002.24591064453 997.623474121094 995.2177734375 989.940124511719 998.9453125 1003.38787841797 1009.49658203125 1007.08679199219 997.890014648438 991.813598632812 1000.22705078125 999.456787109375 989.552551269531 988.74560546875 985.231628417969 999.505859375 998.353881835938 993.155029296875 992.314331054688 990.653991699219 995.166137695312 1004.36083984375 1001.3203125 1008.94635009766 1010.71881103516 1010.00042724609 1017.931640625 1016.54467773438 1013.74322509766 1008.58630371094 1021.84521484375 1015.10620117188 1011.66595458984 1013.96862792969 1012.01934814453 1011.23052978516 1004.88018798828 1006.57427978516 1014.64031982422 1014.36938476562 1007.19018554688 1000.99261474609 997.454711914062 996.489685058594 999.788879394531 993.577941894531 983.15673828125 972.905517578125 967.999389648438 960.664916992188 943.906982421875 935.343322753906 941.026733398438 958.300109863281 976.518005371094 975.03076171875 990.148071289062 998.682312011719 1012.86279296875 1027.87585449219 1029.74865722656 1026.08093261719 1023.67047119141 1030.9375 1037.20678710938 1039.07775878906 1034.32580566406 1039.38793945312 1043.98754882812 1035.58764648438 1032.7119140625 1023.56829833984 1027.00903320312 1029.99572753906 1027.64184570312 1034.78991699219 1033.56237792969 1046.16467285156 1055.2216796875 1063.75659179688 1072.71459960938 1078.27978515625 1091.75463867188 1097.05114746094 1102.46875 1103.07788085938 1113.6806640625 1130.91796875
965.702941894531 970.268127441406 980.754699707031 972.074401855469 964.127502441406 962.865783691406 958.165222167969 963.959350585938 960.939453125 974.475524902344 976.227172851562 980.709167480469 978.205078125 972.712524414062 973.282897949219 984.520812988281 974.154418945312 972.209777832031 971.254760742188 973.928100585938 969.976928710938 975.295837402344 976.30126953125 980.023193359375 986.17236328125 988.786804199219 990.604797363281 987.39697265625 986.041137695312 991.236694335938 983.331481933594 987.872863769531 988.780151367188 985.154235839844 991.034423828125 997.040710449219 991.92041015625 988.769653320312 981.642517089844 983.284912109375 993.273803710938 990.638793945312 988.104614257812 991.482116699219 987.997985839844 996.7548828125 990.014892578125 992.329895019531 983.11962890625 981.402954101562 974.213073730469 981.074829101562 974.694763183594 976.361083984375 980.069152832031 981.855712890625 981.692626953125 987.903076171875 987.347961425781 997.059326171875 996.371520996094 993.603515625 1001.48400878906 992.758972167969 990.065185546875 994.33984375 1002.02239990234 1000.27520751953 1004.35247802734 1004.95037841797 990.949768066406 981.694152832031 991.618041992188 985.632263183594 995.796569824219 994.273254394531 992.175842285156 1000.21264648438 1001.82073974609 997.864196777344 992.373901367188 989.525207519531 993.216003417969 997.721862792969 1006.51214599609 1010.78472900391 1006.71392822266 1010.66412353516 1008.89270019531 1012.16729736328 1013.79376220703 1021.74597167969 1026.28503417969 1015.31811523438 1010.26037597656 1010.26348876953 1004.97869873047 1003.95666503906 993.945129394531 1000.39270019531 1005.66241455078 1001.80413818359 1000.59143066406 1002.09765625 1005.07104492188 1008.04241943359 999.024047851562 996.425720214844 993.6767578125 983.527587890625 972.245239257812 960.220092773438 949.776794433594 942.21826171875 945.034484863281 955.806762695312 980.366333007812 985.950317382812 985.912536621094 1003.80737304688 1011.15637207031 1017.26708984375 1021.30560302734 1023.72735595703 1013.21197509766 1025.73657226562 1030.36145019531 1034.13598632812 1025.97998046875 1039.18029785156 1038.86389160156 1035.39001464844 1038.49182128906 1025.17236328125 1018.123046875 1025.85290527344 1023.55462646484 1036.73767089844 1041.21264648438 1047.28430175781 1057.90490722656 1066.74633789062 1075.14050292969 1089.12060546875 1098.66662597656 1100.36120605469 1110.07507324219 1111.51501464844 1117.01684570312 1123.97521972656
969.746276855469 964.208190917969 965.364135742188 965.503967285156 969.638427734375 966.691345214844 959.803649902344 961.86865234375 968.488647460938 983.118469238281 972.904724121094 974.194274902344 982.132507324219 978.972839355469 972.147644042969 967.199768066406 971.540588378906 973.690002441406 982.314758300781 981.73681640625 980.084777832031 983.665954589844 983.927978515625 982.168823242188 988.531494140625 982.895080566406 994.722412109375 978.221740722656 983.830871582031 993.6865234375 990.625427246094 994.520874023438 995.173278808594 994.862609863281 992.32763671875 985.402954101562 990.038269042969 990.787536621094 980.420043945312 982.581420898438 985.811340332031 993.946472167969 991.182800292969 982.571960449219 985.342346191406 989.789794921875 985.971313476562 983.832153320312 988.763366699219 986.270202636719 978.720825195312 983.614562988281 982.633483886719 975.545471191406 979.740478515625 975.103332519531 984.132263183594 983.698364257812 985.497253417969 987.597045898438 993.102722167969 993.754272460938 993.631774902344 991.35693359375 994.603698730469 997.030822753906 1004.50866699219 997.899475097656 999.639587402344 1006.89312744141 992.544128417969 985.782897949219 992.336730957031 991.89111328125 991.65185546875 992.169799804688 990.067626953125 1000.38226318359 1002.42858886719 988.834533691406 983.62939453125 988.034362792969 994.032836914062 1003.10864257812 1008.41571044922 1002.60089111328 1011.97149658203 1013.96954345703 1005.75451660156 1010.58038330078 1009.58483886719 1011.94885253906 1008.18841552734 1011.77203369141 1005.13366699219 1004.43194580078 998.571716308594 1001.42694091797 997.281494140625 996.662658691406 1002.88104248047 997.545959472656 1004.71374511719 1006.87884521484 1003.67498779297 1000.94213867188 998.347106933594 1001.91247558594 996.388427734375 983.62158203125 979.053771972656 964.785034179688 955.855529785156 955.734741210938 961.408203125 957.495300292969 969.234252929688 984.506774902344 997.080749511719 1003.90655517578 1013.78961181641 1018.04772949219 1028.71105957031 1019.30023193359 1014.68603515625 1023.6962890625 1024.59924316406 1031.94177246094 1042.4248046875 1029.63439941406 1029.36657714844 1024.99243164062 1016.83758544922 1013.33227539062 1017.12329101562 1019.80743408203 1020.42053222656 1026.19689941406 1044.84045410156 1052.74548339844 1058.69250488281 1074.9580078125 1086.48425292969 1092.77783203125 1098.93737792969 1102.75988769531 1104.55541992188 1107.42114257812 1117.79443359375 1120.44274902344
962.440979003906 965.884521484375 964.635437011719 972.577758789062 971.44775390625 968.91943359375 970.690490722656 970.2587890625 972.282043457031 981.869323730469 984.432922363281 976.990661621094 976.414428710938 970.856323242188 966.842102050781 977.55419921875 975.750732421875 978.590698242188 979.001586914062 974.991333007812 978.325927734375 977.199523925781 973.909790039062 982.494140625 986.500366210938 985.1181640625 987.555847167969 986.592834472656 981.596862792969 978.56103515625 977.215576171875 989.740173339844 987.586486816406 984.439819335938 994.806823730469 991.481750488281 984.645080566406 978.010192871094 971.042114257812 976.226806640625 989.293579101562 995.449951171875 994.444274902344 989.200866699219 988.586486816406 984.582885742188 979.532165527344 986.212219238281 984.385314941406 981.771179199219 980.478332519531 980.394226074219 983.8037109375 982.405944824219 980.458862304688 981.907287597656 985.1650390625 984.195983886719 986.280151367188 979.019775390625 978.669067382812 981.773559570312 992.50390625 992.409240722656 988.530517578125 990.391845703125 1002.41546630859 997.480102539062 1007.04827880859 998.049438476562 997.954040527344 991.521667480469 998.16845703125 991.288696289062 982.54638671875 986.082763671875 996.666259765625 996.440002441406 1000.54644775391 1000.54168701172 988.043640136719 997.415405273438 1001.96343994141 1010.04833984375 1012.42169189453 1006.61138916016 1007.12622070312 1016.00494384766 1007.36755371094 1012.9697265625 1006.64660644531 1009.58782958984 1007.99468994141 1013.82385253906 1002.06500244141 1004.71923828125 998.898803710938 998.077697753906 992.949096679688 993.556823730469 994.695007324219 997.127868652344 1004.78094482422 1004.96209716797 1004.25842285156 1001.7236328125 1002.81628417969 997.777587890625 997.909362792969 990.915710449219 978.9306640625 974.124938964844 958.968933105469 962.84619140625 957.33837890625 954.155883789062 967.7646484375 982.379333496094 984.798889160156 1000.45294189453 1007.76782226562 1014.64105224609 1017.40740966797 1017.83111572266 1020.11108398438 1024.32873535156 1027.75537109375 1032.0986328125 1033.65588378906 1034.63256835938 1023.88244628906 1014.27502441406 1009.48815917969 1016.26013183594 1020.27648925781 1019.32965087891 1019.1796875 1030.22839355469 1042.57275390625 1049.16369628906 1064.70751953125 1074.36584472656 1086.67846679688 1090.97766113281 1098.87841796875 1103.04479980469 1108.83337402344 1114.29064941406 1116.26684570312 1119.11499023438
967.913330078125 961.858276367188 969.45556640625 965.532775878906 968.74462890625 965.700256347656 973.09765625 974.880187988281 974.153259277344 982.05810546875 987.266784667969 978.611877441406 970.817077636719 962.645568847656 962.566589355469 967.657470703125 974.778686523438 979.438537597656 977.450866699219 967.863708496094 974.528869628906 973.712585449219 977.924377441406 984.774169921875 979.374450683594 983.287536621094 979.781921386719 981.675048828125 977.063842773438 973.743896484375 988.029479980469 975.252075195312 978.740539550781 978.763305664062 984.252136230469 982.585144042969 974.904296875 970.392944335938 977.523376464844 972.462951660156 979.263793945312 995.007507324219 995.89453125 982.712585449219 982.973510742188 983.951721191406 976.484436035156 979.980834960938 978.971252441406 977.149353027344 979.952758789062 979.415832519531 980.126403808594 985.323181152344 986.528625488281 977.130737304688 980.559997558594 979.840637207031 988.535095214844 988.25146484375 981.0283203125 985.784545898438 994.116394042969 986.36767578125 986.411499023438 989.81640625 1000.51251220703 1005.53979492188 1004.09704589844 1003.80908203125 1001.140625 994.8359375 992.620483398438 992.843627929688 986.899780273438 991.089416503906 995.60546875 995.828002929688 1001.11389160156 1008.05511474609 1003.54833984375 996.904541015625 999.005187988281 1005.25518798828 1015.61181640625 1008.90155029297 1015.01879882812 1009.73101806641 1004.38702392578 1002.34716796875 1006.25939941406 1005.80297851562 1004.2822265625 1009.76788330078 1002.78790283203 999.43896484375 1000.05303955078 993.788635253906 990.957397460938 996.024230957031 996.992492675781 994.537841796875 992.429931640625 1000.62292480469 1003.44873046875 993.358581542969 995.242980957031 988.88134765625 992.358337402344 983.4990234375 985.952697753906 979.129150390625 964.275634765625 968.780822753906 969.641906738281 972.293518066406 976.603698730469 981.895080566406 983.648498535156 989.099914550781 1005.10626220703 1014.29382324219 1016.58843994141 1022.34722900391 1017.47601318359 1026.54028320312 1032.1728515625 1034.54846191406 1026.46655273438 1029.1962890625 1019.681640625 1014.57434082031 1015.26708984375 1008.28601074219 1012.09991455078 1025.13623046875 1021.06219482422 1024.49597167969 1039.71545410156 1051.02758789062 1067.48657226562 1078.72534179688 1083.53588867188 1093.78845214844 1100.2060546875 1104.89733886719 1097.77172851562 1102.17004394531 1122.00915527344 1121.36254882812
969.281677246094 969.735717773438 968.927795410156 959.186706542969 971.838623046875 968.291198730469 969.253723144531 968.838073730469 973.916442871094 976.035888671875 971.217102050781 979.028259277344 971.83984375 975.279418945312 968.189270019531 965.218322753906 973.798522949219 975.247436523438 978.497924804688 970.051635742188 974.137878417969 977.976806640625 977.928527832031 978.535888671875 981.438232421875 974.486694335938 976.741821289062 980.021911621094 978.291442871094 982.751770019531 980.432495117188 988.205139160156 984.181457519531 978.571166992188 986.215026855469 974.499816894531 974.010559082031 967.163879394531 974.149291992188 976.247680664062 986.396606445312 990.810302734375 991.069885253906 990.809692382812 974.339477539062 977.9365234375 973.208129882812 985.442993164062 976.242980957031 979.762145996094 970.637023925781 974.465759277344 974.73046875 976.275024414062 981.281982421875 971.496765136719 970.086791992188 976.304077148438 976.453247070312 984.41357421875 987.772399902344 989.460083007812 989.379699707031 992.052612304688 988.25390625 988.608642578125 991.491394042969 999.89794921875 995.57080078125 1000.46234130859 1000.49572753906 995.599609375 993.7158203125 995.952392578125 992.763916015625 992.968383789062 998.127624511719 1001.28631591797 1005.41723632812 1006.92645263672 999.917175292969 993.798950195312 1005.58154296875 1001.52124023438 1008.21984863281 998.034240722656 1004.04406738281 1001.20294189453 997.459350585938 1001.10467529297 1005.21020507812 1003.55902099609 1005.46099853516 996.966857910156 991.77001953125 1000.40887451172 999.784790039062 994.504455566406 987.544494628906 993.64990234375 987.546569824219 996.682495117188 992.945068359375 993.041870117188 995.895141601562 996.544799804688 995.110046386719 995.435241699219 999.307983398438 981.596130371094 974.259155273438 974.797485351562 982.860046386719 980.704467773438 973.297180175781 978.535766601562 982.067016601562 987.119201660156 986.818420410156 988.635681152344 1002.93133544922 1011.25549316406 1018.87585449219 1014.39288330078 1009.40557861328 1009.1845703125 1021.29467773438 1020.12731933594 1025.77368164062 1015.80047607422 1019.26055908203 1010.65191650391 1010.97729492188 1015.35015869141 1011.35223388672 1021.11901855469 1021.15972900391 1034.26879882812 1042.08996582031 1049.47998046875 1057.9150390625 1081.63977050781 1079.82788085938 1081.96728515625 1094.00158691406 1100.64318847656 1103.77551269531 1108.95361328125 1122.96228027344 1123.74694824219
953.044921875 960.753784179688 961.299133300781 963.523986816406 962.693176269531 968.304870605469 974.614562988281 976.318725585938 976.901245117188 975.2978515625 977.664855957031 975.050720214844 971.042541503906 967.172668457031 966.111267089844 978.209899902344 975.092651367188 974.289306640625 972.112854003906 972.024597167969 976.377563476562 977.576293945312 974.638000488281 985.870910644531 979.472595214844 973.341369628906 973.951293945312 977.843139648438 976.359619140625 974.413391113281 978.049865722656 984.243774414062 974.864685058594 978.724365234375 978.831726074219 979.268798828125 972.292724609375 977.79541015625 981.132446289062 979.192016601562 977.354858398438 987.476806640625 984.756286621094 984.879211425781 974.038208007812 975.331237792969 966.0126953125 970.2353515625 982.350463867188 980.50341796875 981.279663085938 973.320129394531 969.656005859375 977.442443847656 976.69482421875 970.0341796875 967.57470703125 968.432250976562 971.648864746094 976.349304199219 980.619812011719 989.1240234375 989.875305175781 997.283325195312 987.401306152344 990.425354003906 987.919799804688 989.495239257812 989.924865722656 986.766235351562 991.484802246094 986.098937988281 998.335754394531 994.941284179688 994.240173339844 989.040771484375 993.353454589844 998.314025878906 998.971496582031 1000.76898193359 1004.06970214844 1002.31262207031 993.196838378906 1001.11602783203 994.972961425781 1000.22088623047 996.255432128906 993.784912109375 989.937438964844 1004.56506347656 1011.68463134766 1008.04272460938 1001.99969482422 1000.51550292969 996.498107910156 994.322143554688 994.865051269531 991.039428710938 978.135803222656 980.072814941406 989.907104492188 994.948059082031 987.953308105469 988.060241699219 993.341918945312 984.763854980469 996.268249511719 999.446105957031 995.232849121094 988.289489746094 984.678955078125 981.147705078125 981.786010742188 988.423950195312 984.808471679688 986.840026855469 991.400207519531 988.812133789062 982.787231445312 991.041198730469 998.250549316406 1011.35772705078 1016.66467285156 1012.08459472656 1009.5732421875 1015.46002197266 1009.25378417969 1020.10778808594 1017.19616699219 1017.79766845703 1013.27001953125 1014.51898193359 1009.70196533203 1011.23193359375 1026.21826171875 1019.80627441406 1033.45178222656 1047.93298339844 1054.53820800781 1051.10400390625 1064.15270996094 1075.857421875 1081.74194335938 1088.48156738281 1091.46984863281 1098.70397949219 1105.49792480469 1116.80688476562 1131.78833007812 1129.76208496094
946.992248535156 951.214599609375 958.219116210938 957.693115234375 966.149169921875 962.664672851562 973.590942382812 974.07373046875 978.293273925781 974.026733398438 974.237670898438 977.967346191406 977.211303710938 970.996765136719 979.369506835938 979.618469238281 975.01953125 975.149047851562 975.944213867188 975.222473144531 983.681945800781 982.072570800781 974.301147460938 979.776000976562 972.869995117188 973.141296386719 971.580993652344 976.615539550781 973.055480957031 980.620239257812 976.497741699219 973.533264160156 973.883911132812 976.057739257812 974.691772460938 971.726257324219 968.210998535156 979.338745117188 974.906005859375 975.933044433594 974.13916015625 977.918579101562 981.933715820312 982.756408691406 976.293762207031 976.262023925781 974.061828613281 969.168273925781 971.936889648438 972.301452636719 970.151977539062 973.522644042969 974.18994140625 975.770935058594 970.056213378906 965.384033203125 965.7392578125 968.926391601562 976.323974609375 978.177673339844 987.993408203125 988.39697265625 984.13134765625 986.512023925781 984.315124511719 979.062744140625 978.588623046875 973.882385253906 973.254272460938 982.941467285156 989.082458496094 990.967590332031 991.356323242188 991.506652832031 989.215270996094 988.29736328125 991.364990234375 989.247314453125 998.156555175781 994.318481445312 1001.16857910156 1011.36370849609 1000.16223144531 995.358337402344 1000.66455078125 998.313293457031 994.441162109375 997.440612792969 994.505676269531 995.744812011719 999.89306640625 1008.31396484375 1004.9248046875 1001.42260742188 1004.67706298828 999.027893066406 998.02099609375 996.344604492188 986.654541015625 992.905639648438 986.521667480469 990.734069824219 981.135559082031 987.714294433594 991.203918457031 993.611755371094 990.741882324219 997.614807128906 992.059204101562 992.056091308594 987.390991210938 984.997985839844 989.599243164062 994.220886230469 999.618530273438 998.078491210938 991.599670410156 990.894409179688 989.765197753906 991.46484375 998.592346191406 1012.02099609375 1011.79907226562 1010.31494140625 1003.84490966797 1001.64099121094 1009.97229003906 1013.59069824219 1020.01226806641 1010.64093017578 1009.68969726562 1006.21948242188 1020.96179199219 1022.19470214844 1024.78137207031 1022.93902587891 1037.203125 1053.44384765625 1059.93041992188 1061.89074707031 1067.75451660156 1074.8271484375 1076.25415039062 1080.52819824219 1091.21826171875 1101.13366699219 1110.19494628906 1127.83972167969 1127.95788574219 1130.9990234375
941.111511230469 945.181518554688 958.972839355469 958.857238769531 966.348937988281 968.604431152344 967.344970703125 979.498229980469 981.378112792969 980.113403320312 976.758850097656 967.629211425781 969.222839355469 971.402282714844 977.625610351562 984.052917480469 979.209106445312 979.98291015625 975.302062988281 989.430419921875 988.726989746094 979.045593261719 976.807678222656 979.257568359375 978.949096679688 977.93017578125 973.726867675781 964.54052734375 969.5869140625 978.551879882812 980.064086914062 978.023254394531 978.849975585938 980.761596679688 978.005065917969 970.78369140625 974.96484375 980.696655273438 980.600036621094 967.572692871094 975.553405761719 977.055541992188 975.852294921875 981.643249511719 981.920104980469 969.308715820312 974.0302734375 976.728088378906 975.285217285156 964.571472167969 976.792907714844 968.960205078125 970.862915039062 974.459594726562 971.557800292969 971.578491210938 971.339172363281 971.172302246094 978.91943359375 984.872985839844 974.961669921875 988.929504394531 980.40087890625 974.233093261719 971.066284179688 973.683227539062 971.292419433594 963.82861328125 964.317687988281 970.491333007812 976.008483886719 982.695373535156 986.723815917969 985.485900878906 985.868896484375 993.329833984375 990.728820800781 990.372680664062 993.95361328125 999.553588867188 993.286193847656 992.367980957031 997.138854980469 997.624450683594 1005.96331787109 998.123168945312 987.928466796875 987.041137695312 992.128234863281 996.281005859375 1006.83026123047 1012.3095703125 1007.75329589844 1010.01135253906 1000.76513671875 1000.43829345703 990.897705078125 997.6953125 997.728820800781 995.096313476562 997.233581542969 993.3603515625 986.900268554688 986.614074707031 981.550537109375 987.32763671875 985.91552734375 995.4111328125 1000.49780273438 988.550354003906 989.148742675781 994.332580566406 997.269104003906 996.349426269531 1000.74493408203 1001.73590087891 994.953369140625 994.169616699219 992.372741699219 998.907592773438 1003.82110595703 1006.45233154297 1012.17694091797 1014.28790283203 1011.60150146484 999.060729980469 1010.81005859375 1012.28668212891 1006.34967041016 1013.66046142578 1012.03375244141 1011.74011230469 1014.50354003906 1022.00341796875 1028.62561035156 1036.05017089844 1041.86254882812 1051.86596679688 1063.20727539062 1063.9052734375 1064.30236816406 1068.25830078125 1078.42456054688 1093.20593261719 1098.78527832031 1108.16528320312 1112.97546386719 1121.76953125 1118.80200195312 1134.26904296875
941.5380859375 954.081787109375 962.214050292969 966.413696289062 971.050354003906 976.008605957031 975.651428222656 974.564392089844 981.869445800781 967.620422363281 972.818359375 960.686279296875 970.829528808594 968.155456542969 970.786682128906 979.699035644531 980.538208007812 979.300903320312 970.707946777344 972.204528808594 977.917053222656 981.69580078125 976.781921386719 979.6796875 980.209289550781 981.139953613281 975.133178710938 969.346130371094 971.1923828125 975.638977050781 987.527709960938 979.253967285156 977.708923339844 979.7666015625 976.366943359375 973.421997070312 978.367370605469 981.929931640625 977.857604980469 969.308837890625 979.276550292969 982.228515625 975.867858886719 977.341918945312 970.597106933594 965.042846679688 966.763793945312 971.359497070312 974.747985839844 979.607055664062 976.740051269531 970.352905273438 976.373413085938 976.942810058594 971.911743164062 965.486145019531 971.876403808594 968.812194824219 966.626953125 978.194763183594 980.975769042969 983.643920898438 973.49609375 969.621276855469 972.31396484375 967.475402832031 960.266357421875 959.167175292969 960.376525878906 967.435668945312 973.458129882812 970.181701660156 983.001159667969 984.300720214844 984.190551757812 992.461120605469 991.289184570312 981.985778808594 990.121154785156 988.15771484375 989.535278320312 984.688781738281 991.284912109375 995.721008300781 1002.54754638672 995.448059082031 998.802612304688 992.549133300781 990.256652832031 994.289733886719 1006.64147949219 1002.59564208984 1010.29858398438 1011.39654541016 1002.96636962891 987.83544921875 990.88037109375 1000.83312988281 1003.15710449219 995.830505371094 992.973022460938 987.507995605469 989.193115234375 980.761047363281 975.550598144531 981.011047363281 993.990844726562 1000.27001953125 997.012878417969 993.57373046875 993.611206054688 993.451293945312 993.842956542969 998.529235839844 996.86572265625 996.022399902344 995.52685546875 996.620178222656 1003.41583251953 996.936157226562 1012.88934326172 1012.58728027344 1015.7626953125 1001.79443359375 1001.87902832031 1001.61291503906 1002.71075439453 1017.11975097656 1008.36657714844 1015.80487060547 1016.02215576172 1020.04949951172 1017.53247070312 1024.697265625 1034.34399414062 1045.13049316406 1045.72729492188 1053.34484863281 1064.59973144531 1063.28649902344 1071.65832519531 1080.52014160156 1080.83361816406 1092.53466796875 1097.69262695312 1107.65661621094 1114.23559570312 1130.39282226562 1125.70959472656 1127.69018554688
938.608276367188 946.485656738281 964.680786132812 962.296569824219 968.889099121094 972.937377929688 979.530456542969 970.041687011719 969.56494140625 967.426879882812 969.199279785156 974.156372070312 970.009643554688 974.052551269531 970.022338867188 972.084655761719 979.532470703125 977.084045410156 976.273010253906 977.953002929688 985.355712890625 980.360534667969 985.244689941406 978.772644042969 982.830200195312 980.267272949219 975.321533203125 973.793823242188 969.307250976562 981.194580078125 987.049499511719 979.396057128906 967.980834960938 968.161987304688 983.982727050781 979.901428222656 970.759948730469 975.522216796875 976.850952148438 979.940673828125 981.0185546875 971.194396972656 975.399963378906 973.288940429688 967.47802734375 977.432861328125 974.138671875 971.028076171875 976.906066894531 978.086547851562 972.794250488281 964.865173339844 977.463500976562 967.869384765625 970.902099609375 971.043884277344 973.702941894531 960.890197753906 962.45556640625 975.70361328125 970.932861328125 973.027404785156 966.043151855469 966.811706542969 969.667724609375 968.603271484375 958.644104003906 953.188720703125 965.935729980469 968.863891601562 973.53369140625 977.885314941406 978.111572265625 974.293823242188 977.437622070312 986.924621582031 986.243286132812 987.812683105469 988.297180175781 985.059997558594 986.174987792969 987.283874511719 986.971496582031 985.854248046875 1000.12854003906 1001.421875 1001.28930664062 989.253540039062 987.973205566406 993.889038085938 995.9638671875 999.81103515625 1003.62902832031 1002.38049316406 1001.52600097656 997.065673828125 995.190124511719 997.661254882812 996.308837890625 1002.80352783203 1001.39593505859 983.726745605469 981.428527832031 978.518493652344 972.652282714844 983.39306640625 986.014831542969 987.282897949219 988.146301269531 991.822570800781 988.940124511719 993.824584960938 997.03369140625 996.833862304688 991.874572753906 994.372192382812 1003.29809570312 1000.35772705078 996.340698242188 1005.54638671875 1008.83093261719 1020.30041503906 1005.67016601562 993.351806640625 998.373596191406 1014.02276611328 1006.91687011719 1011.93865966797 1011.59521484375 1019.03625488281 1014.66815185547 1021.53656005859 1020.78771972656 1032.74133300781 1034.22229003906 1043.68859863281 1043.00170898438 1058.03271484375 1062.48046875 1062.46643066406 1068.87365722656 1080.02575683594 1094.42749023438 1097.03747558594 1098.96301269531 1113.17663574219 1130.71862792969 1132.05090332031 1131.77661132812 1130.67761230469
939.932250976562 948.246154785156 957.146850585938 959.861022949219 960.558715820312 960.363830566406 968.437744140625 961.477600097656 970.290771484375 962.381896972656 969.284301757812 978.436950683594 970.733276367188 970.673278808594 969.422485351562 979.438293457031 973.582946777344 978.624572753906 969.47900390625 973.60107421875 979.150573730469 987.851989746094 984.657897949219 985.934143066406 977.092346191406 984.410888671875 984.448181152344 967.848571777344 968.630432128906 973.341369628906 988.379516601562 976.600769042969 970.617004394531 971.570617675781 985.276611328125 982.950988769531 970.377197265625 982.974731445312 984.819946289062 978.903015136719 978.891845703125 979.554992675781 975.899841308594 976.205810546875 974.733520507812 970.169982910156 977.292053222656 973.609497070312 979.368957519531 973.383666992188 969.8466796875 970.373229980469 978.006652832031 972.469848632812 972.458312988281 964.458129882812 975.656555175781 968.181701660156 963.170288085938 971.048278808594 968.267639160156 966.526489257812 968.707214355469 971.510925292969 963.234069824219 962.524291992188 958.742065429688 963.154052734375 967.248779296875 973.992492675781 977.771423339844 983.63671875 966.686950683594 974.864318847656 974.095336914062 973.713623046875 972.467041015625 989.744323730469 988.3046875 985.237609863281 991.581909179688 992.828247070312 982.455261230469 986.829956054688 995.230224609375 998.742370605469 989.801635742188 985.074645996094 992.050659179688 988.044311523438 992.513427734375 992.899475097656 1001.93200683594 996.590942382812 1000.48846435547 999.847290039062 994.9375 998.517639160156 994.55712890625 996.426574707031 989.272583007812 986.357299804688 975.90673828125 975.870788574219 972.330993652344 979.971862792969 981.410583496094 989.492065429688 986.944030761719 981.242980957031 980.453491210938 990.464111328125 987.924133300781 994.781616210938 998.594299316406 994.167663574219 998.036865234375 993.777770996094 997.892028808594 1004.47442626953 1002.97528076172 1010.53271484375 996.504943847656 1001.36840820312 998.128295898438 1004.86730957031 1013.82214355469 1013.38043212891 1020.36791992188 1030.830078125 1030.96923828125 1026.70434570312 1027.93371582031 1045.09020996094 1048.71508789062 1047.78649902344 1044.06420898438 1058.81555175781 1059.93920898438 1070.55053710938 1072.82653808594 1082.10034179688 1097.40905761719 1103.75598144531 1114.8076171875 1118.21203613281 1135.24792480469 1136.64892578125 1136.37170410156 1137.39270019531
938.145874023438 955.799682617188 951.170288085938 961.625793457031 954.364624023438 958.021911621094 956.579162597656 964.818664550781 968.222106933594 967.102905273438 970.056030273438 973.820922851562 978.019226074219 982.511535644531 982.490478515625 973.49658203125 979.678588867188 973.358215332031 974.700927734375 980.178405761719 972.433044433594 981.479187011719 986.104858398438 984.771240234375 978.969848632812 973.933654785156 984.829040527344 978.550903320312 976.533874511719 981.297424316406 981.778076171875 978.806396484375 975.738464355469 980.831909179688 985.579284667969 985.427124023438 976.582885742188 980.638427734375 976.961547851562 981.655029296875 974.111145019531 980.356994628906 970.031677246094 973.279418945312 967.578796386719 968.532287597656 980.078552246094 976.282287597656 982.589965820312 986.674255371094 970.921997070312 971.829528808594 969.441284179688 969.900451660156 966.562438964844 967.363037109375 969.793090820312 973.017150878906 965.132019042969 970.485046386719 972.038452148438 975.352355957031 974.078674316406 969.301025390625 967.643859863281 959.374877929688 961.242004394531 971.489929199219 973.36767578125 975.202514648438 988.170532226562 974.263000488281 973.478820800781 969.393676757812 972.078369140625 972.629760742188 980.137268066406 984.543090820312 981.151672363281 980.711608886719 986.666442871094 989.888366699219 989.123962402344 991.378234863281 987.470275878906 987.188659667969 989.318298339844 990.404418945312 986.422180175781 983.512573242188 987.998962402344 995.90185546875 994.90576171875 983.669982910156 995.90625 998.258178710938 993.072021484375 994.885314941406 1002.38543701172 1000.93664550781 989.701538085938 987.198425292969 989.631591796875 983.996337890625 981.206787109375 989.204895019531 990.19189453125 988.823364257812 986.055541992188 988.264892578125 981.247497558594 988.574890136719 993.852111816406 990.223449707031 993.919006347656 992.587463378906 998.558410644531 992.697814941406 1000.33258056641 1000.78393554688 998.362854003906 999.596984863281 993.836791992188 1000.73455810547 993.094909667969 1010.52264404297 1020.06268310547 1021.55725097656 1022.99560546875 1024.56103515625 1025.92333984375 1021.95288085938 1031.15637207031 1049.70983886719 1054.53759765625 1059.74572753906 1058.00476074219 1056.04333496094 1070.53088378906 1079.95617675781 1085.75610351562 1092.83386230469 1097.05493164062 1108.39672851562 1118.23315429688 1131.67749023438 1140.82458496094 1148.64587402344 1144.70129394531 1140.46105957031
944.988708496094 953.187072753906 952.622131347656 948.099853515625 954.675354003906 958.993591308594 959.691528320312 963.489868164062 966.167785644531 964.387268066406 957.991943359375 972.739990234375 977.105895996094 981.300537109375 974.525390625 980.447570800781 981.426818847656 980.763610839844 974.6728515625 967.906921386719 975.254150390625 979.872375488281 986.184997558594 990.652526855469 975.525634765625 974.100158691406 979.432434082031 982.39453125 986.104431152344 981.221313476562 980.189575195312 976.629638671875 976.203552246094 978.81982421875 983.540344238281 983.117614746094 975.213134765625 980.704650878906 977.441284179688 974.008056640625 967.887573242188 970.657165527344 971.377746582031 972.423095703125 967.9052734375 965.301330566406 974.247497558594 971.744140625 981.007385253906 980.316650390625 972.203369140625 972.524475097656 966.763610839844 964.027526855469 967.870788574219 960.967041015625 966.134216308594 964.708435058594 961.111328125 965.998840332031 976.267517089844 979.115417480469 973.444580078125 972.115966796875 974.422607421875 971.5927734375 966.961486816406 969.596801757812 967.134460449219 972.677917480469 970.978088378906 977.663635253906 972.945434570312 966.783996582031 964.46630859375 972.760498046875 979.149291992188 985.572265625 985.017333984375 984.824890136719 982.862731933594 989.551696777344 980.68115234375 976.280456542969 977.870971679688 978.059692382812 988.0517578125 981.268981933594 983.700317382812 982.602172851562 983.984741210938 985.9052734375 986.490295410156 993.131286621094 997.201538085938 990.900024414062 990.02783203125 991.119018554688 995.00439453125 985.385437011719 984.294677734375 979.265075683594 979.98193359375 981.576416015625 992.921264648438 989.280029296875 988.75634765625 999.232604980469 983.986328125 983.597717285156 989.612060546875 984.994079589844 990.338195800781 986.321411132812 992.37841796875 995.444702148438 991.445983886719 990.63330078125 996.435119628906 993.538757324219 992.813720703125 992.925415039062 981.601623535156 995.910278320312 1006.1904296875 1004.14227294922 1016.30419921875 1026.85424804688 1026.4970703125 1028.04699707031 1030.33203125 1032.09826660156 1038.68811035156 1050.27453613281 1056.45788574219 1062.73291015625 1058.98547363281 1064.62231445312 1074.14953613281 1079.22473144531 1093.30090332031 1097.52856445312 1103.00537109375 1116.82531738281 1121.27746582031 1139.06518554688 1148.45654296875 1155.61791992188 1149.64428710938 1143.77075195312
949.189880371094 947.571350097656 951.265869140625 949.137634277344 949.082214355469 956.279907226562 960.582092285156 964.198120117188 963.201538085938 959.028137207031 959.832763671875 960.562072753906 963.052551269531 975.330627441406 980.257263183594 984.945373535156 985.586181640625 982.994018554688 974.8173828125 967.865356445312 980.406921386719 984.045104980469 983.10009765625 986.133178710938 977.351928710938 973.231750488281 970.047485351562 976.011108398438 988.912109375 982.285522460938 982.108154296875 984.500671386719 978.588195800781 986.013061523438 988.279663085938 978.562316894531 983.55810546875 977.722595214844 974.700927734375 977.642150878906 966.310241699219 969.912902832031 966.805847167969 961.128051757812 970.379089355469 968.717895507812 973.952270507812 973.2744140625 971.424865722656 965.423950195312 962.408081054688 969.640869140625 966.955810546875 967.583068847656 967.335510253906 964.3857421875 965.363159179688 963.372802734375 975.724426269531 971.824096679688 975.418823242188 971.016235351562 965.621276855469 964.780822753906 969.688171386719 972.126953125 965.831848144531 970.230529785156 971.209106445312 965.961242675781 968.726989746094 973.856689453125 968.875366210938 974.320495605469 967.974914550781 969.692932128906 973.705017089844 977.743286132812 978.576171875 977.010375976562 978.359802246094 981.935119628906 976.935119628906 978.981628417969 972.195983886719 982.0263671875 984.950012207031 977.823364257812 974.857543945312 974.413330078125 971.877624511719 980.388732910156 982.720031738281 985.119140625 983.172546386719 987.491638183594 984.844421386719 982.809143066406 989.153625488281 974.39892578125 977.698547363281 977.302856445312 980.676330566406 987.111450195312 980.497924804688 996.597595214844 987.946960449219 986.14794921875 986.775146484375 979.180725097656 975.552368164062 984.119995117188 982.5322265625 987.169006347656 1001.63543701172 1003.93133544922 1004.06811523438 997.703796386719 997.855102539062 1002.06378173828 996.438293457031 1005.86376953125 989.196960449219 996.318664550781 1003.66839599609 1017.08813476562 1018.62890625 1027.47045898438 1037.61181640625 1050.02392578125 1044.61572265625 1044.54357910156 1052.95654296875 1051.08776855469 1065.2109375 1071.59399414062 1072.80651855469 1065.2939453125 1066.44030761719 1081.33459472656 1089.59521484375 1102.21411132812 1107.60363769531 1110.88671875 1130.62145996094 1140.498046875 1151.62585449219 1165.90209960938 1159.029296875 1157.95263671875
954.034545898438 948.470642089844 952.696899414062 946.528747558594 952.695861816406 956.063354492188 958.47265625 960.127685546875 962.1337890625 956.218078613281 954.463256835938 959.47607421875 961.892639160156 972.787292480469 982.742919921875 981.846252441406 981.561096191406 979.981628417969 978.082702636719 978.958374023438 985.684692382812 981.296569824219 976.312072753906 984.203063964844 977.503356933594 985.580932617188 979.539916992188 981.999694824219 979.926025390625 984.442260742188 987.3916015625 979.689636230469 979.184936523438 985.490478515625 987.990539550781 974.008361816406 982.368103027344 979.367858886719 977.266052246094 970.656799316406 970.365539550781 966.537048339844 966.417175292969 959.559265136719 960.893859863281 965.239807128906 962.795776367188 973.931091308594 977.260559082031 970.365844726562 964.445556640625 964.979553222656 963.448059082031 962.148864746094 958.420471191406 961.808227539062 970.288513183594 970.223449707031 966.049987792969 966.71435546875 971.360717773438 969.822570800781 973.22119140625 970.176940917969 973.783569335938 973.83642578125 967.453796386719 968.99560546875 966.179565429688 975.120361328125 971.193786621094 979.44677734375 975.893859863281 966.724609375 963.773315429688 972.768249511719 976.409729003906 976.881713867188 969.442932128906 977.232116699219 976.799438476562 983.057739257812 979.465942382812 974.370788574219 973.715454101562 976.490051269531 984.255615234375 980.845825195312 975.048828125 976.219177246094 979.644775390625 977.519226074219 978.356872558594 987.843017578125 994.084106445312 983.954162597656 984.533081054688 986.575256347656 984.25 972.577819824219 974.541259765625 986.423095703125 988.106323242188 983.906005859375 978.657592773438 981.57568359375 988.160278320312 983.330078125 986.595642089844 978.564208984375 982.081176757812 996.236999511719 991.150634765625 997.328125 993.875305175781 998.69140625 1000.95330810547 1001.58746337891 995.025573730469 995.588806152344 999.171752929688 1004.14562988281 998.81884765625 1011.55322265625 1012.63037109375 1016.72595214844 1027.37707519531 1041.26013183594 1039.248046875 1044.35290527344 1048.56884765625 1049.83813476562 1056.58764648438 1055.91564941406 1068.50646972656 1070.61474609375 1074.87756347656 1076.50964355469 1073.47216796875 1081.12084960938 1091.22839355469 1106.81994628906 1102.13220214844 1119.1171875 1131.57556152344 1138.99169921875 1152.68579101562 1167.75122070312 1165.5322265625 1164.64733886719
954.027526855469 952.201843261719 958.614868164062 952.643920898438 950.509643554688 964.217163085938 963.553405761719 964.886901855469 961.022399902344 952.98876953125 960.471008300781 960.030456542969 959.849853515625 974.591735839844 976.843444824219 974.727905273438 977.493774414062 981.707580566406 979.494445800781 978.421508789062 980.800537109375 980.352111816406 968.837585449219 976.998901367188 983.626708984375 986.519897460938 978.962036132812 988.523986816406 988.513671875 988.37744140625 987.181884765625 982.418762207031 978.906311035156 984.800476074219 976.327575683594 963.895263671875 975.151123046875 976.392395019531 978.704711914062 976.019165039062 968.830993652344 968.434265136719 962.227233886719 961.1201171875 957.463256835938 960.223876953125 960.294555664062 974.063171386719 969.51513671875 973.058776855469 971.28271484375 961.460327148438 964.883605957031 955.821533203125 961.042419433594 951.83251953125 965.722778320312 970.330749511719 959.570373535156 963.506469726562 968.7041015625 966.303833007812 976.545593261719 973.904357910156 968.77587890625 972.556762695312 972.648376464844 970.388000488281 967.918273925781 965.986022949219 963.63916015625 957.015747070312 964.028747558594 967.341552734375 965.926330566406 960.7861328125 972.810974121094 975.53369140625 972.584167480469 971.374389648438 975.558837890625 971.985534667969 971.592163085938 977.874084472656 976.890625 978.91259765625 976.249694824219 977.590698242188 973.615905761719 972.748107910156 975.78759765625 979.173156738281 986.671264648438 992.135498046875 993.444091796875 987.763671875 990.506958007812 987.14306640625 979.606872558594 969.688293457031 981.325378417969 988.305236816406 984.925109863281 979.546447753906 983.778503417969 994.206176757812 997.508117675781 994.432373046875 992.628601074219 985.751220703125 993.669555664062 995.981811523438 997.835327148438 999.335693359375 998.467407226562 999.474792480469 995.128051757812 1003.41119384766 1005.08984375 1000.55010986328 996.076232910156 1005.64300537109 1012.63525390625 1015.92150878906 1013.66876220703 1028.01647949219 1030.63000488281 1028.64978027344 1044.7109375 1042.43823242188 1050.650390625 1048.05407714844 1057.26025390625 1058.56127929688 1070.29797363281 1069.73974609375 1073.24230957031 1080.52307128906 1077.20568847656 1083.39721679688 1089.72387695312 1100.84582519531 1107.82629394531 1116.44299316406 1122.86560058594 1136.45520019531 1155.52209472656 1166.93005371094 1168.66357421875 1167.98352050781
956.949340820312 951.258972167969 943.564208984375 950.571350097656 957.502685546875 961.407348632812 972.891479492188 964.04248046875 969.449401855469 973.323974609375 968.779479980469 972.890808105469 968.0966796875 975.026184082031 973.836364746094 978.336608886719 980.262329101562 979.386535644531 981.266357421875 972.7451171875 978.308349609375 970.042785644531 968.798645019531 971.617736816406 982.051635742188 981.634887695312 976.695495605469 981.438720703125 981.750061035156 977.716735839844 979.298522949219 972.427551269531 978.970581054688 964.470764160156 965.722961425781 968.16943359375 969.919189453125 971.900695800781 968.636779785156 973.899841308594 970.681579589844 964.265686035156 959.291137695312 953.783386230469 955.828674316406 960.962036132812 954.479797363281 963.423889160156 968.487365722656 963.010314941406 975.096435546875 971.393310546875 970.871032714844 964.681030273438 956.650695800781 954.6533203125 964.167724609375 962.741149902344 966.681335449219 968.571411132812 972.289245605469 965.631530761719 972.143371582031 968.61865234375 969.787780761719 968.796569824219 972.359313964844 967.358825683594 970.552429199219 974.654418945312 964.308410644531 961.854187011719 961.744384765625 965.059143066406 969.906127929688 977.039855957031 971.155334472656 970.246459960938 974.175354003906 971.674621582031 969.270874023438 971.425048828125 974.050842285156 969.9912109375 966.898864746094 966.576293945312 970.477355957031 983.768005371094 973.389709472656 970.924987792969 968.341674804688 985.693298339844 986.563903808594 987.373962402344 985.028747558594 976.767822265625 983.38916015625 979.807800292969 985.580017089844 972.790100097656 984.326354980469 982.947692871094 984.36474609375 989.075378417969 987.615661621094 990.122497558594 1004.84381103516 997.954956054688 991.002075195312 983.158935546875 1000.58306884766 1003.68951416016 1002.00854492188 1013.06689453125 1014.67755126953 1008.85223388672 1008.37341308594 1014.61016845703 1006.92858886719 1009.91320800781 1013.02185058594 1018.12054443359 1012.92364501953 1016.99877929688 1021.72576904297 1019.38507080078 1030.5322265625 1030.33483886719 1033.49279785156 1048.333984375 1046.52099609375 1061.04931640625 1064.25646972656 1064.40734863281 1069.23352050781 1076.79919433594 1075.79223632812 1082.67407226562 1094.484375 1091.70617675781 1098.1103515625 1106.50427246094 1115.80895996094 1117.55139160156 1119.65295410156 1133.14013671875 1148.04064941406 1158.13366699219 1155.07043457031 1155.81188964844
953.571716308594 947.736083984375 942.629699707031 945.542602539062 956.662292480469 966.343505859375 969.446899414062 974.030090332031 970.039855957031 965.414001464844 963.072021484375 983.414306640625 975.794921875 977.78564453125 979.1484375 971.952270507812 976.355163574219 976.267333984375 971.004089355469 971.789001464844 970.786499023438 967.411193847656 967.876525878906 969.234436035156 972.240234375 971.11865234375 973.656066894531 970.891967773438 980.169311523438 975.254699707031 969.014587402344 963.000366210938 964.729858398438 969.270324707031 970.606628417969 973.024658203125 963.036743164062 967.725708007812 965.338134765625 963.036437988281 959.3330078125 964.525451660156 964.575500488281 958.326416015625 957.3564453125 961.292846679688 950.368896484375 958.970031738281 966.213806152344 964.192932128906 971.644470214844 962.821044921875 964.572387695312 965.905212402344 973.185546875 976.889221191406 968.863952636719 965.007141113281 976.375 966.15234375 955.525207519531 959.374206542969 964.195983886719 965.47216796875 979.826782226562 970.116333007812 971.058288574219 960.227355957031 955.779907226562 954.753784179688 963.387390136719 961.322875976562 962.224792480469 967.113098144531 966.785400390625 971.7724609375 967.267639160156 963.633239746094 965.092834472656 955.589965820312 969.96142578125 974.292358398438 971.001831054688 970.577453613281 979.579284667969 970.319152832031 970.170104980469 971.98193359375 977.56982421875 962.995971679688 971.638488769531 974.728149414062 976.85595703125 975.032104492188 970.477966308594 969.876281738281 977.730834960938 976.7177734375 981.499755859375 983.375854492188 982.942565917969 980.713134765625 983.106872558594 988.466247558594 991.342712402344 993.784118652344 988.902221679688 994.14794921875 1003.24053955078 1003.23718261719 1008.70886230469 1000.99938964844 1000.11614990234 1009.64294433594 1022.35754394531 1013.29864501953 1017.54248046875 1011.64331054688 1021.04718017578 1021.83032226562 1021.87030029297 1023.76275634766 1017.29333496094 1021.56518554688 1022.97833251953 1022.07189941406 1019.43872070312 1029.919921875 1037.19970703125 1034.84399414062 1039.19738769531 1054.09985351562 1058.67138671875 1065.16625976562 1069.10021972656 1073.36254882812 1082.42956542969 1091.76135253906 1088.82641601562 1098.65258789062 1100.56225585938 1104.27404785156 1112.71130371094 1121.228515625 1130.09973144531 1123.05480957031 1136.69030761719 1148.12768554688 1151.40075683594 1152.41369628906
944.322143554688 956.080322265625 949.965087890625 940.193542480469 946.388549804688 956.750244140625 960.044250488281 971.571533203125 962.567687988281 964.085632324219 963.344665527344 966.773986816406 972.866333007812 975.316467285156 986.952941894531 980.929748535156 975.601623535156 974.467041015625 980.698364257812 974.083801269531 973.63623046875 968.104736328125 958.329223632812 959.431213378906 969.822387695312 967.933837890625 969.719787597656 968.612548828125 966.600646972656 965.639831542969 969.908874511719 967.6240234375 974.345275878906 969.984802246094 973.426696777344 974.786682128906 966.804321289062 962.465881347656 959.346862792969 965.172790527344 969.463989257812 968.455383300781 972.971008300781 964.728637695312 961.305419921875 957.365356445312 947.881042480469 950.687133789062 961.819274902344 966.668395996094 963.197082519531 962.184631347656 967.108154296875 963.224182128906 972.520629882812 974.419738769531 969.005187988281 968.838684082031 964.796630859375 963.084350585938 965.030883789062 966.837768554688 956.946350097656 963.384765625 970.931213378906 965.625915527344 962.345703125 960.054504394531 952.7021484375 958.229858398438 960.836181640625 968.212585449219 961.14453125 962.097229003906 967.539611816406 969.250793457031 973.639587402344 960.755981445312 963.332946777344 965.528076171875 972.673828125 975.837646484375 972.3994140625 969.061157226562 968.715881347656 962.406982421875 971.728698730469 969.523315429688 973.321411132812 970.505065917969 974.051086425781 969.494812011719 980.827880859375 985.867004394531 980.415100097656 982.342651367188 982.465698242188 977.238586425781 974.516906738281 980.614440917969 979.272705078125 985.19140625 988.373229980469 992.216857910156 987.802124023438 994.342163085938 995.386291503906 996.687072753906 999.357116699219 1002.27471923828 1013.64031982422 996.566101074219 999.309936523438 1007.04364013672 1013.91687011719 1009.16973876953 1015.84649658203 1015.23004150391 1019.87683105469 1015.02282714844 1025.9716796875 1029.97888183594 1022.86907958984 1024.79113769531 1020.22393798828 1016.11804199219 1015.05548095703 1024.00927734375 1024.02197265625 1034.00415039062 1038.67712402344 1053.36791992188 1053.70690917969 1063.3115234375 1062.72937011719 1071.71484375 1084.71313476562 1085.66076660156 1082.2900390625 1094.626953125 1099.55859375 1116.21594238281 1113.0380859375 1121.83203125 1116.09497070312 1120.28503417969 1130.29028320312 1134.19750976562 1131.95483398438 1139.91296386719
950.663940429688 954.922424316406 955.514587402344 956.654602050781 962.398498535156 954.501708984375 965.231079101562 966.33056640625 961.504211425781 961.192138671875 969.685180664062 966.72412109375 971.276306152344 974.692810058594 984.783020019531 983.004760742188 978.198303222656 972.24658203125 976.35498046875 972.351867675781 979.1162109375 960.515197753906 958.599243164062 961.647155761719 962.882751464844 964.357482910156 961.968566894531 964.183166503906 960.927307128906 957.787353515625 964.182434082031 974.742858886719 966.676696777344 968.436706542969 972.7568359375 978.350280761719 973.086547851562 964.187438964844 963.248901367188 961.149963378906 971.155395507812 963.599365234375 972.780395507812 961.398376464844 955.354736328125 956.649597167969 951.710998535156 956.127868652344 966.646606445312 964.947631835938 967.3505859375 970.469116210938 960.005615234375 968.705383300781 964.355529785156 966.028259277344 970.657836914062 968.979553222656 964.33154296875 963.683044433594 963.256774902344 970.667663574219 966.779663085938 965.977722167969 961.432189941406 964.681030273438 961.233642578125 964.709716796875 954.890991210938 958.9423828125 959.64404296875 964.754333496094 966.154296875 966.222473144531 972.754760742188 965.742431640625 965.985595703125 960.991455078125 958.213623046875 959.63623046875 971.091735839844 973.371765136719 967.761779785156 965.779663085938 970.408264160156 970.597961425781 974.182067871094 974.005432128906 972.100158691406 976.299438476562 971.7275390625 966.346801757812 978.026733398438 979.120361328125 974.576782226562 975.886596679688 976.371643066406 974.074645996094 980.870483398438 980.218688964844 982.27490234375 991.386840820312 993.507202148438 988.163818359375 984.415954589844 996.005004882812 997.557373046875 995.575866699219 1005.35070800781 1002.56085205078 998.346435546875 1004.22497558594 1005.84143066406 1006.12512207031 1013.35638427734 1012.18536376953 1009.12701416016 1016.56585693359 1018.31756591797 1022.87054443359 1036.36865234375 1033.40661621094 1021.00250244141 1022.10925292969 1026.58642578125 1024.0380859375 1013.64727783203 1025.83312988281 1022.53332519531 1021.6513671875 1041.36584472656 1047.25158691406 1055.90319824219 1064.46423339844 1072.04089355469 1074.51342773438 1081.60815429688 1090.28918457031 1090.73876953125 1095.03442382812 1105.00634765625 1112.787109375 1110.93957519531 1116.84155273438 1109.24426269531 1111.90930175781 1117.81872558594 1125.12133789062 1124.63195800781 1128.10729980469
