NCOLS 150
NROWS 37
XLLCORNER 7394249
YLLCORNER 4842869
CELLSIZE 30
NODATA_VALUE -9999
954.712524414062 952.643676757812 956.411987304688 956.619079589844 960.710876464844 967.523559570312 975.826904296875 974.885803222656 973.310302734375 978.421630859375 971.544921875 964.477661132812 975.733642578125 975.763061523438 972.246887207031 979.818176269531 968.385314941406 978.084289550781 981.168884277344 973.616516113281 972.651611328125 981.033447265625 987.138549804688 978.239990234375 979.212524414062 981.444091796875 969.360595703125 975.609802246094 980.720886230469 976.145568847656 982.673034667969 990.310424804688 985.858947753906 991.741333007812 993.968933105469 992.712097167969 994.369506835938 988.203125 987.59375 976.9912109375 976.477233886719 983.348815917969 988.597961425781 986.111450195312 981.221557617188 983.818176269531 982.030334472656 987.825744628906 983.339904785156 978.959289550781 984.03466796875 980.343078613281 977.053344726562 976.3671875 971.687744140625 973.446533203125 976.79931640625 980.36474609375 989.058166503906 984.831970214844 987.056640625 994.42626953125 995.314147949219 989.548583984375 992.006958007812 982.431396484375 986.936401367188 990.481567382812 988.138854980469 986.206115722656 981.770324707031 974.720336914062 979.804931640625 971.926879882812 967.985290527344 964.872436523438 968.217529296875 967.954528808594 978.504760742188 976.795471191406 983.560424804688 987.685424804688 994.983947753906 1007.74847412109 1001.84393310547 1005.64471435547 1002.435546875 1018.26470947266 1016.96380615234 1010.25646972656 1008.57489013672 1023.57537841797 1018.35363769531 1024.97717285156 1020.58410644531 1014.30841064453 1000.80139160156 994.744506835938 1002.33471679688 1003.2802734375 1004.06451416016 999.424682617188 1001.44689941406 1007.28948974609 1002.49377441406 1000.25689697266 998.074035644531 994.086547851562 996.161010742188 989.671752929688 978.577209472656 973.595153808594 972.398254394531 969.79833984375 973.784973144531 981.496948242188 981.992858886719 980.944702148438 994.642395019531 999.243835449219 996.180786132812 988.3525390625 1001.94885253906 1010.75280761719 1007.59826660156 1015.68609619141 1026.37512207031 1021.79205322266 1021.77941894531 1022.08233642578 1010.11328125 1003.88391113281 1007.01672363281 1010.8916015625 1016.62884521484 1019.74176025391 1020.05444335938 1017.74816894531 1038.04467773438 1050.78295898438 1065.36572265625 1081.65576171875 1086.77014160156 1100.99243164062 1105.13366699219 1105.30297851562 1111.03930664062 1114.96252441406 1117.83935546875 1118.48229980469
952.912048339844 955.471252441406 955.389770507812 955.719299316406 956.038757324219 968.50927734375 969.817321777344 974.973205566406 971.381469726562 978.234313964844 974.232788085938 970.465698242188 972.028503417969 977.861450195312 972.383850097656 980.677307128906 972.894714355469 974.108032226562 972.905639648438 971.246154785156 975.791809082031 981.794128417969 979.427185058594 981.238159179688 968.038696289062 965.701110839844 962.868225097656 966.711669921875 980.991333007812 981.481384277344 992.860961914062 983.0283203125 981.393737792969 982.784362792969 978.233825683594 981.849365234375 986.400756835938 992.453918457031 981.6201171875 979.907653808594 978.640258789062 982.089782714844 985.409790039062 982.685424804688 985.601318359375 986.024719238281 986.245422363281 972.499145507812 983.048645019531 976.943298339844 978.588623046875 978.850830078125 979.4736328125 976.99267578125 970.504272460938 973.910888671875 977.760559082031 981.35107421875 995.054138183594 996.385070800781 994.557739257812 997.973571777344 996.748413085938 994.874206542969 1000.18920898438 991.099426269531 998.431335449219 995.565124511719 993.568359375 984.561645507812 976.704956054688 976.539306640625 961.990478515625 959.27783203125 958.248413085938 960.057250976562 965.974975585938 973.1572265625 966.846252441406 970.879028320312 982.806213378906 994.920227050781 1001.27655029297 1004.42028808594 1002.13659667969 1006.94384765625 1009.42724609375 1014.15283203125 1008.86981201172 1015.27008056641 1019.89520263672 1021.16320800781 1020.76159667969 1020.44458007812 1017.49304199219 997.273193359375 989.232421875 990.76708984375 1003.29412841797 1007.79815673828 1000.57769775391 996.51220703125 999.443298339844 996.30712890625 995.083862304688 1001.83190917969 995.797790527344 993.832153320312 987.225769042969 987.46044921875 986.911071777344 984.524963378906 981.410278320312 979.11181640625 981.916687011719 988.763488769531 991.630920410156 985.639831542969 997.168518066406 990.851745605469 989.585144042969 987.53955078125 997.147155761719 1005.27856445312 997.947143554688 1015.24188232422 1014.39904785156 1013.33978271484 1013.66253662109 1016.59613037109 1018.08740234375 1006.94396972656 1005.98052978516 1017.72418212891 1019.48248291016 1027.42224121094 1028.52844238281 1032.45385742188 1041.80456542969 1058.646484375 1073.49829101562 1080.55322265625 1088.56188964844 1109.927734375 1111.4248046875 1121.47741699219 1118.375 1118.68664550781 1126.81420898438 1129.58374023438
957.082153320312 956.554321289062 955.446411132812 965.532287597656 970.434875488281 974.924499511719 972.889221191406 974.125183105469 973.969055175781 974.780029296875 970.127075195312 967.858215332031 970.288879394531 979.233764648438 975.454345703125 981.316772460938 975.812194824219 976.288513183594 981.311218261719 976.204956054688 981.201477050781 986.290832519531 975.934020996094 969.59716796875 966.094421386719 956.3642578125 960.80126953125 972.827758789062 976.042419433594 982.748107910156 974.657531738281 974.540283203125 972.531921386719 978.699401855469 966.812438964844 975.927062988281 984.998107910156 984.626281738281 975.922607421875 973.591430664062 982.301086425781 983.509094238281 978.019897460938 983.627624511719 986.678100585938 985.506469726562 983.488342285156 983.028991699219 977.50830078125 973.524475097656 979.618774414062 977.973327636719 972.444213867188 976.46533203125 972.494506835938 976.970092773438 972.48486328125 974.552307128906 989.709167480469 993.353881835938 996.69140625 996.96435546875 998.448669433594 996.258911132812 1001.06201171875 1004.3486328125 998.039001464844 995.058471679688 988.645935058594 978.941284179688 978.169738769531 972.842712402344 965.211791992188 956.845153808594 965.175354003906 963.039794921875 975.124572753906 984.611877441406 978.451293945312 977.6630859375 981.565185546875 983.417053222656 998.697326660156 993.541870117188 997.041259765625 999.981506347656 1004.59558105469 1009.26916503906 1008.06372070312 1010.63366699219 1014.71160888672 1015.28881835938 1011.45721435547 1011.12573242188 1006.35968017578 1002.7890625 986.926330566406 987.809326171875 994.832397460938 999.072021484375 1000.17132568359 994.736206054688 989.603088378906 997.170593261719 990.618896484375 996.235595703125 996.592468261719 997.059204101562 999.023376464844 993.003234863281 984.431762695312 994.692810058594 993.785095214844 993.805236816406 996.7646484375 1002.53033447266 996.460998535156 995.723815917969 1000.30676269531 992.812316894531 990.363037109375 990.673034667969 999.396667480469 995.76708984375 995.256713867188 1009.43725585938 1002.86486816406 1007.34399414062 1010.69781494141 1012.29455566406 1012.34777832031 1008.6943359375 1007.02838134766 1014.43078613281 1023.15704345703 1034.95654296875 1028.0185546875 1047.88513183594 1053.50061035156 1063.20056152344 1071.43579101562 1084.75964355469 1098.35473632812 1111.81115722656 1121.1728515625 1121.57678222656 1124.33093261719 1128.95776367188 1132.82727050781 1142.26489257812
967.162414550781 965.835083007812 957.105346679688 967.91259765625 970.072387695312 969.946594238281 972.567565917969 973.086791992188 969.863403320312 964.283081054688 963.464721679688 967.400329589844 967.716918945312 964.607788085938 969.059387207031 981.6572265625 979.465026855469 977.873352050781 976.304382324219 978.152648925781 984.035461425781 986.575561523438 980.438903808594 966.000915527344 968.855773925781 963.512634277344 963.177062988281 968.33642578125 976.095031738281 982.5888671875 974.461975097656 972.688171386719 970.821411132812 975.85400390625 974.863464355469 977.546081542969 968.863220214844 976.605529785156 972.249572753906 975.168151855469 973.508850097656 982.563293457031 978.956176757812 984.799682617188 984.700561523438 977.143127441406 976.496826171875 977.007934570312 977.332946777344 977.856018066406 978.088623046875 972.670959472656 965.232482910156 974.782409667969 977.779663085938 972.560729980469 976.433227539062 983.339050292969 972.802917480469 979.082214355469 989.633178710938 988.419738769531 988.365600585938 999.152282714844 996.508117675781 997.079345703125 1000.30438232422 996.182922363281 981.743041992188 970.56201171875 973.806518554688 968.140014648438 970.398986816406 968.686584472656 956.700378417969 964.920837402344 976.15771484375 980.012451171875 983.830810546875 986.899230957031 981.788391113281 992.724548339844 991.810363769531 994.993103027344 998.754638671875 1007.47229003906 1008.23992919922 1007.19580078125 1007.65087890625 1005.89080810547 1011.19665527344 1017.14349365234 1009.88494873047 1012.29156494141 997.382385253906 993.360778808594 993.309814453125 994.41455078125 1001.81268310547 1000.67224121094 1000.9833984375 993.032043457031 990.840576171875 990.279174804688 998.145629882812 996.042602539062 988.788269042969 991.033081054688 993.087463378906 989.169982910156 1001.22723388672 999.548522949219 997.077941894531 997.137268066406 1001.10369873047 1008.18768310547 1001.9267578125 999.447631835938 994.361694335938 996.219787597656 997.680419921875 1002.99267578125 1006.76019287109 1001.6044921875 995.471984863281 999.907592773438 998.160949707031 1006.13732910156 1012.00695800781 1008.57537841797 1011.56384277344 1011.88385009766 1011.97485351562 1017.65856933594 1027.27172851562 1038.26049804688 1039.68823242188 1053.45080566406 1067.59631347656 1071.64245605469 1086.04675292969 1085.71215820312 1095.92895507812 1113.10656738281 1125.01916503906 1129.42333984375 1133.81042480469 1129.44384765625 1136.18664550781 1144.42541503906
958.797729492188 964.094909667969 963.724731445312 972.082702636719 971.568359375 970.642944335938 966.321838378906 955.377990722656 963.584716796875 960.5927734375 970.255676269531 968.408020019531 969.122985839844 967.210632324219 972.213317871094 971.63916015625 971.650634765625 980.185729980469 978.05126953125 967.043579101562 974.401184082031 979.534912109375 973.225402832031 965.087158203125 974.268676757812 967.86767578125 967.902099609375 976.903259277344 978.970092773438 981.34375 976.561767578125 976.239440917969 976.625061035156 978.356018066406 981.331115722656 977.774291992188 982.358520507812 977.607238769531 975.294311523438 975.139465332031 967.25244140625 978.922973632812 984.938903808594 976.554016113281 989.08203125 985.066650390625 976.402404785156 973.200012207031 976.240234375 970.513366699219 971.744995117188 974.791625976562 970.2119140625 977.692260742188 979.547973632812 974.723083496094 979.326721191406 977.696533203125 978.693359375 975.4248046875 981.973999023438 988.562255859375 986.570495605469 996.542114257812 1005.72729492188 1008.53253173828 990.09228515625 987.568725585938 970.157104492188 979.652099609375 973.7744140625 975.342651367188 974.734924316406 966.089111328125 954.094665527344 960.132263183594 968.880126953125 968.01123046875 981.62548828125 985.992004394531 990.876159667969 989.604675292969 995.001831054688 992.209777832031 996.145568847656 1001.37579345703 997.994873046875 1005.26708984375 1004.55200195312 1001.21697998047 1003.35595703125 1004.18505859375 1003.12420654297 1006.03649902344 1003.27319335938 1001.88665771484 995.794250488281 1002.02288818359 999.454833984375 988.973999023438 989.593994140625 994.042419433594 990.899291992188 1000.45306396484 1004.90496826172 995.087219238281 993.0654296875 988.760803222656 996.645202636719 988.250671386719 992.160949707031 1000.76348876953 998.346252441406 1004.72503662109 1003.38714599609 1005.90173339844 1001.38500976562 996.330444335938 999.76708984375 1003.85791015625 1004.60852050781 1003.44183349609 1004.42712402344 997.87158203125 993.838012695312 1004.15612792969 1004.72271728516 996.518310546875 1012.17266845703 1013.47180175781 1016.28930664062 1014.92315673828 1026.14331054688 1027.89953613281 1034.01928710938 1038.19494628906 1051.51599121094 1059.80639648438 1063.48986816406 1083.42932128906 1096.69128417969 1097.63928222656 1093.38537597656 1102.07592773438 1120.13134765625 1134.98278808594 1138.87585449219 1139.52331542969 1134.86376953125 1144.28979492188
958.22705078125 957.807434082031 961.757568359375 972.795104980469 972.76806640625 975.215698242188 965.715637207031 963.637268066406 962.549011230469 964.808227539062 972.812866210938 968.695495605469 973.373657226562 974.026977539062 979.091857910156 970.775634765625 975.837707519531 980.755126953125 973.081787109375 976.462036132812 975.021240234375 977.427612304688 977.265197753906 974.820983886719 978.054931640625 967.234436035156 976.642700195312 971.538696289062 976.074584960938 978.1162109375 976.390258789062 975.176513671875 972.703308105469 980.184204101562 976.511779785156 982.696350097656 975.419555664062 974.488098144531 972.326416015625 973.627258300781 972.113525390625 970.472412109375 981.368469238281 985.135131835938 980.713134765625 988.485656738281 979.729614257812 976.290161132812 961.292297363281 957.259338378906 961.428344726562 972.5009765625 973.918579101562 977.781494140625 971.566467285156 971.820373535156 979.881530761719 974.4814453125 978.824890136719 982.783569335938 975.744201660156 985.679809570312 981.360595703125 989.823486328125 995.088500976562 990.963012695312 976.575805664062 974.624572753906 970.988525390625 968.37060546875 970.025695800781 968.513061523438 968.435852050781 972.401245117188 964.17333984375 961.231140136719 966.321228027344 968.266418457031 980.959899902344 978.821105957031 988.239135742188 988.535461425781 992.297058105469 989.723571777344 994.101867675781 1004.07623291016 1001.67816162109 996.238159179688 1003.19757080078 999.089172363281 1000.68518066406 996.849060058594 996.620971679688 998.934875488281 992.881774902344 993.742919921875 997.657287597656 997.354553222656 997.680480957031 987.208312988281 987.284118652344 989.057250976562 990.458679199219 993.795593261719 998.005737304688 996.159912109375 990.212829589844 989.239868164062 1003.3525390625 991.0087890625 993.396911621094 999.050476074219 994.074035644531 1003.39025878906 1001.38000488281 1002.78979492188 991.202392578125 995.014038085938 1002.11541748047 1001.59771728516 1003.19842529297 1007.09588623047 1008.69616699219 995.19873046875 1001.32659912109 993.256103515625 997.804260253906 1002.23431396484 1018.72186279297 1014.56585693359 1014.44158935547 1017.61401367188 1024.97314453125 1036.28161621094 1038.25048828125 1042.30322265625 1052.90954589844 1060.27770996094 1074.34619140625 1079.62805175781 1096.36755371094 1099.73217773438 1114.23779296875 1109.005859375 1123.8056640625 1128.58679199219 1138.07348632812 1143.78735351562 1148.58666992188 1152.06896972656
951.483276367188 948.035095214844 955.31494140625 969.595520019531 965.473999023438 968.452880859375 967.909851074219 965.580078125 961.405944824219 961.548767089844 976.50439453125 975.457336425781 975.989013671875 974.098388671875 979.180969238281 980.894714355469 981.896789550781 990.706298828125 981.638854980469 982.696411132812 979.514221191406 982.233703613281 981.708190917969 972.344177246094 970.103820800781 966.62451171875 973.151428222656 979.167541503906 981.456787109375 981.307495117188 982.142517089844 979.236511230469 984.662536621094 981.352416992188 978.37255859375 982.742370605469 981.777404785156 986.384094238281 973.180297851562 973.610290527344 968.18310546875 969.7763671875 971.971435546875 988.165283203125 984.56494140625 983.02685546875 984.804504394531 981.264831542969 975.881225585938 962.165710449219 967.792724609375 962.78955078125 971.29541015625 973.02685546875 975.446899414062 967.465087890625 969.355346679688 973.192443847656 967.952026367188 975.834716796875 972.557312011719 978.756042480469 973.222290039062 973.195007324219 981.614562988281 973.765075683594 976.9326171875 963.156860351562 958.132690429688 952.844787597656 957.09765625 960.094604492188 962.039794921875 962.395751953125 962.003662109375 961.217346191406 959.820434570312 966.429321289062 983.761596679688 983.450744628906 988.817016601562 990.250244140625 984.024353027344 985.061340332031 987.330749511719 997.609375 991.367736816406 990.787963867188 993.342468261719 996.638366699219 987.68310546875 998.40869140625 1004.94311523438 999.780090332031 989.777893066406 990.507690429688 985.492980957031 996.240051269531 997.819458007812 987.443542480469 987.777648925781 992.227233886719 999.1875 996.420959472656 991.391845703125 984.030456542969 980.809814453125 981.358337402344 992.070739746094 988.692504882812 991.992248535156 988.943908691406 987.773864746094 996.680053710938 999.777709960938 996.222290039062 993.467895507812 990.784118652344 993.131469726562 991.816223144531 990.522216796875 996.942626953125 1000.49896240234 994.539184570312 992.816040039062 996.573913574219 1001.07342529297 1005.48608398438 1011.42761230469 1014.01690673828 1005.45465087891 1021.84490966797 1033.47924804688 1040.10852050781 1044.35876464844 1034.88928222656 1053.84973144531 1060.22082519531 1073.26440429688 1085.64709472656 1094.63903808594 1097.29858398438 1116.38098144531 1104.29541015625 1127.70031738281 1131.44421386719 1146.28259277344 1154.10534667969 1153.57019042969 1162.21203613281
951.111633300781 953.309204101562 959.600708007812 957.206298828125 956.129943847656 963.651794433594 963.694519042969 960.977233886719 968.091796875 973.718688964844 971.560485839844 969.906005859375 980.468383789062 990.322448730469 981.348999023438 983.633361816406 981.219116210938 984.838500976562 985.226806640625 999.069702148438 982.757202148438 977.861389160156 987.310668945312 983.413391113281 972.499450683594 968.110961914062 976.379028320312 978.907409667969 982.437561035156 980.532836914062 977.096374511719 982.412048339844 982.972900390625 982.885009765625 978.863647460938 991.21142578125 983.86376953125 980.602355957031 979.822692871094 971.342468261719 973.696960449219 970.857727050781 973.191101074219 973.065979003906 973.442749023438 976.312377929688 978.590026855469 980.279724121094 972.484558105469 975.913269042969 974.361755371094 969.232543945312 971.441223144531 973.083923339844 971.613098144531 972.537414550781 968.802673339844 968.639038085938 980.69140625 975.408874511719 975.187133789062 977.327941894531 968.428344726562 970.006164550781 970.665466308594 970.845397949219 969.154174804688 970.43310546875 961.438232421875 947.927062988281 959.228515625 964.076965332031 968.244262695312 971.927307128906 975.292541503906 968.520935058594 964.478698730469 970.417907714844 979.038940429688 984.558654785156 983.043273925781 981.317077636719 979.403991699219 969.68408203125 981.161315917969 983.031494140625 986.771118164062 982.476623535156 988.710510253906 996.400207519531 980.109130859375 993.09375 994.153991699219 989.280212402344 995.983215332031 999.2841796875 986.089599609375 983.022033691406 989.262390136719 986.713256835938 982.994262695312 979.898620605469 986.435668945312 983.586975097656 986.38818359375 987.499572753906 982.511962890625 980.739562988281 989.141479492188 987.091979980469 982.582153320312 990.511169433594 983.940307617188 995.839294433594 997.533447265625 1006.51086425781 998.325500488281 992.755126953125 995.95947265625 998.922180175781 999.022216796875 1004.72686767578 1000.59912109375 998.677124023438 999.054321289062 1001.98992919922 1005.63488769531 1008.27038574219 1012.71716308594 1015.67071533203 1017.15222167969 1030.02563476562 1040.01477050781 1045.93859863281 1043.63293457031 1041.92065429688 1056.36865234375 1066.98486328125 1073.99084472656 1085.47229003906 1095.91979980469 1106.21655273438 1116.41149902344 1118.99572753906 1129.23413085938 1135.74255371094 1147.68676757812 1156.99877929688 1159.98974609375 1162.93530273438
940.169982910156 952.932739257812 960.211853027344 958.201538085938 953.482238769531 961.361389160156 956.646728515625 961.413269042969 966.271606445312 975.408203125 974.13671875 972.90673828125 975.779052734375 984.331787109375 980.203002929688 989.552490234375 982.272888183594 979.697937011719 986.692443847656 990.961364746094 986.839294433594 979.381225585938 978.183715820312 987.784240722656 981.591369628906 968.279846191406 976.217956542969 980.892639160156 983.718200683594 984.241821289062 986.09033203125 983.811279296875 982.023376464844 979.247436523438 986.885559082031 984.47314453125 981.771728515625 978.273193359375 976.950256347656 975.306213378906 977.230590820312 970.758117675781 969.795288085938 970.730224609375 970.933898925781 980.22021484375 978.117614746094 977.969055175781 976.881958007812 969.817199707031 976.603637695312 978.586181640625 974.201110839844 973.474426269531 971.858947753906 968.51220703125 973.549377441406 971.643127441406 981.768981933594 985.072875976562 976.194763183594 972.263122558594 966.315856933594 968.448974609375 965.395324707031 966.621704101562 969.77197265625 965.692749023438 957.138244628906 955.710388183594 958.972412109375 964.779052734375 967.311340332031 972.803527832031 969.591979980469 966.338012695312 973.222595214844 972.222961425781 977.884704589844 983.983032226562 977.193542480469 970.464904785156 972.090026855469 971.820251464844 977.084045410156 990.214416503906 985.99560546875 990.837463378906 992.188659667969 993.6181640625 992.34423828125 985.045349121094 984.03564453125 980.178283691406 995.239807128906 995.054138183594 985.491027832031 987.208374023438 986.698791503906 984.998718261719 973.142456054688 981.235046386719 984.881225585938 980.811157226562 986.132690429688 985.379455566406 984.098815917969 985.70068359375 986.168518066406 988.029418945312 988.646118164062 986.988830566406 981.937561035156 989.02001953125 1002.32806396484 993.477111816406 1001.40478515625 1000.48193359375 989.530212402344 995.629821777344 999.273132324219 995.489379882812 997.025207519531 999.174011230469 993.793090820312 1004.87048339844 1004.076171875 1009.56866455078 1024.35205078125 1022.41400146484 1025.49682617188 1033.20434570312 1040.99047851562 1048.11608886719 1041.20947265625 1050.13684082031 1059.4873046875 1066.85107421875 1079.53735351562 1090.9912109375 1106.521484375 1103.50024414062 1124.56811523438 1126.23754882812 1142.26977539062 1149.38330078125 1151.14233398438 1150.32629394531 1156.75451660156 1169.88171386719
943.533325195312 945.31298828125 953.101440429688 954.879333496094 952.252136230469 950.603576660156 960.175415039062 969.669982910156 971.644897460938 976.468811035156 982.300598144531 980.366943359375 978.290405273438 984.134460449219 986.438110351562 984.333862304688 978.589599609375 975.625244140625 982.967468261719 979.906860351562 976.564453125 968.133056640625 974.719299316406 984.888977050781 977.739379882812 966.772277832031 980.59033203125 972.927062988281 978.770935058594 983.694152832031 985.101623535156 977.910034179688 988.440002441406 982.855834960938 983.306213378906 987.031616210938 978.522583007812 970.517822265625 973.858642578125 975.046875 973.717834472656 977.463134765625 964.843627929688 965.376220703125 970.429504394531 969.336853027344 969.542785644531 982.900024414062 976.387512207031 967.550476074219 973.892150878906 979.86865234375 977.634033203125 967.8828125 966.690734863281 970.854125976562 973.232604980469 980.858703613281 972.898803710938 978.110778808594 976.593383789062 974.958374023438 963.078918457031 969.087951660156 967.289367675781 971.423583984375 961.5546875 963.09521484375 963.128540039062 962.041320800781 972.234191894531 966.42626953125 967.924438476562 968.697021484375 965.737915039062 969.023742675781 972.598022460938 976.774719238281 968.679870605469 972.294189453125 978.902465820312 964.004333496094 967.334716796875 972.109985351562 980.263916015625 984.384582519531 987.81005859375 988.550354003906 998.491149902344 1002.26531982422 989.939758300781 978.57666015625 984.004455566406 986.712585449219 984.621032714844 987.598449707031 986.296081542969 987.728515625 980.6962890625 977.438354492188 979.575439453125 982.485717773438 982.888000488281 979.029418945312 978.609008789062 980.005065917969 985.600952148438 974.277404785156 982.210388183594 985.057922363281 980.03466796875 981.262451171875 984.354309082031 992.337036132812 998.8115234375 999.87548828125 996.733642578125 993.012634277344 996.624572753906 1000.552734375 1004.05505371094 1011.57086181641 1008.66473388672 1010.63458251953 998.178100585938 1009.49670410156 1018.98504638672 1011.29425048828 1030.5283203125 1032.03649902344 1030.64819335938 1038.96594238281 1038.90783691406 1047.27392578125 1043.60913085938 1049.75170898438 1058.13745117188 1064.48364257812 1073.03271484375 1095.42724609375 1100.39855957031 1116.36608886719 1120.29235839844 1128.7431640625 1143.87768554688 1144.62023925781 1153.67028808594 1144.78479003906 1161.00708007812 1162.77941894531
945.007751464844 940.512268066406 943.793701171875 942.482849121094 948.007995605469 949.209106445312 968.578857421875 973.932067871094 979.255920410156 973.329345703125 971.440368652344 973.538757324219 966.369506835938 976.361083984375 977.097839355469 978.362854003906 975.756774902344 973.704528808594 975.990234375 971.540954589844 978.545654296875 976.809814453125 973.379455566406 971.764221191406 966.022521972656 958.952026367188 959.320861816406 967.748718261719 968.04052734375 976.267700195312 973.262573242188 981.472473144531 984.123168945312 980.483764648438 971.657165527344 971.006652832031 970.130615234375 962.912902832031 966.962585449219 973.389465332031 970.250122070312 973.770568847656 980.570861816406 979.622741699219 968.868041992188 959.773376464844 972.523315429688 979.390075683594 975.812805175781 972.804504394531 975.46484375 986.327392578125 974.500793457031 969.199279785156 971.349792480469 957.242614746094 962.097534179688 974.006774902344 980.091674804688 974.348327636719 976.321105957031 973.939453125 967.673034667969 974.652526855469 980.724853515625 976.985900878906 970.79052734375 974.614990234375 966.914978027344 969.621765136719 977.124084472656 975.73876953125 973.540405273438 968.067932128906 961.659240722656 972.970397949219 975.451965332031 976.835144042969 972.701965332031 968.953552246094 969.369689941406 965.925231933594 969.200378417969 966.88671875 973.158569335938 983.96142578125 980.400329589844 982.135620117188 989.61328125 989.676391601562 988.512023925781 987.577087402344 979.3466796875 979.847778320312 980.823791503906 989.03759765625 984.866027832031 977.5703125 973.294616699219 984.523681640625 982.711364746094 982.310424804688 983.409301757812 979.60791015625 979.666748046875 980.633117675781 982.318054199219 987.847961425781 986.852111816406 989.661560058594 987.536926269531 987.873168945312 985.665100097656 989.337280273438 995.31689453125 1002.52514648438 1001.71673583984 1000.6748046875 1012.12725830078 1012.06567382812 1008.61828613281 1012.73468017578 1009.03521728516 1011.08947753906 1007.66461181641 1009.41070556641 1013.05810546875 1020.72357177734 1033.73071289062 1038.1572265625 1030.32873535156 1039.65954589844 1042.46276855469 1050.03674316406 1044.64782714844 1049.78405761719 1059.61218261719 1067.37451171875 1078.017578125 1089.06848144531 1100.48156738281 1110.40441894531 1122.49560546875 1129.42578125 1147.09826660156 1150.51672363281 1166.89123535156 1163.66662597656 1167.21276855469 1156.25903320312
939.367126464844 942.358032226562 937.433959960938 949.1337890625 945.588745117188 961.094421386719 974.611450195312 978.613098144531 971.643798828125 966.288635253906 958.391418457031 949.589538574219 965.103942871094 973.759338378906 974.105651855469 977.867065429688 976.290222167969 968.674072265625 982.273986816406 969.521179199219 974.503173828125 973.606140136719 976.919738769531 969.446838378906 966.088195800781 956.490417480469 952.216003417969 969.439514160156 964.891418457031 967.286804199219 971.471130371094 980.170043945312 976.469421386719 978.070922851562 969.276123046875 975.216247558594 967.338073730469 969.189208984375 965.560607910156 972.026428222656 967.588073730469 977.674560546875 976.851013183594 973.06396484375 976.580200195312 970.643249511719 975.898498535156 975.787170410156 970.344848632812 977.773071289062 968.612365722656 977.697326660156 984.909545898438 969.131774902344 959.295288085938 955.783264160156 964.080078125 970.562072753906 971.538940429688 974.650390625 974.28857421875 972.792907714844 970.402648925781 974.196166992188 978.464416503906 972.362487792969 969.708618164062 963.693115234375 965.120788574219 967.27685546875 973.76904296875 977.503173828125 968.831176757812 971.532287597656 970.843811035156 973.76025390625 970.889770507812 977.868286132812 972.636962890625 970.799560546875 971.153686523438 973.3828125 967.337524414062 969.841003417969 972.426208496094 978.58251953125 980.692199707031 971.441833496094 977.984069824219 985.846618652344 979.619018554688 978.850402832031 972.485473632812 977.632568359375 977.06103515625 979.699340820312 979.783020019531 969.404479980469 974.98046875 981.089904785156 989.396850585938 979.181213378906 967.841857910156 984.51171875 979.589294433594 983.29296875 976.669494628906 982.396179199219 991.8935546875 992.898315429688 992.398010253906 990.456420898438 995.714294433594 1002.23510742188 1004.82537841797 1004.99798583984 999.255310058594 1002.72509765625 1012.845703125 1013.72064208984 1015.07360839844 1021.14245605469 1019.85015869141 1010.86181640625 1013.15515136719 1013.94982910156 1022.5009765625 1028.68566894531 1033.7939453125 1033.48474121094 1037.00415039062 1040.12731933594 1045.07189941406 1063.71691894531 1057.73107910156 1055.54968261719 1058.091796875 1061.76818847656 1072.79541015625 1092.66247558594 1106.96423339844 1110.16430664062 1122.05981445312 1134.49365234375 1143.46520996094 1156.39868164062 1164.5869140625 1173.58422851562 1156.51086425781 1154.06176757812
943.670166015625 957.085327148438 953.832092285156 959.943176269531 957.837951660156 963.26611328125 976.792114257812 972.456604003906 977.918273925781 963.236633300781 956.514526367188 963.841613769531 964.392944335938 962.974914550781 965.362121582031 978.462646484375 976.898376464844 980.712707519531 981.641906738281 971.602722167969 973.364318847656 969.77685546875 970.751342773438 972.768310546875 972.697875976562 956.299743652344 954.583984375 960.422973632812 967.277099609375 968.902404785156 975.047302246094 975.402893066406 976.498840332031 974.289855957031 970.112060546875 972.997619628906 970.404052734375 969.138854980469 973.193481445312 974.857788085938 969.247741699219 967.375610351562 967.457885742188 974.445007324219 972.995849609375 969.86669921875 969.712219238281 970.431762695312 975.575012207031 985.516052246094 980.09814453125 977.409484863281 973.144409179688 964.251953125 968.616149902344 965.792602539062 966.480712890625 972.604431152344 970.030639648438 969.817138671875 968.339904785156 967.762390136719 972.774841308594 974.753967285156 970.024719238281 971.294067382812 975.255432128906 976.160522460938 965.088562011719 968.580078125 966.305114746094 968.234558105469 972.49951171875 960.762329101562 968.15771484375 971.831909179688 973.524169921875 975.957946777344 967.240539550781 969.19287109375 971.49658203125 971.654235839844 970.414123535156 975.0166015625 970.387084960938 974.833068847656 977.421081542969 974.163513183594 971.720520019531 979.134582519531 976.070861816406 978.112182617188 970.454711914062 976.535400390625 975.385620117188 980.638916015625 964.459045410156 976.220092773438 977.419006347656 975.069396972656 979.456726074219 978.116394042969 986.688110351562 985.780578613281 983.73828125 973.333129882812 981.92041015625 990.807189941406 994.483520507812 1001.97393798828 997.891052246094 1007.35876464844 995.71337890625 998.481079101562 1004.55895996094 1002.57879638672 1010.01483154297 1008.34094238281 1018.23785400391 1017.89721679688 1021.14581298828 1024.58557128906 1019.12902832031 1008.40063476562 1010.49468994141 1015.47344970703 1029.64770507812 1025.24243164062 1039.912109375 1038.0888671875 1039.01477050781 1039.91271972656 1044.326171875 1062.87231445312 1062.57800292969 1064.23474121094 1067.47912597656 1070.00476074219 1086.57531738281 1092.96484375 1101.3017578125 1115.78784179688 1130.43603515625 1138.4677734375 1142.52026367188 1146.00085449219 1148.642578125 1150.22253417969 1151.11499023438 1155.07604980469
955.239379882812 957.555541992188 958.539428710938 958.920776367188 962.715454101562 966.329772949219 968.260803222656 973.699584960938 977.246643066406 960.741638183594 961.97216796875 962.634948730469 961.164978027344 965.25048828125 962.576965332031 973.296752929688 976.140441894531 975.920715332031 982.320617675781 975.785766601562 973.616027832031 970.713500976562 967.81640625 967.121154785156 966.677429199219 963.932739257812 957.130920410156 963.987915039062 968.017944335938 966.223693847656 981.014099121094 976.5966796875 984.024536132812 978.268798828125 971.919128417969 974.520385742188 972.603149414062 968.0478515625 975.218994140625 966.437377929688 965.45556640625 961.33740234375 963.962219238281 967.154113769531 966.022094726562 961.18115234375 971.165466308594 972.601257324219 969.496032714844 973.502258300781 978.131591796875 979.645324707031 972.848083496094 973.328796386719 968.034484863281 970.029235839844 967.646423339844 971.677124023438 968.056884765625 981.998962402344 973.678344726562 980.924194335938 972.015014648438 967.073120117188 967.407653808594 971.294860839844 967.814392089844 972.473266601562 959.198608398438 962.698486328125 966.099487304688 963.280944824219 976.527648925781 962.993957519531 961.435363769531 967.983276367188 977.489013671875 977.383544921875 971.403137207031 963.925537109375 966.621704101562 973.227172851562 968.252075195312 977.90185546875 974.321594238281 969.798156738281 965.641052246094 975.341247558594 976.605407714844 973.42041015625 971.108764648438 977.871459960938 975.6728515625 967.199462890625 977.534729003906 976.810119628906 977.411254882812 981.209655761719 976.122192382812 976.326049804688 975.167419433594 971.074157714844 980.38623046875 985.316223144531 983.286376953125 986.326416015625 981.187316894531 1003.58038330078 1006.24548339844 1007.10467529297 1001.10894775391 1008.69641113281 1002.09075927734 1001.73327636719 1008.79052734375 1007.84161376953 1009.77111816406 1006.37609863281 1014.14953613281 1017.33557128906 1025.02062988281 1031.11840820312 1017.12524414062 1021.03491210938 1015.66448974609 1018.69934082031 1021.90283203125 1024.75061035156 1030.64318847656 1039.09252929688 1041.29248046875 1038.06762695312 1045.41796875 1062.26159667969 1074.06262207031 1071.44653320312 1072.18481445312 1084.01599121094 1092.28930664062 1100.42504882812 1106.69116210938 1117.0595703125 1128.18188476562 1128.97351074219 1151.65026855469 1153.0029296875 1145.50158691406 1142.78381347656 1144.94860839844 1144.31518554688
955.123901367188 955.264770507812 959.860229492188 963.442504882812 969.015258789062 963.248046875 961.479064941406 973.653930664062 970.529174804688 968.357482910156 967.906677246094 961.828430175781 959.741271972656 964.346435546875 973.566467285156 971.684875488281 981.242919921875 975.873107910156 983.880432128906 973.600769042969 968.144165039062 971.525390625 973.397033691406 967.629943847656 964.639587402344 958.494018554688 966.056091308594 966.679016113281 972.313903808594 973.235168457031 975.740661621094 982.497375488281 986.362976074219 986.284545898438 974.492004394531 974.573486328125 976.991577148438 965.606872558594 968.570739746094 961.63134765625 959.113342285156 970.00732421875 963.601867675781 962.273986816406 955.254943847656 955.887573242188 961.699096679688 968.336303710938 968.858520507812 972.422668457031 975.187683105469 973.629272460938 969.363220214844 969.601623535156 967.681823730469 967.167541503906 972.988952636719 969.8662109375 968.167724609375 976.544982910156 970.922241210938 979.70556640625 978.625793457031 970.867309570312 969.90380859375 967.898803710938 972.284057617188 970.355712890625 965.129943847656 960.396484375 959.657287597656 962.901306152344 976.611694335938 966.258239746094 971.5224609375 971.256713867188 974.199645996094 964.650085449219 964.696166992188 972.334289550781 970.524719238281 965.868591308594 968.443908691406 973.245300292969 976.689086914062 969.421325683594 967.457641601562 969.90625 975.966247558594 973.017822265625 979.618225097656 972.175720214844 968.990112304688 973.110473632812 970.918151855469 978.11181640625 978.613525390625 980.875915527344 984.37109375 972.404235839844 977.117370605469 976.283630371094 982.023742675781 989.304748535156 989.794799804688 991.434143066406 988.078308105469 996.244384765625 999.137451171875 1005.43658447266 997.238403320312 1011.45544433594 1008.47033691406 997.175842285156 1002.27160644531 1003.46820068359 1000.91186523438 1015.94598388672 1020.89819335938 1015.99505615234 1032.1064453125 1031.79223632812 1024.17333984375 1025.65966796875 1024.07287597656 1028.00354003906 1024.58508300781 1023.03918457031 1044.60620117188 1040.5556640625 1034.56909179688 1039.81823730469 1055.20568847656 1068.095703125 1073.63586425781 1077.28161621094 1076.48132324219 1094.16015625 1090.58544921875 1098.15100097656 1106.96960449219 1114.48718261719 1123.94787597656 1131.58740234375 1139.72265625 1138.1083984375 1138.41418457031 1135.29052734375 1130.98059082031 1139.06140136719
955.06201171875 953.530029296875 960.161743164062 970.803771972656 961.710815429688 965.612731933594 959.994201660156 974.818176269531 976.240173339844 966.121704101562 969.846862792969 968.3232421875 962.563232421875 964.364990234375 968.712585449219 979.468994140625 989.500915527344 975.798095703125 971.049987792969 969.872924804688 966.568908691406 974.329040527344 969.368591308594 976.369567871094 961.756103515625 959.412719726562 960.338989257812 967.150634765625 968.984497070312 975.548889160156 973.490356445312 977.916137695312 981.530700683594 974.899291992188 975.154602050781 976.516784667969 972.528564453125 970.808532714844 963.417175292969 962.451721191406 964.064331054688 967.427673339844 960.454772949219 964.311096191406 963.224670410156 953.965393066406 960.180786132812 961.167114257812 967.699584960938 972.43798828125 977.330749511719 967.648742675781 971.178588867188 975.355224609375 958.724670410156 954.921752929688 964.7294921875 965.354614257812 966.505615234375 963.4794921875 960.972229003906 961.467041015625 965.822814941406 973.989807128906 963.751098632812 969.963195800781 969.182739257812 965.719299316406 967.757080078125 964.041198730469 966.438842773438 967.940185546875 977.640930175781 969.376098632812 966.733642578125 971.553405761719 971.820678710938 966.152954101562 960.498046875 959.123352050781 972.461853027344 967.843383789062 968.660217285156 970.809875488281 967.474426269531 967.430053710938 964.444519042969 967.440185546875 975.700134277344 970.21826171875 968.889282226562 965.851623535156 970.127746582031 978.790222167969 977.596557617188 969.08203125 973.997314453125 975.526550292969 985.646850585938 988.929931640625 982.723571777344 973.902954101562 977.864501953125 977.678833007812 983.065307617188 988.735412597656 986.929504394531 996.158874511719 992.709777832031 1003.90020751953 994.864868164062 990.474426269531 1006.13269042969 1000.78991699219 998.733032226562 996.344116210938 995.93017578125 1003.03344726562 1020.53790283203 1019.4833984375 1027.49230957031 1033.40100097656 1033.54516601562 1025.32995605469 1027.97448730469 1024.20642089844 1030.2666015625 1034.52319335938 1032.35485839844 1032.33288574219 1040.66223144531 1033.82312011719 1055.06872558594 1071.94030761719 1081.47863769531 1081.10046386719 1089.86877441406 1098.56640625 1094.42419433594 1100.19152832031 1105.14343261719 1114.68798828125 1114.47595214844 1117.35534667969 1123.24560546875 1128.62414550781 1123.05078125 1116.15356445312 1120.40783691406 1119.02478027344
955.08251953125 963.0009765625 962.884155273438 967.922241210938 969.231018066406 959.322143554688 961.889282226562 964.424133300781 972.983215332031 969.259155273438 982.806823730469 973.561828613281 967.982849121094 965.441223144531 964.955017089844 969.470397949219 980.714904785156 976.890075683594 983.908203125 973.032348632812 966.44287109375 974.536499023438 972.382446289062 968.200927734375 968.742553710938 963.230651855469 958.315185546875 958.852355957031 964.556701660156 969.013916015625 970.056274414062 975.633728027344 976.377746582031 974.335327148438 976.136108398438 968.981994628906 980.279663085938 970.615356445312 965.88037109375 961.677124023438 966.480041503906 963.386779785156 963.207397460938 965.860046386719 965.4873046875 959.789611816406 957.568359375 964.719848632812 964.628173828125 960.601196289062 961.776489257812 963.560729980469 971.1328125 969.588928222656 959.190734863281 954.735778808594 956.257446289062 964.157348632812 958.436157226562 959.08203125 968.809204101562 960.155700683594 960.268371582031 965.765991210938 958.170043945312 960.770080566406 964.824890136719 964.531127929688 966.452758789062 963.764282226562 962.567138671875 966.541076660156 973.485656738281 971.256591796875 970.254150390625 971.104125976562 970.630737304688 963.687194824219 968.287963867188 966.774047851562 963.150451660156 973.828918457031 975.928894042969 970.824035644531 975.876586914062 968.747863769531 968.990356445312 978.623229980469 974.733459472656 972.495727539062 964.196594238281 963.602233886719 972.438232421875 975.841796875 971.046142578125 965.321228027344 966.419921875 974.870056152344 981.884460449219 988.197326660156 978.113342285156 970.052856445312 974.35693359375 974.334106445312 975.924560546875 986.65234375 984.701416015625 984.456237792969 994.517761230469 1008.02868652344 1000.09375 997.292724609375 992.680603027344 995.582336425781 999.091796875 998.668212890625 998.04833984375 1010.33013916016 1019.02075195312 1023.96282958984 1023.49548339844 1022.4560546875 1027.51831054688 1022.7119140625 1024.60473632812 1022.65374755859 1032.60729980469 1042.72692871094 1042.64282226562 1040.89868164062 1043.2666015625 1044.81652832031 1049.6435546875 1065.94311523438 1077.57055664062 1083.92895507812 1094.04431152344 1099.22790527344 1094.76257324219 1094.650390625 1104.64819335938 1104.55590820312 1107.9697265625 1099.82666015625 1112.37927246094 1115.67199707031 1112.72692871094 1102.74230957031 1103.0791015625 1108.4794921875
961.008361816406 961.680480957031 964.259155273438 965.359741210938 963.560546875 960.217834472656 965.440307617188 961.81201171875 970.518127441406 965.072021484375 979.236572265625 980.438232421875 972.610595703125 973.147888183594 976.740356445312 984.673889160156 978.450073242188 966.296142578125 975.205444335938 973.104858398438 964.474853515625 972.085266113281 965.056274414062 962.996643066406 966.218444824219 960.989685058594 960.67138671875 961.319030761719 965.583862304688 970.807495117188 969.006896972656 964.010803222656 965.862915039062 956.949829101562 960.158142089844 959.5126953125 964.516845703125 973.980102539062 963.956970214844 958.133666992188 958.072814941406 968.207275390625 966.145385742188 970.026733398438 972.143432617188 961.811828613281 967.261779785156 962.296020507812 954.630126953125 957.142456054688 961.246276855469 957.960021972656 962.966796875 966.650207519531 963.991333007812 953.720886230469 959.072265625 964.427612304688 969.928405761719 964.595642089844 959.939636230469 961.046997070312 951.8271484375 961.3583984375 959.408203125 960.423522949219 955.902404785156 972.380065917969 971.645751953125 962.351928710938 959.650390625 976.786926269531 972.381530761719 959.74365234375 971.742980957031 967.637268066406 964.488159179688 960.716430664062 962.486938476562 966.939331054688 968.579467773438 976.090270996094 987.206115722656 981.010681152344 973.439147949219 976.0517578125 976.228637695312 974.447814941406 968.174621582031 970.43603515625 960.970092773438 964.477416992188 972.382446289062 974.943725585938 975.447570800781 966.712951660156 971.601928710938 969.01123046875 981.183837890625 986.039123535156 981.621032714844 969.453491210938 964.64697265625 961.265380859375 974.17626953125 986.087768554688 986.665100097656 977.687316894531 997.427062988281 1003.87329101562 999.7783203125 995.16796875 995.150207519531 992.973937988281 1006.29809570312 1004.91583251953 1006.89166259766 1011.224609375 1013.34503173828 1018.99212646484 1025.48400878906 1027.73132324219 1029.486328125 1033.2138671875 1033.33569335938 1033.36682128906 1038.00146484375 1041.22912597656 1031.640625 1040.10034179688 1036.93823242188 1047.01611328125 1061.95007324219 1071.03051757812 1084.19970703125 1088.82983398438 1092.86962890625 1096.8037109375 1087.06396484375 1084.97509765625 1089.81677246094 1099.81799316406 1095.84643554688 1096.01550292969 1102.24743652344 1102.74926757812 1104.01245117188 1092.24047851562 1084.70886230469 1088.09777832031
970.161315917969 964.439270019531 966.858703613281 971.846557617188 971.043884277344 963.417724609375 972.138854980469 967.146545410156 974.044189453125 983.81982421875 980.835815429688 973.444030761719 980.528259277344 970.554931640625 977.840209960938 983.450500488281 976.416931152344 971.614196777344 974.583312988281 971.398254394531 965.694763183594 976.422546386719 962.60107421875 960.153869628906 965.587219238281 960.23583984375 957.560241699219 960.29443359375 968.606811523438 969.306579589844 971.718505859375 970.819274902344 963.683715820312 958.7685546875 965.167236328125 963.913024902344 960.409118652344 964.947387695312 961.7421875 963.1669921875 960.373168945312 969.416259765625 969.750610351562 976.382568359375 974.005126953125 968.091369628906 962.410583496094 972.918884277344 952.378845214844 950.098815917969 951.078491210938 951.344604492188 950.816345214844 955.242431640625 950.137512207031 964.548706054688 967.081481933594 958.908874511719 967.082702636719 962.436767578125 957.499694824219 950.473205566406 959.380920410156 953.796752929688 961.427795410156 958.496643066406 966.137939453125 966.827331542969 969.858154296875 964.983947753906 966.979858398438 964.963195800781 967.548645019531 961.578674316406 974.102172851562 963.287292480469 959.647033691406 958.478820800781 966.707946777344 966.533386230469 964.998596191406 976.906066894531 983.128723144531 974.878234863281 974.186706542969 976.693420410156 974.12451171875 969.928466796875 964.513549804688 966.163208007812 963.178771972656 972.79931640625 977.567260742188 971.822021484375 978.620422363281 972.678039550781 974.86962890625 975.948608398438 970.559020996094 976.079711914062 972.001037597656 968.322143554688 966.259887695312 967.996398925781 973.696655273438 984.057495117188 981.241394042969 976.221008300781 989.078369140625 999.2890625 996.242431640625 987.217102050781 986.806823730469 990.728454589844 998.780822753906 1003.3935546875 1003.40704345703 1007.47192382812 1013.49041748047 1007.51568603516 1018.73901367188 1021.76196289062 1030.09106445312 1025.78552246094 1031.75427246094 1034.15869140625 1032.56274414062 1042.35974121094 1046.9501953125 1039.56591796875 1037.58740234375 1048.64855957031 1067.75463867188 1085.28833007812 1090.47277832031 1092.65222167969 1100.52416992188 1096.84448242188 1091.73364257812 1075.1455078125 1082.58227539062 1086.06359863281 1090.11755371094 1095.59521484375 1089.74584960938 1090.16528320312 1088.63610839844 1085.24304199219 1080.71264648438 1080.4580078125
964.742858886719 965.417541503906 970.958801269531 966.379272460938 970.054748535156 975.655090332031 968.831237792969 977.959838867188 971.019348144531 985.428405761719 985.370544433594 980.763977050781 978.234619140625 969.94970703125 979.724182128906 968.971496582031 975.220825195312 970.471069335938 964.31689453125 958.912780761719 970.912475585938 970.12158203125 962.713195800781 956.905212402344 964.2666015625 959.315307617188 955.949096679688 959.036193847656 965.201599121094 964.621154785156 964.436340332031 959.327514648438 964.98291015625 958.160461425781 961.222045898438 966.399353027344 965.538513183594 959.468383789062 957.702514648438 958.424194335938 961.066650390625 969.142883300781 970.220336914062 975.833435058594 971.785278320312 973.067321777344 963.877868652344 968.504089355469 954.081115722656 957.779846191406 947.139221191406 950.358581542969 954.596557617188 947.929992675781 948.947814941406 961.341003417969 964.228698730469 965.809509277344 956.235961914062 962.449951171875 954.514953613281 965.948547363281 965.02734375 959.098266601562 956.971374511719 967.53857421875 960.085510253906 959.868835449219 962.871032714844 971.120422363281 965.506469726562 960.117919921875 964.963073730469 968.41845703125 964.898132324219 962.64208984375 964.593688964844 959.666320800781 962.301208496094 959.35400390625 966.882995605469 967.610595703125 979.383666992188 978.1318359375 969.759338378906 972.967041015625 964.666564941406 963.972045898438 967.693054199219 968.264221191406 968.375366210938 970.015930175781 982.513488769531 976.264587402344 981.384399414062 974.035217285156 969.618347167969 977.084167480469 973.356689453125 973.47607421875 972.590942382812 964.946716308594 972.247192382812 973.453247070312 971.043884277344 976.642272949219 981.175109863281 977.279052734375 975.055847167969 986.240478515625 985.671142578125 978.496154785156 981.761596679688 986.817321777344 996.462951660156 1004.12182617188 1004.18292236328 1008.2802734375 1000.11456298828 1006.56237792969 1005.34771728516 1012.43408203125 1018.19775390625 1012.091796875 1023.0849609375 1027.16235351562 1037.14038085938 1040.98779296875 1037.27014160156 1039.89721679688 1042.37976074219 1053.71875 1072.44836425781 1082.86218261719 1095.42810058594 1088.04895019531 1090.93994140625 1090.96899414062 1086.9892578125 1071.38452148438 1065.08801269531 1083.02294921875 1080.78857421875 1081.44458007812 1080.67602539062 1077.73779296875 1074.08117675781 1074.01550292969 1071.61364746094 1077.02514648438
960.2109375 966.132873535156 977.586853027344 976.841552734375 977.811340332031 978.798828125 976.058532714844 973.956604003906 979.957092285156 981.578247070312 978.84912109375 975.611694335938 979.193664550781 984.035583496094 981.013366699219 979.836303710938 973.518798828125 967.148681640625 966.527648925781 958.147033691406 961.171203613281 964.651123046875 963.308532714844 963.087463378906 959.324584960938 960.565673828125 960.692810058594 960.740356445312 961.958618164062 961.565185546875 967.331787109375 961.60791015625 958.126708984375 959.518432617188 964.176391601562 963.591552734375 963.41259765625 961.629272460938 958.764221191406 964.578491210938 960.621520996094 960.571533203125 964.376892089844 964.747192382812 955.488220214844 965.849365234375 960.417907714844 962.788635253906 957.457885742188 956.404235839844 951.071472167969 950.227172851562 960.054504394531 953.24169921875 965.107849121094 965.635803222656 968.089294433594 963.950317382812 960.150146484375 959.442749023438 957.422485351562 960.095153808594 964.419311523438 955.193664550781 955.765502929688 946.989624023438 952.8994140625 959.276794433594 957.433898925781 964.596313476562 961.7783203125 960.212951660156 962.036682128906 964.049377441406 960.818298339844 957.532104492188 957.053283691406 963.574462890625 960.01513671875 954.472595214844 953.880126953125 966.341857910156 983.140075683594 976.012634277344 973.267272949219 961.624206542969 970.358032226562 967.29345703125 961.317504882812 961.886962890625 972.530456542969 977.8251953125 974.693664550781 969.251037597656 975.202514648438 970.480895996094 963.993835449219 969.750732421875 965.403259277344 969.501708984375 975.083129882812 970.713989257812 968.543640136719 967.031311035156 975.555541992188 979.198486328125 980.765563964844 990.343078613281 966.320068359375 980.42822265625 982.233947753906 983.337890625 984.098815917969 985.329956054688 993.608703613281 1001.14923095703 1000.26159667969 996.344543457031 1005.11767578125 1005.29162597656 1002.86041259766 1002.57922363281 1009.92510986328 1016.16589355469 1017.20629882812 1016.31243896484 1019.95715332031 1023.70025634766 1030.96765136719 1042.32373046875 1039.03308105469 1056.80151367188 1071.63305664062 1087.38134765625 1075.84436035156 1080.01696777344 1090.33776855469 1088.04174804688 1084.89819335938 1074.5361328125 1069.75671386719 1076.14025878906 1077.81079101562 1081.43603515625 1073.904296875 1076.158203125 1069.94836425781 1074.23681640625 1075.56359863281 1090.57922363281
960.122985839844 972.498107910156 974.940673828125 974.688781738281 977.217102050781 979.389892578125 973.458740234375 979.827575683594 976.998168945312 975.598022460938 969.144592285156 972.486877441406 985.728332519531 976.7490234375 974.050537109375 975.877075195312 978.166137695312 974.984191894531 956.835266113281 951.312316894531 955.402770996094 953.8388671875 962.255981445312 959.8330078125 960.982666015625 965.2099609375 960.797973632812 959.792541503906 963.2880859375 958.376770019531 962.80029296875 962.852233886719 963.615539550781 967.361755371094 965.415771484375 962.878234863281 954.575134277344 957.19580078125 962.191528320312 950.469299316406 953.479675292969 958.783325195312 954.426452636719 962.062683105469 959.814208984375 966.976318359375 968.642639160156 955.60400390625 951.947143554688 952.628540039062 950.614562988281 954.169616699219 957.8701171875 959.326354980469 967.18994140625 961.207946777344 959.492919921875 962.090942382812 959.629577636719 953.381713867188 962.171020507812 957.4892578125 970.764404296875 958.562255859375 958.336059570312 953.994079589844 949.5224609375 947.370727539062 956.972900390625 959.717712402344 959.615844726562 962.261413574219 966.441589355469 969.091613769531 951.697326660156 953.348937988281 959.423583984375 955.677917480469 955.434631347656 959.471801757812 958.404296875 962.454040527344 971.891906738281 968.942749023438 959.818298339844 965.396850585938 956.275390625 960.298583984375 962.948852539062 966.351623535156 970.266784667969 971.895751953125 970.793701171875 969.880126953125 969.468017578125 968.100830078125 970.759460449219 969.513122558594 968.933898925781 974.146240234375 974.0771484375 970.038024902344 972.592407226562 970.765258789062 982.14892578125 981.979370117188 978.339965820312 987.329284667969 988.832946777344 988.053955078125 996.484313964844 990.086364746094 1000.74780273438 987.265563964844 985.924255371094 985.289978027344 993.13720703125 994.791259765625 995.888244628906 993.811767578125 994.734802246094 999.665649414062 1001.13616943359 1002.17889404297 1005.61614990234 1006.46087646484 1015.41137695312 1013.30004882812 1022.06719970703 1029.19567871094 1047.93933105469 1061.66955566406 1065.01306152344 1074.67614746094 1071.01623535156 1084.56774902344 1094.41796875 1091.64270019531 1080.86010742188 1079.52331542969 1071.98608398438 1071.75354003906 1069.29748535156 1068.25915527344 1069.99731445312 1067.20812988281 1063.97412109375 1070.54382324219 1067.79028320312 1079.56701660156
955.058837890625 962.893676757812 976.110412597656 966.692504882812 971.367309570312 974.06298828125 979.252197265625 977.080322265625 972.262939453125 966.774658203125 962.198913574219 972.850402832031 983.415405273438 976.424865722656 965.364807128906 974.822387695312 968.427551269531 968.433776855469 963.326416015625 957.139953613281 949.600769042969 951.663024902344 959.544372558594 961.690124511719 957.894470214844 952.302307128906 952.069885253906 951.447387695312 956.291931152344 958.363647460938 959.070556640625 957.557495117188 959.099914550781 950.693725585938 961.524841308594 952.112976074219 954.573120117188 954.895629882812 958.784729003906 948.947021484375 956.057861328125 964.982666015625 959.48681640625 955.730895996094 960.007751464844 961.280090332031 952.876342773438 954.411926269531 945.558044433594 947.970947265625 943.925476074219 949.986999511719 957.110473632812 964.153137207031 962.028381347656 966.350280761719 964.248229980469 967.174133300781 956.335388183594 956.359436035156 957.494384765625 960.106323242188 956.387268066406 955.449401855469 958.851440429688 953.626525878906 953.974792480469 954.43408203125 960.298645019531 960.317810058594 960.976318359375 967.440795898438 971.071228027344 962.93212890625 956.6240234375 960.828002929688 961.486938476562 955.339965820312 947.832275390625 950.595275878906 964.767028808594 967.179992675781 970.769836425781 975.875427246094 966.565307617188 962.956665039062 955.263488769531 957.384765625 963.655212402344 965.899658203125 962.370910644531 969.494201660156 975.27001953125 978.790466308594 972.786804199219 975.642150878906 976.587097167969 972.5888671875 978.631103515625 982.939575195312 986.747741699219 985.45654296875 976.719970703125 975.950561523438 978.688598632812 982.856079101562 977.849304199219 985.084899902344 984.561401367188 986.668395996094 989.26220703125 999.413940429688 995.072448730469 983.869812011719 989.523620605469 986.144775390625 987.81640625 992.561401367188 996.942199707031 995.604736328125 988.905334472656 996.727966308594 1009.74322509766 1008.22039794922 1008.68609619141 1014.337890625 1018.94378662109 1024.45947265625 1026.57495117188 1039.41918945312 1050.41955566406 1058.6572265625 1070.75817871094 1071.12731933594 1071.87561035156 1082.2255859375 1090.30786132812 1088.34069824219 1085.64599609375 1077.81298828125 1081.41235351562 1070.60180664062 1065.93103027344 1063.55456542969 1062.89819335938 1055.80432128906 1064.00109863281 1059.86364746094 1069.17956542969 1070.19653320312
958.6376953125 964.681213378906 962.760498046875 966.334777832031 971.579895019531 973.308532714844 972.407287597656 962.648193359375 957.839111328125 960.767944335938 960.28857421875 965.075256347656 977.671875 969.839965820312 967.71728515625 973.493286132812 965.4912109375 971.607177734375 970.361938476562 967.285766601562 955.364562988281 946.804138183594 960.594116210938 952.814880371094 952.327941894531 955.1298828125 953.732238769531 949.485961914062 960.876220703125 961.273559570312 958.940124511719 955.175048828125 958.636779785156 959.663940429688 962.531005859375 959.428771972656 952.434020996094 953.909118652344 950.477233886719 949.798522949219 947.443176269531 956.828247070312 957.891174316406 948.309692382812 953.382873535156 954.439208984375 956.554321289062 952.794738769531 948.446716308594 949.623168945312 947.218139648438 961.540100097656 959.034301757812 956.619567871094 960.863342285156 957.853332519531 956.639282226562 955.465942382812 952.947509765625 955.733520507812 954.609985351562 962.056518554688 953.439514160156 957.607543945312 954.409973144531 947.015686035156 952.834045410156 964.264282226562 967.784851074219 956.998229980469 958.072998046875 959.760620117188 967.068786621094 957.852172851562 961.808715820312 964.430358886719 962.28466796875 956.221069335938 946.357666015625 953.528503417969 967.275451660156 971.427734375 975.544677734375 973.696533203125 967.904113769531 970.125244140625 967.917724609375 975.499633789062 977.724792480469 970.656921386719 971.097534179688 968.946472167969 970.512390136719 977.949035644531 981.000183105469 975.014465332031 975.675048828125 974.338195800781 986.244140625 982.009643554688 985.916015625 979.591125488281 977.125122070312 981.856811523438 975.514038085938 982.971130371094 983.874328613281 986.162658691406 987.008422851562 994.908935546875 1000.01123046875 988.510986328125 985.482666015625 984.008239746094 978.635131835938 986.6796875 990.178466796875 987.183044433594 995.853759765625 994.782775878906 994.3291015625 1005.72485351562 1009.35107421875 1011.58453369141 1010.25610351562 1018.45495605469 1023.49591064453 1026.7197265625 1039.00183105469 1050.12963867188 1053.423828125 1061.4951171875 1068.26025390625 1077.5751953125 1071.05529785156 1074.76672363281 1090.71057128906 1081.20556640625 1076.08483886719 1078.75512695312 1068.61865234375 1059.02783203125 1055.10754394531 1052.80859375 1053.33862304688 1058.79675292969 1053.33422851562 1049.73571777344 1047.45275878906 1058.28930664062
963.249755859375 964.269348144531 963.061218261719 966.159240722656 973.4697265625 964.923217773438 966.560729980469 955.988037109375 957.975769042969 954.389343261719 961.787963867188 962.231262207031 967.115478515625 961.180541992188 964.282775878906 973.472106933594 971.586791992188 964.223999023438 957.019226074219 958.667724609375 950.179992675781 948.599304199219 946.989990234375 952.832153320312 956.834228515625 956.140014648438 959.014465332031 958.153503417969 961.269470214844 954.044860839844 956.637023925781 959.337646484375 958.418029785156 962.207641601562 955.67919921875 952.917236328125 948.791870117188 947.724243164062 949.382629394531 949.794616699219 948.857604980469 950.119445800781 948.441467285156 953.450927734375 955.844116210938 966.757507324219 957.8662109375 952.336303710938 956.202392578125 950.759948730469 941.557983398438 961.647827148438 959.903991699219 946.317687988281 958.766723632812 960.854919433594 959.243713378906 947.392883300781 947.453369140625 954.135864257812 953.75146484375 952.299743652344 953.937866210938 962.832946777344 954.410705566406 957.845764160156 961.447875976562 966.879821777344 965.670837402344 963.693054199219 960.024719238281 958.677368164062 960.439819335938 957.990661621094 962.762756347656 959.660949707031 967.804809570312 964.926330566406 955.572937011719 971.225402832031 973.886169433594 969.885009765625 968.987915039062 972.266418457031 971.520812988281 972.565124511719 969.052185058594 971.882751464844 976.01025390625 976.702819824219 973.940856933594 968.767944335938 972.666015625 977.906127929688 975.534240722656 977.624328613281 977.471130371094 970.758483886719 976.697814941406 982.508728027344 988.125305175781 979.892578125 978.331176757812 979.744323730469 980.49853515625 974.107604980469 986.069519042969 982.73828125 983.514831542969 994.25048828125 996.7021484375 995.920837402344 988.763732910156 982.973693847656 980.056457519531 988.600219726562 992.309020996094 979.771118164062 989.114501953125 991.096008300781 994.608032226562 1000.98034667969 1010.97210693359 1012.30548095703 1018.52105712891 1026.06359863281 1022.24847412109 1031.94812011719 1042.62243652344 1046.29138183594 1048.19372558594 1052.37084960938 1067.72802734375 1069.43762207031 1069.51672363281 1071.53149414062 1072.1416015625 1079.734375 1067.53173828125 1070.25427246094 1064.70361328125 1047.84057617188 1050.39404296875 1051.36730957031 1057.53979492188 1050.96557617188 1052.72216796875 1048.56665039062 1049.11975097656 1049.40380859375
972.805053710938 970.72607421875 958.616394042969 963.791687011719 970.030883789062 962.243713378906 966.6572265625 961.207458496094 963.252685546875 961.821533203125 960.652282714844 966.409545898438 964.405700683594 957.561096191406 954.71728515625 967.825866699219 961.606689453125 946.773742675781 947.876220703125 948.955383300781 946.313659667969 946.390686035156 951.509155273438 948.40380859375 954.1513671875 953.288452148438 952.350708007812 950.668579101562 952.862243652344 962.444030761719 955.274963378906 970.372192382812 960.701171875 956.69873046875 951.168212890625 960.378845214844 957.577270507812 952.626831054688 949.19921875 952.971801757812 946.309448242188 945.242309570312 948.239318847656 956.130554199219 961.413818359375 960.664245605469 955.163635253906 949.672302246094 950.676025390625 949.936279296875 948.843688964844 956.200805664062 952.85595703125 952.993469238281 963.965698242188 956.833740234375 953.634948730469 957.323120117188 960.133422851562 965.543212890625 956.04638671875 956.033569335938 946.645202636719 956.49462890625 954.838806152344 954.554382324219 963.374328613281 961.529663085938 959.908020019531 965.079833984375 964.176025390625 962.361572265625 961.699462890625 966.4169921875 967.480834960938 964.163696289062 963.250854492188 972.857177734375 968.005310058594 972.604736328125 974.929382324219 963.753234863281 970.93359375 962.414123535156 971.990478515625 973.851989746094 973.961181640625 962.668395996094 963.751770019531 976.467224121094 968.973937988281 973.010559082031 978.111877441406 976.749328613281 970.017211914062 981.795776367188 968.9150390625 964.624572753906 971.954284667969 990.786010742188 989.885559082031 981.424621582031 986.410827636719 981.241760253906 980.776977539062 976.093444824219 982.885559082031 982.816711425781 987.089782714844 987.994934082031 996.310668945312 995.233093261719 993.765380859375 991.791625976562 986.786254882812 992.425415039062 989.511840820312 984.8212890625 990.699401855469 996.895690917969 996.275085449219 999.269958496094 1011.15112304688 1019.14239501953 1018.89221191406 1023.21173095703 1021.04626464844 1030.31237792969 1041.63439941406 1044.59375 1048.44299316406 1047.41467285156 1060.04187011719 1057.81677246094 1064.13830566406 1068.09167480469 1061.33715820312 1055.44921875 1052.20385742188 1046.19311523438 1048.5791015625 1045.27758789062 1045.45764160156 1038.57739257812 1038.31433105469 1045.69067382812 1044.482421875 1053.34765625 1045.45751953125 1050.76477050781
961.992309570312 963.417541503906 954.346801757812 962.047180175781 961.406005859375 961.029174804688 963.57470703125 965.936645507812 961.877502441406 961.235290527344 968.113708496094 962.380676269531 961.898071289062 952.865356445312 951.052795410156 964.030029296875 954.144226074219 943.66455078125 944.785217285156 941.958068847656 946.860412597656 945.608154296875 945.373046875 941.221252441406 946.338073730469 953.05517578125 947.865783691406 946.339050292969 952.659973144531 957.169494628906 949.629577636719 957.330688476562 961.105163574219 953.584594726562 958.080688476562 957.52685546875 954.68701171875 947.026977539062 950.305114746094 941.916748046875 947.748474121094 939.888122558594 954.818969726562 958.184204101562 953.994995117188 960.782531738281 949.818237304688 957.069763183594 956.384521484375 951.105834960938 949.106506347656 955.250549316406 960.855407714844 958.314453125 964.934631347656 957.170959472656 953.969299316406 961.805847167969 965.038452148438 961.136291503906 962.765563964844 960.181823730469 947.046081542969 953.964050292969 954.870056152344 959.092529296875 961.446716308594 967.637573242188 963.096740722656 965.475158691406 963.91162109375 966.484558105469 969.153564453125 961.485595703125 968.810729980469 969.213134765625 966.226440429688 969.319396972656 974.411315917969 978.709350585938 968.965576171875 967.698181152344 964.815673828125 968.011169433594 971.47705078125 974.880676269531 972.119873046875 963.575073242188 956.397094726562 969.533447265625 974.455017089844 969.190490722656 976.038635253906 966.607360839844 969.764770507812 970.71923828125 972.113098144531 970.9306640625 974.465515136719 989.46484375 989.082275390625 983.709533691406 984.432556152344 982.241394042969 983.135498046875 986.877868652344 984.393676757812 987.546508789062 985.677673339844 996.209533691406 1002.76440429688 1002.24456787109 1005.53070068359 998.60693359375 992.314819335938 996.441650390625 999.596252441406 997.291625976562 996.428833007812 999.338195800781 998.684448242188 1010.60327148438 1013.94470214844 1009.39794921875 1013.38092041016 1020.71954345703 1023.77160644531 1035.35302734375 1032.07849121094 1040.82287597656 1043.70568847656 1040.15026855469 1049.15002441406 1059.0146484375 1058.66442871094 1061.76525878906 1049.83044433594 1036.17163085938 1038.15417480469 1042.20324707031 1041.38549804688 1038.72497558594 1028.98645019531 1023.7109375 1030.36608886719 1030.56323242188 1038.37097167969 1050.78503417969 1046.10546875 1045.55200195312
961.708923339844 957.848571777344 961.484375 967.604187011719 964.3076171875 964.082641601562 972.360412597656 967.166198730469 956.556945800781 961.818237304688 968.0302734375 963.003234863281 962.031677246094 951.456115722656 951.224792480469 958.019104003906 951.721008300781 944.812683105469 947.386779785156 946.642211914062 947.364135742188 949.583984375 954.230102539062 944.57080078125 950.018737792969 955.012329101562 950.881713867188 946.8369140625 949.107360839844 952.379272460938 951.684875488281 954.578735351562 954.668334960938 953.548522949219 953.923217773438 949.916076660156 952.12841796875 946.7138671875 950.078063964844 952.608703613281 946.235168457031 954.501220703125 954.5810546875 959.740783691406 956.759643554688 962.561401367188 957.078979492188 958.25341796875 954.765991210938 960.521545410156 956.065307617188 956.984252929688 963.101196289062 958.146118164062 969.959045410156 962.413269042969 956.239685058594 968.467834472656 971.948608398438 962.758728027344 960.63330078125 957.283142089844 961.85791015625 950.854614257812 948.042785644531 948.261657714844 952.484558105469 964.837707519531 955.617736816406 959.032775878906 966.508239746094 969.737121582031 964.997985839844 974.1796875 969.353820800781 967.268981933594 963.860900878906 970.492431640625 969.723205566406 965.969787597656 966.424011230469 977.482482910156 976.304382324219 964.326782226562 967.026550292969 970.122802734375 970.574951171875 967.17626953125 968.256103515625 975.9677734375 971.670532226562 970.972900390625 968.175842285156 966.507629394531 962.311767578125 968.475341796875 971.172485351562 971.488342285156 985.526428222656 984.155578613281 981.411560058594 986.135803222656 983.562683105469 975.919616699219 981.580322265625 984.203796386719 974.325805664062 981.164489746094 992.557495117188 994.127197265625 1004.63397216797 992.856994628906 1000.79217529297 1010.69854736328 1009.07690429688 1004.72094726562 1013.31390380859 1006.39794921875 1007.63592529297 1005.74389648438 1011.20690917969 1011.67614746094 1016.31591796875 1014.85870361328 1018.3466796875 1017.62127685547 1027.21911621094 1030.35510253906 1035.51062011719 1037.17529296875 1032.44458007812 1044.0419921875 1047.43835449219 1046.25354003906 1052.48510742188 1054.61206054688 1038.69873046875 1036.92016601562 1037.05456542969 1035.26843261719 1030.17663574219 1023.91271972656 1020.96447753906 1021.53936767578 1016.75158691406 1026.31176757812 1032.38171386719 1042.32202148438 1032.31140136719 1037.57702636719
960.003540039062 954.831604003906 957.105041503906 964.844299316406 963.643127441406 962.34375 969.612976074219 963.510803222656 962.751159667969 968.706787109375 956.321044921875 952.421630859375 955.650573730469 964.854553222656 960.849060058594 954.010009765625 949.425231933594 943.083190917969 944.609619140625 949.227905273438 953.664245605469 953.734130859375 948.19384765625 951.31396484375 949.370971679688 951.593383789062 951.8134765625 944.893859863281 945.326843261719 945.450622558594 951.616516113281 951.37841796875 945.952880859375 951.025451660156 962.908874511719 951.657592773438 957.049926757812 954.954406738281 947.41845703125 956.097290039062 953.280334472656 957.929077148438 948.685180664062 955.181701660156 961.460205078125 966.84423828125 966.2138671875 963.408996582031 958.827209472656 966.711059570312 959.9775390625 959.004333496094 971.260070800781 968.865051269531 973.328918457031 974.147338867188 973.245849609375 977.09814453125 967.416931152344 969.430236816406 963.129089355469 962.928955078125 963.350952148438 952.450500488281 953.799865722656 949.772094726562 951.086486816406 948.325317382812 950.218688964844 966.1064453125 970.851928710938 970.033813476562 970.261169433594 967.125183105469 968.830871582031 964.455688476562 967.422424316406 972.167297363281 969.649291992188 969.461303710938 976.064147949219 969.480041503906 971.871032714844 969.51318359375 965.555908203125 972.45068359375 976.156005859375 981.945678710938 971.300048828125 968.570678710938 969.409240722656 970.723205566406 977.746887207031 980.710876464844 979.465759277344 967.491760253906 964.545654296875 973.431457519531 979.815551757812 984.540710449219 972.364929199219 983.22998046875 983.538146972656 975.400939941406 974.647216796875 981.405578613281 982.817993164062 980.485961914062 982.222106933594 988.810913085938 994.328369140625 994.835571289062 989.87548828125 1008.03442382812 1017.90539550781 1015.59539794922 1016.07421875 1018.01477050781 1020.04675292969 1016.70837402344 1016.14263916016 1010.18249511719 1013.29931640625 1010.53967285156 1022.33508300781 1018.34906005859 1026.89819335938 1028.72900390625 1032.76672363281 1035.44250488281 1034.62634277344 1038.72412109375 1042.29809570312 1046.44873046875 1045.25720214844 1046.67651367188 1038.4248046875 1034.92895507812 1029.63647460938 1025.55297851562 1022.30169677734 1018.85833740234 1019.44421386719 1018.11260986328 1010.05352783203 1014.59588623047 1025.9697265625 1027.15734863281 1022.05767822266 1025.97790527344
964.525939941406 957.197631835938 960.646545410156 969.275085449219 963.36572265625 960.707702636719 962.455749511719 955.493103027344 958.408935546875 959.799255371094 955.866027832031 954.3876953125 951.147583007812 957.994750976562 957.619201660156 959.006591796875 949.527465820312 940.607849121094 939.289855957031 940.05615234375 949.819763183594 959.078918457031 949.601623535156 950.573425292969 949.259948730469 950.661437988281 941.388244628906 941.329956054688 941.919616699219 942.513610839844 947.452392578125 956.447448730469 948.783386230469 948.381958007812 963.604858398438 959.013122558594 953.246765136719 949.312561035156 955.146789550781 953.793151855469 955.543029785156 958.997436523438 965.722778320312 962.579467773438 963.908935546875 973.490661621094 978.458068847656 959.649475097656 962.143676757812 961.847778320312 965.770874023438 968.33349609375 961.85400390625 968.99365234375 969.861267089844 979.305297851562 976.663818359375 980.150634765625 968.257080078125 964.99365234375 962.55859375 972.929809570312 972.408020019531 960.226928710938 957.580810546875 953.673583984375 952.448181152344 957.010437011719 956.021606445312 959.855529785156 969.78125 977.432006835938 971.718322753906 970.890014648438 968.412902832031 966.524108886719 963.776123046875 970.899353027344 968.728759765625 968.743957519531 969.435607910156 977.303466796875 974.113952636719 973.513793945312 976.001403808594 981.906921386719 983.988647460938 983.902954101562 983.359069824219 974.229125976562 974.517028808594 965.81591796875 979.3251953125 981.554565429688 978.646606445312 973.459838867188 967.890563964844 981.551635742188 970.965454101562 966.072082519531 974.421997070312 978.351989746094 985.021179199219 977.247680664062 975.003601074219 979.555114746094 978.025756835938 983.307067871094 990.889770507812 984.479614257812 998.597106933594 994.677673339844 1001.80407714844 1007.93035888672 1014.57373046875 1021.01495361328 1020.45202636719 1027.60339355469 1031.47497558594 1024.99487304688 1032.16333007812 1023.90435791016 1024.94116210938 1028.79345703125 1027.8408203125 1029.73071289062 1029.26818847656 1034.14294433594 1031.00415039062 1030.93188476562 1030.87377929688 1036.62292480469 1034.05249023438 1035.75842285156 1032.81359863281 1029.23522949219 1027.82922363281 1033.95031738281 1034.115234375 1026.06225585938 1026.93420410156 1017.98718261719 1025.76977539062 1020.86102294922 1013.35101318359 1020.21240234375 1023.50073242188 1025.0654296875 1017.81469726562 1019.34210205078
960.925231933594 950.538269042969 952.83251953125 958.645935058594 968.015991210938 960.649475097656 957.758666992188 953.954650878906 954.470520019531 957.589965820312 950.246704101562 955.088439941406 957.270202636719 951.598999023438 944.149291992188 945.73095703125 946.128967285156 945.6865234375 939.117370605469 938.277465820312 943.733337402344 950.802978515625 948.954406738281 949.58642578125 946.558654785156 944.859558105469 948.814025878906 946.086547851562 945.689147949219 943.752624511719 944.179016113281 949.354797363281 950.678283691406 953.852905273438 950.851440429688 953.739135742188 958.093627929688 957.099914550781 947.729125976562 955.1904296875 958.127746582031 963.6865234375 959.041076660156 962.716430664062 975.133422851562 974.464538574219 976.608215332031 973.259338378906 970.063293457031 962.308898925781 967.845275878906 967.738220214844 968.813415527344 963.69580078125 968.01416015625 985.353576660156 977.697937011719 982.287414550781 975.712585449219 971.935180664062 970.849792480469 981.886047363281 980.85791015625 960.584899902344 957.054443359375 955.710266113281 951.353515625 957.514465332031 960.904663085938 967.483825683594 969.082824707031 977.645751953125 971.893859863281 967.890869140625 970.936645507812 973.149536132812 962.3369140625 969.674377441406 970.627990722656 966.950256347656 977.363403320312 975.529541015625 981.275268554688 978.859680175781 978.140441894531 975.807739257812 986.731201171875 985.995971679688 980.694641113281 978.668701171875 971.201599121094 967.296813964844 971.779907226562 985.692687988281 981.723999023438 978.142150878906 970.320739746094 977.925109863281 969.148010253906 973.537231445312 977.841979980469 987.427856445312 968.012939453125 974.700927734375 973.725341796875 987.826049804688 982.130493164062 974.3828125 979.968566894531 990.061950683594 992.613708496094 999.894104003906 1001.70306396484 1005.49328613281 1010.94964599609 1011.45037841797 1010.83569335938 1021.55102539062 1026.64343261719 1033.80627441406 1029.83361816406 1029.17211914062 1027.27575683594 1026.34521484375 1027.36193847656 1024.43359375 1015.31176757812 1032.31286621094 1031.63854980469 1018.01928710938 1028.2080078125 1029.748046875 1033.77502441406 1029.70080566406 1026.4521484375 1029.76452636719 1034.24768066406 1030.68872070312 1028.79309082031 1028.32690429688 1029.14123535156 1026.22705078125 1025.97253417969 1020.53472900391 1019.41674804688 1019.64886474609 1017.40472412109 1022.99475097656 1014.82476806641 1019.00811767578
954.817138671875 951.778930664062 957.097717285156 962.133972167969 961.925415039062 958.913940429688 958.391845703125 956.243530273438 953.092529296875 949.705444335938 946.734069824219 949.566284179688 949.827514648438 943.76904296875 944.40673828125 945.142761230469 947.613220214844 944.442321777344 937.977416992188 942.626586914062 944.357788085938 950.133728027344 955.638122558594 948.944702148438 945.893676757812 943.01513671875 944.395690917969 948.6787109375 947.812622070312 956.910339355469 946.304809570312 944.431091308594 941.734741210938 956.110595703125 949.146606445312 957.705261230469 956.98046875 953.72216796875 960.867004394531 958.640380859375 958.875305175781 962.937316894531 965.569641113281 964.639709472656 973.469421386719 966.032470703125 970.473510742188 975.982360839844 963.872741699219 961.367736816406 964.646545410156 967.523193359375 971.905883789062 968.008544921875 967.786376953125 974.717224121094 977.910888671875 975.038269042969 971.30615234375 970.658569335938 986.331970214844 985.501342773438 986.737915039062 970.006286621094 959.658264160156 968.449645996094 952.94580078125 958.8876953125 959.491333007812 968.142517089844 977.291259765625 975.38232421875 976.734252929688 973.565856933594 969.700439453125 962.056518554688 963.233337402344 968.502014160156 961.902770996094 970.066711425781 981.827941894531 981.832214355469 985.217041015625 987.858825683594 977.240905761719 975.663269042969 984.614929199219 981.187927246094 974.457336425781 961.043579101562 964.176574707031 971.326782226562 983.470336914062 977.203186035156 980.310974121094 982.089904785156 983.640930175781 980.386657714844 972.964416503906 981.876708984375 981.500671386719 989.693115234375 984.13671875 984.197204589844 993.046752929688 1001.76385498047 998.510375976562 989.290588378906 981.216430664062 986.671203613281 983.854553222656 1005.29138183594 1013.42895507812 1016.11071777344 1011.76538085938 1016.30041503906 1011.42547607422 1017.18353271484 1027.59313964844 1030.46533203125 1031.73449707031 1037.76538085938 1030.4638671875 1035.27551269531 1028.3408203125 1028.68090820312 1026.87963867188 1026.01049804688 1029.23168945312 1023.11175537109 1019.17425537109 1027.50744628906 1026.32763671875 1031.55029296875 1029.43542480469 1036.54724121094 1038.14562988281 1044.45178222656 1038.09716796875 1032.85498046875 1031.99169921875 1035.10766601562 1021.24548339844 1022.59802246094 1022.66687011719 1007.59735107422 1014.56732177734 1015.97595214844 1014.43389892578 1019.42840576172
962.837158203125 964.323181152344 971.325927734375 966.472900390625 956.989196777344 958.147766113281 955.9853515625 946.594848632812 941.190368652344 940.524841308594 944.516296386719 949.701965332031 947.855773925781 945.240539550781 938.428039550781 940.186706542969 949.871887207031 945.7568359375 943.1572265625 947.107971191406 953.550415039062 950.391723632812 958.734558105469 949.677856445312 944.550720214844 945.565734863281 942.698669433594 947.605285644531 949.504211425781 948.861511230469 957.550537109375 948.938049316406 952.356750488281 956.989440917969 954.79833984375 951.93212890625 946.947692871094 960.985595703125 959.242980957031 965.324584960938 962.209777832031 961.974670410156 960.756530761719 963.215759277344 970.646240234375 961.750671386719 969.963745117188 970.801452636719 969.235290527344 964.361694335938 958.3271484375 963.018920898438 970.959716796875 966.188415527344 968.56884765625 971.689086914062 969.79833984375 974.471069335938 974.987487792969 976.559814453125 987.315856933594 985.6787109375 978.652954101562 966.210083007812 963.210632324219 969.012573242188 971.06494140625 963.779052734375 963.403930664062 967.062805175781 970.654052734375 983.375305175781 981.115661621094 970.720336914062 969.019470214844 977.311218261719 974.928833007812 965.864990234375 964.618408203125 971.173461914062 982.816467285156 983.248901367188 986.398132324219 986.202941894531 985.644958496094 980.528137207031 981.18603515625 982.570434570312 979.300354003906 974.499328613281 963.466125488281 974.724609375 981.044982910156 985.950988769531 977.946716308594 978.824951171875 979.728759765625 981.901794433594 992.578735351562 990.003601074219 985.894470214844 991.780517578125 992.698669433594 987.42333984375 1001.43322753906 1001.25219726562 1002.92266845703 1009.17047119141 987.437072753906 993.063781738281 994.475891113281 1004.04644775391 1017.74230957031 1010.87426757812 1015.49169921875 1015.65118408203 1016.43823242188 1023.82653808594 1035.11352539062 1026.12487792969 1037.09252929688 1038.09741210938 1043.21704101562 1048.42053222656 1040.0595703125 1035.95861816406 1033.91333007812 1023.59326171875 1019.80780029297 1017.23461914062 1016.51617431641 1016.75958251953 1020.47607421875 1022.83905029297 1026.36938476562 1028.51123046875 1030.82177734375 1037.50256347656 1038.18920898438 1032.17834472656 1026.56225585938 1026.07653808594 1026.28674316406 1020.72198486328 1017.02606201172 1017.79071044922 1013.005859375 1011.43023681641 1016.07189941406 1009.46691894531
951.152954101562 963.205932617188 971.5126953125 963.511169433594 957.614685058594 953.421997070312 954.437683105469 940.083557128906 932.1123046875 936.233520507812 942.813171386719 940.114135742188 944.746948242188 942.245849609375 947.825439453125 944.959045410156 946.801513671875 945.651184082031 939.952453613281 955.659118652344 953.979187011719 952.472412109375 962.005676269531 954.033203125 950.161315917969 941.794311523438 944.605895996094 953.338012695312 949.45703125 962.492736816406 960.000549316406 958.667907714844 958.263977050781 950.077453613281 951.533508300781 954.896789550781 954.444396972656 963.245727539062 962.720764160156 972.290283203125 968.574951171875 963.925964355469 957.985534667969 962.600952148438 971.301574707031 972.073913574219 971.605285644531 974.355590820312 968.424926757812 968.244445800781 971.917663574219 972.74609375 976.414367675781 973.761047363281 970.725158691406 975.328796386719 975.648010253906 977.10205078125 971.780700683594 977.691528320312 986.953063964844 976.127014160156 964.729431152344 959.750427246094 971.565856933594 968.20263671875 973.455627441406 970.276672363281 969.783386230469 969.707092285156 973.973388671875 982.707336425781 977.903137207031 973.159240722656 970.113159179688 981.194213867188 974.918884277344 973.960083007812 973.568237304688 972.356689453125 978.887268066406 984.767700195312 990.985168457031 988.552185058594 978.432556152344 972.654602050781 981.210205078125 976.1669921875 979.6064453125 977.378662109375 964.887634277344 970.340576171875 975.522888183594 977.695495605469 968.905151367188 977.394287109375 994.346313476562 989.168395996094 986.66943359375 991.1865234375 994.797973632812 999.226440429688 987.391967773438 982.836059570312 997.99365234375 998.653442382812 1004.09637451172 1008.99487304688 1003.13226318359 999.716674804688 1006.88055419922 1023.65734863281 1023.08709716797 1018.97790527344 1031.68115234375 1025.07019042969 1024.37329101562 1037.05151367188 1042.51257324219 1038.9462890625 1040.19775390625 1041.39599609375 1043.96667480469 1045.01708984375 1043.06506347656 1036.23657226562 1029.24670410156 1026.33935546875 1015.90008544922 1019.24011230469 1014.22375488281 1013.57055664062 1009.12384033203 1013.78161621094 1015.63067626953 1023.94207763672 1030.46655273438 1030.91101074219 1028.83190917969 1029.34228515625 1019.44506835938 1022.94567871094 1025.81018066406 1021.66583251953 1019.94537353516 1013.36901855469 1014.06927490234 1007.47149658203 1010.26263427734 1009.6689453125
963.668334960938 962.163269042969 961.817199707031 951.353881835938 953.559509277344 956.151489257812 952.867004394531 941.579711914062 936.880859375 938.840698242188 933.812744140625 942.507141113281 939.671081542969 942.591979980469 951.902282714844 956.867370605469 959.327209472656 953.223327636719 950.373046875 950.392150878906 954.693115234375 954.21484375 952.82080078125 957.422668457031 967.092712402344 956.3017578125 963.849975585938 958.255432128906 954.252868652344 968.223815917969 966.811279296875 964.446228027344 954.354675292969 961.399475097656 963.817138671875 957.731262207031 956.088256835938 959.762268066406 963.451232910156 975.347595214844 968.909057617188 962.197875976562 954.204833984375 965.188354492188 973.124694824219 974.180358886719 969.987915039062 982.531372070312 978.528686523438 974.337890625 975.877624511719 975.411804199219 979.350463867188 972.484130859375 963.89453125 966.127563476562 964.769348144531 974.964965820312 976.974609375 980.099731445312 977.472534179688 971.294799804688 969.049865722656 961.329711914062 966.999755859375 966.861022949219 971.264404296875 971.035339355469 978.482604980469 969.928100585938 969.835998535156 981.303344726562 983.82763671875 976.237548828125 971.065673828125 973.893981933594 976.898986816406 976.829162597656 984.28173828125 977.596862792969 987.894226074219 986.352294921875 992.431640625 990.408996582031 978.209838867188 977.872802734375 980.787536621094 976.947265625 984.184814453125 968.5595703125 964.95654296875 975.245178222656 980.568298339844 980.25537109375 971.522277832031 980.51318359375 982.865234375 990.389953613281 996.610656738281 991.429931640625 998.25341796875 993.72998046875 985.619812011719 981.745727539062 993.135803222656 986.952209472656 989.933227539062 999.648864746094 1003.05615234375 1006.58551025391 1008.55780029297 1016.8681640625 1023.14703369141 1038.24047851562 1033.46557617188 1020.69079589844 1035.82629394531 1046.58154296875 1053.73840332031 1057.74243164062 1047.06665039062 1048.64367675781 1044.06958007812 1039.87573242188 1037.96887207031 1029.29736328125 1028.814453125 1019.39331054688 1018.96252441406 1017.43853759766 1007.17492675781 1011.38934326172 1015.31683349609 1016.55218505859 1017.91302490234 1017.47967529297 1022.56994628906 1023.80804443359 1019.21600341797 1019.99407958984 1013.48529052734 1018.66766357422 1017.42486572266 1011.6083984375 1014.59252929688 1006.93353271484 1010.89251708984 1014.58489990234 1004.37292480469 1005.01177978516
959.767333984375 955.785766601562 950.036987304688 950.379028320312 947.920959472656 950.384887695312 940.6337890625 937.924682617188 938.237915039062 938.606750488281 935.570983886719 940.65478515625 938.937255859375 947.787231445312 944.7412109375 958.57666015625 968.177368164062 966.531921386719 961.491577148438 954.929931640625 960.161254882812 959.266845703125 965.031799316406 961.423217773438 966.255432128906 961.478088378906 963.5693359375 962.102905273438 965.926391601562 974.574096679688 973.708923339844 953.065856933594 955.827453613281 953.406494140625 958.266479492188 954.885498046875 959.0888671875 961.458984375 971.233276367188 974.02392578125 967.492248535156 967.543579101562 969.060241699219 967.342163085938 974.739562988281 972.858703613281 980.152648925781 980.851989746094 980.112487792969 974.532836914062 978.795593261719 976.421691894531 979.658996582031 967.930053710938 958.778930664062 966.495361328125 975.614318847656 968.176574707031 976.58203125 972.276733398438 974.443969726562 973.049133300781 960.662780761719 957.447509765625 963.9755859375 962.154174804688 973.355834960938 974.976135253906 977.839050292969 976.248474121094 978.338439941406 974.440063476562 990.03564453125 980.595520019531 977.279052734375 974.726501464844 980.593505859375 980.778564453125 979.215698242188 976.195373535156 981.215637207031 991.340637207031 994.161987304688 989.399475097656 984.13720703125 983.3330078125 992.229919433594 981.724182128906 976.695739746094 973.620056152344 974.988159179688 979.975524902344 984.012939453125 979.237670898438 987.407348632812 979.702087402344 985.958312988281 1001.86096191406 999.134216308594 1000.08276367188 996.890991210938 992.897399902344 981.153564453125 988.073181152344 980.302978515625 993.247192382812 994.566589355469 1001.79504394531 1006.50494384766 1006.65686035156 1012.33990478516 1007.43322753906 1027.31799316406 1035.23205566406 1031.41296386719 1036.7646484375 1043.31884765625 1053.0146484375 1055.75451660156 1039.50451660156 1037.18200683594 1044.68579101562 1048.45739746094 1036.69750976562 1031.40930175781 1030.93957519531 1019.64898681641 1019.55926513672 1014.70574951172 1017.12670898438 1009.54992675781 1010.75408935547 1016.07586669922 1012.3662109375 1006.48968505859 1013.45776367188 1011.53961181641 1020.33831787109 1029.18737792969 1015.2685546875 1019.60540771484 1011.53076171875 1010.01177978516 1018.58648681641 1014.79895019531 1017.19165039062 1013.89794921875 1006.23675537109 996.855407714844 1000.12078857422
949.546142578125 953.452514648438 944.014587402344 945.15478515625 950.110046386719 941.575866699219 942.201354980469 946.816528320312 943.216491699219 937.869262695312 942.284240722656 934.354736328125 935.703491210938 945.214050292969 957.179016113281 962.651733398438 968.341796875 977.326477050781 973.205383300781 967.449829101562 964.32763671875 962.273193359375 965.731323242188 964.197570800781 964.423645019531 960.3505859375 958.948364257812 961.768432617188 970.571411132812 975.673767089844 963.139099121094 953.695434570312 952.320373535156 953.809265136719 952.444458007812 954.52197265625 967.994873046875 974.585632324219 978.844543457031 972.625427246094 971.29443359375 968.731079101562 976.456726074219 975.461608886719 973.828125 982.881713867188 990.006713867188 990.032653808594 981.630615234375 986.161437988281 991.355163574219 980.994323730469 981.872741699219 971.33349609375 969.263000488281 971.4130859375 976.072875976562 980.577270507812 980.446411132812 980.977416992188 978.496765136719 972.58642578125 960.62939453125 954.277709960938 957.194274902344 969.529724121094 973.931274414062 969.982238769531 971.195251464844 972.773559570312 970.523132324219 975.893310546875 982.528503417969 976.905029296875 984.208374023438 993.380859375 988.289428710938 981.178344726562 979.78564453125 979.57861328125 987.162292480469 997.332153320312 994.933776855469 993.898193359375 984.049133300781 982.73681640625 980.363342285156 984.212707519531 979.438720703125 964.755310058594 968.850158691406 976.124633789062 978.221435546875 986.178833007812 984.830261230469 988.763000488281 990.513000488281 999.770874023438 1002.75982666016 1003.30944824219 1003.14910888672 993.980773925781 987.921813964844 985.905639648438 986.670593261719 1000.63110351562 998.032348632812 1006.09692382812 1012.45495605469 1017.70397949219 1015.34509277344 1011.65093994141 1028.99841308594 1028.13708496094 1030.47375488281 1033.86108398438 1039.42419433594 1049.0400390625 1036.55114746094 1039.00061035156 1044.09387207031 1055.48669433594 1052.26867675781 1037.46813964844 1033.03039550781 1034.40539550781 1023.71563720703 1012.8583984375 1011.15539550781 1014.71990966797 1016.2900390625 1016.62573242188 1015.61541748047 1014.57562255859 1004.49377441406 1009.23522949219 1019.36322021484 1018.72924804688 1026.38220214844 1019.86138916016 1014.13348388672 1018.81671142578 1006.62481689453 1013.27557373047 1019.85632324219 1014.49169921875 1010.46606445312 1009.56140136719 994.431823730469 1003.13500976562
