NCOLS 150
NROWS 37
XLLCORNER 7394249
YLLCORNER 4843829
CELLSIZE 30
NODATA_VALUE -9999
1011.25274658203 1004.95092773438 996.992248535156 998.5908203125 987.685852050781 1004.74560546875 1000.8447265625 999.766296386719 1003.22631835938 1006.26629638672 1011.29846191406 1011.41741943359 1004.28601074219 1013.86364746094 1011.21166992188 1015.30737304688 1010.45141601562 1008.71783447266 1015.16046142578 1031.43090820312 1036.91845703125 1039.63513183594 1030.57763671875 1027.26342773438 1035.82189941406 1030.82202148438 1031.84631347656 1035.92980957031 1038.76000976562 1040.71765136719 1041.47375488281 1044.38586425781 1047.5947265625 1034.763671875 1030.92065429688 1040.83093261719 1037.49243164062 1039.35607910156 1038.36157226562 1044.75439453125 1052.74572753906 1046.75988769531 1034.71997070312 1024.70056152344 1027.72863769531 1019.93743896484 1018.30267333984 1016.84381103516 1004.87060546875 1001.05444335938 993.085021972656 993.185546875 985.620483398438 976.753356933594 964.884643554688 959.640686035156 961.641540527344 958.512756347656 960.417175292969 962.718383789062 959.579895019531 940.615478515625 935.349792480469 931.578857421875 930.534545898438 917.663879394531 921.441162109375 911.696716308594 919.620361328125 924.502685546875 925.85498046875 924.966674804688 935.301696777344 950.270141601562 956.827026367188 971.005554199219 969.590026855469 975.128112792969 978.572387695312 978.22802734375 982.726989746094 981.913696289062 972.212036132812 974.759826660156 968.820190429688 963.033203125 970.268920898438 970.711730957031 958.563537597656 941.368408203125 941.612731933594 924.886291503906 913.195495605469 908.941223144531 900.150512695312 898.006958007812 889.774841308594 879.8740234375 873.341369628906 874.395324707031 875.462951660156 879.525756835938 871.517700195312 873.328430175781 872.5654296875 860.846008300781 863.692016601562 858.201538085938 863.436767578125 871.379272460938 868.613708496094 867.235595703125 877.290954589844 884.733093261719 895.948364257812 896.349731445312 900.00439453125 904.616088867188 914.476135253906 919.760986328125 918.174560546875 927.657836914062 936.447082519531 933.755065917969 944.299987792969 951.729614257812 961.035888671875 969.2578125 966.941711425781 974.007690429688 989.650024414062 997.574584960938 1014.45037841797 1026.27722167969 1046.70092773438 1047.60888671875 1053.28625488281 1055.27661132812 1062.23913574219 1060.771484375 1067.78259277344 1083.4814453125 1089.97204589844 1093.60327148438 1080.24938964844 1076.13134765625 1069.51000976562 1062.75 1058.53771972656 1042.06726074219
1001.54406738281 1002.62194824219 993.171691894531 994.071533203125 992.924499511719 998.43359375 993.429504394531 999.085632324219 1010.34448242188 1012.50988769531 1006.36614990234 1015.45086669922 1008.43493652344 1007.61486816406 1009.21881103516 1009.67559814453 1007.57879638672 1016.53491210938 1015.66674804688 1020.59747314453 1029.07250976562 1026.81274414062 1027.18481445312 1033.18188476562 1033.57946777344 1024.53088378906 1031.89965820312 1032.68530273438 1037.39404296875 1052.65307617188 1046.84790039062 1045.43786621094 1034.73974609375 1025.92248535156 1020.72784423828 1021.98876953125 1030.400390625 1035.72827148438 1039.64990234375 1041.22888183594 1040.21911621094 1046.24768066406 1039.51062011719 1033.83227539062 1030.37573242188 1024.92016601562 1014.98522949219 1010.01220703125 1003.31536865234 1006.84606933594 1002.81640625 993.889099121094 985.364929199219 975.43701171875 968.875915527344 956.472290039062 965.775512695312 969.597717285156 964.9501953125 957.3125 963.347412109375 955.814331054688 949.740051269531 942.264892578125 944.10498046875 927.952575683594 924.814697265625 931.886413574219 929.663635253906 940.578735351562 939.469299316406 945.393127441406 950.408203125 954.44287109375 956.508178710938 965.565612792969 970.430114746094 977.875732421875 987.964599609375 989.269287109375 985.801025390625 992.561706542969 990.751220703125 984.118225097656 971.409912109375 964.127746582031 969.184204101562 962.783142089844 951.602966308594 940.263427734375 929.961547851562 914.07861328125 907.676452636719 912.195983886719 909.798522949219 898.093322753906 902.981811523438 886.536193847656 878.091003417969 864.932006835938 883.3134765625 880.466979980469 878.815856933594 880.6044921875 873.472106933594 868.0849609375 865.386657714844 867.983825683594 870.996948242188 879.200134277344 877.740661621094 870.377990722656 870.621520996094 880.364990234375 891.618957519531 888.205688476562 892.698913574219 910.047546386719 913.127746582031 921.453918457031 919.480712890625 927.140380859375 941.768676757812 955.444885253906 951.351867675781 949.399353027344 961.350036621094 962.268615722656 962.360900878906 976.917724609375 993.289367675781 996.066528320312 1013.84234619141 1029.74157714844 1044.77392578125 1056.25109863281 1050.33483886719 1062.88696289062 1064.85900878906 1065.35754394531 1078.52990722656 1088.203125 1100.58239746094 1110.77673339844 1091.30627441406 1090.90112304688 1086.43798828125 1078.0712890625 1071.39050292969 1054.00512695312
997.621215820312 993.150390625 987.651733398438 988.122680664062 999.825317382812 999.335144042969 993.483825683594 997.7861328125 1008.54504394531 1014.740234375 1009.19030761719 1012.09216308594 1016.66833496094 1004.0908203125 1014.85064697266 1015.00311279297 1007.82592773438 1008.52124023438 1009.45532226562 1010.45306396484 1010.49346923828 1020.29425048828 1026.841796875 1023.50286865234 1023.22479248047 1023.01885986328 1027.37133789062 1023.87298583984 1033.51721191406 1037.48876953125 1039.51623535156 1036.07702636719 1026.28247070312 1015.62371826172 1028.41979980469 1028.97644042969 1031.88977050781 1039.6572265625 1042.88745117188 1045.69567871094 1043.56665039062 1037.24060058594 1040.06457519531 1035.61999511719 1030.74792480469 1020.66882324219 1012.51635742188 1012.73321533203 1004.35131835938 1003.02087402344 1002.48077392578 995.639099121094 989.241149902344 975.349853515625 950.664428710938 950.419189453125 966.436401367188 964.791931152344 966.473327636719 961.532531738281 957.68017578125 964.306274414062 960.847412109375 951.772155761719 955.840393066406 954.270629882812 949.723205566406 941.410400390625 933.6875 939.91845703125 943.7431640625 950.093200683594 955.030822753906 961.996032714844 956.473327636719 965.612609863281 971.136779785156 990.078063964844 996.108459472656 1007.53063964844 999.613159179688 1007.05780029297 995.726989746094 989.114318847656 985.501586914062 970.679321289062 968.881408691406 963.73974609375 949.370361328125 946.340270996094 922.130676269531 917.110229492188 911.804626464844 918.300903320312 910.841369628906 914.364318847656 904.295532226562 889.44921875 889.208740234375 883.635681152344 886.286682128906 887.025390625 887.548156738281 884.039733886719 875.8193359375 874.063354492188 882.392517089844 886.5126953125 881.281494140625 883.62841796875 874.511779785156 874.39111328125 877.574462890625 874.324890136719 881.821411132812 894.428405761719 893.356872558594 904.131286621094 914.099853515625 920.962463378906 931.108581542969 932.636108398438 940.485412597656 951.79052734375 946.012145996094 958.329223632812 957.528137207031 961.821105957031 958.3798828125 978.157470703125 983.405822753906 1000.74450683594 1015.67614746094 1032.46374511719 1045.56066894531 1050.28918457031 1051.83666992188 1058.64208984375 1067.87280273438 1072.21081542969 1081.24584960938 1098.11779785156 1107.91711425781 1103.96264648438 1096.49670410156 1093.62072753906 1095.05358886719 1083.50549316406 1089.93286132812 1075.65173339844
985.639526367188 991.589172363281 994.542175292969 978.21630859375 1000.48120117188 1002.61529541016 999.149780273438 1006.63330078125 1009.10559082031 1009.62762451172 1007.32342529297 1007.95855712891 1002.53656005859 1005.23742675781 1013.40942382812 1015.41430664062 1011.74310302734 1017.00939941406 1008.48321533203 1006.82574462891 1016.74169921875 1018.68792724609 1020.44183349609 1028.47546386719 1024.64001464844 1021.66296386719 1022.11437988281 1017.71350097656 1027.34729003906 1024.85803222656 1025.98742675781 1022.19165039062 1011.97833251953 1018.95227050781 1024.1474609375 1026.78112792969 1031.78759765625 1028.32458496094 1031.71691894531 1034.26379394531 1028.60021972656 1032.56616210938 1030.76525878906 1027.35034179688 1021.38800048828 1018.99127197266 1015.75531005859 1007.74566650391 999.094848632812 1007.15258789062 1003.23992919922 1003.10827636719 996.612243652344 984.171325683594 963.361694335938 966.852966308594 965.926574707031 968.556030273438 975.268737792969 969.069213867188 962.745422363281 962.985961914062 966.125427246094 967.902465820312 972.184143066406 959.702026367188 963.953369140625 959.087036132812 943.033874511719 948.2880859375 947.518310546875 951.764953613281 958.896423339844 968.27880859375 971.534729003906 968.088806152344 988.721130371094 999.77001953125 1007.70281982422 1011.99713134766 1017.73980712891 1012.94439697266 1003.91235351562 989.780883789062 989.52685546875 976.918151855469 970.848327636719 959.220092773438 958.106811523438 935.535522460938 920.446655273438 913.134704589844 912.175537109375 918.20751953125 911.500671386719 908.63232421875 905.764099121094 898.635986328125 891.479431152344 891.333129882812 896.821533203125 887.744384765625 885.050842285156 884.133544921875 876.060119628906 884.633483886719 888.909606933594 886.500305175781 895.584167480469 887.239013671875 881.101623535156 879.113403320312 876.926696777344 885.910766601562 886.709655761719 891.196716308594 899.422668457031 908.574401855469 920.115417480469 923.65087890625 930.509399414062 935.6455078125 942.061279296875 946.416076660156 947.5771484375 946.944519042969 945.550415039062 957.731018066406 964.297180175781 973.750061035156 987.752563476562 1012.41540527344 1022.07659912109 1028.11254882812 1040.75134277344 1056.13977050781 1058.60925292969 1071.88891601562 1070.75830078125 1081.8623046875 1101.43237304688 1098.59045410156 1110.35815429688 1116.94970703125 1111.07165527344 1109.19396972656 1102.57055664062 1095.42651367188 1095.76892089844 1084.37634277344
999.641662597656 988.628479003906 994.537048339844 987.761352539062 986.616333007812 988.521362304688 993.071166992188 1008.18060302734 1012.85345458984 1010.50109863281 996.969482421875 1000.04974365234 1000.15942382812 997.773376464844 1011.79962158203 1013.21453857422 1015.66162109375 1022.88793945312 1007.43310546875 1009.99597167969 1020.85632324219 1024.46569824219 1015.36676025391 1020.24829101562 1025.14343261719 1015.72290039062 1014.53387451172 1018.65521240234 1016.24456787109 1021.27294921875 1011.83258056641 1020.22772216797 1012.265625 1015.74853515625 1022.10876464844 1020.49554443359 1014.88665771484 1024.37548828125 1020.38543701172 1025.64916992188 1030.78125 1032.55224609375 1027.56860351562 1018.63604736328 1019.17199707031 1009.47528076172 1015.29827880859 1006.61804199219 1004.97302246094 1002.15966796875 1007.14495849609 1003.77172851562 1000.61462402344 992.158386230469 978.6220703125 977.985595703125 976.8330078125 976.895446777344 975.608276367188 978.353820800781 976.850158691406 969.149536132812 970.509948730469 986.218078613281 978.334167480469 971.734313964844 978.875427246094 971.994445800781 956.066589355469 947.325012207031 952.851989746094 960.351379394531 958.788208007812 964.606079101562 972.016662597656 981.927673339844 993.7158203125 1009.66088867188 1012.55554199219 1013.33142089844 1018.77856445312 1014.09375 1004.30169677734 997.463073730469 992.466918945312 979.661315917969 973.406860351562 968.521606445312 955.386413574219 938.994323730469 923.815185546875 918.840087890625 919.678955078125 911.159912109375 903.710327148438 898.005920410156 895.837768554688 899.003540039062 893.723510742188 900.427001953125 903.916748046875 886.813232421875 887.102294921875 882.779724121094 889.482604980469 886.858520507812 889.581420898438 894.174377441406 890.850158691406 894.513610839844 883.903442382812 875.151672363281 869.9130859375 888.974426269531 895.454895019531 902.322021484375 904.147033691406 908.989196777344 914.151916503906 917.726135253906 930.093383789062 940.915832519531 940.832397460938 944.255432128906 952.460998535156 944.823791503906 950.890686035156 954.423034667969 964.884216308594 976.507690429688 983.793823242188 996.35888671875 1016.51812744141 1034.23303222656 1050.75537109375 1057.771484375 1061.63525390625 1062.63488769531 1074.08911132812 1090.42456054688 1103.96447753906 1108.49499511719 1117.5673828125 1129.28564453125 1136.72387695312 1133.48315429688 1115.03088378906 1107.32116699219 1098.39440917969 1082.333984375
1001.67059326172 995.376159667969 987.924377441406 987.179504394531 979.826232910156 985.115661621094 1000.884765625 1010.30053710938 1001.23431396484 1008.26007080078 992.76513671875 999.269714355469 993.714050292969 997.97119140625 1017.37689208984 1008.96405029297 1012.02020263672 1007.138671875 1012.43951416016 1014.98773193359 1022.72180175781 1024.68530273438 1025.94958496094 1024.56726074219 1017.65393066406 1013.81567382812 1009.56866455078 1012.81610107422 1007.58648681641 1006.51501464844 1004.68902587891 1003.75823974609 1013.08026123047 1016.82727050781 1013.35528564453 1009.47784423828 1015.01263427734 1015.87042236328 1018.48291015625 1029.29028320312 1029.32238769531 1025.64794921875 1028.73254394531 1021.97985839844 1010.38458251953 1003.67065429688 1003.49688720703 1007.61480712891 1009.48815917969 1011.32629394531 1008.31207275391 1013.49212646484 1007.66851806641 997.575744628906 1000.47900390625 989.787109375 988.882446289062 991.3125 988.341125488281 990.775207519531 985.419555664062 984.094360351562 998.2998046875 1002.47052001953 998.05419921875 983.605163574219 981.553833007812 977.395080566406 968.140258789062 954.201232910156 961.55517578125 969.179992675781 973.75146484375 975.057678222656 972.79296875 983.362060546875 998.710754394531 1011.67224121094 1014.92095947266 1019.38885498047 1023.37713623047 1013.63665771484 1000.09967041016 995.12255859375 994.141906738281 982.483154296875 979.843200683594 965.828002929688 956.1572265625 943.659118652344 932.501953125 923.852233886719 922.297180175781 917.431884765625 914.056213378906 903.353576660156 903.779174804688 910.847778320312 901.841613769531 896.226013183594 894.982543945312 896.5478515625 894.798645019531 893.765930175781 884.219116210938 890.798034667969 893.460998535156 905.687927246094 903.372375488281 901.36083984375 892.597534179688 890.175231933594 888.4091796875 892.309997558594 901.71142578125 900.490478515625 910.4443359375 917.753845214844 920.211120605469 930.259033203125 933.291137695312 945.710815429688 956.992126464844 955.138671875 949.854125976562 951.023864746094 957.073486328125 963.807312011719 972.567443847656 982.03173828125 989.875732421875 998.606323242188 1016.85192871094 1030.41906738281 1050.30200195312 1055.53454589844 1057.8095703125 1069.00024414062 1072.48815917969 1083.9677734375 1102.3662109375 1121.55285644531 1122.37414550781 1141.021484375 1142.82189941406 1135.640625 1121.60339355469 1116.62341308594 1109.89147949219 1092.32238769531
993.690124511719 987.859130859375 993.792541503906 990.264587402344 988.852355957031 992.648986816406 994.556884765625 1002.28747558594 1000.97149658203 992.36181640625 985.083190917969 1000.23406982422 1000.12628173828 1000.44030761719 1004.681640625 1012.3720703125 1014.36181640625 1002.60284423828 999.17822265625 1006.03948974609 1017.88232421875 1020.37860107422 1026.04272460938 1025.81616210938 1014.04571533203 1002.55810546875 999.921081542969 1003.02209472656 998.648986816406 1000.91137695312 1009.26861572266 1011.13104248047 1017.37432861328 1014.10107421875 1011.48181152344 1017.412109375 1011.48937988281 1006.70361328125 1018.17706298828 1025.60083007812 1032.38537597656 1032.70532226562 1028.55334472656 1014.99670410156 1006.86480712891 1006.68640136719 1009.02087402344 1009.35345458984 1006.77618408203 1017.79791259766 1011.54315185547 1003.27612304688 1005.60766601562 1006.24884033203 1004.91357421875 1005.85424804688 1008.49145507812 1004.56671142578 993.879272460938 990.59130859375 988.199462890625 989.327697753906 995.446960449219 997.058898925781 996.887451171875 995.664733886719 989.941711425781 973.529663085938 968.368835449219 971.937316894531 974.253601074219 981.277954101562 985.391296386719 983.6171875 994.043823242188 993.006774902344 998.903686523438 1023.79779052734 1023.92626953125 1026.72534179688 1023.31396484375 1018.10614013672 1006.57983398438 1002.94708251953 998.708923339844 986.458618164062 970.715393066406 965.791870117188 961.960388183594 941.801940917969 937.7861328125 927.719421386719 926.845886230469 926.802551269531 920.141052246094 908.7529296875 913.800537109375 904.787292480469 906.286865234375 902.315307617188 902.298522949219 907.760559082031 905.250854492188 899.813842773438 896.181091308594 897.203308105469 904.330932617188 913.039611816406 901.937316894531 909.403869628906 907.290100097656 907.972351074219 896.530090332031 902.257629394531 904.064025878906 908.663757324219 914.223205566406 909.805419921875 916.078125 928.435852050781 934.431945800781 941.55078125 957.088012695312 954.84765625 946.384033203125 959.581665039062 963.158264160156 965.432250976562 969.709838867188 988.042114257812 993.738403320312 1000.94500732422 1019.93603515625 1035.88439941406 1049.85009765625 1056.880859375 1069.29663085938 1059.65759277344 1075.84924316406 1087.36193847656 1108.03088378906 1120.52197265625 1131.25805664062 1145.05712890625 1143.54309082031 1130.92370605469 1125.05480957031 1123.8037109375 1123.07861328125 1104.19848632812
989.561706542969 986.833374023438 997.518249511719 994.783264160156 992.361938476562 995.649536132812 994.459716796875 995.888305664062 990.661193847656 987.475891113281 987.094482421875 996.448547363281 997.293212890625 1002.54266357422 994.3544921875 1000.51495361328 1010.15405273438 1002.51330566406 1000.74041748047 1005.93029785156 1011.34820556641 1013.74658203125 1013.99676513672 1009.29650878906 1006.68591308594 997.290161132812 1007.28259277344 1008.36114501953 993.131713867188 999.585327148438 1006.27825927734 1007.73876953125 1015.21490478516 1017.65057373047 1012.22058105469 1017.35247802734 1010.30261230469 1005.94458007812 1015.57806396484 1021.81146240234 1026.51733398438 1026.59289550781 1025.02294921875 1024.62817382812 1011.64349365234 1010.86206054688 1003.04711914062 1004.81420898438 1000.14007568359 1000.40698242188 1003.01837158203 1007.39532470703 1012.42114257812 1019.24444580078 1020.17834472656 1007.79388427734 1011.62664794922 1009.66461181641 993.383422851562 991.322448730469 989.232238769531 989.944519042969 994.850708007812 992.620483398438 989.70849609375 999.069763183594 995.003723144531 991.533081054688 976.407348632812 975.852966308594 976.608337402344 985.889526367188 984.850036621094 989.598388671875 996.132080078125 1006.30407714844 1015.66961669922 1028.18823242188 1028.36596679688 1027.21215820312 1027.86157226562 1017.69482421875 1014.14007568359 997.693969726562 992.880859375 988.299072265625 975.6689453125 960.932556152344 951.844604492188 936.399230957031 923.561584472656 925.784729003906 920.772338867188 922.492492675781 926.822692871094 920.810974121094 918.206909179688 914.358093261719 906.139282226562 904.547485351562 906.626770019531 914.647766113281 914.029907226562 909.931213378906 907.829040527344 913.403503417969 918.294860839844 913.953369140625 911.065673828125 915.956237792969 909.00537109375 910.356811523438 903.97900390625 904.147155761719 902.674194335938 909.361328125 912.76904296875 907.059204101562 920.348937988281 926.953979492188 933.089904785156 940.60302734375 949.970520019531 963.462036132812 962.0810546875 966.787780761719 971.378967285156 983.890991210938 983.71435546875 1000.67370605469 1002.46569824219 1005.55029296875 1024.15197753906 1041.51013183594 1044.23962402344 1054.796875 1064.77551269531 1065.74194335938 1070.25769042969 1093.28430175781 1111.45690917969 1129.4228515625 1137.26611328125 1136.35998535156 1130.54711914062 1133.72265625 1129.85717773438 1126.89282226562 1114.59912109375 1118.60534667969
989.962951660156 984.04345703125 993.282653808594 993.5341796875 998.352783203125 993.771545410156 997.837280273438 996.958984375 988.534606933594 992.422424316406 983.028137207031 989.065734863281 1001.22857666016 1000.4306640625 997.471069335938 999.881286621094 1003.04132080078 1000.86029052734 1003.27032470703 1010.29760742188 1008.00988769531 1013.57934570312 1016.18292236328 1009.71740722656 999.898071289062 1003.435546875 1009.39697265625 1001.7587890625 991.703552246094 1004.33111572266 1014.96276855469 1019.26635742188 1010.18536376953 1016.38037109375 1023.83502197266 1007.81829833984 1015.66650390625 1011.16857910156 1011.40899658203 1011.10870361328 1023.47674560547 1016.13336181641 1023.57165527344 1022.52270507812 1011.82666015625 1015.03381347656 1012.95935058594 1010.94018554688 1004.50341796875 999.625427246094 991.76953125 1011.53308105469 1014.42980957031 1015.82843017578 1013.51599121094 997.469116210938 997.793640136719 999.411071777344 999.9228515625 996.082824707031 991.129943847656 998.468627929688 1000.33087158203 991.187072753906 992.879333496094 1001.07720947266 997.309326171875 992.616333007812 981.930480957031 980.079345703125 983.799255371094 983.0498046875 995.789123535156 997.340759277344 1004.64959716797 1022.12841796875 1028.27905273438 1027.64001464844 1034.02282714844 1032.46691894531 1015.31903076172 1008.21154785156 1009.58294677734 1005.19744873047 1001.60266113281 989.800537109375 975.276245117188 965.870239257812 945.963745117188 942.094787597656 937.077514648438 942.817687988281 935.802673339844 929.79345703125 934.2958984375 929.983093261719 917.015258789062 922.549133300781 919.619079589844 918.559753417969 905.598571777344 915.220275878906 915.373168945312 919.731323242188 920.619812011719 924.689025878906 928.350402832031 927.385620117188 931.441955566406 920.246765136719 922.40283203125 906.105834960938 914.353088378906 914.219665527344 912.859130859375 913.812438964844 905.447448730469 904.757568359375 916.459411621094 926.149597167969 929.624145507812 935.029846191406 951.658081054688 955.536987304688 962.818420410156 976.155151367188 981.535827636719 988.009521484375 994.406616210938 993.3974609375 1005.29467773438 1024.69555664062 1026.47839355469 1038.55590820312 1044.80590820312 1044.34631347656 1051.00891113281 1064.56005859375 1080.26245117188 1092.41931152344 1111.42761230469 1130.8603515625 1130.51965332031 1123.08850097656 1121.93579101562 1126.56384277344 1134.52087402344 1132.84899902344 1122.427734375 1118.27844238281
985.515686035156 985.286193847656 989.497985839844 988.412353515625 995.314270019531 1000.56964111328 1003.44177246094 993.714782714844 982.274475097656 986.651489257812 984.46533203125 984.699829101562 988.658813476562 999.361938476562 986.955749511719 990.672424316406 992.376831054688 991.166076660156 1003.10375976562 999.148071289062 1004.43493652344 1004.10894775391 1007.71929931641 1012.99505615234 1003.81066894531 1000.80938720703 1008.20208740234 1000.56262207031 1002.71447753906 1009.03344726562 1017.69763183594 1020.43322753906 1015.63104248047 1012.86468505859 1015.15643310547 1010.28576660156 1016.62829589844 1016.13458251953 1008.32232666016 1007.68542480469 1014.14697265625 1021.58697509766 1013.49304199219 1018.94458007812 1008.62054443359 1011.91638183594 1021.76977539062 1018.71453857422 1006.61273193359 1000.96789550781 1005.21990966797 1010.19274902344 1008.60882568359 1013.11468505859 1017.57513427734 1008.14758300781 1000.63006591797 1002.29852294922 1007.31982421875 1005.69396972656 1004.03308105469 998.769958496094 997.903076171875 997.78759765625 1000.19232177734 997.847534179688 992.630126953125 990.882995605469 985.466369628906 989.518798828125 984.169799804688 983.1240234375 990.087158203125 1004.92114257812 1009.72924804688 1022.26397705078 1027.470703125 1042.17126464844 1038.39074707031 1036.84265136719 1026.62646484375 1018.05810546875 1007.89025878906 1014.1318359375 1004.89331054688 997.661376953125 978.134582519531 970.558410644531 955.835998535156 950.242553710938 936.146728515625 938.801818847656 938.694030761719 940.143798828125 942.043334960938 937.60498046875 928.396850585938 928.646606445312 924.06689453125 924.876037597656 922.011108398438 924.676940917969 920.808837890625 931.27490234375 923.674438476562 927.367370605469 934.830383300781 944.100646972656 940.569274902344 929.500122070312 927.75830078125 925.347290039062 925.789367675781 915.59814453125 905.344970703125 912.007873535156 908.8837890625 910.766174316406 930.34765625 924.676025390625 925.821716308594 938.244567871094 947.671447753906 952.343017578125 966.461547851562 975.784362792969 981.285827636719 996.128784179688 1008.96252441406 1015.73101806641 1023.59832763672 1022.62677001953 1025.48071289062 1045.10949707031 1046.02978515625 1058.07946777344 1052.78344726562 1063.41943359375 1079.83898925781 1090.50915527344 1101.63781738281 1130.43688964844 1128.22961425781 1129.73266601562 1125.67919921875 1125.56201171875 1137.65600585938 1131.01306152344 1129.94738769531 1117.9052734375
986.4462890625 981.971496582031 988.749450683594 986.916198730469 1000.10168457031 997.82275390625 999.901916503906 993.882934570312 984.84033203125 984.958984375 982.477783203125 984.5107421875 997.60205078125 995.181213378906 988.085510253906 981.939453125 981.773498535156 991.061767578125 995.14697265625 1002.72332763672 994.052185058594 981.696594238281 1004.51245117188 1003.69738769531 1005.79107666016 1001.23046875 997.738830566406 1000.51452636719 1006.37677001953 1014.78033447266 1026.24047851562 1021.75335693359 1024.02282714844 1016.61309814453 1015.73321533203 1020.60278320312 1019.09686279297 1022.59313964844 1013.16900634766 1017.89825439453 1027.58935546875 1022.546875 1018.20196533203 1020.59600830078 1014.76831054688 1013.74298095703 1025.1923828125 1011.21813964844 1003.23779296875 1006.51733398438 1007.80444335938 1014.29364013672 1008.82159423828 1008.06817626953 1016.16729736328 1018.36840820312 1015.57952880859 1007.54614257812 1014.56622314453 1007.52185058594 1009.99560546875 1004.79858398438 1004.80590820312 997.008972167969 1006.18139648438 999.795227050781 987.540649414062 997.404968261719 999.523498535156 995.849975585938 995.672302246094 986.413940429688 995.088623046875 1009.17065429688 1018.20477294922 1029.24462890625 1038.04699707031 1038.18151855469 1031.27038574219 1031.76635742188 1020.60290527344 1018.17669677734 1022.28656005859 1016.337890625 1012.61810302734 1010.23162841797 983.395629882812 970.283569335938 959.751647949219 956.303527832031 941.6328125 939.737976074219 946.459899902344 940.417175292969 952.103820800781 939.184936523438 942.226684570312 939.724060058594 931.319946289062 936.702514648438 932.273132324219 937.411987304688 938.395935058594 940.884521484375 935.856567382812 940.832763671875 946.343444824219 949.360473632812 949.379943847656 940.434387207031 939.321411132812 936.57763671875 931.744934082031 925.452514648438 912.368530273438 905.399597167969 905.783142089844 914.109497070312 929.450927734375 928.359130859375 938.5224609375 941.045166015625 953.720275878906 963.007873535156 975.449523925781 988.466674804688 989.71875 1004.82531738281 1018.70635986328 1018.90649414062 1018.52996826172 1034.8408203125 1032.70886230469 1038.73303222656 1047.58764648438 1046.62475585938 1060.81298828125 1063.14953613281 1074.46801757812 1084.14697265625 1095.46984863281 1106.09704589844 1119.30627441406 1121.34362792969 1119.66040039062 1118.94360351562 1128.12902832031 1124.58361816406 1110.12377929688 1115.20849609375
985.440734863281 988.114990234375 983.492431640625 981.158874511719 984.794555664062 994.057312011719 994.825378417969 989.502197265625 994.77587890625 995.311462402344 998.972351074219 992.244934082031 989.783325195312 981.468566894531 979.02392578125 984.560241699219 990.366149902344 997.071899414062 1003.10589599609 1000.45294189453 994.349670410156 990.780395507812 993.962524414062 994.868408203125 988.55517578125 985.808410644531 988.916137695312 997.191528320312 1004.63079833984 1016.39599609375 1017.10949707031 1021.03033447266 1023.78210449219 1028.05859375 1026.06140136719 1021.01770019531 1033.67224121094 1026.19567871094 1027.44787597656 1023.65319824219 1029.55944824219 1029.7265625 1029.18811035156 1029.71520996094 1015.74432373047 1022.27557373047 1019.14703369141 1017.29699707031 1019.76776123047 1011.11895751953 1006.93469238281 1013.96643066406 1005.21832275391 1002.14080810547 1008.919921875 1022.24163818359 1017.35070800781 1013.65087890625 1016.73413085938 1009.73699951172 1011.14770507812 1008.73657226562 1006.14465332031 1001.86352539062 995.993957519531 993.949462890625 994.528930664062 996.210815429688 990.121520996094 993.345703125 992.3095703125 999.706115722656 999.130615234375 1009.55261230469 1026.58190917969 1028.69396972656 1036.08972167969 1037.4755859375 1032.45263671875 1033.98461914062 1030.10168457031 1010.73687744141 1021.20812988281 1029.0341796875 1024.13305664062 1016.83422851562 996.375854492188 978.485595703125 966.711975097656 967.623779296875 947.205261230469 942.748718261719 946.334350585938 948.923950195312 950.337524414062 949.392883300781 944.372863769531 951.898010253906 943.666381835938 950.956115722656 951.479614257812 953.184448242188 952.603759765625 949.210510253906 955.363098144531 950.296997070312 953.182983398438 946.631042480469 957.652038574219 951.030029296875 952.3173828125 943.059692382812 947.1025390625 937.746643066406 920.921447753906 903.790832519531 900.899047851562 917.666564941406 922.942077636719 925.360290527344 940.215148925781 945.594604492188 953.145568847656 973.543701171875 981.958129882812 989.839599609375 993.161865234375 1002.15478515625 1012.75573730469 1015.91595458984 1017.08038330078 1034.85314941406 1042.77722167969 1043.21862792969 1051.9404296875 1053.66662597656 1066.55700683594 1075.68640136719 1072.84973144531 1075.69714355469 1078.33093261719 1093.42578125 1106.67358398438 1115.75158691406 1126.56359863281 1125.04064941406 1127.46264648438 1120.07153320312 1119.02685546875 1115.11535644531
991.617858886719 984.149108886719 984.531188964844 979.267578125 982.176330566406 989.822692871094 983.705932617188 984.673034667969 988.629516601562 999.128234863281 992.28955078125 988.152893066406 981.641174316406 982.985290527344 979.516906738281 975.602172851562 982.854858398438 992.430725097656 996.123840332031 995.330627441406 995.814086914062 991.504089355469 988.8779296875 981.980773925781 986.618225097656 989.74609375 986.92919921875 997.892028808594 1002.84405517578 1015.14404296875 1019.58001708984 1022.73022460938 1023.81695556641 1038.529296875 1035.41589355469 1035.75305175781 1037.2841796875 1034.96691894531 1039.86328125 1039.52526855469 1038.2216796875 1035.09094238281 1034.61889648438 1033.47802734375 1019.26861572266 1012.59039306641 1014.56677246094 1013.46899414062 1012.40795898438 1007.39031982422 1007.88812255859 998.89404296875 997.356506347656 1004.91748046875 1016.16021728516 1024.47485351562 1019.44848632812 1022.71246337891 1017.81427001953 1012.60528564453 1007.45758056641 1008.43377685547 1015.49517822266 1017.32733154297 1009.25146484375 1006.50280761719 1003.15209960938 998.365112304688 991.995666503906 990.491271972656 985.417358398438 1001.0859375 1001.79016113281 1019.55145263672 1018.36529541016 1020.03393554688 1025.30810546875 1027.50207519531 1040.71655273438 1036.55017089844 1040.59033203125 1027.45581054688 1026.93688964844 1029.51586914062 1019.9208984375 1007.13739013672 994.69287109375 980.290771484375 973.745544433594 955.994079589844 940.807189941406 938.873046875 948.616882324219 947.546997070312 948.069885253906 954.209045410156 962.678894042969 958.859375 957.173767089844 957.0556640625 959.904602050781 959.004211425781 954.567138671875 955.857421875 955.914001464844 955.937194824219 956.176452636719 959.587768554688 965.767883300781 960.5751953125 962.957092285156 951.351196289062 947.615295410156 939.716735839844 923.216186523438 920.743286132812 917.153747558594 922.84765625 928.221496582031 932.826538085938 943.841186523438 951.274963378906 954.074523925781 973.603637695312 988.010009765625 990.482543945312 993.776733398438 1002.83880615234 1004.34075927734 1008.49090576172 1016.84533691406 1026.28137207031 1038.41516113281 1045.93420410156 1048.8076171875 1063.44323730469 1072.49645996094 1071.65832519531 1083.86560058594 1077.29187011719 1081.74145507812 1086.60192871094 1095.10803222656 1108.11022949219 1121.40808105469 1142.33068847656 1127.98376464844 1123.34326171875 1123.87377929688 1126.52966308594
985.595458984375 984.466674804688 984.475769042969 984.624389648438 981.764099121094 981.398620605469 985.371948242188 988.831665039062 988.180847167969 990.738464355469 980.196350097656 977.942077636719 970.827941894531 973.476135253906 974.302551269531 969.812805175781 972.822448730469 988.253601074219 989.761474609375 988.098022460938 984.924499511719 982.135559082031 992.731994628906 987.001342773438 992.552001953125 992.938415527344 994.871887207031 1011.72998046875 1015.17224121094 1014.79870605469 1026.11950683594 1025.2939453125 1030.38391113281 1043.25988769531 1040.35998535156 1045.61096191406 1050.39123535156 1041.37719726562 1041.79858398438 1048.17224121094 1042.083984375 1040.4677734375 1036.94201660156 1044.84594726562 1034.22509765625 1016.0009765625 1011.73223876953 1017.73248291016 1002.80151367188 1006.74078369141 1008.39190673828 1003.76788330078 1003.25518798828 1004.26135253906 1016.04034423828 1013.57476806641 1021.08428955078 1014.47326660156 1010.13494873047 1012.3994140625 1015.13287353516 1013.84399414062 1027.48095703125 1019.29156494141 1016.46374511719 1014.70404052734 1016.89465332031 1008.20819091797 997.155212402344 994.845947265625 994.511535644531 1006.31500244141 1013.34729003906 1015.41906738281 1024.13146972656 1017.68231201172 1015.36584472656 1023.67633056641 1036.05224609375 1044.10217285156 1043.20202636719 1032.59948730469 1031.46557617188 1016.21905517578 1015.69805908203 1005.00988769531 995.230834960938 983.349853515625 973.664733886719 955.192993164062 943.538635253906 946.862976074219 952.59814453125 952.084411621094 957.011413574219 965.308044433594 968.326354980469 964.40625 971.548034667969 974.236938476562 962.455505371094 961.506469726562 957.1904296875 958.680297851562 962.889953613281 969.697204589844 966.382019042969 969.427612304688 971.61669921875 974.477905273438 965.404724121094 960.970642089844 945.586608886719 939.436157226562 934.417419433594 927.750244140625 922.895874023438 923.448791503906 929.254760742188 942.282836914062 947.680541992188 957.096069335938 964.223022460938 972.252014160156 979.501342773438 991.889221191406 1005.90783691406 1003.00384521484 1004.06988525391 1014.82507324219 1021.89739990234 1033.49694824219 1043.93481445312 1052.15795898438 1055.69128417969 1061.53637695312 1067.70288085938 1068.95947265625 1074.91931152344 1084.01245117188 1080.93383789062 1088.94006347656 1095.24963378906 1112.93273925781 1127.11340332031 1136.28479003906 1126.42956542969 1130.63647460938 1130.48461914062 1135.82946777344
977.140075683594 969.072082519531 971.568542480469 975.365844726562 980.600158691406 975.10205078125 975.533020019531 982.709106445312 986.279418945312 982.105102539062 968.408325195312 963.954223632812 964.0439453125 972.495727539062 975.396911621094 971.76318359375 980.479064941406 979.203369140625 984.965637207031 985.434997558594 979.2294921875 976.104919433594 982.26025390625 984.269836425781 989.703979492188 993.64599609375 1002.56231689453 1010.35162353516 1019.49407958984 1017.20147705078 1022.7685546875 1024.97790527344 1031.25549316406 1046.16320800781 1046.42517089844 1043.03698730469 1046.47302246094 1039.26623535156 1038.79443359375 1042.85375976562 1051.27258300781 1048.248046875 1044.56237792969 1048.33178710938 1039.35583496094 1024.48828125 1020.28308105469 1013.03021240234 1009.07354736328 1003.87481689453 999.372436523438 1005.67022705078 1005.86181640625 1007.37200927734 1013.60876464844 1020.50994873047 1022.6279296875 1021.736328125 1016.12060546875 1020.50561523438 1020.14276123047 1016.87164306641 1028.61169433594 1025.40075683594 1024.45031738281 1021.88671875 1028.31530761719 1014.87542724609 1003.11499023438 1000.48876953125 1006.31854248047 1024.33325195312 1025.54406738281 1025.00158691406 1029.86608886719 1024.2626953125 1026.64929199219 1024.02099609375 1031.56213378906 1039.21069335938 1046.45202636719 1028.43566894531 1028.76916503906 1029.31457519531 1018.63757324219 1013.28607177734 999.515808105469 992.324890136719 975.423156738281 965.080810546875 951.956115722656 954.074829101562 948.909729003906 952.073303222656 963.107421875 974.965576171875 979.427307128906 975.179504394531 979.061340332031 977.76806640625 971.917053222656 966.275451660156 958.878967285156 970.486572265625 962.071044921875 971.067565917969 974.508850097656 973.610290527344 979.200927734375 974.530029296875 967.9345703125 962.559936523438 956.768798828125 953.213989257812 945.072998046875 930.251403808594 923.412780761719 927.056701660156 927.811889648438 942.230895996094 956.031127929688 960.625915527344 962.019592285156 973.406005859375 980.285888671875 988.525024414062 1002.1494140625 1006.95373535156 1009.09814453125 1023.34356689453 1035.99035644531 1038.91101074219 1054.79846191406 1060.45715332031 1061.01599121094 1057.89807128906 1060.19995117188 1067.66650390625 1072.14587402344 1084.50598144531 1087.9453125 1091.37316894531 1089.71594238281 1118.27294921875 1118.80615234375 1116.43041992188 1117.53125 1117.75378417969 1123.15026855469 1120.11901855469
985.2861328125 976.878173828125 978.117248535156 974.832580566406 978.900207519531 977.722045898438 977.137390136719 980.609680175781 984.398071289062 970.631469726562 963.686706542969 963.349670410156 955.786682128906 966.177429199219 970.377136230469 966.581359863281 969.603149414062 974.714111328125 980.990966796875 977.161743164062 982.456848144531 977.25732421875 985.838806152344 988.093444824219 992.276977539062 994.105285644531 999.808410644531 1003.54425048828 1015.85327148438 1029.1201171875 1021.83044433594 1026.28100585938 1028.45129394531 1036.55993652344 1034.96240234375 1042.17468261719 1042.75231933594 1048.90319824219 1039.89855957031 1040.64733886719 1047.81970214844 1046.02685546875 1044.1572265625 1041.48413085938 1044.09545898438 1026.4814453125 1014.15576171875 1005.40087890625 1004.74890136719 1003.98480224609 1001.24304199219 1011.07086181641 1003.13385009766 1005.18182373047 1013.68603515625 1011.59191894531 1026.65490722656 1025.47619628906 1010.96380615234 1011.2880859375 1017.40515136719 1017.2421875 1025.99206542969 1028.59631347656 1027.22509765625 1022.51983642578 1029.92578125 1017.47650146484 1009.67364501953 1007.28619384766 1015.84423828125 1031.37463378906 1025.66552734375 1038.51098632812 1029.02563476562 1028.35229492188 1027.65161132812 1033.22180175781 1030.52026367188 1036.99768066406 1033.44396972656 1021.74230957031 1019.29400634766 1022.28204345703 1020.56439208984 1020.43127441406 1002.27252197266 999.721740722656 982.83447265625 974.651428222656 974.899780273438 963.61669921875 958.386291503906 959.501708984375 977.287902832031 979.459167480469 982.956787109375 983.326232910156 978.437683105469 975.959777832031 970.183227539062 972.367736816406 970.949523925781 972.731262207031 971.141784667969 966.142272949219 972.385620117188 983.429382324219 982.5498046875 975.957702636719 974.530639648438 964.412353515625 950.581298828125 946.895263671875 936.23583984375 933.229064941406 926.372253417969 928.017578125 938.356506347656 942.341674804688 945.146545410156 952.896667480469 957.081604003906 975.570129394531 978.507385253906 987.791625976562 998.934204101562 1006.63452148438 1014.54675292969 1021.27496337891 1037.48999023438 1050.5595703125 1051.65771484375 1055.70104980469 1062.14489746094 1057.03454589844 1055.00451660156 1067.68664550781 1075.86486816406 1085.0595703125 1078.72192382812 1088.44519042969 1101.048828125 1101.12561035156 1114.07092285156 1112.1923828125 1102.13354492188 1105.39001464844 1113.62426757812 1120.57214355469
973.441223144531 973.931213378906 976.252197265625 971.315185546875 967.089721679688 963.060852050781 973.121887207031 978.357727050781 975.389282226562 972.608642578125 961.816284179688 956.27294921875 957.784851074219 963.488708496094 970.66357421875 975.2978515625 972.899658203125 967.754516601562 978.961608886719 978.207214355469 973.033203125 978.456604003906 984.807373046875 985.369934082031 994.923950195312 1000.48931884766 1002.06958007812 1016.29870605469 1022.33056640625 1021.64001464844 1024.46911621094 1027.51330566406 1031.30859375 1026.53430175781 1034.06896972656 1033.30200195312 1041.25268554688 1046.11145019531 1043.3037109375 1033.99353027344 1036.52221679688 1042.19201660156 1038.20812988281 1038.79040527344 1031.66564941406 1023.51300048828 1014.96252441406 1006.14636230469 993.610046386719 997.825317382812 1008.65789794922 1016.66290283203 1005.99285888672 1008.67114257812 1009.81481933594 1014.16339111328 1019.15338134766 1019.30889892578 1005.22473144531 1018.74633789062 1018.25610351562 1028.21740722656 1034.10900878906 1031.74560546875 1037.93322753906 1027.69787597656 1021.63702392578 1021.12615966797 1020.6904296875 1024.92407226562 1020.30444335938 1023.72314453125 1026.61096191406 1022.74481201172 1026.89892578125 1029.61706542969 1024.03051757812 1026.28637695312 1040.82495117188 1034.06469726562 1032.82641601562 1020.39129638672 1019.18865966797 1018.12097167969 1016.42889404297 1015.99426269531 1000.14361572266 1001.71148681641 986.391967773438 984.960021972656 982.673461914062 974.75 965.798828125 977.9267578125 984.335510253906 992.464050292969 988.483581542969 991.237976074219 988.805358886719 984.981323242188 981.835510253906 987.005126953125 986.273681640625 982.1240234375 978.940795898438 976.892517089844 986.219604492188 986.598205566406 986.557983398438 981.139587402344 965.700378417969 965.681762695312 949.329528808594 943.50244140625 940.335144042969 931.843139648438 928.003784179688 930.278564453125 936.679138183594 946.883666992188 949.387145996094 956.870300292969 960.571899414062 975.385437011719 988.984558105469 997.593444824219 1001.55718994141 1014.03173828125 1019.95837402344 1029.61853027344 1038.74499511719 1049.98327636719 1057.96569824219 1053.64721679688 1056.80407714844 1050.51477050781 1055.525390625 1065.89123535156 1078.97119140625 1079.26940917969 1078.77600097656 1086.06103515625 1090.76635742188 1095.54064941406 1106.17663574219 1109.38000488281 1111.13781738281 1114.91748046875 1113.10168457031 1119.33154296875
970.349426269531 973.757690429688 971.101623535156 966.900634765625 960.398986816406 956.24169921875 958.561462402344 955.870666503906 965.769104003906 960.787353515625 950.412658691406 951.007690429688 964.671508789062 963.101318359375 967.59326171875 968.041076660156 977.221618652344 968.91650390625 984.20068359375 984.550720214844 978.944091796875 980.137329101562 985.692687988281 994.098327636719 991.159362792969 999.367492675781 1005.49432373047 1016.94622802734 1017.35418701172 1016.39520263672 1013.62445068359 1018.27856445312 1020.89508056641 1027.81079101562 1027.11547851562 1031.74780273438 1037.05944824219 1042.59790039062 1043.26550292969 1031.79858398438 1030.13452148438 1043.20751953125 1038.3369140625 1030.95166015625 1023.70660400391 1014.20068359375 1009.80688476562 1001.43017578125 999.493408203125 996.678833007812 1002.96789550781 1012.34973144531 1005.60699462891 1013.27740478516 1018.67639160156 1015.23291015625 1009.70190429688 1020.67706298828 1016.59149169922 1010.83465576172 1027.44384765625 1023.08416748047 1031.9609375 1026.57629394531 1022.17144775391 1031.75744628906 1030.93359375 1028.12182617188 1019.69927978516 1033.30859375 1026.66125488281 1026.89672851562 1027.80334472656 1022.55908203125 1023.47607421875 1021.81658935547 1029.25476074219 1034.01306152344 1043.98266601562 1032.69152832031 1023.216796875 1026.2041015625 1016.93579101562 1015.72644042969 1010.89038085938 998.479553222656 994.636901855469 989.458435058594 996.631042480469 993.415771484375 993.999450683594 997.760070800781 994.015075683594 988.840209960938 988.642150878906 996.340515136719 1005.24591064453 1003.69140625 995.200866699219 989.6923828125 989.032348632812 991.797424316406 993.341491699219 988.543640136719 987.240966796875 990.054260253906 982.889282226562 984.227172851562 976.855285644531 970.613159179688 968.818237304688 963.115295410156 947.043090820312 943.992858886719 937.730163574219 929.412536621094 922.524597167969 926.35009765625 934.950073242188 949.981323242188 950.774658203125 960.712707519531 969.709350585938 984.02099609375 991.555725097656 998.714477539062 1008.55078125 1021.71600341797 1026.75964355469 1035.48181152344 1045.15148925781 1043.19226074219 1040.90307617188 1053.03674316406 1063.38330078125 1055.91760253906 1059.32189941406 1069.39379882812 1076.380859375 1082.908203125 1065.55944824219 1084.32751464844 1087.85803222656 1087.59484863281 1098.86755371094 1096.54443359375 1098.59020996094 1106.85632324219 1101.78356933594 1105.58520507812
946.710388183594 964.946105957031 963.799011230469 959.951416015625 957.076538085938 942.661743164062 945.223083496094 955.603088378906 957.446838378906 954.898315429688 953.474304199219 949.696960449219 954.25390625 958.386901855469 960.401489257812 968.590759277344 980.399108886719 974.682983398438 985.997375488281 985.453796386719 975.171142578125 977.772888183594 981.615478515625 995.935729980469 988.216003417969 998.330383300781 1000.72937011719 998.049865722656 1004.88214111328 1007.10772705078 1005.89111328125 1010.26776123047 1010.20629882812 1012.91290283203 1019.69525146484 1031.27856445312 1033.10729980469 1038.72058105469 1042.759765625 1036.74291992188 1028.17578125 1034.001953125 1038.19067382812 1033.26843261719 1022.43927001953 1021.56604003906 1014.39147949219 1009.83209228516 1001.79083251953 1002.61248779297 995.465942382812 1001.60882568359 1003.77917480469 1002.75109863281 1008.21166992188 1013.30841064453 1011.7646484375 1019.99566650391 1018.29089355469 1019.70678710938 1012.19677734375 1014.50128173828 1019.54028320312 1023.66497802734 1027.89208984375 1028.24853515625 1023.55792236328 1027.98962402344 1024.25805664062 1022.46490478516 1025.80383300781 1022.65704345703 1025.16125488281 1023.53308105469 1022.47357177734 1021.02355957031 1023.67614746094 1024.17395019531 1031.37133789062 1032.8984375 1030.09936523438 1018.19635009766 1014.43756103516 1014.51110839844 1008.69018554688 1004.61010742188 995.924560546875 990.619689941406 998.667236328125 1003.33135986328 1009.63037109375 1009.00225830078 1010.10119628906 1003.35662841797 1005.55786132812 999.914367675781 1011.42706298828 1010.61669921875 994.287353515625 999.59912109375 1000.3876953125 993.972839355469 1004.43273925781 1006.50811767578 1001.65112304688 991.795227050781 989.391296386719 982.921081542969 975.993835449219 964.444885253906 958.039794921875 961.690063476562 950.089721679688 937.809997558594 950.718078613281 939.319885253906 934.599243164062 942.275573730469 937.770141601562 955.683349609375 964.974243164062 969.491577148438 980.755859375 989.920043945312 997.608947753906 1003.55133056641 1019.26934814453 1026.86682128906 1040.33618164062 1049.3681640625 1050.20288085938 1048.36938476562 1048.46398925781 1052.2392578125 1052.36267089844 1055.447265625 1059.75146484375 1071.31408691406 1080.67785644531 1084.544921875 1082.62426757812 1084.60534667969 1078.2724609375 1078.08203125 1089.11865234375 1098.23120117188 1101.14660644531 1098.3515625 1106.50354003906 1099.76306152344
946.219177246094 952.046447753906 960.788818359375 956.972961425781 945.555847167969 946.133666992188 950.111999511719 944.946716308594 943.040161132812 949.429260253906 950.191589355469 953.194702148438 955.382629394531 966.07177734375 961.565856933594 964.423889160156 964.17529296875 976.592651367188 972.157043457031 984.049072265625 976.182495117188 974.212829589844 977.513244628906 980.593627929688 983.944396972656 984.638488769531 986.492370605469 991.012390136719 998.077819824219 1001.40655517578 996.37841796875 999.255615234375 993.493225097656 1006.91845703125 1007.43780517578 1026.33630371094 1025.26159667969 1021.40362548828 1031.39123535156 1034.04321289062 1028.36706542969 1033.2890625 1021.53118896484 1021.82879638672 1017.21740722656 1021.62670898438 1013.38336181641 1005.67413330078 1005.17669677734 997.09033203125 1004.54791259766 995.830688476562 996.6796875 1004.48443603516 1003.11676025391 996.3720703125 1009.07745361328 1011.87145996094 1019.14379882812 1014.54443359375 1024.04797363281 1016.95465087891 1012.15246582031 1008.87866210938 1021.07440185547 1021.7880859375 1019.59655761719 1025.72448730469 1025.03662109375 1024.54357910156 1026.67590332031 1022.83282470703 1009.15667724609 1011.15887451172 1018.20562744141 1011.90264892578 1021.48736572266 1018.96673583984 1013.51031494141 1027.73876953125 1018.89379882812 1013.23278808594 1013.74133300781 1015.89959716797 1008.44195556641 1000.09600830078 1002.91748046875 1002.00183105469 1007.07397460938 1011.27447509766 1017.31079101562 1020.158203125 1021.90911865234 1017.93634033203 1019.68713378906 1014.96368408203 1021.13745117188 1016.92944335938 1004.85595703125 1006.47570800781 1001.50604248047 1004.48962402344 1009.87451171875 1013.43402099609 1009.94812011719 991.292236328125 988.484252929688 974.233642578125 968.369689941406 968.401489257812 962.265991210938 961.194091796875 953.402038574219 940.513488769531 942.250610351562 947.705993652344 940.4287109375 944.650817871094 952.031860351562 954.397338867188 960.110473632812 987.526794433594 996.716430664062 1007.42877197266 1016.14465332031 1014.85095214844 1024.205078125 1027.97961425781 1037.93994140625 1051.15417480469 1053.90161132812 1056.0478515625 1060.30029296875 1058.85852050781 1057.79016113281 1055.18798828125 1062.36865234375 1068.42639160156 1076.89477539062 1084.68005371094 1086.31176757812 1074.900390625 1074.60705566406 1081.23461914062 1083.91723632812 1078.26049804688 1100.27416992188 1100.2607421875 1106.68029785156 1100.9833984375
951.816284179688 947.369323730469 957.191345214844 959.671569824219 954.558410644531 952.511352539062 940.31201171875 937.657409667969 938.875305175781 939.193603515625 945.357666015625 945.567321777344 944.302307128906 958.340759277344 959.528747558594 958.652282714844 964.964904785156 973.662475585938 972.666870117188 971.673645019531 972.994262695312 977.291198730469 984.107971191406 992.858459472656 983.905883789062 980.664672851562 973.9912109375 985.406066894531 990.76123046875 1000.26031494141 1001.98431396484 1002.83557128906 997.733276367188 1007.490234375 1015.37933349609 1023.83251953125 1017.30078125 1020.53265380859 1025.76220703125 1029.78942871094 1026.14392089844 1022.67529296875 1027.78002929688 1024.76220703125 1017.95330810547 1015.80261230469 1015.32623291016 1006.36779785156 1001.22351074219 995.472473144531 1007.35174560547 1004.47576904297 1000.14416503906 1004.16839599609 996.267944335938 993.510498046875 1006.81030273438 1008.23889160156 1014.50360107422 1007.86047363281 1019.13873291016 1007.89617919922 1000.95245361328 1004.43109130859 1012.80877685547 1017.56286621094 1021.46301269531 1020.90045166016 1018.06616210938 1019.11163330078 1015.79693603516 1017.75567626953 1010.08221435547 1006.74816894531 1009.65350341797 1007.56823730469 1014.91436767578 1012.25708007812 1015.26287841797 1014.80419921875 1012.31079101562 1009.37976074219 1007.36529541016 1011.60791015625 1013.05950927734 1011.01544189453 1013.71142578125 1008.30676269531 1011.22796630859 1010.17102050781 1008.91461181641 1025.60583496094 1023.45379638672 1026.21594238281 1028.92944335938 1022.94891357422 1010.89239501953 1006.42553710938 1011.06207275391 1008.6142578125 1010.44567871094 1015.47375488281 1016.60748291016 1017.98974609375 1014.09631347656 1011.0595703125 988.139770507812 977.698913574219 976.144958496094 977.373474121094 977.826721191406 978.537048339844 958.029174804688 950.854797363281 933.939453125 941.482971191406 959.714660644531 963.925415039062 964.940856933594 978.139709472656 976.121948242188 999.608032226562 1006.43048095703 1018.26647949219 1019.48590087891 1024.9716796875 1030.78723144531 1035.49426269531 1036.49523925781 1043.21862792969 1049.83776855469 1053.15612792969 1059.41870117188 1054.82604980469 1064.0791015625 1057.77624511719 1057.8193359375 1068.15307617188 1069.98205566406 1074.44262695312 1088.05065917969 1081.64135742188 1078.21362304688 1071.51721191406 1080.52526855469 1074.37963867188 1084.77893066406 1101.67492675781 1095.10400390625 1095.5673828125
949.647338867188 944.078002929688 951.204162597656 957.981140136719 954.851318359375 944.726501464844 949.9501953125 947.314453125 944.426940917969 945.774780273438 946.766784667969 958.721252441406 953.223388671875 957.805541992188 967.971435546875 960.875 968.224792480469 972.512512207031 969.1767578125 969.079833984375 971.886047363281 978.486999511719 988.042724609375 991.9140625 986.819519042969 981.165283203125 973.90869140625 981.103576660156 982.58349609375 996.969116210938 999.257751464844 1000.92120361328 1002.23083496094 1001.15460205078 1010.01843261719 1009.52172851562 1012.76745605469 1021.07635498047 1025.39501953125 1028.66247558594 1032.26159667969 1033.8837890625 1025.15454101562 1019.67639160156 1020.01397705078 1018.25415039062 1004.82781982422 1004.37677001953 1005.13330078125 1004.35211181641 1003.86053466797 1014.14526367188 1004.42889404297 999.305786132812 1003.1748046875 1001.96337890625 1003.65600585938 1004.53704833984 1005.10162353516 1012.90679931641 1010.03021240234 1005.05029296875 1000.86529541016 1008.84625244141 1015.49536132812 1018.68957519531 1024.07116699219 1027.30090332031 1020.86169433594 1015.52575683594 1012.74725341797 1016.87823486328 1017.09307861328 1010.98382568359 1011.99493408203 1007.37463378906 1008.89270019531 1004.99627685547 1006.43927001953 1003.79180908203 1009.92449951172 1003.97210693359 1003.32171630859 1007.62866210938 1000.99523925781 1010.62243652344 1011.15924072266 1008.60504150391 1016.98223876953 1007.32092285156 1016.9404296875 1021.25891113281 1025.37670898438 1033.84350585938 1026.56909179688 1015.75341796875 1009.63360595703 1007.51104736328 1009.45098876953 1007.56365966797 1003.63891601562 1007.20239257812 1013.4716796875 1009.04962158203 1012.99377441406 1007.26702880859 1000.61450195312 983.015258789062 989.875671386719 982.522216796875 987.622985839844 976.616943359375 962.390991210938 950.729125976562 941.998596191406 948.507568359375 954.684448242188 968.440734863281 979.18017578125 989.936706542969 995.464904785156 996.958557128906 1006.50653076172 1010.38494873047 1012.26574707031 1019.51440429688 1029.63940429688 1035.54760742188 1034.92248535156 1038.35791015625 1035.74462890625 1045.45837402344 1052.64489746094 1053.37707519531 1048.87634277344 1049.4501953125 1050.81481933594 1059.49243164062 1058.89416503906 1069.32543945312 1068.24743652344 1070.59033203125 1072.51330566406 1078.48510742188 1077.06970214844 1076.16723632812 1088.08142089844 1099.88256835938 1097.75866699219 1096.96166992188
943.975463867188 931.633605957031 944.163452148438 947.414489746094 947.956298828125 946.989379882812 955.045959472656 952.211120605469 954.478637695312 958.862182617188 957.046020507812 957.702331542969 962.161010742188 978.2021484375 966.033325195312 973.909423828125 966.50048828125 964.201354980469 964.98486328125 963.564270019531 977.670837402344 981.389892578125 988.4638671875 989.554626464844 989.358581542969 983.502014160156 975.896240234375 986.319274902344 986.314025878906 987.655029296875 997.684143066406 998.740478515625 1004.00494384766 1002.40240478516 1005.6884765625 1010.22033691406 1007.46685791016 1011.75384521484 1015.05383300781 1018.10760498047 1028.5087890625 1028.19738769531 1019.47241210938 1013.60101318359 1018.85906982422 1004.04241943359 1006.6494140625 1006.73999023438 998.477905273438 995.369079589844 1005.15032958984 1007.14831542969 1006.27294921875 1001.43157958984 995.677062988281 998.707946777344 995.935607910156 1000.22595214844 1005.65100097656 1005.66314697266 996.236022949219 1001.52789306641 995.732238769531 1002.35150146484 1011.11004638672 1013.40802001953 1026.44104003906 1025.22338867188 1022.12475585938 1013.51715087891 1009.60699462891 1014.82904052734 1012.55633544922 1007.26849365234 1008.21051025391 1011.27423095703 1012.30950927734 1003.67333984375 1007.38879394531 1000.17016601562 1006.28533935547 1002.26745605469 1005.97467041016 1006.24310302734 1006.45983886719 1009.501953125 1001.26525878906 1012.91284179688 1009.96356201172 1011.68518066406 1017.13745117188 1028.14685058594 1025.91223144531 1032.00903320312 1027.931640625 1017.787109375 1013.73937988281 1009.16809082031 1003.90466308594 1001.33569335938 1006.3349609375 1001.63110351562 1007.17736816406 1014.46667480469 1016.63311767578 1014.56927490234 1008.31860351562 998.981872558594 992.530395507812 992.778076171875 986.587707519531 968.801452636719 956.703430175781 943.802795410156 943.134887695312 947.029479980469 953.723449707031 975.363830566406 986.349487304688 994.123352050781 997.141052246094 996.599670410156 1010.90393066406 1013.43786621094 1020.39245605469 1026.75842285156 1035.78759765625 1036.83337402344 1041.86169433594 1038.22790527344 1031.38122558594 1036.26586914062 1044.5009765625 1041.83447265625 1045.35681152344 1044.57019042969 1048.15258789062 1051.49194335938 1056.84887695312 1060.35729980469 1065.98889160156 1073.89135742188 1072.33386230469 1072.3984375 1073.4140625 1073.56921386719 1085.34521484375 1099.34985351562 1103.64587402344 1100.99743652344
938.951904296875 935.872924804688 936.3486328125 939.862854003906 949.6396484375 957.648376464844 965.878967285156 961.404235839844 963.656372070312 962.988525390625 958.428894042969 966.635437011719 961.348876953125 973.546630859375 981.024780273438 974.734375 965.215759277344 969.998840332031 973.399108886719 970.914367675781 970.459899902344 976.26953125 990.966003417969 996.139587402344 993.516235351562 984.977783203125 977.257568359375 982.084777832031 992.898803710938 985.934204101562 992.5751953125 994.977478027344 994.058410644531 1004.60760498047 1002.26495361328 1011.41510009766 1005.41009521484 999.434875488281 1008.4775390625 1005.07800292969 1011.38287353516 1017.78894042969 1010.53247070312 1006.12493896484 1009.81652832031 1008.19079589844 1009.90112304688 1002.537109375 998.448120117188 998.471435546875 1000.78558349609 999.494750976562 998.000610351562 994.234313964844 1000.17907714844 1000.43170166016 1004.72705078125 1003.99597167969 997.150329589844 1008.77630615234 996.971496582031 992.493347167969 995.828491210938 998.749389648438 1005.86578369141 1004.74572753906 1016.38098144531 1021.69049072266 1013.30603027344 1012.32556152344 1006.95452880859 1012.39697265625 1011.47332763672 1004.35064697266 1007.73229980469 1013.58581542969 1009.72497558594 1001.48461914062 1001.44555664062 994.251281738281 996.319396972656 992.640197753906 998.657287597656 1003.38372802734 1003.53009033203 1001.61444091797 1004.56921386719 1006.19873046875 1001.96704101562 1011.06317138672 1014.65295410156 1022.52984619141 1023.78137207031 1024.69873046875 1017.49285888672 1009.77465820312 1006.10711669922 1009.00305175781 1008.19897460938 1004.71374511719 1006.19500732422 1005.15979003906 1007.6171875 1017.76153564453 1017.73352050781 1006.43060302734 996.565124511719 998.534301757812 984.864318847656 984.10205078125 972.607360839844 970.711608886719 952.056762695312 940.675720214844 942.564392089844 944.992980957031 956.608215332031 967.39697265625 989.952514648438 994.862609863281 1002.81207275391 1007.9521484375 1007.07006835938 1019.65087890625 1029.42553710938 1038.09509277344 1041.52575683594 1038.49084472656 1043.005859375 1034.85778808594 1033.83911132812 1035.81188964844 1044.22863769531 1035.86840820312 1042.73278808594 1042.87609863281 1047.76647949219 1054.47778320312 1051.86975097656 1063.72143554688 1061.97863769531 1065.60278320312 1065.93627929688 1062.2734375 1065.3447265625 1072.50695800781 1079.55249023438 1091.41540527344 1096.7900390625 1103.62451171875
939.815124511719 936.42529296875 947.25244140625 946.266052246094 943.885375976562 956.362365722656 963.736450195312 966.160278320312 962.701904296875 965.97021484375 963.585205078125 965.143920898438 970.601379394531 978.343322753906 977.988891601562 979.091125488281 970.523315429688 968.346130371094 964.034240722656 975.390258789062 984.033935546875 976.233337402344 985.455444335938 986.631652832031 991.049560546875 989.1484375 984.449401855469 993.649353027344 989.533874511719 984.242004394531 993.664001464844 994.849182128906 994.809753417969 998.8388671875 1006.36254882812 1009.78143310547 998.465454101562 999.700622558594 1002.65612792969 1002.06988525391 996.660095214844 994.250183105469 1003.8037109375 1001.51068115234 1005.36285400391 1001.82781982422 1004.60894775391 1004.34484863281 995.528198242188 989.947387695312 985.223022460938 991.377807617188 991.884826660156 986.782348632812 996.084289550781 998.309753417969 1001.40393066406 998.156372070312 997.7041015625 997.772033691406 995.282775878906 995.968933105469 994.053344726562 998.551147460938 999.0712890625 1011.58758544922 1013.10729980469 1013.04595947266 1017.07550048828 1011.80963134766 1005.72613525391 1002.94696044922 1004.98010253906 1008.24475097656 1002.66229248047 1012.94689941406 1011.91430664062 995.731384277344 995.029418945312 992.155395507812 992.422241210938 995.688659667969 996.147644042969 1000.43017578125 1000.21368408203 993.861999511719 997.0703125 1006.30279541016 1004.17718505859 1009.45245361328 1015.40466308594 1023.34362792969 1017.07305908203 1022.17242431641 1011.70745849609 1011.93725585938 1011.43371582031 1014.06976318359 1009.81274414062 1013.43695068359 1005.76635742188 1004.33392333984 1002.36505126953 1007.80902099609 1008.07196044922 1004.82373046875 1004.66204833984 997.198791503906 985.557678222656 979.553039550781 964.234985351562 954.871337890625 947.113891601562 943.713989257812 941.441101074219 943.977111816406 961.44091796875 977.833679199219 988.410400390625 998.235290527344 1012.54083251953 1005.86584472656 1018.24243164062 1027.21691894531 1022.68658447266 1025.19934082031 1042.50415039062 1041.93933105469 1037.48791503906 1040.47680664062 1033.61047363281 1035.14147949219 1032.46057128906 1036.37072753906 1029.95764160156 1033.82946777344 1040.50061035156 1047.85766601562 1051.14221191406 1057.54797363281 1063.65014648438 1059.2060546875 1061.36315917969 1067.60803222656 1064.54125976562 1075.10205078125 1089.33532714844 1090.708984375 1090.57373046875 1093.14331054688
938.854553222656 944.978637695312 946.37548828125 944.941223144531 940.824401855469 945.32958984375 962.779052734375 961.002075195312 958.084045410156 969.513732910156 968.515563964844 974.155944824219 977.113952636719 971.87353515625 983.621032714844 982.600158691406 973.005554199219 967.934631347656 977.329772949219 976.342346191406 976.357788085938 979.758850097656 986.128784179688 987.706115722656 993.544128417969 993.314086914062 989.070678710938 994.232604980469 981.50927734375 983.539855957031 982.485534667969 993.062622070312 1006.52728271484 995.395568847656 999.220825195312 994.498779296875 990.872741699219 1007.08630371094 999.255004882812 997.109130859375 999.602355957031 998.195556640625 999.163330078125 988.0087890625 999.972717285156 994.391479492188 1000.26110839844 1002.58660888672 998.951965332031 995.707641601562 990.723754882812 983.441650390625 980.236083984375 989.435729980469 994.849548339844 1001.85198974609 1000.83026123047 994.551940917969 986.300170898438 987.054443359375 992.543884277344 999.389709472656 1001.36029052734 995.290161132812 999.155090332031 1005.2763671875 1008.08056640625 1009.97485351562 1006.14801025391 1009.62133789062 1005.57635498047 1006.66650390625 1004.49493408203 997.276306152344 1001.94604492188 1005.81781005859 1004.34063720703 999.834411621094 989.983947753906 989.982055664062 993.364440917969 990.056579589844 993.33935546875 996.329284667969 1009.32934570312 1004.673828125 998.173217773438 1005.24096679688 1004.02551269531 1012.93481445312 1016.251953125 1011.5703125 1012.83135986328 1023.15808105469 1020.63409423828 1008.48736572266 1009.24761962891 1012.25592041016 1014.69134521484 1004.14562988281 1001.29229736328 1001.05694580078 999.566528320312 997.148010253906 995.615112304688 1004.82952880859 1007.27117919922 1001.87213134766 988.780883789062 974.842834472656 961.546997070312 958.405639648438 947.072448730469 939.293762207031 941.136901855469 949.409790039062 955.510498046875 967.653381347656 976.260192871094 999.228942871094 1009.58917236328 1009.69525146484 1014.04315185547 1027.7265625 1031.81286621094 1025.86779785156 1034.33618164062 1043.05688476562 1041.12780761719 1037.52453613281 1030.53588867188 1037.58227539062 1035.45837402344 1033.59692382812 1022.92486572266 1033.10266113281 1030.931640625 1050.40454101562 1057.78881835938 1053.30603027344 1058.13659667969 1061.0595703125 1068.95458984375 1067.48229980469 1077.44140625 1076.12573242188 1092.87219238281 1089.75915527344 1088.07763671875 1097.86279296875
930.617492675781 940.379455566406 951.280944824219 943.168273925781 947.101379394531 954.25732421875 960.625061035156 969.495361328125 968.9169921875 960.820922851562 971.838745117188 969.299255371094 973.911743164062 972.733215332031 979.564208984375 975.678405761719 976.778747558594 976.617065429688 978.965087890625 971.852172851562 976.03759765625 978.644958496094 985.703063964844 990.488647460938 987.421569824219 984.53515625 990.411437988281 989.459838867188 988.404357910156 980.700439453125 981.522399902344 988.995300292969 993.514831542969 990.278930664062 984.496826171875 990.905090332031 992.305786132812 999.085693359375 1003.26818847656 994.865051269531 993.094055175781 994.3681640625 997.867614746094 989.078796386719 998.379760742188 998.447631835938 996.919250488281 998.584350585938 992.022033691406 984.351013183594 983.603210449219 980.718139648438 979.6162109375 984.006164550781 984.912902832031 986.5986328125 988.979309082031 993.218872070312 993.278625488281 994.549133300781 995.017944335938 988.627014160156 999.806518554688 997.355651855469 997.872009277344 995.961059570312 1003.98968505859 1001.91943359375 1002.78161621094 999.697021484375 1004.525390625 1003.28533935547 1003.18432617188 993.686462402344 999.890014648438 1002.3447265625 992.40087890625 990.627197265625 990.84228515625 993.49267578125 994.327819824219 993.396545410156 997.743713378906 997.539184570312 1000.36492919922 1005.6640625 1006.86090087891 1006.4541015625 1005.60430908203 1007.17535400391 1014.50701904297 1020.36047363281 1022.6201171875 1014.08758544922 1020.16668701172 1014.56701660156 1006.72601318359 1003.74188232422 1009.78515625 1002.70941162109 1008.47546386719 997.146057128906 999.700744628906 997.349853515625 994.818237304688 994.187377929688 1000.07006835938 999.553466796875 991.076477050781 987.640075683594 977.759033203125 960.0185546875 944.72705078125 941.519165039062 938.344360351562 938.707946777344 950.405334472656 965.053771972656 973.517944335938 995.313293457031 1001.01947021484 1009.2265625 1018.63421630859 1036.56726074219 1034.24792480469 1029.90344238281 1035.11901855469 1040.65014648438 1034.49499511719 1028.09521484375 1033.19213867188 1039.54577636719 1035.82397460938 1025.75915527344 1027.94641113281 1027.88269042969 1027.06555175781 1039.94494628906 1044.98962402344 1050.94323730469 1059.72863769531 1065.87951660156 1071.615234375 1079.14758300781 1082.67919921875 1085.62719726562 1097.89587402344 1105.58642578125 1104.75659179688 1101.16430664062
935.424377441406 947.167114257812 957.038635253906 957.627990722656 953.893310546875 956.455261230469 960.937255859375 963.936218261719 962.830688476562 965.956176757812 967.849060058594 972.502868652344 972.154846191406 981.371704101562 971.167236328125 973.013610839844 977.503479003906 979.074645996094 981.454650878906 971.602416992188 973.105102539062 981.574401855469 985.282287597656 988.550537109375 978.584106445312 986.695373535156 987.911682128906 992.494812011719 993.635498046875 982.084533691406 986.204284667969 991.697692871094 990.273010253906 994.737609863281 983.181701660156 992.189208984375 993.777160644531 997.387817382812 997.620788574219 993.467712402344 998.284057617188 990.958129882812 991.369323730469 992.432800292969 996.570617675781 1001.58563232422 992.742553710938 995.086303710938 984.914916992188 984.635192871094 988.718811035156 981.830322265625 978.010498046875 976.820434570312 984.551025390625 987.778015136719 982.759216308594 990.906372070312 1000.75933837891 1001.29730224609 991.342468261719 992.004699707031 1000.46551513672 994.396789550781 998.888000488281 1002.76214599609 1002.35296630859 999.978454589844 994.995666503906 999.246276855469 993.890747070312 997.788330078125 1003.26654052734 1000.26251220703 1002.52880859375 993.077819824219 991.005737304688 992.775939941406 990.727294921875 991.67041015625 994.794921875 999.335144042969 1000.99493408203 1002.06958007812 997.057861328125 1002.28308105469 997.481201171875 998.8759765625 1003.15832519531 1001.27526855469 1013.11041259766 1022.2861328125 1012.75238037109 1009.26446533203 1014.86431884766 1015.61999511719 1013.39947509766 1007.35900878906 1012.99298095703 1007.06829833984 1002.05065917969 997.302734375 992.044250488281 993.382263183594 989.263122558594 992.719543457031 999.041381835938 997.411315917969 990.584655761719 990.940307617188 980.009948730469 966.419189453125 949.801452636719 944.284851074219 942.624328613281 936.101623535156 937.557006835938 949.093383789062 964.916748046875 989.537170410156 998.719055175781 1009.37951660156 1021.74725341797 1030.53527832031 1025.64050292969 1030.37963867188 1031.35400390625 1030.57055664062 1031.84606933594 1028.11950683594 1035.64282226562 1032.20568847656 1028.17858886719 1025.1689453125 1022.19750976562 1024.91845703125 1030.21044921875 1044.62414550781 1047.29016113281 1053.80358886719 1059.6533203125 1070.40881347656 1074.71215820312 1085.98657226562 1089.92724609375 1098.85095214844 1109.59619140625 1112.14721679688 1114.64599609375 1112.0947265625
940.783020019531 945.019592285156 956.945922851562 960.804260253906 970.776062011719 965.918884277344 959.533264160156 969.478332519531 964.04638671875 964.877807617188 972.397155761719 975.905883789062 969.519226074219 977.61279296875 969.637634277344 974.63525390625 974.092468261719 973.6103515625 982.099487304688 985.229919433594 984.13232421875 976.09765625 981.069458007812 988.675476074219 988.127868652344 982.6904296875 984.541748046875 993.079711914062 993.611877441406 993.92626953125 989.419006347656 986.385192871094 989.604614257812 987.769409179688 980.911437988281 984.230102539062 989.567565917969 997.095275878906 996.576477050781 1002.70050048828 995.735473632812 982.984802246094 984.543762207031 994.290344238281 985.872985839844 993.038208007812 992.695861816406 990.648315429688 994.421691894531 990.579467773438 988.009948730469 985.666076660156 978.321044921875 978.65966796875 980.435119628906 987.3046875 990.461853027344 987.468811035156 988.757568359375 994.730163574219 992.1982421875 996.628845214844 991.698608398438 996.97119140625 1004.26953125 997.8330078125 994.793212890625 999.922119140625 1001.86138916016 996.888916015625 991.665405273438 987.827087402344 989.725158691406 992.596557617188 1004.74114990234 1000.83062744141 993.217407226562 992.091003417969 987.5283203125 991.992553710938 988.459838867188 1005.61395263672 1006.15093994141 1003.91180419922 1006.07202148438 1003.00756835938 1012.25268554688 1011.19207763672 1009.56518554688 1011.6533203125 1016.31774902344 1020.71203613281 1015.26342773438 1014.58685302734 1010.86859130859 1020.87725830078 1019.01239013672 1014.65197753906 1000.28381347656 1007.92114257812 1007.00354003906 1000.21533203125 991.574829101562 986.680725097656 989.08837890625 1005.76586914062 1001.47644042969 994.376220703125 988.977416992188 987.950866699219 980.294982910156 967.136779785156 956.228576660156 947.502075195312 946.096557617188 938.729248046875 942.718566894531 952.214172363281 968.340942382812 984.174133300781 1001.91790771484 1015.6767578125 1027.15966796875 1028.44104003906 1025.0732421875 1024.77355957031 1027.91613769531 1040.54956054688 1036.70593261719 1037.95007324219 1035.359375 1031.99499511719 1024.36938476562 1019.16790771484 1027.27783203125 1025.70751953125 1026.64318847656 1036.67993164062 1048.17016601562 1051.47766113281 1059.15222167969 1076.66540527344 1079.27587890625 1096.2265625 1100.193359375 1105.62780761719 1108.34106445312 1119.78942871094 1118.67590332031 1113.4794921875
953.06884765625 951.689697265625 967.696166992188 974.675048828125 971.607177734375 966.989929199219 972.308349609375 968.400817871094 965.038513183594 971.126708984375 980.834838867188 979.802856445312 978.586120605469 966.340515136719 967.71923828125 976.242065429688 974.570495605469 976.234802246094 984.016845703125 981.611694335938 978.891662597656 984.0224609375 985.556884765625 989.963623046875 987.189697265625 982.434875488281 983.3466796875 986.282470703125 990.573303222656 995.398803710938 982.125854492188 983.72705078125 982.114379882812 984.453491210938 990.282165527344 986.564880371094 987.4619140625 990.510803222656 982.827453613281 996.0302734375 992.969787597656 980.315124511719 988.683898925781 989.389892578125 981.235717773438 988.389038085938 991.563842773438 987.502258300781 983.37939453125 984.558044433594 991.740356445312 977.279296875 967.686889648438 973.670532226562 980.261291503906 992.951599121094 996.136474609375 996.858154296875 1000.50982666016 988.597351074219 991.1162109375 993.952941894531 999.15380859375 1005.65454101562 1004.64056396484 997.436828613281 987.286560058594 995.16748046875 997.446411132812 989.593505859375 990.327087402344 988.588195800781 987.082336425781 994.457763671875 998.36962890625 998.506286621094 996.8447265625 990.386840820312 993.20263671875 993.482788085938 990.96484375 999.958435058594 1010.49468994141 1007.12072753906 1008.70916748047 1009.54937744141 1010.57379150391 1015.89764404297 1013.95367431641 1006.06463623047 1013.28356933594 1014.31097412109 1020.64172363281 1006.84136962891 1016.46533203125 1023.28826904297 1025.61071777344 1014.67913818359 1010.15759277344 1005.95434570312 1004.38586425781 1002.95446777344 994.332763671875 990.674621582031 994.714294433594 992.880432128906 997.138244628906 998.388000488281 995.261535644531 993.878173828125 973.527893066406 970.675109863281 958.617309570312 948.093383789062 952.42626953125 950.703796386719 949.190490722656 952.931091308594 971.966247558594 973.789123535156 996.773986816406 1007.27075195312 1012.71276855469 1020.81518554688 1018.25018310547 1015.03778076172 1022.98388671875 1034.67102050781 1034.1298828125 1038.87243652344 1033.87646484375 1022.87945556641 1020.57067871094 1023.98059082031 1021.75616455078 1019.35656738281 1019.88635253906 1036.212890625 1043.68237304688 1050.35949707031 1059.15612792969 1079.58471679688 1085.18994140625 1094.04833984375 1106.00048828125 1109.43005371094 1113.67797851562 1124.30114746094 1116.99047851562 1112.17724609375
943.591613769531 957.621276855469 968.127624511719 971.073852539062 968.48486328125 966.050354003906 975.653503417969 968.076904296875 977.21875 979.048461914062 981.058349609375 984.858337402344 979.057556152344 970.095520019531 968.909484863281 963.839538574219 968.848693847656 975.448974609375 972.081420898438 981.411193847656 984.164367675781 988.679382324219 981.839904785156 992.610595703125 993.539245605469 994.201965332031 986.052062988281 980.967712402344 977.423950195312 984.2158203125 982.082702636719 977.248229980469 977.671325683594 989.998413085938 989.395324707031 981.794006347656 982.740905761719 984.492004394531 988.586059570312 981.891906738281 983.511535644531 985.693603515625 985.268005371094 993.100280761719 988.488647460938 993.269287109375 984.6923828125 981.798034667969 983.4072265625 985.708190917969 979.165222167969 977.820068359375 975.2236328125 982.599365234375 986.484802246094 983.759155273438 992.958984375 997.261291503906 991.644897460938 990.955871582031 998.961547851562 996.57177734375 998.858154296875 1002.23760986328 998.136413574219 998.598999023438 992.91796875 987.539123535156 994.957702636719 984.853393554688 991.027404785156 993.601440429688 992.694396972656 997.579895019531 1006.03076171875 1001.48852539062 998.885375976562 1001.03735351562 992.753356933594 994.906982421875 993.423828125 999.092956542969 1004.67510986328 1004.60150146484 1012.51794433594 1013.41857910156 1019.36328125 1018.29797363281 1015.01055908203 1016.21075439453 1016.15979003906 1005.26000976562 1008.47369384766 1005.3017578125 1007.86248779297 1008.61828613281 1010.71112060547 1015.44287109375 1008.34539794922 1010.38409423828 1006.46392822266 996.009155273438 1005.02276611328 998.140930175781 991.511352539062 1004.61877441406 1000.82391357422 1001.74774169922 1000.45092773438 995.406127929688 972.926940917969 973.032470703125 958.597595214844 962.892150878906 959.974548339844 953.666015625 955.747924804688 961.044677734375 974.734069824219 977.568725585938 993.739685058594 1004.37048339844 1010.48284912109 1013.49493408203 1017.38208007812 1020.02807617188 1019.18823242188 1024.65686035156 1020.49328613281 1018.21911621094 1013.99621582031 1015.74499511719 1024.03137207031 1016.87713623047 1013.72021484375 1021.83843994141 1021.84613037109 1030.56225585938 1047.02258300781 1060.4306640625 1077.13220214844 1090.08837890625 1092.46337890625 1098.04833984375 1111.56469726562 1107.05749511719 1116.37976074219 1128.68701171875 1124.24450683594 1111.966796875
946.648315429688 956.349548339844 964.703247070312 975.6708984375 963.76318359375 961.824768066406 970.065185546875 970.501037597656 976.4775390625 978.248413085938 980.449645996094 973.990966796875 977.971801757812 974.020874023438 967.343872070312 965.246154785156 973.218627929688 981.2236328125 980.1796875 985.193908691406 980.227722167969 977.571899414062 984.04150390625 993.380249023438 993.4423828125 988.315246582031 986.369384765625 978.811828613281 982.410705566406 986.853393554688 981.39404296875 982.390258789062 978.062805175781 983.912048339844 988.207763671875 981.6533203125 984.595886230469 982.862121582031 986.169006347656 978.439453125 980.481506347656 995.420776367188 992.500549316406 990.634765625 976.747924804688 988.265258789062 980.614013671875 980.042602539062 982.304931640625 981.691589355469 981.730346679688 978.683837890625 980.324584960938 974.347595214844 985.323791503906 985.821044921875 982.675109863281 998.842407226562 997.298706054688 994.008544921875 999.268676757812 1003.95086669922 996.988525390625 1002.43933105469 995.685363769531 993.981323242188 982.811096191406 977.886474609375 987.108215332031 976.219116210938 980.213073730469 993.314208984375 988.585571289062 1000.19372558594 1003.62048339844 1001.27874755859 997.143249511719 994.094299316406 990.291320800781 992.376831054688 996.395690917969 1002.13323974609 995.02587890625 998.715270996094 1003.70721435547 1014.61840820312 1022.23010253906 1023.47924804688 1022.86376953125 1028.16259765625 1025.29895019531 1011.30645751953 1005.59924316406 1008.74584960938 1011.95483398438 1008.64581298828 1008.54296875 1002.68182373047 1008.59387207031 1007.18371582031 1004.48992919922 997.414367675781 998.658264160156 997.48583984375 992.704650878906 995.213195800781 999.051818847656 994.669738769531 994.781005859375 987.557983398438 979.437255859375 975.654174804688 973.612060546875 968.164611816406 962.879333496094 970.716674804688 968.3056640625 976.045532226562 979.432067871094 978.752380371094 999.120544433594 1002.83190917969 1007.22607421875 1011.45056152344 1023.23992919922 1020.00622558594 1025.64147949219 1018.92431640625 1015.53674316406 1018.17651367188 1014.14007568359 1014.60815429688 1019.12457275391 1015.8408203125 1012.54852294922 1020.0771484375 1019.83441162109 1026.31103515625 1051.27844238281 1065.54260253906 1072.89489746094 1087.00769042969 1089.91052246094 1105.60107421875 1115.65869140625 1121.04064941406 1115.58837890625 1125.04809570312 1128.04748535156 1123.83715820312
945.8623046875 950.151489257812 957.462585449219 969.048522949219 966.313720703125 966.43994140625 972.389709472656 968.529846191406 973.328308105469 977.124328613281 972.378234863281 973.059936523438 982.9951171875 978.693054199219 973.158325195312 978.754089355469 979.644409179688 984.079467773438 978.317138671875 990.399597167969 982.398681640625 973.319152832031 983.272888183594 994.176513671875 999.366027832031 983.540649414062 970.190856933594 973.319213867188 985.920043945312 988.071838378906 985.579650878906 986.866271972656 980.987915039062 989.176513671875 984.95751953125 978.101684570312 982.970825195312 981.665893554688 984.696655273438 979.252502441406 982.860900878906 984.711547851562 987.677062988281 983.741516113281 979.026000976562 978.521789550781 977.536254882812 978.807983398438 981.896179199219 977.84326171875 979.280395507812 980.598876953125 981.167053222656 969.628723144531 982.152587890625 981.95068359375 993.49462890625 993.676330566406 988.499206542969 993.501647949219 989.87255859375 991.018493652344 994.781494140625 988.881774902344 981.598937988281 985.908020019531 974.400451660156 971.856628417969 971.101135253906 971.093017578125 971.451416015625 984.801940917969 986.632873535156 991.393676757812 998.905090332031 1007.84106445312 1003.79803466797 1006.09185791016 993.406311035156 998.382446289062 996.65234375 995.032531738281 991.849487304688 995.019653320312 1002.39672851562 1018.25823974609 1024.49145507812 1022.96380615234 1021.54211425781 1028.1123046875 1028.197265625 1018.75543212891 1004.65863037109 1007.07836914062 1020.19262695312 1014.40179443359 1007.52478027344 1003.54382324219 998.292297363281 999.955810546875 994.696350097656 997.349548339844 997.453796386719 1000.81811523438 994.365051269531 990.08056640625 995.896301269531 990.374267578125 989.25390625 994.007568359375 983.334655761719 978.544616699219 979.356323242188 973.304504394531 968.287109375 976.679809570312 979.2265625 976.248962402344 976.773742675781 982.509460449219 993.688293457031 1001.59753417969 999.009826660156 1013.74224853516 1017.24914550781 1021.27496337891 1021.97351074219 1017.02612304688 1018.65942382812 1012.77606201172 1019.68023681641 1015.669921875 1017.41687011719 1017.94299316406 1023.28277587891 1017.64190673828 1020.07922363281 1037.18676757812 1051.06140136719 1053.43444824219 1076.33581542969 1090.046875 1095.86755371094 1107.92211914062 1117.34301757812 1111.10791015625 1119.73706054688 1126.50659179688 1122.57177734375 1124.32202148438
942.281921386719 955.191040039062 958.202880859375 962.802368164062 965.551086425781 960.353515625 973.027770996094 967.566223144531 969.763916015625 972.851135253906 987.612548828125 977.166748046875 983.131286621094 987.293762207031 973.902770996094 971.634765625 975.482971191406 981.809814453125 982.532470703125 984.017211914062 984.569458007812 981.171203613281 977.489196777344 985.869201660156 986.94384765625 983.505187988281 972.680847167969 970.667053222656 980.019409179688 987.064697265625 986.6982421875 989.248657226562 987.992065429688 989.111328125 990.22314453125 984.166442871094 974.778625488281 982.015991210938 981.465576171875 975.457275390625 974.401428222656 977.289428710938 985.982604980469 980.484497070312 980.064270019531 961.132629394531 971.915954589844 965.689025878906 976.263488769531 974.974670410156 983.275146484375 977.456909179688 975.343627929688 974.716064453125 978.064575195312 979.005249023438 978.171142578125 989.868103027344 992.515869140625 984.82470703125 990.847412109375 987.199279785156 987.732482910156 984.4326171875 981.24755859375 978.310791015625 972.403503417969 970.395874023438 969.061767578125 969.124694824219 969.31591796875 980.791076660156 984.263854980469 989.882507324219 998.788330078125 999.763366699219 998.30419921875 998.626892089844 993.952026367188 991.299438476562 999.528015136719 994.13037109375 999.76123046875 1001.71032714844 1010.45819091797 1017.02362060547 1018.02178955078 1025.98266601562 1018.77862548828 1018.89416503906 1016.83465576172 1011.47619628906 1007.16510009766 1007.91815185547 1014.36950683594 1014.84771728516 1010.35919189453 999.356628417969 999.171691894531 990.909118652344 990.004699707031 999.410888671875 1000.88513183594 998.147399902344 1002.07940673828 997.836364746094 997.182800292969 997.692749023438 998.613098144531 985.677734375 991.187072753906 991.899841308594 991.164733886719 991.833068847656 983.786926269531 981.702514648438 983.860656738281 981.599365234375 979.060363769531 990.922180175781 992.630554199219 1006.85833740234 1007.50830078125 1008.34320068359 1015.64373779297 1015.21759033203 1017.01776123047 1016.51544189453 1011.72119140625 1012.72052001953 1019.04241943359 1018.05725097656 1018.84436035156 1008.98327636719 1026.72521972656 1032.89538574219 1031.05212402344 1029.63293457031 1044.89880371094 1053.96740722656 1069.0458984375 1092.37121582031 1109.09399414062 1114.01928710938 1119.00915527344 1125.18212890625 1134.11022949219 1130.4609375 1126.69738769531 1126.31433105469
944.2998046875 948.603454589844 961.62939453125 966.878112792969 966.137878417969 966.653686523438 969.498718261719 969.855041503906 971.040954589844 977.67333984375 980.274841308594 970.399841308594 973.617370605469 974.791015625 979.620971679688 973.230895996094 974.475769042969 980.130249023438 973.741088867188 982.066162109375 980.383178710938 986.581665039062 977.824340820312 971.697387695312 978.299743652344 976.70458984375 963.283508300781 973.328063964844 986.016235351562 983.43896484375 984.954772949219 988.193359375 997.025939941406 994.590026855469 990.758972167969 983.634338378906 974.778686523438 968.392761230469 979.323974609375 975.376586914062 974.305908203125 973.321044921875 976.081420898438 975.591491699219 966.18017578125 959.308837890625 964.790588378906 958.987548828125 969.006042480469 973.809448242188 978.274230957031 973.118286132812 977.995300292969 970.93359375 970.02490234375 975.570068359375 970.289611816406 985.929992675781 982.245666503906 980.363647460938 990.531860351562 986.614868164062 984.055480957031 985.536499023438 983.91796875 976.902404785156 977.744262695312 981.010437011719 974.806335449219 973.905822753906 978.106018066406 981.996643066406 988.4794921875 990.41943359375 994.769714355469 997.747497558594 995.278076171875 990.328735351562 989.756713867188 995.030883789062 994.406005859375 991.681518554688 997.052978515625 998.931274414062 1009.52600097656 1015.83764648438 1019.37365722656 1021.92126464844 1018.71893310547 1011.54577636719 1009.27215576172 1010.19995117188 1011.07580566406 1004.57495117188 1002.44244384766 999.053833007812 1002.04791259766 991.133544921875 992.751403808594 985.818786621094 997.54638671875 1001.34692382812 995.345397949219 995.974670410156 996.848815917969 1002.07904052734 1002.63128662109 1001.57781982422 997.931884765625 994.468078613281 990.276489257812 998.211791992188 995.249084472656 994.803588867188 997.887634277344 999.549438476562 996.438781738281 990.175964355469 986.859313964844 997.322570800781 999.522705078125 1001.32037353516 1013.01080322266 1017.26611328125 1007.76647949219 1013.06665039062 1012.59533691406 1016.97570800781 1009.98638916016 1008.73913574219 1012.16363525391 1022.11004638672 1017.67260742188 1022.45648193359 1028.63049316406 1035.67321777344 1045.01293945312 1048.248046875 1055.85998535156 1062.31274414062 1074.70166015625 1097.76928710938 1114.78833007812 1120.8544921875 1127.61047363281 1137.26513671875 1138.11633300781 1142.89770507812 1141.24157714844 1144.73510742188
945.651550292969 961.620056152344 961.385925292969 967.888854980469 971.70751953125 973.703552246094 967.332214355469 969.016174316406 977.497497558594 977.017700195312 981.364135742188 973.162231445312 975.488403320312 968.09326171875 961.739562988281 967.191772460938 978.36328125 980.312561035156 975.848022460938 982.447387695312 985.039855957031 980.866943359375 975.572143554688 974.494079589844 982.920532226562 978.100524902344 968.193115234375 976.895812988281 986.000183105469 982.329956054688 985.233947753906 981.644104003906 984.666320800781 995.566223144531 981.456176757812 986.435241699219 983.839782714844 977.849060058594 972.189453125 976.798767089844 967.066589355469 975.545166015625 976.397399902344 973.809631347656 974.341979980469 960.420837402344 959.956604003906 965.52197265625 960.600402832031 967.012268066406 969.958618164062 968.453369140625 971.707397460938 967.804809570312 976.659545898438 972.839721679688 971.982421875 981.275268554688 976.863464355469 984.98486328125 986.851745605469 985.8154296875 987.829223632812 982.280151367188 984.970275878906 980.539855957031 983.000061035156 981.615966796875 986.486694335938 980.0595703125 981.25341796875 973.540954589844 986.569152832031 980.676330566406 986.307434082031 986.942443847656 993.064331054688 994.268371582031 991.178771972656 989.759521484375 995.095520019531 989.431823730469 1007.06732177734 1005.32348632812 1004.82989501953 1011.31439208984 1015.93713378906 1013.72729492188 1004.26501464844 1006.3193359375 996.312438964844 993.68212890625 999.686096191406 1004.46917724609 998.245971679688 987.386352539062 992.346618652344 993.835571289062 997.510864257812 989.982849121094 990.345092773438 992.169006347656 991.2119140625 986.613342285156 993.072021484375 992.644653320312 1007.48022460938 1007.82952880859 1005.38873291016 994.365905761719 987.920593261719 992.290954589844 996.048278808594 995.510620117188 1000.23052978516 1001.20465087891 997.7724609375 993.992126464844 998.058898925781 1002.50451660156 1000.33660888672 1004.22662353516 1001.44030761719 1018.04443359375 1012.36651611328 1003.40008544922 1008.21435546875 1015.02270507812 1002.86285400391 998.919128417969 1012.80187988281 1018.99157714844 1020.11480712891 1021.4052734375 1033.42443847656 1038.91149902344 1050.12451171875 1059.93676757812 1061.00354003906 1066.62646484375 1084.57580566406 1102.56213378906 1123.20104980469 1118.6005859375 1128.29443359375 1141.23217773438 1141.39318847656 1154.57604980469 1156.86645507812 1152.14428710938
953.709838867188 959.957336425781 961.566223144531 968.507629394531 967.736267089844 969.308227539062 971.833923339844 972.260620117188 975.200378417969 982.259887695312 984.057922363281 978.936828613281 978.9580078125 966.55078125 965.271118164062 968.274780273438 971.450134277344 970.199157714844 972.885620117188 981.141967773438 981.338684082031 978.617553710938 976.429321289062 979.66015625 976.358642578125 972.014526367188 966.639831542969 974.680114746094 985.256958007812 981.739135742188 985.736450195312 980.851440429688 985.585144042969 980.885559082031 984.925109863281 980.583190917969 984.51220703125 974.014038085938 970.443664550781 971.316040039062 972.086120605469 974.754943847656 972.750549316406 970.634887695312 970.422485351562 968.407836914062 961.6728515625 963.997253417969 968.667663574219 967.665832519531 974.064697265625 973.615173339844 966.117004394531 970.223754882812 971.598815917969 974.479187011719 969.342102050781 974.391235351562 975.773620605469 984.333435058594 985.363464355469 979.439758300781 982.191772460938 987.406860351562 981.834716796875 977.947326660156 980.948120117188 981.371032714844 994.485717773438 979.647399902344 975.215942382812 968.715026855469 978.148132324219 970.237915039062 977.109985351562 985.899536132812 983.949096679688 988.862426757812 994.065979003906 984.954040527344 988.188842773438 987.818725585938 993.389465332031 1001.95556640625 1010.05145263672 1013.01879882812 1008.74700927734 1007.39904785156 999.176330566406 1007.80767822266 993.411010742188 996.788208007812 998.659118652344 998.100708007812 991.854187011719 986.2890625 992.193908691406 995.526000976562 992.296936035156 991.383361816406 991.206726074219 987.3310546875 991.817016601562 990.902526855469 994.293579101562 997.473266601562 1001.15710449219 997.021423339844 985.59716796875 987.36669921875 985.678161621094 999.947387695312 1000.34973144531 994.933776855469 1006.44750976562 1005.75317382812 1001.53149414062 1004.40289306641 1003.34588623047 1002.74566650391 1004.056640625 1012.92974853516 1004.43768310547 1017.56213378906 1018.05657958984 1006.11077880859 1003.88409423828 1008.65637207031 1006.35601806641 1008.40631103516 1014.630859375 1026.39904785156 1025.26379394531 1028.46276855469 1023.80426025391 1047.84533691406 1054.66052246094 1062.53845214844 1077.89086914062 1091.39050292969 1095.51525878906 1108.1708984375 1119.67175292969 1121.74829101562 1124.70361328125 1133.10534667969 1151.1484375 1152.76184082031 1150.88171386719 1145.865234375
