NCOLS 150
NROWS 37
XLLCORNER 7394249
YLLCORNER 4842539
CELLSIZE 30
NODATA_VALUE -9999
941.862243652344 949.041320800781 942.378356933594 945.91455078125 949.996337890625 946.592224121094 948.453186035156 964.374267578125 967.231994628906 964.091857910156 969.921813964844 967.875122070312 968.766784667969 978.421447753906 980.369140625 978.716125488281 977.321044921875 970.364318847656 978.341491699219 968.632995605469 976.1982421875 977.446166992188 976.250366210938 973.783630371094 973.542236328125 973.669982910156 970.044372558594 968.118530273438 964.599182128906 971.4443359375 965.721313476562 966.286071777344 975.976806640625 980.598083496094 970.598571777344 970.684204101562 976.979187011719 978.458251953125 965.742919921875 962.920593261719 961.013610839844 969.154235839844 957.482360839844 950.727661132812 949.890808105469 963.746337890625 970.158508300781 976.345581054688 972.919982910156 972.912231445312 971.813232421875 964.627746582031 967.459655761719 964.280517578125 968.232055664062 975.772216796875 974.41552734375 975.079467773438 973.960327148438 974.946350097656 983.236999511719 978.482116699219 979.673522949219 972.630920410156 975.243957519531 980.873352050781 980.437133789062 986.388977050781 975.022766113281 969.402709960938 968.984130859375 978.56298828125 971.858947753906 972.598754882812 968.797058105469 970.794067382812 971.847900390625 966.9716796875 974.036437988281 968.651245117188 970.102844238281 975.693054199219 979.085144042969 976.742126464844 968.265502929688 975.572814941406 985.005004882812 979.410949707031 980.800476074219 985.322021484375 975.871826171875 972.962219238281 975.46435546875 977.110229492188 979.173645019531 985.638000488281 980.211486816406 981.895446777344 985.74267578125 982.874267578125 988.295837402344 989.300048828125 981.692077636719 980.086120605469 981.043029785156 981.510314941406 991.995666503906 997.009826660156 986.337707519531 991.757751464844 999.55908203125 995.90185546875 993.319641113281 1000.83850097656 1011.77093505859 1019.40997314453 1013.90460205078 1011.87518310547 1018.82385253906 1021.96838378906 1020.06256103516 1012.85266113281 1007.30249023438 1004.31518554688 1015.70959472656 1016.13781738281 1019.46722412109 1026.23522949219 1025.52416992188 1035.82421875 1045.99401855469 1053.78002929688 1051.77001953125 1052.578125 1068.65087890625 1075.41320800781 1078.15368652344 1079.87280273438 1078.1923828125 1086.67333984375 1091.90954589844 1102.63610839844 1119.14758300781 1132.25854492188 1143.54577636719 1156.55932617188 1156.57080078125 1168.85913085938 1164.72888183594 1155.1923828125
935.852478027344 936.692321777344 937.346435546875 946.705383300781 957.327697753906 953.637023925781 953.015441894531 965.924926757812 965.79248046875 964.28466796875 965.964050292969 965.377990722656 975.14892578125 983.141723632812 977.369079589844 969.209106445312 977.418334960938 980.021179199219 975.192749023438 966.363891601562 972.015258789062 976.856140136719 971.053833007812 973.005798339844 971.6142578125 967.426940917969 967.599914550781 963.410766601562 963.444946289062 976.75732421875 977.026977539062 973.162292480469 972.826721191406 971.399291992188 969.887817382812 964.949035644531 967.785583496094 963.330322265625 959.656677246094 959.976745605469 958.5205078125 961.493103027344 959.476318359375 948.515808105469 951.754516601562 964.960021972656 967.401672363281 973.938171386719 976.950866699219 983.788635253906 972.187805175781 972.449157714844 972.191650390625 958.58935546875 956.766235351562 969.991455078125 977.59716796875 971.674194335938 969.706115722656 965.727600097656 979.828674316406 973.649291992188 970.355407714844 971.617309570312 980.593322753906 979.380249023438 986.598754882812 992.375366210938 978.54150390625 982.639831542969 966.674682617188 975.382446289062 980.695556640625 972.363525390625 966.299682617188 970.836608886719 972.732238769531 959.557678222656 970.469299316406 961.1904296875 967.840576171875 973.382568359375 978.365417480469 980.704223632812 979.824462890625 981.595886230469 973.957702636719 983.549194335938 984.109069824219 978.595153808594 973.97900390625 969.334533691406 969.533813476562 974.102233886719 980.995056152344 982.081481933594 985.068908691406 974.4423828125 974.065002441406 978.386413574219 978.10498046875 989.199584960938 981.529907226562 977.800170898438 976.22119140625 983.496276855469 990.088012695312 992.338684082031 994.589660644531 990.827575683594 996.623107910156 997.10498046875 997.042663574219 1008.18609619141 1014.041015625 1018.61553955078 1018.42767333984 1018.67541503906 1019.52642822266 1019.21411132812 1024.73022460938 1022.71862792969 1014.2119140625 1009.10400390625 1019.70385742188 1020.62652587891 1018.81488037109 1022.16796875 1024.09191894531 1032.8056640625 1048.87463378906 1054.72314453125 1063.40832519531 1063.23608398438 1074.4052734375 1075.40771484375 1076.6259765625 1082.71752929688 1089.11010742188 1087.60314941406 1095.50012207031 1105.65698242188 1116.22583007812 1137.22705078125 1144.82788085938 1152.28674316406 1152.59533691406 1150.17468261719 1155.50573730469 1162.75036621094
939.445617675781 938.25390625 936.41015625 944.963500976562 953.869018554688 961.047912597656 959.394897460938 961.434265136719 959.280822753906 971.038635253906 976.984558105469 966.533142089844 969.442565917969 980.142700195312 980.009704589844 967.811462402344 987.524780273438 989.044555664062 979.147399902344 968.732360839844 970.313171386719 960.243591308594 961.203247070312 962.028747558594 963.945129394531 964.733825683594 968.554626464844 963.355773925781 972.301391601562 973.077087402344 967.040893554688 967.598266601562 970.419860839844 971.321105957031 967.929077148438 971.752868652344 972.994689941406 962.89501953125 953.615051269531 958.520629882812 964.669372558594 962.258483886719 965.041320800781 963.904907226562 955.198974609375 959.450500488281 966.491943359375 969.747131347656 980.758483886719 969.892456054688 974.710754394531 978.190124511719 970.15380859375 968.728088378906 957.982666015625 966.635192871094 978.193969726562 973.795654296875 963.915771484375 964.400512695312 965.610900878906 976.235778808594 968.106872558594 965.252075195312 965.192810058594 975.187072753906 980.493957519531 989.420104980469 986.839965820312 982.758605957031 966.569091796875 968.800720214844 970.532165527344 966.530822753906 968.542175292969 971.337280273438 970.781616210938 973.188293457031 969.387756347656 962.833251953125 970.616821289062 966.616943359375 973.472595214844 973.924133300781 972.106018066406 975.376403808594 970.923767089844 980.461791992188 974.926940917969 977.0283203125 979.118225097656 977.620361328125 976.29638671875 980.632080078125 979.986511230469 982.988220214844 975.167724609375 972.825256347656 975.531982421875 980.943359375 979.764770507812 982.74560546875 986.742919921875 990.395629882812 981.235168457031 986.937377929688 993.051818847656 991.700805664062 993.771057128906 994.422180175781 982.061096191406 990.639953613281 1000.29180908203 1009.53887939453 1009.47137451172 1014.72802734375 1017.03155517578 1021.13940429688 1021.44647216797 1022.75207519531 1031.25915527344 1029.30346679688 1023.26885986328 1032.66516113281 1025.51440429688 1018.41345214844 1022.87255859375 1032.14953613281 1032.40612792969 1030.32775878906 1039.88513183594 1064.47143554688 1065.40661621094 1068.74914550781 1077.59814453125 1081.88195800781 1083.26770019531 1084.51635742188 1087.78723144531 1091.74597167969 1105.14599609375 1108.7158203125 1118.94165039062 1125.56433105469 1138.00854492188 1130.71557617188 1136.07299804688 1142.32824707031 1150.75903320312 1152.50207519531
946.289611816406 938.528991699219 943.422973632812 950.565734863281 959.632080078125 961.737182617188 957.064819335938 964.445983886719 962.028747558594 971.830017089844 976.875244140625 975.400451660156 972.768127441406 972.606018066406 975.045288085938 976.6796875 976.959289550781 980.262512207031 977.148254394531 978.265258789062 973.695190429688 962.711364746094 961.23681640625 963.817138671875 959.647644042969 963.237854003906 968.067077636719 960.792541503906 954.679748535156 963.704162597656 961.996032714844 968.100158691406 967.247253417969 975.182495117188 974.097839355469 974.48974609375 975.652465820312 970.489562988281 959.737426757812 964.441162109375 962.663940429688 972.000427246094 964.430541992188 962.644165039062 960.705932617188 962.360656738281 958.36865234375 969.195556640625 968.796508789062 971.068237304688 978.092041015625 973.9912109375 975.559692382812 963.023803710938 963.203308105469 962.382019042969 967.899230957031 967.280883789062 973.561828613281 972.403442382812 972.72412109375 981.992370605469 978.980041503906 972.227844238281 969.568237304688 976.544738769531 978.829162597656 985.127014160156 976.044738769531 969.070251464844 967.561401367188 960.1630859375 955.755065917969 969.348266601562 962.416564941406 971.268310546875 970.80908203125 965.902526855469 969.932922363281 964.014465332031 970.155578613281 963.521911621094 967.97216796875 963.256469726562 963.580139160156 979.307739257812 979.499877929688 975.314758300781 967.975219726562 972.730895996094 965.74267578125 968.796203613281 971.980224609375 975.958190917969 978.974609375 982.291259765625 977.436462402344 975.783935546875 974.522705078125 981.362121582031 987.415161132812 984.409973144531 991.959655761719 985.847290039062 990.278991699219 994.967895507812 995.585083007812 999.184387207031 986.151184082031 986.173889160156 985.128723144531 988.208801269531 998.734802246094 1003.31420898438 1006.29846191406 1014.30993652344 1012.34429931641 1019.79754638672 1025.4345703125 1018.11962890625 1025.33569335938 1028.63391113281 1029.13134765625 1034.48022460938 1030.71569824219 1031.57092285156 1028.05529785156 1031.71057128906 1036.60314941406 1038.85412597656 1046.35656738281 1054.45007324219 1063.32019042969 1075.88806152344 1072.55578613281 1077.93310546875 1086.95520019531 1089.21557617188 1094.54577636719 1101.48120117188 1108.96264648438 1112.71716308594 1114.70141601562 1118.38549804688 1120.55883789062 1125.35400390625 1135.90942382812 1139.49047851562 1143.00549316406 1143.66479492188
950.992248535156 956.475708007812 958.09912109375 953.7001953125 954.731323242188 958.317687988281 963.729553222656 976.80810546875 976.934265136719 966.015197753906 963.997009277344 977.1591796875 974.238647460938 968.65478515625 971.608947753906 974.401611328125 970.519226074219 972.448913574219 975.190795898438 979.245910644531 970.275207519531 957.66064453125 959.296447753906 965.201538085938 962.908081054688 963.040649414062 960.112060546875 964.383117675781 956.022094726562 962.628967285156 972.787658691406 970.485412597656 970.080444335938 972.828674316406 968.000183105469 973.036987304688 981.3408203125 967.996520996094 954.681762695312 964.283325195312 964.750366210938 966.950073242188 966.270568847656 959.939453125 964.122741699219 960.748352050781 967.612548828125 972.069396972656 970.007019042969 976.082153320312 976.0810546875 976.986450195312 973.372131347656 964.841247558594 966.630798339844 962.151733398438 964.548706054688 969.263610839844 979.171203613281 976.109252929688 982.866455078125 985.854064941406 981.545654296875 979.697509765625 970.565795898438 974.217590332031 977.860107421875 972.333374023438 964.603271484375 964.580505371094 954.732421875 962.090759277344 965.56201171875 975.429870605469 965.287719726562 962.244384765625 966.225952148438 974.602600097656 967.270446777344 975.291076660156 969.899353027344 967.393920898438 969.636169433594 970.115295410156 970.965148925781 967.189575195312 973.847106933594 967.234008789062 970.951416015625 967.90380859375 969.233825683594 968.866943359375 982.086730957031 974.09326171875 979.763671875 984.659484863281 979.248474121094 976.057250976562 978.378295898438 982.40380859375 987.465087890625 986.085876464844 987.672607421875 990.317749023438 987.483032226562 987.744140625 994.153015136719 985.396240234375 990.272338867188 984.745666503906 984.957763671875 993.027282714844 1002.18737792969 1001.42144775391 1009.375 1009.62933349609 1003.93585205078 1015.33288574219 1020.41424560547 1026.39025878906 1026.89282226562 1033.17700195312 1031.37866210938 1030.77697753906 1037.87158203125 1029.57556152344 1028.42797851562 1029.47009277344 1026.28430175781 1046.27502441406 1051.16845703125 1056.39868164062 1065.77905273438 1077.01184082031 1074.09985351562 1082.35131835938 1090.01428222656 1091.51123046875 1101.17590332031 1098.88916015625 1108.55004882812 1101.53210449219 1112.15185546875 1105.85852050781 1110.59619140625 1132.61889648438 1137.72729492188 1138.0126953125 1142.87268066406 1143.80847167969
960.233093261719 954.319274902344 960.589477539062 960.133666992188 959.042053222656 961.560974121094 974.22607421875 974.621948242188 976.68603515625 979.789428710938 973.687133789062 967.904418945312 971.316711425781 969.504333496094 971.342834472656 976.800231933594 967.757629394531 964.911926269531 963.448425292969 973.473327636719 962.005859375 954.61669921875 951.726013183594 959.954040527344 962.105224609375 965.198303222656 957.692810058594 967.080688476562 963.900512695312 965.296081542969 974.638732910156 975.680236816406 968.283996582031 971.174621582031 969.183288574219 984.774291992188 975.102478027344 968.520751953125 960.887145996094 959.230773925781 961.133178710938 966.613159179688 974.141967773438 968.710083007812 970.67236328125 963.525207519531 971.294799804688 969.718383789062 960.619445800781 969.25244140625 973.060546875 961.086791992188 958.64990234375 966.864501953125 959.191833496094 956.216979980469 965.613342285156 962.436096191406 978.210998535156 978.888854980469 979.06005859375 976.021484375 976.1201171875 971.716918945312 968.992248535156 965.107177734375 965.311279296875 964.599975585938 961.314025878906 962.37841796875 955.337707519531 967.901794433594 962.103637695312 971.523559570312 964.060546875 956.831604003906 959.683837890625 968.282165527344 961.678527832031 970.2314453125 973.373657226562 973.528076171875 967.435546875 973.706481933594 966.615783691406 964.415710449219 967.762451171875 962.119079589844 966.458374023438 961.76220703125 968.651672363281 970.380920410156 976.692199707031 973.135498046875 981.533874511719 979.881958007812 975.242492675781 974.434143066406 972.646728515625 977.747985839844 981.571166992188 982.0732421875 984.742553710938 992.956665039062 992.878845214844 982.674560546875 986.398193359375 993.419799804688 983.104675292969 973.018676757812 982.557922363281 990.894104003906 997.232666015625 993.750549316406 1003.13275146484 1008.27722167969 1010.57244873047 1009.73577880859 1017.81506347656 1021.62738037109 1026.10729980469 1027.35534667969 1031.00341796875 1036.81616210938 1035.27758789062 1034.54858398438 1035.85717773438 1036.43151855469 1029.232421875 1036.27673339844 1048.49536132812 1061.03442382812 1068.34265136719 1078.72473144531 1079.61413574219 1082.32836914062 1093.37866210938 1094.95739746094 1093.52319335938 1095.75634765625 1098.216796875 1098.58056640625 1102.44982910156 1103.73413085938 1110.95727539062 1115.76098632812 1119.93994140625 1123.99084472656 1132.54296875 1133.68054199219
961.6669921875 957.207397460938 959.010620117188 960.503662109375 960.306030273438 965.385070800781 974.71826171875 965.319274902344 973.81494140625 979.255615234375 976.434326171875 971.00146484375 973.742797851562 969.499328613281 975.857788085938 975.312438964844 969.771911621094 963.742431640625 969.151794433594 966.346740722656 961.327514648438 957.12646484375 961.363952636719 967.495300292969 966.336120605469 966.72119140625 967.501098632812 971.970825195312 972.812438964844 970.350219726562 982.040649414062 973.962341308594 965.518310546875 970.78759765625 978.272827148438 983.546020507812 980.405822753906 982.426391601562 976.345520019531 964.35498046875 960.3037109375 964.469665527344 973.848388671875 966.756225585938 968.430358886719 966.889526367188 969.063415527344 964.740356445312 956.587707519531 951.198608398438 955.623840332031 951.562561035156 954.940063476562 953.774536132812 958.503662109375 956.946838378906 958.238220214844 961.853088378906 965.142578125 970.965881347656 974.696166992188 971.426086425781 964.387878417969 963.374877929688 960.83251953125 957.576110839844 955.149291992188 959.704772949219 952.651794433594 959.385620117188 957.426208496094 958.248413085938 960.572937011719 967.228393554688 959.098449707031 960.174011230469 970.562927246094 963.787475585938 966.993347167969 970.082885742188 974.168395996094 967.888854980469 970.36328125 970.590576171875 969.556091308594 967.159912109375 968.201965332031 968.435852050781 963.956237792969 963.289794921875 974.079345703125 973.264526367188 980.097473144531 974.934020996094 978.055114746094 980.816101074219 976.806701660156 974.596557617188 979.1533203125 982.564208984375 983.872192382812 985.180908203125 981.67529296875 985.668212890625 989.058654785156 983.290405273438 981.240356445312 980.487426757812 980.175903320312 980.889587402344 993.057678222656 999.882202148438 1000.14288330078 996.840087890625 1007.10491943359 1000.45977783203 1007.43280029297 1011.48577880859 1018.0146484375 1015.86242675781 1018.43811035156 1023.62780761719 1030.96740722656 1025.99755859375 1032.88781738281 1033.39367675781 1035.72607421875 1045.76953125 1045.41052246094 1042.3740234375 1046.2939453125 1063.68212890625 1073.43151855469 1071.65588378906 1070.19030761719 1076.63781738281 1085.47375488281 1094.22998046875 1092.23974609375 1098.92028808594 1091.17468261719 1101.90649414062 1102.85095214844 1100.15625 1109.03332519531 1106.43493652344 1113.30554199219 1099.30639648438 1115.07592773438 1119.04187011719
971.014831542969 957.881225585938 958.00634765625 961.415832519531 974.482666015625 968.080505371094 969.669555664062 972.265319824219 973.183532714844 977.964660644531 982.365661621094 970.143432617188 975.662963867188 974.077575683594 974.483459472656 974.877563476562 973.690368652344 976.622985839844 975.549255371094 970.809631347656 963.365295410156 956.472961425781 962.066589355469 965.544982910156 960.296813964844 962.594116210938 958.506225585938 963.434448242188 970.869689941406 968.862609863281 970.502746582031 968.214965820312 970.483215332031 978.358520507812 973.173156738281 981.031860351562 981.682983398438 978.248901367188 959.518920898438 964.006286621094 960.170166015625 963.270141601562 973.297973632812 973.023986816406 970.754943847656 971.143005371094 972.519592285156 968.458740234375 952.497863769531 948.920715332031 946.983337402344 947.264709472656 952.295471191406 949.767028808594 952.744140625 952.914916992188 949.164184570312 947.60302734375 948.054321289062 959.008361816406 965.714294433594 963.622863769531 958.054565429688 952.197204589844 958.214782714844 951.487365722656 952.808715820312 945.363220214844 954.899963378906 952.505554199219 959.926391601562 961.566467285156 957.927307128906 965.574645996094 967.153747558594 961.946044921875 966.273376464844 963.863647460938 967.658813476562 972.711486816406 981.676940917969 970.494323730469 971.772033691406 965.832763671875 967.458862304688 964.874816894531 964.161010742188 962.049072265625 964.509521484375 966.310241699219 969.113586425781 975.337890625 974.172607421875 972.68115234375 973.242919921875 976.587768554688 973.961181640625 976.06787109375 971.262512207031 977.044738769531 979.859375 982.554626464844 978.475463867188 983.566589355469 981.12255859375 975.857788085938 967.974365234375 973.250366210938 985.690246582031 987.393737792969 986.683898925781 997.697509765625 994.510864257812 998.278564453125 1002.79357910156 996.843627929688 999.392700195312 1005.59753417969 1006.86669921875 1012.61279296875 1024.19702148438 1022.01776123047 1020.81164550781 1024.35766601562 1027.34436035156 1027.57116699219 1032.51110839844 1043.73083496094 1048.0810546875 1046.79077148438 1050.67993164062 1056.26147460938 1070.498046875 1074.05554199219 1080.16748046875 1085.78857421875 1084.94396972656 1086.3203125 1083.77795410156 1091.17456054688 1087.5908203125 1087.04516601562 1098.85266113281 1103.65405273438 1106.10241699219 1106.02331542969 1102.06518554688 1102.94006347656 1104.74340820312 1109.76489257812
962.40771484375 956.178100585938 953.682312011719 973.249267578125 967.783081054688 969.446838378906 964.8583984375 975.774841308594 972.50341796875 970.870788574219 978.862854003906 979.467590332031 974.085144042969 973.256408691406 970.823303222656 974.859619140625 974.222290039062 976.146179199219 973.788513183594 977.12890625 967.085754394531 959.023498535156 970.111267089844 964.759948730469 959.875122070312 959.509033203125 963.40283203125 965.59375 963.391357421875 968.196044921875 969.563415527344 969.0185546875 964.919189453125 971.117858886719 966.187072753906 972.193420410156 978.184204101562 969.613525390625 953.178649902344 952.470947265625 946.544189453125 965.041076660156 977.634155273438 968.951477050781 964.660278320312 970.722045898438 968.932067871094 968.6904296875 956.794067382812 951.365112304688 949.994873046875 944.974182128906 950.479675292969 958.039672851562 963.005004882812 954.210571289062 951.400390625 946.753601074219 947.986389160156 952.566833496094 962.868774414062 955.786926269531 955.892639160156 959.127075195312 950.067932128906 949.709533691406 960.280151367188 956.701538085938 964.661437988281 955.774230957031 961.160522460938 959.550537109375 960.021362304688 961.383178710938 964.235900878906 967.144348144531 962.690856933594 962.298583984375 964.650085449219 979.252197265625 971.037475585938 968.105346679688 969.948974609375 967.002075195312 965.524963378906 970.330932617188 970.548645019531 969.057983398438 966.692138671875 974.69482421875 968.661193847656 970.342712402344 970.602478027344 965.726135253906 972.603759765625 970.939636230469 970.03515625 972.923645019531 975.454528808594 979.995483398438 972.722778320312 979.948059082031 974.848571777344 977.840637207031 981.447143554688 979.312194824219 973.479309082031 971.234313964844 977.594421386719 981.613220214844 990.269226074219 996.51904296875 996.52978515625 993.57666015625 999.924377441406 998.609558105469 996.785888671875 1001.63061523438 1002.71539306641 1012.37353515625 1017.62561035156 1013.72973632812 1011.95874023438 1014.65234375 1021.79229736328 1030.93286132812 1023.02575683594 1030.07861328125 1039.50842285156 1050.46215820312 1049.13293457031 1063.64489746094 1069.57604980469 1080.03747558594 1079.21325683594 1083.37915039062 1085.93395996094 1093.978515625 1089.28210449219 1083.66821289062 1083.13513183594 1087.01806640625 1096.28942871094 1097.6923828125 1106.60021972656 1099.87866210938 1104.67260742188 1107.4248046875 1102.87414550781 1105.84460449219
961.837524414062 964.093505859375 962.098693847656 971.876342773438 969.663146972656 967.203002929688 967.670288085938 974.153869628906 971.19189453125 977.2373046875 972.88818359375 965.585632324219 970.55810546875 967.67138671875 973.321960449219 976.487670898438 971.251647949219 968.111999511719 972.955200195312 969.405151367188 967.332275390625 958.705200195312 966.610046386719 967.047058105469 955.231140136719 950.213562011719 950.344360351562 960.532287597656 959.790954589844 957.608032226562 959.741027832031 961.135620117188 961.556640625 969.419738769531 965.408935546875 976.998596191406 978.664611816406 965.015014648438 950.580688476562 950.1513671875 952.039489746094 956.709167480469 962.158813476562 961.472534179688 963.425903320312 957.966674804688 965.53125 963.434448242188 967.229736328125 960.001037597656 946.413146972656 934.452697753906 950.3076171875 954.940063476562 960.176391601562 949.523864746094 947.556640625 948.414184570312 956.967346191406 957.89111328125 956.928283691406 963.706848144531 962.865844726562 962.75341796875 955.939697265625 953.252868652344 955.459899902344 954.332214355469 958.484069824219 962.118225097656 961.892211914062 956.881652832031 951.874084472656 958.516174316406 960.471008300781 958.132934570312 954.9912109375 970.946411132812 968.158874511719 969.733520507812 962.252746582031 963.829956054688 956.23046875 953.096435546875 963.086364746094 963.639221191406 964.246704101562 976.805053710938 977.681457519531 973.342590332031 965.848999023438 966.018432617188 972.363647460938 974.241760253906 975.331237792969 974.877136230469 969.497802734375 975.443786621094 978.37353515625 976.267883300781 971.823181152344 977.347106933594 985.212280273438 979.855041503906 979.533386230469 980.817321777344 976.048034667969 974.198913574219 981.475036621094 988.467529296875 989.245483398438 1006.36804199219 992.013061523438 994.125366210938 991.778686523438 999.387084960938 1007.95367431641 1001.42321777344 1008.15087890625 1008.62683105469 1014.24389648438 1009.27893066406 998.622009277344 1009.61444091797 1020.14685058594 1009.36090087891 1013.41040039062 1021.10583496094 1029.47351074219 1043.2763671875 1048.57885742188 1067.62512207031 1072.0185546875 1077.61315917969 1090.98046875 1093.451171875 1089.71557617188 1093.78637695312 1102.48852539062 1087.86840820312 1086.85119628906 1085.02990722656 1083.98071289062 1087.68395996094 1089.40026855469 1101.16735839844 1106.8740234375 1090.81787109375 1092.55578613281 1095.51232910156
971.31640625 964.262451171875 961.217346191406 978.207641601562 974.570373535156 975.09375 970.147521972656 977.156005859375 969.492309570312 970.048217773438 964.59619140625 969.4619140625 968.822143554688 972.373413085938 977.05615234375 976.706481933594 974.683837890625 972.642822265625 973.032287597656 970.779541015625 975.416870117188 973.164794921875 975.398559570312 969.588623046875 954.274841308594 950.395751953125 947.519287109375 957.792785644531 956.969360351562 971.546264648438 965.706481933594 966.150695800781 961.919738769531 966.63916015625 969.654479980469 969.914733886719 966.541015625 961.2509765625 953.257385253906 952.721740722656 947.879150390625 954.690856933594 956.063415527344 965.262939453125 955.378051757812 953.662902832031 950.023193359375 962.653564453125 950.134643554688 952.014282226562 944.10595703125 938.380493164062 952.097290039062 960.33544921875 961.548034667969 944.846374511719 954.022521972656 938.848083496094 949.317443847656 949.650756835938 954.478759765625 957.208435058594 968.016845703125 965.184936523438 953.238952636719 962.690185546875 952.439453125 950.078125 948.487487792969 958.263366699219 965.088134765625 957.609619140625 955.712890625 955.43505859375 953.564636230469 959.702514648438 957.591186523438 965.12060546875 966.735168457031 961.403930664062 958.846496582031 954.312805175781 954.229736328125 957.336975097656 959.926025390625 963.400756835938 970.570068359375 976.172729492188 968.349365234375 968.950012207031 966.483703613281 971.568969726562 969.174682617188 976.562072753906 971.105773925781 968.769470214844 968.605834960938 971.534057617188 968.927551269531 967.81103515625 977.747131347656 978.731262207031 978.148254394531 986.258361816406 982.157836914062 979.025329589844 974.329223632812 970.718811035156 975.191772460938 988.340087890625 996.664855957031 998.148681640625 986.274291992188 985.221374511719 993.742797851562 999.228149414062 1004.18811035156 1004.61572265625 1005.36889648438 1014.78515625 1016.94244384766 1012.01025390625 1009.72052001953 1005.68438720703 1010.25823974609 1011.75354003906 1018.32159423828 1024.83801269531 1022.31109619141 1031.39001464844 1036.05627441406 1060.30737304688 1075.27758789062 1084.994140625 1092.24951171875 1088.06188964844 1086.02099609375 1090.70629882812 1091.46667480469 1088.3291015625 1075.5029296875 1080.06005859375 1074.470703125 1078.19738769531 1075.39636230469 1085.33544921875 1090.29541015625 1092.72790527344 1082.86120605469 1076.38708496094
958.507873535156 957.800231933594 970.324462890625 970.055053710938 975.003295898438 976.692810058594 972.265319824219 973.029174804688 973.022094726562 967.687194824219 967.22216796875 965.63232421875 962.30615234375 972.545104980469 975.568603515625 973.495361328125 980.435668945312 975.028503417969 967.453552246094 963.380249023438 974.213623046875 966.800170898438 968.545654296875 962.602783203125 953.989624023438 955.340148925781 947.429992675781 949.538269042969 955.586181640625 960.43701171875 963.21728515625 957.909484863281 955.921630859375 961.356750488281 963.814514160156 966.689636230469 964.640625 948.58056640625 951.196105957031 949.855895996094 952.187805175781 954.622985839844 962.770202636719 961.307556152344 959.35302734375 957.014892578125 954.028076171875 951.297241210938 946.380920410156 935.778930664062 938.449035644531 933.073059082031 949.014526367188 960.229919433594 958.303771972656 951.019653320312 948.206237792969 948.783386230469 948.531433105469 949.136047363281 952.060302734375 959.402038574219 960.769714355469 953.97412109375 956.781799316406 961.019653320312 961.63330078125 955.267822265625 949.185791015625 961.032043457031 962.741943359375 956.754760742188 952.948181152344 958.784729003906 957.61181640625 952.975830078125 952.613891601562 962.601745605469 973.937622070312 958.739379882812 961.796508789062 953.067199707031 956.858947753906 955.9833984375 962.454895019531 958.7607421875 963.960205078125 966.996032714844 970.831970214844 965.774658203125 970.861206054688 967.80029296875 976.071838378906 979.96728515625 969.805603027344 965.049133300781 962.93798828125 969.117736816406 973.335632324219 978.354736328125 976.599548339844 973.93505859375 980.223266601562 987.343872070312 984.94921875 981.705688476562 974.2236328125 985.169006347656 981.559692382812 980.090759277344 988.033142089844 983.997924804688 986.422119140625 994.418579101562 992.733642578125 996.21533203125 997.423217773438 994.994323730469 1003.66784667969 1011.53918457031 1019.14624023438 1013.16223144531 1014.60858154297 1007.95715332031 1009.70397949219 1014.8603515625 1020.80603027344 1016.47772216797 1024.6845703125 1028.69445800781 1043.29150390625 1056.34790039062 1070.00036621094 1080.95788574219 1093.14538574219 1097.24816894531 1090.36279296875 1086.990234375 1082.27331542969 1080.912109375 1071.74914550781 1071.96032714844 1075.94360351562 1072.34655761719 1063.34362792969 1080.49536132812 1081.13562011719 1094.25646972656 1083.64892578125 1080.09436035156
962.427185058594 953.709289550781 966.923278808594 970.552673339844 974.760620117188 972.204223632812 972.31787109375 976.750671386719 974.843139648438 972.371398925781 957.093017578125 962.455810546875 950.809204101562 963.091979980469 969.069396972656 971.432739257812 972.727294921875 973.245910644531 974.375305175781 964.603393554688 963.335754394531 964.196899414062 960.592224121094 959.877075195312 962.370849609375 960.986206054688 951.145080566406 951.082092285156 953.418029785156 949.594848632812 952.262634277344 957.830505371094 959.084228515625 961.969665527344 963.687438964844 966.73828125 960.791931152344 956.671569824219 958.542114257812 953.065795898438 954.652160644531 952.989990234375 956.923217773438 951.423461914062 952.371215820312 952.150268554688 957.004577636719 952.866882324219 938.793151855469 936.195861816406 938.192321777344 945.413208007812 955.498352050781 942.326293945312 950.521911621094 949.722595214844 955.062622070312 953.905151367188 952.681518554688 953.529968261719 958.99658203125 953.343383789062 953.796142578125 954.502868652344 959.038024902344 959.511108398438 961.045166015625 953.481262207031 957.901794433594 963.822326660156 972.357299804688 957.98095703125 959.978576660156 959.813110351562 960.221618652344 962.010375976562 966.558227539062 958.265808105469 966.081604003906 956.572387695312 962.934448242188 960.668334960938 959.265319824219 960.161743164062 958.183776855469 959.858642578125 964.420166015625 976.443115234375 972.980041503906 972.672668457031 971.745422363281 970.811157226562 982.289306640625 981.163269042969 971.512573242188 964.10400390625 966.095092773438 971.849548339844 977.965637207031 983.829467773438 986.221984863281 980.213745117188 977.9775390625 990.79296875 984.421325683594 982.749084472656 977.312744140625 980.003479003906 993.76806640625 990.37109375 994.362548828125 1002.14050292969 993.965270996094 989.912109375 990.836486816406 989.504516601562 996.46875 994.930236816406 998.55322265625 995.78369140625 1007.07073974609 1008.73626708984 1007.37048339844 1003.47967529297 1006.67779541016 1012.02581787109 1010.67126464844 1020.88055419922 1022.24859619141 1038.61071777344 1054.44067382812 1065.98852539062 1063.31811523438 1065.52844238281 1080.43774414062 1082.69201660156 1077.33312988281 1082.09362792969 1072.62255859375 1070.27746582031 1068.91137695312 1072.26391601562 1063.71826171875 1066.21923828125 1070.8056640625 1063.32202148438 1067.65893554688 1073.642578125 1078.86706542969 1070.49658203125
960.4814453125 970.458190917969 959.859924316406 967.598510742188 975.052185058594 972.032836914062 967.19970703125 971.42041015625 978.905456542969 967.808227539062 953.777038574219 949.333801269531 947.048461914062 964.343627929688 967.510925292969 961.286010742188 960.597534179688 960.533508300781 969.048645019531 964.278564453125 964.744934082031 970.534790039062 964.198974609375 968.297302246094 958.969909667969 949.410705566406 946.055053710938 952.504089355469 951.552795410156 945.806701660156 949.995056152344 958.273193359375 948.750122070312 958.914123535156 960.072875976562 965.772827148438 966.888244628906 955.371826171875 962.002685546875 957.474548339844 949.147827148438 956.616577148438 958.079895019531 953.888854980469 944.883056640625 953.488159179688 954.305358886719 956.168273925781 951.342834472656 952.467834472656 946.78369140625 944.141723632812 945.385009765625 951.331787109375 945.538391113281 951.047607421875 950.720458984375 960.731994628906 964.702880859375 967.002502441406 964.921325683594 958.682800292969 959.762451171875 960.544128417969 955.2841796875 954.680053710938 957.805419921875 955.619323730469 951.80078125 957.004577636719 959.509948730469 963.938903808594 956.065734863281 963.282653808594 969.190124511719 967.130432128906 969.460571289062 966.887573242188 962.284118652344 962.269409179688 968.589965820312 963.738098144531 971.301940917969 964.640258789062 965.073425292969 962.812561035156 955.608764648438 974.651672363281 977.135925292969 970.445068359375 969.878051757812 970.435852050781 972.631958007812 976.009887695312 973.919006347656 980.618530273438 973.305725097656 977.089050292969 978.723327636719 983.797912597656 980.393737792969 981.421020507812 985.537902832031 978.216979980469 985.138244628906 988.172790527344 991.813598632812 995.079040527344 991.882995605469 991.739013671875 996.598449707031 1001.25811767578 995.77734375 983.394348144531 984.911315917969 984.313903808594 986.139709472656 994.91162109375 995.204467773438 1002.55572509766 1000.80712890625 1013.03839111328 1007.77960205078 1002.37432861328 1005.74291992188 1010.67907714844 1017.34088134766 1022.23858642578 1031.44372558594 1039.82543945312 1040.24304199219 1053.62902832031 1056.38635253906 1068.07397460938 1074.71789550781 1081.25439453125 1078.54223632812 1071.11987304688 1064.94958496094 1055.50183105469 1066.63684082031 1060.69750976562 1052.03002929688 1046.6376953125 1056.68518066406 1064.18017578125 1059.77062988281 1057.07824707031 1068.6923828125 1061.38220214844
956.695617675781 958.888793945312 970.591857910156 957.232360839844 972.069580078125 971.152526855469 970.425354003906 970.035705566406 971.910583496094 969.387268066406 953.153076171875 953.632202148438 956.861206054688 959.172546386719 955.95703125 966.402465820312 969.189208984375 966.931030273438 970.107849121094 973.476013183594 970.091613769531 967.314208984375 966.056945800781 966.203063964844 960.396362304688 954.626037597656 946.691284179688 943.706481933594 945.121643066406 948.552490234375 952.057250976562 959.012939453125 962.825317382812 958.526611328125 952.467651367188 949.623779296875 945.775573730469 950.611206054688 955.255249023438 950.765380859375 953.146118164062 939.262878417969 947.392272949219 937.732238769531 944.1953125 952.879699707031 951.176086425781 954.669372558594 953.777099609375 956.898376464844 948.513122558594 944.536010742188 949.337951660156 956.123229980469 947.378234863281 949.482666015625 957.452575683594 952.165161132812 966.476440429688 962.507141113281 966.211669921875 967.3291015625 967.176208496094 960.521911621094 958.586303710938 952.64501953125 960.636291503906 962.940795898438 961.473937988281 960.47509765625 965.829406738281 969.209411621094 960.631408691406 967.236328125 970.766662597656 967.173706054688 970.445007324219 968.959899902344 961.574645996094 966.815307617188 963.433959960938 970.864562988281 968.087341308594 970.420654296875 969.233520507812 965.561462402344 961.059753417969 967.185607910156 972.486633300781 960.388793945312 970.023498535156 979.877075195312 977.278137207031 975.721862792969 974.490356445312 971.35791015625 971.221496582031 972.638122558594 972.194030761719 978.213012695312 977.797790527344 979.536987304688 985.37255859375 982.85888671875 995.521362304688 997.744323730469 999.053161621094 995.77392578125 984.549255371094 987.140319824219 991.254089355469 995.158325195312 993.802673339844 982.154479980469 984.845642089844 985.162414550781 990.973327636719 993.880859375 991.276611328125 999.238098144531 997.578552246094 1003.25982666016 996.524475097656 1000.38098144531 1001.23565673828 1015.48413085938 1025.62609863281 1022.59655761719 1030.55395507812 1045.85913085938 1039.01257324219 1041.51354980469 1059.291015625 1064.29663085938 1066.60766601562 1063.19958496094 1055.22717285156 1055.15478515625 1046.16564941406 1049.64416503906 1048.21154785156 1048.52209472656 1048.63061523438 1045.37084960938 1046.93127441406 1060.04309082031 1054.54736328125 1053.42370605469 1064.10400390625 1062.62902832031
958.844055175781 957.927124023438 958.22119140625 956.632873535156 956.990600585938 968.704772949219 965.31396484375 962.71337890625 973.249145507812 962.202575683594 961.823425292969 961.2880859375 950.919494628906 949.515808105469 952.540100097656 963.775329589844 970.777709960938 978.095764160156 977.793273925781 977.110900878906 979.907043457031 973.921875 962.997924804688 964.06494140625 961.409973144531 958.3701171875 939.070190429688 942.495666503906 945.364868164062 947.657287597656 945.831176757812 952.956848144531 956.116455078125 959.567077636719 959.462463378906 950.526428222656 948.933166503906 951.27294921875 947.301696777344 943.996154785156 940.510009765625 944.690734863281 938.997497558594 932.828857421875 942.254577636719 949.905944824219 955.537170410156 956.425598144531 951.423278808594 952.074157714844 953.365234375 935.252502441406 958.178833007812 956.211730957031 954.480773925781 955.197204589844 954.958923339844 951.795471191406 957.972717285156 954.728088378906 965.380065917969 960.940551757812 962.001892089844 964.837951660156 954.469421386719 957.365478515625 958.538208007812 964.935119628906 965.173645019531 964.682678222656 969.240356445312 964.989013671875 967.637512207031 966.560729980469 968.506713867188 967.683532714844 966.08935546875 960.379577636719 963.261840820312 969.613891601562 973.527709960938 967.095458984375 965.607666015625 966.956359863281 969.281494140625 966.804870605469 966.006713867188 967.934265136719 972.613647460938 970.099853515625 973.736694335938 982.220703125 980.249450683594 978.309509277344 974.325134277344 968.667175292969 970.659301757812 973.042602539062 969.087890625 976.87060546875 984.347778320312 982.935791015625 986.966247558594 991.044067382812 997.16455078125 998.2763671875 998.617858886719 988.136840820312 986.134460449219 991.246215820312 989.90673828125 983.912902832031 987.6943359375 986.478454589844 993.58056640625 988.956176757812 992.648864746094 997.019897460938 992.544555664062 993.718688964844 1002.92919921875 1001.03002929688 1006.7958984375 1010.11254882812 1006.77471923828 1014.16271972656 1026.92309570312 1029.99694824219 1035.81103515625 1041.85131835938 1036.20935058594 1041.79382324219 1052.20275878906 1046.30627441406 1043.38342285156 1041.48608398438 1041.11474609375 1038.01318359375 1034.48828125 1041.908203125 1044.49462890625 1035.02746582031 1026.49108886719 1035.13061523438 1031.60571289062 1031.81262207031 1043.15747070312 1043.76916503906 1054.78259277344 1046.17614746094
959.93408203125 957.414306640625 963.561767578125 961.177734375 964.984558105469 965.254150390625 967.681213378906 967.436645507812 966.941467285156 962.1005859375 956.400634765625 953.005554199219 950.352905273438 953.672912597656 950.211486816406 951.507080078125 961.840026855469 973.039001464844 969.185974121094 972.148315429688 971.096008300781 966.341430664062 963.450012207031 963.828369140625 961.927001953125 949.743347167969 945.351684570312 941.432189941406 947.838500976562 944.720092773438 952.610168457031 950.980712890625 952.787353515625 947.535888671875 949.501037597656 953.55615234375 956.216125488281 949.344421386719 951.62548828125 946.251770019531 941.572143554688 943.063598632812 949.264343261719 948.630981445312 952.390930175781 951.875 953.607055664062 956.916442871094 954.846496582031 958.707763671875 951.530883789062 949.434387207031 956.943786621094 951.951843261719 965.338317871094 963.115173339844 957.482177734375 958.057922363281 955.709167480469 958.716064453125 951.541320800781 954.786560058594 962.008422851562 965.093872070312 958.360046386719 957.651672363281 953.94482421875 959.152709960938 966.838317871094 967.602905273438 968.319702148438 963.549926757812 969.177124023438 969.778503417969 971.368713378906 973.172973632812 974.4716796875 974.115051269531 963.700256347656 965.478759765625 970.215515136719 966.293884277344 971.593688964844 975.740966796875 971.692321777344 969.165466308594 968.689331054688 975.780517578125 981.250793457031 963.652221679688 969.665710449219 976.7822265625 970.883117675781 974.479797363281 973.025146484375 979.58056640625 973.216491699219 979.302917480469 979.659423828125 977.1884765625 986.651245117188 983.712280273438 991.258239746094 991.228149414062 996.135559082031 993.689147949219 993.044250488281 993.202941894531 995.336059570312 988.724609375 985.757385253906 997.275268554688 995.645751953125 992.013977050781 999.107055664062 1001.23815917969 997.614929199219 1003.90747070312 994.394165039062 998.72509765625 1003.96240234375 1010.32379150391 1014.02972412109 1007.58251953125 1009.87030029297 1015.22491455078 1022.49139404297 1030.357421875 1033.36779785156 1030.31774902344 1033.73071289062 1030.07287597656 1038.54089355469 1044.04443359375 1029.30908203125 1032.14794921875 1034.44873046875 1031.47985839844 1023.26605224609 1027.06372070312 1019.5888671875 1022.373046875 1024.39135742188 1022.82965087891 1026.10583496094 1021.11145019531 1031.30200195312 1039.53479003906 1038.69445800781 1046.43249511719
969.743774414062 967.619384765625 961.22314453125 958.239318847656 951.873901367188 973.380615234375 966.202575683594 961.909057617188 962.146362304688 962.113098144531 949.856201171875 952.846801757812 953.354736328125 951.631225585938 949.286926269531 955.544311523438 953.247863769531 948.904541015625 952.503234863281 967.695556640625 964.524719238281 958.47998046875 957.847778320312 958.170593261719 956.685974121094 946.066955566406 942.94970703125 936.674133300781 944.80908203125 945.751281738281 962.595520019531 951.0732421875 955.144165039062 952.028747558594 953.54541015625 948.518798828125 949.897155761719 950.96533203125 953.929016113281 942.513000488281 943.299560546875 943.308227539062 953.838745117188 955.9521484375 953.651611328125 961.073791503906 958.414794921875 964.405883789062 965.412963867188 961.061462402344 952.640625 955.367553710938 958.933898925781 957.60009765625 955.999450683594 961.936279296875 960.518371582031 961.828735351562 959.314331054688 963.927917480469 959.975402832031 962.713562011719 959.101745605469 966.830261230469 960.290649414062 956.009826660156 953.554992675781 962.715698242188 964.190673828125 965.389953613281 955.468688964844 960.179321289062 966.348693847656 973.80908203125 978.008361816406 973.635437011719 969.757751464844 971.336791992188 968.442321777344 970.711608886719 974.583129882812 966.689636230469 975.089111328125 977.920776367188 982.069458007812 975.597534179688 976.137268066406 976.433410644531 968.293762207031 975.651977539062 980.246704101562 976.230773925781 972.404113769531 973.581237792969 980.764953613281 983.738403320312 974.817199707031 976.578430175781 982.465881347656 988.597778320312 986.083251953125 983.709777832031 985.61669921875 986.662292480469 989.510620117188 1001.14660644531 1001.39691162109 990.415954589844 993.154907226562 997.116027832031 984.811889648438 992.521911621094 989.302856445312 997.887145996094 1001.05212402344 1003.5927734375 1005.61358642578 1007.7197265625 1004.76538085938 1020.31805419922 1008.48315429688 1007.41851806641 1006.15679931641 1007.15710449219 1002.37921142578 1009.90069580078 1021.23162841797 1021.00720214844 1025.97021484375 1025.71325683594 1036.43835449219 1034.86169433594 1037.29028320312 1044.20617675781 1034.34228515625 1037.92419433594 1038.45178222656 1026.9267578125 1020.30590820312 1024.83728027344 1024.66833496094 1025.68395996094 1019.89227294922 1027.10559082031 1024.40283203125 1021.02947998047 1021.30145263672 1031.38330078125 1033.09033203125 1028.9931640625
967.578369140625 962.642272949219 959.480529785156 959.50537109375 949.224243164062 956.392333984375 960.345031738281 963.664123535156 958.526489257812 952.739685058594 950.852233886719 952.921264648438 965.588684082031 949.616149902344 950.471008300781 954.038940429688 935.8525390625 945.196350097656 955.141418457031 964.894348144531 960.239196777344 952.517700195312 955.572631835938 951.575561523438 952.713928222656 947.338500976562 946.638488769531 943.140563964844 947.629272460938 957.900634765625 959.175170898438 957.992553710938 950.975219726562 959.758850097656 955.531982421875 950.41162109375 944.674011230469 948.650817871094 936.321960449219 935.639404296875 935.00048828125 952.72900390625 954.057067871094 948.794311523438 961.558349609375 966.007751464844 957.142028808594 967.228942871094 968.705322265625 963.814636230469 953.804504394531 961.703796386719 966.171081542969 969.16455078125 970.113830566406 968.107971191406 966.30859375 964.929992675781 965.012512207031 960.743774414062 955.821655273438 958.7578125 955.051513671875 962.376037597656 970.284118652344 961.379272460938 955.206420898438 958.370239257812 969.97802734375 961.954895019531 955.616333007812 956.830627441406 966.980712890625 966.453186035156 969.379333496094 968.907897949219 965.501342773438 973.671020507812 963.596618652344 968.468566894531 973.159423828125 978.111877441406 977.423522949219 976.940002441406 976.882080078125 977.838500976562 982.084655761719 979.209594726562 981.227416992188 980.237976074219 974.346374511719 973.915954589844 977.694458007812 970.469421386719 983.195373535156 979.099792480469 978.194702148438 990.210571289062 989.641174316406 976.023315429688 979.985717773438 978.866455078125 984.050659179688 983.634094238281 986.804382324219 991.107299804688 992.105651855469 993.348754882812 991.044616699219 992.137023925781 996.668884277344 1001.11248779297 1000.1474609375 1005.88159179688 1000.67932128906 1004.97680664062 1012.31628417969 1008.54467773438 1012.04754638672 1017.62438964844 1008.28723144531 1001.91107177734 1013.18890380859 1006.72149658203 1006.97747802734 1012.48431396484 1011.85015869141 1025.25207519531 1015.86077880859 1028.33386230469 1035.90771484375 1038.15185546875 1039.08093261719 1039.56640625 1038.65112304688 1042.83544921875 1047.21643066406 1031.8330078125 1020.75378417969 1023.31378173828 1020.38757324219 1021.73266601562 1015.81384277344 1019.93646240234 1019.16491699219 1020.79620361328 1028.21362304688 1025.7294921875 1025.09936523438 1022.18579101562
965.1708984375 959.936462402344 959.615539550781 950.328063964844 955.083618164062 953.178588867188 956.017822265625 966.343688964844 954.435791015625 959.339538574219 948.81689453125 953.819030761719 956.681579589844 950.205932617188 951.867858886719 947.299499511719 947.125793457031 935.16064453125 943.911010742188 954.86962890625 950.082153320312 944.568176269531 942.139404296875 943.957580566406 944.579345703125 945.492736816406 944.348327636719 949.614868164062 949.664184570312 965.941528320312 958.187866210938 961.006042480469 949.533752441406 948.865478515625 945.91552734375 951.66259765625 943.103942871094 943.677062988281 937.472351074219 938.286560058594 945.127746582031 949.660461425781 957.223876953125 959.997985839844 955.386169433594 967.906311035156 972.658447265625 965.251708984375 976.42578125 974.6259765625 970.598693847656 972.937683105469 970.312377929688 976.294494628906 968.340087890625 970.91943359375 981.901306152344 973.186462402344 979.047790527344 968.837036132812 963.119323730469 961.228332519531 955.237060546875 966.422302246094 968.12890625 966.507751464844 966.193420410156 966.043823242188 971.994140625 963.633422851562 962.830078125 965.982666015625 970.784729003906 980.789184570312 977.89501953125 967.238586425781 967.785400390625 970.268859863281 964.799865722656 972.451354980469 972.482971191406 981.559509277344 979.015197753906 971.109985351562 981.135375976562 980.651062011719 988.081970214844 982.348022460938 975.629577636719 976.061218261719 975.50927734375 975.143615722656 968.177062988281 978.27685546875 979.940612792969 989.822265625 986.769165039062 977.163513183594 974.727783203125 976.990356445312 985.208801269531 981.469787597656 982.647766113281 983.378479003906 983.956298828125 984.944213867188 991.062622070312 993.898986816406 992.2099609375 1000.66296386719 1001.091796875 1000.91400146484 1010.28802490234 1011.998046875 1010.91955566406 1013.47869873047 1016.47326660156 1014.6767578125 1019.74853515625 1018.82635498047 1017.98193359375 1013.65307617188 1004.64025878906 1007.84857177734 1011.12310791016 1016.89715576172 1024.29992675781 1024.56115722656 1022.34094238281 1023.58380126953 1034.32299804688 1032.16735839844 1033.71313476562 1038.66650390625 1038.63549804688 1035.54821777344 1033.91577148438 1030.21032714844 1019.34539794922 1016.03057861328 1016.18835449219 1022.43621826172 1019.05963134766 1020.07977294922 1015.26190185547 1016.29858398438 1032.44067382812 1020.20977783203 1017.3505859375 1017.65112304688
954.9609375 962.7236328125 960.750671386719 949.971008300781 954.655334472656 958.537231445312 954.580810546875 962.182739257812 954.68896484375 949.086364746094 946.167175292969 948.689270019531 955.327514648438 949.600280761719 954.513977050781 946.009460449219 941.328063964844 940.122863769531 943.256408691406 945.904296875 950.750183105469 939.362487792969 940.863464355469 938.520446777344 936.511474609375 941.911071777344 941.070739746094 946.617309570312 950.709716796875 952.822937011719 956.286254882812 952.94287109375 948.6025390625 940.640502929688 949.662658691406 948.205688476562 942.15185546875 932.726318359375 931.111267089844 942.005065917969 952.17626953125 962.784484863281 965.623107910156 963.750427246094 964.949829101562 968.085327148438 977.522827148438 976.018676757812 975.723754882812 976.04736328125 972.026733398438 974.748352050781 975.198059082031 978.68017578125 968.347045898438 978.516235351562 987.992248535156 975.196716308594 972.587219238281 973.323852539062 970.080322265625 968.169128417969 962.311462402344 962.136962890625 961.18017578125 959.705139160156 968.61279296875 966.700073242188 967.375061035156 971.756713867188 968.821533203125 968.79736328125 972.849609375 983.468078613281 980.435485839844 971.471313476562 969.916442871094 969.329895019531 971.989318847656 966.332641601562 966.731201171875 977.869873046875 976.6318359375 982.032592773438 979.038635253906 979.86474609375 982.211486816406 977.640441894531 978.371154785156 973.34765625 979.25537109375 982.801147460938 973.545715332031 981.380920410156 978.315979003906 975.513000488281 985.03515625 989.975524902344 976.117797851562 981.685302734375 976.385192871094 971.002990722656 976.501586914062 981.585876464844 988.337036132812 988.632934570312 988.486572265625 982.802490234375 995.912292480469 999.839660644531 999.792175292969 1002.20904541016 1002.01629638672 1008.20465087891 1013.13037109375 1017.97528076172 1019.63684082031 1009.43048095703 1018.55938720703 1028.03173828125 1024.89489746094 1022.49255371094 1015.71032714844 1015.69201660156 1022.20971679688 1020.15887451172 1014.259765625 1026.74072265625 1023.19128417969 1024.08251953125 1028.02685546875 1031.65100097656 1033.43725585938 1036.31848144531 1036.59045410156 1035.94274902344 1032.53210449219 1035.87451171875 1028.521484375 1019.12292480469 1017.85784912109 1022.17352294922 1015.30780029297 1012.9716796875 1014.71868896484 1016.30328369141 1024.09509277344 1018.99438476562 1015.77380371094 1007.31024169922
951.731262207031 953.785278320312 958.201171875 955.80126953125 963.666320800781 963.60498046875 958.770385742188 952.166870117188 946.693908691406 945.353698730469 950.623718261719 949.784790039062 956.81298828125 959.023071289062 965.805419921875 963.196960449219 948.797180175781 941.061645507812 940.8740234375 947.032165527344 944.190124511719 938.573120117188 938.621337890625 936.059265136719 939.755249023438 940.659790039062 940.035583496094 937.247009277344 941.221618652344 955.769897460938 953.017822265625 957.539855957031 951.168334960938 941.314208984375 949.521545410156 957.26220703125 953.894775390625 939.943603515625 942.781616210938 950.887145996094 956.798645019531 959.554870605469 961.545166015625 958.754211425781 968.230590820312 973.383605957031 975.116882324219 971.901489257812 973.622497558594 970.956176757812 971.528747558594 968.543762207031 974.617736816406 974.130798339844 976.454345703125 977.482482910156 984.457214355469 981.649230957031 975.18212890625 976.854614257812 980.4189453125 970.611328125 965.402160644531 960.898620605469 965.742004394531 961.021362304688 963.140869140625 962.898376464844 964.133178710938 968.14599609375 975.490844726562 976.1552734375 975.63525390625 988.531066894531 979.558166503906 976.836608886719 977.026550292969 968.688293457031 968.604125976562 970.291564941406 971.526000976562 975.2109375 987.487365722656 990.437438964844 985.957458496094 986.041320800781 988.911071777344 977.791320800781 976.039245605469 981.55224609375 977.914367675781 982.317443847656 972.523376464844 979.198303222656 979.432739257812 973.440185546875 981.507141113281 986.289916992188 978.281616210938 973.021240234375 976.309631347656 974.391540527344 985.700012207031 984.319641113281 989.489074707031 982.553100585938 986.149230957031 989.95849609375 996.613708496094 1000.95745849609 1001.17742919922 1003.24157714844 1007.22589111328 1016.53161621094 1013.93591308594 1015.58441162109 1019.94592285156 1027.36376953125 1032.79370117188 1043.05944824219 1028.70739746094 1029.513671875 1023.63592529297 1020.462890625 1018.91485595703 1022.15991210938 1019.73889160156 1018.12658691406 1018.93200683594 1024.59228515625 1030.71728515625 1028.7490234375 1032.30029296875 1033.84130859375 1038.50402832031 1038.13134765625 1042.10400390625 1035.85034179688 1031.61206054688 1033.96826171875 1021.51605224609 1014.54998779297 1026.78295898438 1018.70428466797 1012.33117675781 1012.87280273438 1010.11126708984 1010.16827392578 1004.55450439453 996.036315917969
960.992919921875 949.6689453125 952.827026367188 952.543212890625 960.360961914062 952.033264160156 946.950805664062 947.620056152344 938.957885742188 943.290588378906 944.802307128906 957.71728515625 965.095703125 976.704956054688 969.703369140625 959.259948730469 948.1728515625 948.708984375 947.033508300781 940.763854980469 947.596069335938 938.117797851562 939.4462890625 948.027893066406 940.598083496094 949.416870117188 952.90478515625 950.980895996094 959.870361328125 956.070373535156 953.1298828125 959.700622558594 957.764709472656 944.468322753906 955.93896484375 949.9697265625 952.855529785156 945.679260253906 947.160827636719 951.223266601562 958.695007324219 963.639465332031 969.627746582031 960.096069335938 967.134826660156 973.456298828125 977.171508789062 977.349914550781 981.716857910156 979.855590820312 978.767456054688 972.837768554688 969.519409179688 970.1865234375 967.24072265625 974.4658203125 979.129821777344 978.492614746094 976.591857910156 974.780944824219 979.406982421875 967.540832519531 965.876037597656 971.309509277344 964.759033203125 957.227172851562 963.295043945312 962.64453125 971.231872558594 972.019836425781 978.238586425781 983.336853027344 989.802917480469 988.884521484375 990.417663574219 981.489074707031 975.856689453125 968.548645019531 967.394714355469 969.424987792969 969.67431640625 983.131896972656 984.582946777344 981.328063964844 984.275756835938 990.894592285156 990.239501953125 984.923767089844 985.360107421875 977.78076171875 976.987121582031 983.26171875 980.931823730469 976.239685058594 976.570129394531 979.319580078125 985.276977539062 982.853088378906 974.900268554688 973.74365234375 978.520568847656 975.242919921875 980.391418457031 985.73779296875 988.137451171875 986.896179199219 987.475769042969 995.295471191406 1002.55145263672 1001.90075683594 1004.18530273438 1010.69207763672 1011.52807617188 1017.00396728516 1015.02099609375 1011.67303466797 1023.57507324219 1027.60766601562 1039.1435546875 1035.2421875 1035.54040527344 1034.28332519531 1029.28137207031 1027.12646484375 1024.25268554688 1012.77301025391 1018.28063964844 1022.09857177734 1018.07281494141 1019.85363769531 1032.63159179688 1032.58764648438 1039.77185058594 1036.27160644531 1035.693359375 1046.39672851562 1038.47631835938 1037.11608886719 1031.630859375 1033.25610351562 1026.57946777344 1017.47454833984 1027.51293945312 1018.75500488281 1016.11163330078 1009.77893066406 1002.57427978516 999.217041015625 1005.94396972656 994.176147460938
951.162109375 947.155029296875 952.316833496094 950.039794921875 951.730651855469 947.486938476562 945.222106933594 937.270385742188 931.307922363281 943.956726074219 947.020141601562 958.32666015625 975.780395507812 975.961364746094 972.082336425781 962.617370605469 957.594909667969 955.529235839844 956.235107421875 952.45654296875 953.129760742188 949.077209472656 944.685363769531 955.468383789062 945.860595703125 948.649841308594 953.093811035156 956.448425292969 961.781127929688 965.163696289062 967.524536132812 948.481140136719 951.671203613281 950.762451171875 956.612915039062 946.515991210938 951.291198730469 954.461120605469 954.3916015625 958.616271972656 961.834838867188 963.999206542969 966.832580566406 967.138793945312 968.192932128906 975.825927734375 977.607788085938 982.654724121094 983.44580078125 986.183898925781 986.960632324219 980.595703125 971.643798828125 964.213195800781 969.235900878906 976.762451171875 975.200256347656 979.609436035156 974.513549804688 966.618957519531 971.853088378906 968.619812011719 970.473205566406 966.919311523438 964.052734375 968.375610351562 970.62109375 968.890991210938 973.682189941406 973.724792480469 982.8095703125 982.10009765625 988.7529296875 996.596008300781 984.537353515625 977.811828613281 969.944091796875 969.998596191406 967.619873046875 974.605407714844 974.655944824219 977.08837890625 978.572509765625 981.760070800781 992.430603027344 1000.76611328125 989.260375976562 987.068359375 979.962036132812 973.689453125 972.847717285156 981.510803222656 969.52685546875 972.957275390625 977.723999023438 988.669921875 995.647888183594 982.739868164062 982.6279296875 984.049133300781 982.629516601562 979.631713867188 981.226318359375 984.562927246094 989.445739746094 997.602600097656 1003.81188964844 1003.42614746094 1008.720703125 1002.02618408203 1010.72583007812 1010.97735595703 1009.88885498047 1020.60266113281 1014.48291015625 1017.72149658203 1028.12097167969 1032.5400390625 1040.82873535156 1035.0986328125 1035.71252441406 1038.14831542969 1038.24938964844 1031.54040527344 1027.33264160156 1014.59216308594 1013.86749267578 1023.23315429688 1024.64343261719 1016.17340087891 1028.84741210938 1039.76696777344 1046.76538085938 1040.74462890625 1041.64038085938 1041.55541992188 1036.95446777344 1035.76110839844 1033.32678222656 1028.38610839844 1027.82043457031 1020.193359375 1022.92364501953 1016.68292236328 1012.66973876953 1015.88641357422 1004.60217285156 1002.64678955078 992.599487304688 989.453308105469
951.6845703125 949.670349121094 953.627563476562 945.860107421875 947.226257324219 940.048645019531 937.853942871094 940.585083007812 937.133056640625 937.754943847656 944.506286621094 948.467102050781 964.486999511719 975.366882324219 973.460632324219 968.509155273438 964.997863769531 962.158386230469 965.649047851562 963.615112304688 951.593139648438 946.099853515625 948.556030273438 948.053894042969 956.623962402344 952.480834960938 963.883117675781 963.973327636719 966.471923828125 957.2109375 957.074951171875 957.236267089844 951.95458984375 953.325256347656 957.768310546875 961.792114257812 960.42041015625 961.728942871094 960.889404296875 960.547790527344 967.726623535156 963.696899414062 974.982666015625 984.222290039062 978.488830566406 977.174255371094 980.246643066406 984.563110351562 981.202514648438 992.670776367188 988.791381835938 980.762145996094 972.424377441406 965.478210449219 960.708251953125 971.256103515625 969.031188964844 973.155029296875 979.696105957031 972.520263671875 972.464172363281 966.414916992188 965.95556640625 969.267272949219 974.145568847656 970.384704589844 969.895874023438 976.803283691406 970.845764160156 971.712768554688 978.848999023438 987.369689941406 980.0224609375 979.9833984375 982.620056152344 979.503662109375 979.101135253906 975.108764648438 971.640563964844 974.523803710938 977.291259765625 979.955810546875 978.371032714844 988.881469726562 986.495544433594 986.902160644531 985.612487792969 981.287048339844 986.093078613281 977.797485351562 983.663879394531 980.565063476562 987.580932617188 972.017822265625 981.139038085938 987.86474609375 993.982666015625 1002.55920410156 992.411010742188 991.893798828125 984.44140625 980.59033203125 986.047485351562 990.04931640625 999.995361328125 994.852844238281 999.721984863281 1005.53619384766 1006.58209228516 1005.97009277344 1010.41040039062 1014.0419921875 1015.70281982422 1021.55133056641 1024.77038574219 1025.31359863281 1021.65966796875 1037.55212402344 1045.77026367188 1044.98217773438 1043.03271484375 1042.35412597656 1045.12768554688 1032.388671875 1028.14404296875 1021.82513427734 1024.67346191406 1020.61743164062 1016.80462646484 1016.92913818359 1022.22058105469 1033.41247558594 1033.75671386719 1036.38439941406 1035.74450683594 1035.10290527344 1040.32434082031 1035.58471679688 1025.23913574219 1028.99426269531 1024.36572265625 1014.00708007812 1014.03332519531 1003.6806640625 997.228393554688 1010.48461914062 1004.01593017578 1001.99853515625 988.267211914062 986.3720703125
954.007080078125 945.472106933594 950.20947265625 950.739624023438 946.750183105469 943.580200195312 939.80419921875 931.462768554688 938.587097167969 941.877563476562 948.260192871094 950.868408203125 958.027893066406 974.6962890625 967.821166992188 967.804138183594 966.915466308594 967.524291992188 966.481140136719 965.356811523438 951.303955078125 949.291809082031 954.641845703125 950.94482421875 958.066711425781 958.012817382812 969.7880859375 975.0087890625 968.0439453125 955.829284667969 957.528686523438 965.4716796875 956.206359863281 956.657470703125 958.529846191406 959.927673339844 961.660949707031 961.4404296875 957.367980957031 966.5341796875 965.861389160156 968.1767578125 976.508239746094 989.313110351562 987.963012695312 983.097900390625 983.206237792969 991.456909179688 994.515991210938 995.560546875 981.923461914062 979.803100585938 978.087463378906 970.414123535156 964.841064453125 973.113952636719 981.779907226562 985.677062988281 987.727966308594 978.913513183594 979.274658203125 974.987121582031 968.933044433594 972.397705078125 967.515869140625 979.185668945312 981.316833496094 983.660766601562 977.278564453125 979.228698730469 984.056884765625 990.985717773438 990.520263671875 986.748352050781 990.731567382812 982.756652832031 982.903503417969 979.386962890625 980.710021972656 978.019226074219 980.1767578125 983.329772949219 981.909545898438 986.304321289062 977.491455078125 989.313049316406 982.949951171875 980.268737792969 979.121765136719 977.289489746094 978.519226074219 976.79541015625 984.934204101562 988.944946289062 994.946594238281 991.141052246094 993.909240722656 992.521118164062 993.536010742188 994.69580078125 994.788696289062 987.201904296875 996.279235839844 999.368896484375 1006.22998046875 995.263610839844 1007.87799072266 1006.01647949219 1013.84368896484 1015.19158935547 1007.77459716797 1009.88116455078 1021.99145507812 1019.88439941406 1026.91076660156 1026.58764648438 1032.86486816406 1045.54724121094 1039.32470703125 1038.69079589844 1046.76782226562 1056.5966796875 1052.45971679688 1037.28942871094 1024.17492675781 1016.74145507812 1018.02935791016 1016.09289550781 1016.83099365234 1018.52337646484 1022.78839111328 1024.65161132812 1025.24157714844 1031.33581542969 1029.13903808594 1028.50415039062 1044.11535644531 1045.89428710938 1030.6279296875 1031.31921386719 1019.24078369141 1012.60601806641 1005.86877441406 1010.34094238281 1007.85943603516 998.693969726562 997.151062011719 996.183654785156 983.359985351562 976.779907226562
948.003479003906 947.39501953125 946.204956054688 949.4970703125 948.448852539062 933.735717773438 935.274658203125 931.446044921875 924.452575683594 938.773010253906 949.625061035156 957.513427734375 958.730407714844 972.39794921875 972.730041503906 966.706909179688 964.925415039062 976.384948730469 966.479614257812 967.435546875 966.107055664062 964.248840332031 949.911315917969 958.656127929688 962.629943847656 972.707275390625 972.013854980469 974.641845703125 968.535278320312 959.832641601562 957.793518066406 964.691040039062 952.156494140625 953.311645507812 962.075134277344 962.536071777344 957.143371582031 967.243896484375 962.128173828125 971.270935058594 968.966674804688 972.2529296875 988.741027832031 990.086608886719 985.21728515625 986.651428222656 982.892700195312 989.865417480469 992.168395996094 989.811828613281 983.396423339844 981.09423828125 974.814331054688 975.543395996094 977.873657226562 975.973083496094 977.273742675781 990.50244140625 981.828491210938 976.246948242188 975.588134765625 978.372863769531 974.071716308594 972.187194824219 971.413330078125 970.504577636719 979.87646484375 979.954895019531 982.630249023438 976.824340820312 979.755187988281 981.050537109375 980.416137695312 983.977966308594 981.846069335938 981.427185058594 986.660827636719 985.024291992188 981.126220703125 977.206420898438 986.908508300781 995.754211425781 986.858093261719 990.410522460938 986.095153808594 987.518798828125 992.626770019531 981.850158691406 974.839538574219 972.732727050781 970.905517578125 973.997802734375 984.596801757812 986.230102539062 983.979064941406 989.589233398438 997.629516601562 986.781555175781 994.789428710938 991.3759765625 990.667419433594 1000.32336425781 1000.71514892578 1001.919921875 1012.05541992188 1010.88830566406 1010.41448974609 1014.44934082031 1007.35375976562 1007.22198486328 1012.53692626953 1006.37200927734 1012.37139892578 1007.89611816406 1020.06439208984 1031.97448730469 1039.45373535156 1046.41137695312 1042.45690917969 1038.65942382812 1048.01232910156 1048.31677246094 1040.66101074219 1031.91345214844 1021.94445800781 1017.19219970703 1007.14031982422 1018.13366699219 1014.10906982422 1014.91888427734 1019.36712646484 1024.91772460938 1022.27947998047 1033.37805175781 1028.755859375 1035.11804199219 1041.32287597656 1032.32336425781 1032.12036132812 1030.56909179688 1026.81701660156 1008.11474609375 1005.68255615234 1005.25268554688 1001.79272460938 994.126403808594 995.944885253906 991.657653808594 988.155395507812 983.215393066406
941.279541015625 946.423217773438 938.547241210938 937.401062011719 934.024169921875 939.867004394531 933.007202148438 934.230407714844 929.087524414062 934.706481933594 953.323181152344 946.525634765625 959.263732910156 965.309936523438 969.16455078125 978.23193359375 977.672485351562 970.529968261719 974.8251953125 978.976318359375 971.370300292969 962.291015625 955.884765625 956.500183105469 959.339172363281 969.845764160156 967.371276855469 966.66796875 970.085571289062 968.076049804688 976.816711425781 965.4951171875 953.042175292969 964.759948730469 958.315673828125 963.037780761719 961.684936523438 967.276245117188 969.704040527344 983.61328125 985.17724609375 986.883850097656 992.890258789062 999.2578125 992.107177734375 990.276672363281 987.522583007812 991.784606933594 994.141784667969 996.032348632812 995.358703613281 989.468444824219 983.644226074219 975.550231933594 969.884887695312 976.259338378906 983.069274902344 979.43017578125 967.908142089844 972.285949707031 970.11474609375 974.089050292969 977.388305664062 978.553405761719 980.369140625 972.25048828125 970.89404296875 974.618041992188 975.391174316406 975.304016113281 974.619262695312 977.042114257812 981.886413574219 984.454162597656 989.226257324219 988.377990722656 986.965881347656 979.511047363281 983.268615722656 989.290771484375 985.236633300781 985.620910644531 993.180847167969 989.768127441406 985.521484375 990.414794921875 986.387512207031 983.26123046875 977.0537109375 974.304321289062 975.680725097656 984.208068847656 980.788818359375 992.873596191406 995.882019042969 990.713073730469 989.776123046875 981.790588378906 976.984130859375 991.534484863281 994.86181640625 998.502319335938 1004.826171875 1011.11584472656 1016.16485595703 1011.20989990234 1017.75836181641 1009.76043701172 1013.27288818359 1015.43011474609 1006.13909912109 1015.63397216797 1011.849609375 1012.54223632812 1017.90789794922 1029.79711914062 1036.81604003906 1031.50720214844 1034.3330078125 1034.083984375 1036.30859375 1039.30505371094 1028.60375976562 1024.169921875 1018.15142822266 1015.95642089844 1015.53051757812 1011.58343505859 1006.39581298828 1016.09350585938 1018.60559082031 1022.79125976562 1026.98498535156 1025.07934570312 1026.82409667969 1027.78564453125 1030.86328125 1027.52392578125 1019.29217529297 1017.29919433594 1022.15484619141 1006.91009521484 1001.36041259766 1004.27203369141 1003.40344238281 1003.76824951172 995.564392089844 996.545166015625 985.445129394531 986.222290039062
939.526245117188 946.996459960938 939.320861816406 936.064880371094 936.61474609375 937.209533691406 941.523010253906 941.151916503906 944.397399902344 945.094482421875 949.827331542969 959.793579101562 961.434692382812 965.180541992188 972.160766601562 968.354187011719 970.185729980469 969.196960449219 985.398559570312 982.335083007812 975.665161132812 964.393127441406 951.862365722656 954.611877441406 954.241455078125 962.641784667969 975.150268554688 968.511108398438 971.799438476562 972.801513671875 968.728942871094 974.605895996094 967.237060546875 964.825378417969 960.979064941406 967.934326171875 963.139465332031 969.571594238281 975.915832519531 987.738952636719 997.452087402344 1006.69586181641 1005.77557373047 1009.92822265625 1008.54034423828 997.552917480469 1001.34313964844 1001.26916503906 1006.30261230469 995.92529296875 993.250244140625 989.188049316406 974.573791503906 976.049926757812 969.292053222656 974.731811523438 964.88134765625 973.480224609375 966.064392089844 972.997619628906 985.698913574219 973.656799316406 977.671508789062 979.327758789062 976.860168457031 973.732849121094 974.255432128906 980.863220214844 981.769470214844 977.690063476562 980.080627441406 983.364501953125 979.931823730469 993.515258789062 989.836120605469 988.809936523438 987.716247558594 987.158020019531 987.136535644531 990.098999023438 986.439575195312 987.782165527344 985.549255371094 992.07958984375 986.958068847656 990.891479492188 979.209533691406 986.223876953125 981.281433105469 980.599243164062 980.81005859375 983.948425292969 983.265014648438 987.938842773438 991.239379882812 994.963134765625 999.01416015625 985.348510742188 986.607421875 985.848266601562 982.872375488281 994.498718261719 999.09619140625 1002.82836914062 1007.64721679688 1013.58923339844 1012.76373291016 1006.51898193359 1019.24212646484 1022.85028076172 1017.76977539062 1019.64007568359 1017.37091064453 1015.06701660156 1003.66674804688 1011.36950683594 1022.869140625 1030.16418457031 1031.60791015625 1028.72583007812 1034.19262695312 1039.65539550781 1029.64770507812 1021.88653564453 1016.09008789062 1016.06286621094 1008.2333984375 1015.31182861328 1004.87847900391 1017.80554199219 1026.95300292969 1027.18505859375 1026.4755859375 1022.90637207031 1012.89129638672 1020.08734130859 1030.32873535156 1021.69891357422 1016.90490722656 1017.0859375 1004.09936523438 993.880981445312 987.240295410156 989.148559570312 996.480163574219 997.093139648438 1001.80126953125 999.198974609375 993.284423828125 984.747863769531
931.841796875 937.007141113281 933.740173339844 934.16015625 931.459899902344 938.532531738281 941.764709472656 951.935852050781 961.238586425781 957.19580078125 952.998107910156 961.024780273438 968.031188964844 969.341369628906 972.265869140625 964.606628417969 959.167602539062 972.341613769531 987.200988769531 982.877746582031 979.998596191406 968.112915039062 962.611755371094 953.6572265625 961.275939941406 965.748840332031 962.170654296875 964.843139648438 971.153137207031 968.560119628906 970.576416015625 967.485290527344 970.921997070312 961.904418945312 952.725830078125 969.541137695312 971.655090332031 973.382629394531 974.80810546875 986.432922363281 997.557006835938 1008.96716308594 1014.62225341797 1009.76770019531 1009.23370361328 1010.79449462891 999.612121582031 1004.21069335938 1004.77099609375 994.206665039062 993.174438476562 988.138610839844 987.120910644531 986.628845214844 985.085205078125 976.476440429688 967.153686523438 969.577331542969 975.761169433594 979.132873535156 977.206726074219 974.964233398438 984.459533691406 974.690612792969 974.201477050781 971.789428710938 977.941162109375 986.8671875 976.972290039062 983.360778808594 982.197692871094 995.895263671875 993.776000976562 995.263000488281 1002.43316650391 992.918884277344 993.200012207031 987.723571777344 990.971923828125 990.628051757812 997.373107910156 997.130126953125 994.529174804688 994.563537597656 1001.28277587891 991.806945800781 980.417724609375 985.629699707031 988.584106445312 984.885314941406 981.124755859375 986.755554199219 978.958618164062 997.446228027344 990.963928222656 994.300415039062 993.254516601562 989.88720703125 992.355407714844 981.654968261719 981.194458007812 986.606811523438 996.566040039062 1004.84246826172 1018.67510986328 1023.75762939453 1025.24645996094 1020.98443603516 1023.12609863281 1026.69177246094 1027.29919433594 1027.26586914062 1026.31042480469 1018.80755615234 1012.72882080078 1017.87127685547 1017.70819091797 1024.00085449219 1025.67028808594 1024.52575683594 1033.16625976562 1035.20983886719 1028.2783203125 1034.29284667969 1028.11950683594 1020.15740966797 1014.19787597656 1012.05712890625 1015.18774414062 1009.24188232422 1010.30847167969 1022.30212402344 1023.69549560547 1023.83239746094 1021.63952636719 1017.54260253906 1010.44915771484 1016.53149414062 1010.87200927734 998.996826171875 990.649047851562 988.233764648438 989.553039550781 987.351257324219 997.195922851562 995.346374511719 1002.35308837891 997.956787109375 998.02099609375 990.695922851562
935.004821777344 927.228698730469 930.306701660156 928.428771972656 934.44580078125 944.344604492188 948.277893066406 951.294067382812 951.298645019531 955.505615234375 956.049621582031 963.802795410156 966.381408691406 977.542663574219 973.33056640625 977.871398925781 975.220031738281 979.116027832031 980.863952636719 984.234191894531 986.956970214844 980.306762695312 973.913818359375 970.670532226562 968.9775390625 969.457824707031 969.924377441406 966.994750976562 971.283264160156 971.814147949219 976.445983886719 975.015930175781 971.8642578125 971.080932617188 965.197875976562 975.283630371094 972.390197753906 980.8330078125 980.971069335938 988.016784667969 996.755249023438 1006.48681640625 1007.47326660156 1005.76867675781 1007.49871826172 1013.806640625 1012.56530761719 1008.99017333984 1002.76513671875 1000.27404785156 995.658996582031 989.901733398438 987.921203613281 989.452575683594 994.911376953125 979.074584960938 976.145690917969 975.614562988281 981.4619140625 986.337890625 980.185485839844 983.423217773438 981.86279296875 979.966125488281 976.304260253906 965.205688476562 975.038513183594 978.334350585938 982.327819824219 984.936950683594 988.453796386719 991.164916992188 992.003479003906 993.122680664062 995.684814453125 997.929626464844 998.680053710938 997.992858886719 998.425537109375 995.522521972656 999.66552734375 995.355102539062 993.017150878906 994.813232421875 999.158325195312 993.266845703125 991.659912109375 992.691223144531 990.410095214844 984.851684570312 990.700073242188 988.112670898438 991.300415039062 991.494079589844 996.148498535156 988.682067871094 991.767761230469 994.454650878906 992.98779296875 987.754638671875 986.407104492188 992.646423339844 1004.32806396484 1011.0908203125 1026.39453125 1028.89685058594 1025.68188476562 1026.88500976562 1028.015625 1032.32470703125 1028.56469726562 1027.03344726562 1030.3193359375 1030.49169921875 1032.73510742188 1025.36340332031 1015.90289306641 1018.56463623047 1015.33850097656 1025.93115234375 1034.44409179688 1028.31066894531 1031.15100097656 1028.98474121094 1018.22106933594 1019.79443359375 1019.60827636719 1007.78662109375 1004.79187011719 1007.78112792969 1018.44116210938 1012.31646728516 1016.97760009766 1028.60339355469 1025.42761230469 1018.94958496094 1016.36535644531 1014.33294677734 1016.31781005859 1001.73767089844 997.934936523438 993.434631347656 990.142639160156 989.470703125 991.75634765625 992.037414550781 1003.04388427734 1000.71673583984 999.350769042969 1007.77301025391
925.003112792969 921.267395019531 924.819213867188 932.465942382812 937.441040039062 939.275024414062 942.300109863281 948.825439453125 951.6904296875 954.682495117188 964.365600585938 968.46826171875 975.043334960938 980.9609375 986.231323242188 986.001647949219 988.498657226562 980.637329101562 983.643005371094 978.319519042969 984.868347167969 980.648986816406 981.099975585938 974.160461425781 981.713012695312 969.681030273438 969.909606933594 972.613159179688 974.398681640625 978.801818847656 975.68212890625 974.603881835938 969.771850585938 972.236328125 971.019897460938 981.906860351562 981.294738769531 985.921569824219 997.149536132812 992.761413574219 995.135620117188 1008.75610351562 1013.51123046875 1008.50390625 1015.13568115234 1006.89465332031 1008.0673828125 1009.93096923828 1004.64422607422 1000.73480224609 994.408325195312 994.688171386719 993.018493652344 991.096923828125 988.260314941406 978.769470214844 974.525695800781 971.449768066406 982.427062988281 982.341369628906 978.202697753906 981.152404785156 981.430236816406 978.243530273438 973.974426269531 968.48095703125 973.267150878906 978.283996582031 977.239379882812 980.9697265625 981.947448730469 984.202392578125 987.453186035156 996.287658691406 999.092895507812 999.666381835938 999.856262207031 1002.78509521484 1005.64593505859 1007.20709228516 1002.32562255859 998.542846679688 998.228088378906 998.115356445312 1001.33892822266 996.439453125 996.151733398438 997.491394042969 1000.13507080078 997.327575683594 983.961303710938 984.828796386719 985.173095703125 997.192504882812 994.876281738281 991.853576660156 1002.32409667969 1005.76666259766 997.166564941406 994.730224609375 993.640930175781 998.678833007812 1004.96044921875 1018.48663330078 1028.87744140625 1033.82727050781 1030.83166503906 1032.67565917969 1028.83251953125 1034.79223632812 1034.8193359375 1031.31286621094 1029.14331054688 1042.4873046875 1033.56713867188 1038.93688964844 1026.65185546875 1014.83758544922 1012.00714111328 1023.26544189453 1026.36499023438 1024.18225097656 1024.84191894531 1024.88208007812 1019.82666015625 1023.103515625 1013.39318847656 1009.30639648438 1004.85211181641 1003.99353027344 1012.23492431641 1014.92706298828 1021.86962890625 1032.89221191406 1023.98919677734 1024.55773925781 1027.49499511719 1019.078125 1013.08966064453 996.03955078125 992.243408203125 988.999938964844 990.086608886719 990.650756835938 997.762512207031 995.375854492188 999.015625 991.003234863281 990.067443847656 1005.6123046875
933.977478027344 928.304016113281 931.727172851562 933.980041503906 936.363037109375 940.130798339844 934.224243164062 932.642822265625 944.648193359375 953.341613769531 957.431701660156 967.429077148438 973.152160644531 982.504516601562 982.28271484375 978.164184570312 981.111877441406 983.116760253906 983.518493652344 981.228820800781 982.694213867188 987.475280761719 986.124084472656 987.3515625 985.6865234375 982.576904296875 978.658142089844 984.634582519531 979.729553222656 979.837463378906 978.094360351562 975.696838378906 979.779052734375 984.684631347656 978.66357421875 978.275512695312 986.7685546875 991.339721679688 992.840148925781 992.418273925781 998.653381347656 1007.71704101562 1006.44232177734 1011.87335205078 1015.55535888672 1006.16070556641 1006.36486816406 1021.71331787109 1011.34326171875 999.550720214844 995.949584960938 1001.37829589844 998.277221679688 994.677673339844 982.698425292969 984.755004882812 976.543762207031 983.141479492188 981.839660644531 978.875610351562 973.484436035156 976.736267089844 972.956604003906 967.508728027344 971.137573242188 969.554626464844 969.311279296875 975.241333007812 983.632873535156 985.888732910156 979.578674316406 987.482299804688 990.249572753906 1001.61212158203 1002.19506835938 997.561462402344 997.354797363281 1012.16796875 1015.68078613281 1004.45269775391 1005.82641601562 1004.03125 1003.09466552734 1002.47106933594 1002.60168457031 1004.71264648438 1011.44012451172 1005.18109130859 1000.85198974609 991.1357421875 984.337524414062 983.347534179688 982.875854492188 991.773681640625 994.198608398438 994.392272949219 997.447326660156 1001.98278808594 1004.37854003906 1003.69555664062 1003.76770019531 1008.09875488281 1004.81036376953 1021.49395751953 1031.04821777344 1034.42785644531 1048.62548828125 1042.45874023438 1034.55603027344 1032.6611328125 1031.24047851562 1027.92944335938 1034.70483398438 1035.63464355469 1042.62292480469 1034.79125976562 1020.31909179688 1015.34503173828 1019.14251708984 1020.02868652344 1023.52783203125 1019.60955810547 1020.51947021484 1014.78863525391 1020.49908447266 1009.74664306641 1012.08026123047 1017.21856689453 1007.47009277344 1011.96490478516 1026.02404785156 1022.43621826172 1026.6513671875 1023.23571777344 1024.86828613281 1022.34332275391 1028.90759277344 1021.49371337891 1014.33129882812 1005.32501220703 997.310974121094 988.920104980469 989.104675292969 989.918579101562 988.665832519531 993.928161621094 994.676940917969 981.309631347656 987.768005371094 994.918701171875
938.423583984375 929.138916015625 933.711975097656 935.856018066406 942.861999511719 939.68701171875 938.008972167969 941.420166015625 943.20751953125 950.554260253906 953.811889648438 962.5078125 981.400451660156 980.265808105469 971.486877441406 971.263366699219 975.059875488281 978.322692871094 977.626647949219 984.462158203125 995.824340820312 997.586059570312 990.53662109375 993.426574707031 992.484252929688 986.866943359375 989.299194335938 993.594299316406 984.962158203125 980.646789550781 977.681884765625 978.635070800781 978.994506835938 980.861511230469 978.296630859375 984.649719238281 985.182739257812 994.469177246094 986.295227050781 984.831481933594 992.746643066406 998.855895996094 1000.92315673828 1003.29028320312 1000.98583984375 1010.16729736328 1011.04803466797 1022.98718261719 1005.16442871094 993.585876464844 990.91259765625 988.394714355469 993.042785644531 986.584289550781 984.5517578125 989.828735351562 983.497802734375 981.798400878906 977.661926269531 977.399169921875 977.715759277344 975.813110351562 978.968811035156 964.532836914062 970.947143554688 969.66455078125 972.501586914062 985.044494628906 984.015075683594 983.560180664062 979.823608398438 985.194396972656 988.937683105469 1001.23962402344 995.614929199219 994.577697753906 1001.35461425781 1017.84930419922 1017.41387939453 1004.37426757812 1011.66076660156 1013.70025634766 1002.97784423828 1011.71813964844 1004.58489990234 1008.50982666016 1010.01428222656 1002.30712890625 994.336303710938 991.652893066406 988.32666015625 984.506225585938 980.457336425781 983.298950195312 987.944458007812 987.285949707031 995.043762207031 999.071228027344 1002.89178466797 999.520263671875 996.4306640625 996.830749511719 1012.66442871094 1024.75219726562 1037.35803222656 1034.447265625 1044.27502441406 1046.69421386719 1040.16027832031 1037.53100585938 1029.97314453125 1036.55297851562 1032.18786621094 1035.16552734375 1041.41076660156 1027.72436523438 1018.98486328125 1009.63800048828 1021.60998535156 1021.67352294922 1021.46374511719 1016.35748291016 1024.56225585938 1016.4384765625 1013.19573974609 1011.10339355469 1012.39978027344 1018.83129882812 1013.13275146484 1006.20324707031 1014.48828125 1020.14300537109 1015.01019287109 1017.84753417969 1016.08581542969 1017.20111083984 1020.07727050781 1011.52459716797 1006.09149169922 999.072326660156 991.131164550781 987.812622070312 989.980163574219 991.117553710938 990.213195800781 988.180725097656 979.040954589844 979.918334960938 987.116149902344 998.866455078125
935.819458007812 933.681091308594 940.070678710938 941.35400390625 941.597045898438 946.395812988281 935.347412109375 937.130493164062 944.652160644531 946.170227050781 956.544311523438 960.580200195312 975.254760742188 976.470520019531 970.084899902344 954.937561035156 980.633056640625 982.697814941406 981.29541015625 985.300659179688 997.768371582031 1000.24920654297 1000.31097412109 988.180114746094 993.341064453125 999.182739257812 997.288818359375 997.107055664062 982.5322265625 986.025024414062 985.993896484375 987.574768066406 977.523681640625 979.064880371094 981.048828125 985.093078613281 988.947082519531 989.459228515625 991.528991699219 988.068542480469 999.627502441406 999.899291992188 995.423400878906 1002.39324951172 999.595703125 1011.94512939453 1011.80615234375 1003.17919921875 995.193115234375 995.450378417969 996.484558105469 995.505615234375 1001.05236816406 994.131225585938 990.318786621094 987.114990234375 986.541137695312 988.221313476562 984.468444824219 982.708435058594 982.30419921875 983.080505371094 976.931762695312 965.697631835938 975.90380859375 977.456481933594 971.430847167969 978.851745605469 982.752990722656 993.075500488281 987.931457519531 977.783874511719 991.4716796875 994.727111816406 993.957946777344 995.853088378906 994.423767089844 1004.19757080078 1012.45684814453 1004.69372558594 1008.98669433594 1008.40747070312 1013.01892089844 1014.20135498047 1010.34838867188 1013.05584716797 1011.31640625 998.588195800781 1001.15289306641 997.27099609375 991.016906738281 984.345703125 992.737426757812 989.284729003906 987.118896484375 986.190002441406 991.395324707031 999.984375 1002.37652587891 998.861511230469 995.397644042969 1003.86383056641 1007.86108398438 1008.42034912109 1024.97338867188 1030.87023925781 1047.39318847656 1042.41772460938 1042.89453125 1046.25061035156 1044.47570800781 1045.90295410156 1042.93054199219 1039.50646972656 1037.46142578125 1025.30737304688 1017.19256591797 1015.8935546875 1023.06866455078 1023.22509765625 1023.19799804688 1018.86853027344 1024.2236328125 1015.13421630859 1009.68304443359 1008.20263671875 1004.80090332031 996.025085449219 1001.09240722656 1004.17144775391 1010.51342773438 1009.73004150391 1006.19519042969 1010.36462402344 1003.67272949219 1006.22436523438 1007.43463134766 1002.32135009766 1002.19836425781 994.239501953125 987.704162597656 988.948547363281 986.055297851562 981.9970703125 979.892028808594 981.244140625 989.488586425781 986.164855957031 987.474548339844 995.136596679688
946.316284179688 943.75341796875 943.914794921875 943.014038085938 935.765014648438 936.540710449219 937.03271484375 938.743469238281 945.8076171875 953.999145507812 956.132019042969 962.790649414062 976.566101074219 974.557495117188 975.724548339844 970.410583496094 975.302795410156 981.886596679688 983.509460449219 981.135009765625 993.112854003906 999.891967773438 995.157104492188 988.19189453125 987.937194824219 989.528442382812 981.970886230469 981.791259765625 984.897155761719 977.432067871094 970.457763671875 975.752380371094 966.412475585938 976.593566894531 979.982055664062 987.14990234375 983.369567871094 992.087341308594 997.426330566406 992.543090820312 1003.75103759766 1001.10192871094 997.968139648438 1005.33874511719 1008.76733398438 1015.25805664062 1011.46435546875 1000.06024169922 997.888793945312 995.178833007812 995.121276855469 998.269653320312 1004.72216796875 1004.75616455078 988.658142089844 986.239807128906 991.847534179688 994.699462890625 986.471435546875 984.643676757812 985.368713378906 979.16650390625 972.104064941406 971.795349121094 971.004943847656 983.572021484375 978.034606933594 978.63232421875 980.277893066406 982.123474121094 990.168090820312 984.338806152344 992.746887207031 998.91064453125 993.404968261719 992.116394042969 997.359191894531 1004.01818847656 998.427429199219 998.8662109375 1006.85345458984 1007.13684082031 1010.841796875 1020.71118164062 1013.91424560547 1005.08959960938 1002.20703125 998.029113769531 999.799682617188 995.5009765625 992.581359863281 991.152160644531 998.748046875 992.898376464844 989.18701171875 986.647216796875 992.067810058594 1003.43780517578 1002.62469482422 1005.38830566406 1007.52398681641 999.841674804688 1018.08312988281 1013.76422119141 1020.75305175781 1028.056640625 1029.87219238281 1037.54699707031 1032.91650390625 1042.53369140625 1044.74353027344 1045.92456054688 1047.57495117188 1049.51037597656 1043.119140625 1037.11157226562 1028.97497558594 1024.96887207031 1028.85754394531 1022.81903076172 1019.486328125 1015.96014404297 1016.20178222656 1013.70953369141 1006.22369384766 1004.74945068359 991.192565917969 1000.80157470703 1001.77648925781 999.632873535156 999.974060058594 1003.05505371094 1003.02545166016 1000.10522460938 1001.95324707031 1004.42248535156 998.125183105469 997.392211914062 990.478332519531 988.75537109375 987.406433105469 983.975952148438 987.209167480469 981.98291015625 986.162109375 987.670227050781 982.773986816406 985.673706054688 988.966491699219 995.747924804688
944.04736328125 942.882019042969 946.740112304688 943.83642578125 937.778503417969 932.729125976562 939.212890625 938.005432128906 943.108215332031 958.42431640625 963.226867675781 964.068176269531 970.138916015625 962.948486328125 969.727600097656 972.469360351562 970.257751464844 973.661315917969 979.436584472656 979.426330566406 981.583557128906 981.867980957031 982.388671875 985.54345703125 982.260314941406 988.880981445312 989.032348632812 985.603332519531 984.777038574219 975.509887695312 974.545715332031 970.165283203125 969.132568359375 981.45849609375 986.913024902344 996.411682128906 986.412170410156 995.778991699219 989.94775390625 986.850158691406 996.740173339844 998.975463867188 999.610290527344 997.646911621094 1009.04504394531 1007.59649658203 1009.58929443359 1014.11657714844 1007.66186523438 993.232482910156 991.625732421875 993.475341796875 1003.98791503906 997.883361816406 984.749328613281 988.874877929688 990.357360839844 997.682006835938 987.420654296875 984.963745117188 977.46142578125 983.739013671875 983.544616699219 977.629516601562 975.640441894531 980.922302246094 975.649291992188 968.701538085938 971.762451171875 979.4345703125 984.588012695312 989.221374511719 991.787048339844 994.978088378906 998.133422851562 993.228576660156 988.957946777344 997.606567382812 1005.51177978516 999.503845214844 1001.05865478516 1008.53192138672 1006.28527832031 1012.14093017578 1003.12451171875 1003.51458740234 1008.75726318359 1004.28057861328 1005.12200927734 994.258972167969 996.206420898438 1004.39349365234 995.598815917969 992.437194824219 997.237487792969 997.633361816406 992.973999023438 999.403747558594 1008.84484863281 1010.23675537109 1013.84027099609 1017.51934814453 1017.76342773438 1016.02044677734 1014.96435546875 1025.09533691406 1037.6455078125 1044.5595703125 1039.88427734375 1038.97912597656 1046.24670410156 1052.16577148438 1057.21118164062 1056.38549804688 1048.7744140625 1041.80786132812 1038.80920410156 1036.0419921875 1026.66955566406 1028.83581542969 1023.27032470703 1026.68566894531 1016.63006591797 1006.24890136719 992.519592285156 999.42626953125 989.435241699219 997.291259765625 996.8408203125 995.794067382812 999.650085449219 998.79345703125 998.969360351562 995.233703613281 1002.57873535156 1003.71112060547 1004.09655761719 992.401550292969 985.138610839844 984.050598144531 984.956298828125 979.57763671875 972.149963378906 971.008972167969 980.693542480469 983.948913574219 982.989074707031 984.386962890625 983.357482910156 993.070617675781
