NCOLS 150
NROWS 37
XLLCORNER 7394249
YLLCORNER 4842509
CELLSIZE 30
NODATA_VALUE -9999
943.006408691406 946.719360351562 950.185791015625 956.957885742188 960.579223632812 972.954467773438 968.481079101562 968.682800292969 960.971313476562 962.418701171875 966.0322265625 975.309326171875 984.437255859375 970.533813476562 967.964965820312 979.136474609375 979.753601074219 971.336242675781 974.047546386719 977.44873046875 975.934265136719 969.469360351562 976.203735351562 972.188537597656 969.750122070312 961.605407714844 962.716674804688 977.901306152344 971.830017089844 979.361755371094 977.628662109375 980.138916015625 976.419372558594 973.317321777344 973.585815429688 973.409545898438 969.273193359375 963.740600585938 961.402404785156 965.56982421875 965.0888671875 962.947570800781 965.132568359375 962.33203125 963.464965820312 966.102905273438 963.875610351562 973.451904296875 975.411071777344 976.135986328125 967.736206054688 965.170776367188 973.619262695312 969.660888671875 974.835144042969 971.259338378906 968.359802246094 973.915161132812 971.607482910156 981.086608886719 970.141662597656 972.603454589844 968.564025878906 974.111450195312 970.219116210938 976.334533691406 971.205139160156 958.397827148438 949.226623535156 947.411560058594 952.983032226562 957.747375488281 955.431274414062 967.510986328125 974.431640625 969.9384765625 970.897094726562 965.503295898438 959.71484375 965.722900390625 969.444885253906 965.292663574219 961.334289550781 971.697448730469 964.815490722656 970.709594726562 970.259033203125 984.557800292969 982.79541015625 976.618225097656 978.800964355469 977.268188476562 980.358520507812 980.026794433594 969.62451171875 971.992614746094 973.757507324219 984.236938476562 989.35888671875 977.705627441406 986.081115722656 990.666381835938 987.651794433594 997.453125 996.475646972656 993.67431640625 1002.12036132812 1000.8173828125 1002.41638183594 991.939392089844 998.515258789062 996.97900390625 999.574584960938 1008.60748291016 1009.40069580078 1013.74151611328 1016.75500488281 1006.91949462891 999.84912109375 1002.92510986328 1006.35235595703 1008.43835449219 1003.76129150391 1008.29431152344 1009.01489257812 1013.92858886719 1008.24554443359 1008.10400390625 1012.59936523438 1030.00939941406 1044.01708984375 1054.7216796875 1067.54943847656 1065.76940917969 1074.25280761719 1063.80908203125 1063.646484375 1084.6787109375 1098.24487304688 1113.44934082031 1119.28112792969 1125.83557128906 1133.84765625 1152.34851074219 1154.83044433594 1153.5703125 1167.65808105469 1174.53918457031 1161.84692382812 1154.95825195312
941.417358398438 945.246215820312 952.531860351562 960.663269042969 966.768310546875 964.070861816406 962.891357421875 958.361022949219 958.55029296875 958.3037109375 965.216552734375 968.211669921875 970.517211914062 960.758422851562 964.388916015625 982.464904785156 980.550415039062 970.035217285156 976.375 980.293579101562 970.16552734375 977.026184082031 976.227722167969 967.10205078125 963.973571777344 968.579956054688 968.30224609375 983.130187988281 981.661682128906 966.298889160156 976.704833984375 973.787658691406 980.855102539062 977.529907226562 974.912475585938 974.853332519531 969.930847167969 956.297485351562 959.457336425781 957.664184570312 951.694091796875 966.431579589844 962.84716796875 969.132263183594 957.514770507812 963.624389648438 961.737731933594 968.484375 969.843444824219 978.428039550781 970.004333496094 966.573852539062 965.2763671875 967.872375488281 970.624877929688 970.358947753906 968.4169921875 965.531494140625 972.005981445312 974.950500488281 969.326477050781 971.981994628906 970.854553222656 970.932800292969 970.76953125 967.685852050781 955.808532714844 958.2607421875 950.406433105469 953.535095214844 953.224182128906 958.76025390625 965.883056640625 969.764221191406 973.495910644531 973.002807617188 978.78955078125 970.893310546875 960.917785644531 967.777587890625 966.746887207031 973.035827636719 963.090209960938 964.381286621094 972.811645507812 972.561218261719 974.223754882812 982.711303710938 984.052001953125 980.991455078125 980.192077636719 981.769348144531 974.038757324219 981.120239257812 975.636901855469 973.361206054688 980.631469726562 984.572204589844 981.197814941406 981.520812988281 985.819763183594 982.604736328125 992.21533203125 996.046203613281 996.273498535156 989.762512207031 994.179931640625 997.070007324219 996.506652832031 988.823120117188 999.720397949219 991.925903320312 999.044677734375 1003.21990966797 1006.19787597656 1008.01501464844 1011.49981689453 1005.47985839844 998.662719726562 1004.90399169922 1000.84674072266 1006.00006103516 1000.57806396484 1006.68560791016 1010.71606445312 1011.16430664062 1016.47546386719 1007.00219726562 1021.50341796875 1031.25170898438 1044.26501464844 1055.14697265625 1060.60705566406 1069.69873046875 1076.02185058594 1069.56481933594 1077.04406738281 1086.33447265625 1100.35864257812 1114.7841796875 1123.87182617188 1124.54162597656 1129.82556152344 1137.79968261719 1142.802734375 1148.03430175781 1155.28063964844 1158.39526367188 1153.38366699219 1148.23706054688
942.115417480469 947.441772460938 951.728271484375 961.967468261719 966.818664550781 967.357421875 961.5439453125 958.791442871094 958.7109375 964.378540039062 969.137634277344 969.460571289062 975.068298339844 969.215637207031 974.655212402344 975.301574707031 980.200744628906 975.851501464844 973.658081054688 979.991271972656 974.983215332031 974.474365234375 967.525939941406 966.102172851562 969.767517089844 966.244262695312 964.797302246094 961.424743652344 969.721008300781 969.250122070312 972.509643554688 972.15185546875 969.553894042969 968.23046875 970.609436035156 970.651611328125 963.458129882812 953.974548339844 952.701599121094 959.385498046875 957.297546386719 963.548767089844 962.481567382812 960.508666992188 954.784362792969 951.804260253906 947.236938476562 958.966552734375 961.59521484375 976.439880371094 963.707092285156 965.236938476562 959.560424804688 956.44189453125 964.794311523438 971.518798828125 966.579711914062 966.981079101562 966.170471191406 976.333801269531 972.817077636719 968.780639648438 965.469055175781 971.318054199219 961.435485839844 952.632690429688 968.126220703125 965.012634277344 953.075927734375 952.837646484375 959.768859863281 969.032287597656 976.565551757812 973.669372558594 973.026733398438 971.352783203125 967.123596191406 962.664733886719 962.830627441406 968.729614257812 968.129943847656 980.111572265625 966.295593261719 969.057739257812 967.76904296875 961.459350585938 971.530212402344 972.112487792969 979.318176269531 982.890258789062 982.317810058594 975.351989746094 977.674194335938 977.130432128906 975.781066894531 973.672241210938 979.763977050781 977.95751953125 973.077880859375 972.659729003906 978.220703125 978.058410644531 986.591796875 984.734313964844 992.331359863281 992.452392578125 989.848510742188 992.730834960938 1001.7392578125 997.833129882812 993.962707519531 994.242736816406 998.546936035156 1000.8408203125 1012.45977783203 1008.64404296875 1004.09204101562 1006.99536132812 1005.10772705078 1006.87280273438 1002.57788085938 1000.00885009766 1005.20745849609 1008.38934326172 1007.82983398438 1005.37640380859 1010.24139404297 1014.27185058594 1024.98364257812 1034.62670898438 1052.24255371094 1050.81018066406 1052.89172363281 1059.919921875 1067.34594726562 1068.2119140625 1066.51989746094 1081.208984375 1100.49389648438 1106.83825683594 1117.54907226562 1119.75549316406 1122.24963378906 1133.08081054688 1137.57946777344 1136.75402832031 1150.71105957031 1147.30712890625 1146.32446289062 1146.0341796875
951.617004394531 951.919738769531 962.188842773438 957.258911132812 955.030944824219 967.364990234375 963.109741210938 964.387634277344 966.787048339844 974.857727050781 970.794189453125 977.473449707031 977.237915039062 970.406372070312 973.961791992188 974.540588378906 974.712585449219 975.824401855469 970.392150878906 970.442932128906 974.934631347656 968.800109863281 972.170471191406 968.351196289062 961.860900878906 965.113342285156 958.6416015625 959.5341796875 960.439514160156 969.475158691406 974.463073730469 973.249328613281 970.353088378906 968.826293945312 973.430969238281 970.8017578125 965.880004882812 958.339904785156 958.104064941406 960.836547851562 954.753784179688 954.668029785156 954.941589355469 959.752868652344 959.158081054688 957.883422851562 950.795349121094 961.393249511719 966.741516113281 972.108459472656 961.296447753906 961.104309082031 956.449951171875 953.303344726562 960.823974609375 968.837890625 964.204772949219 965.989990234375 978.691589355469 977.357116699219 969.598449707031 973.380493164062 965.552917480469 967.205383300781 957.173706054688 961.750305175781 963.479919433594 966.623962402344 959.627258300781 955.717956542969 960.068420410156 966.71875 968.717834472656 965.826477050781 965.876647949219 957.283935546875 968.170166015625 968.251586914062 966.513549804688 960.352722167969 966.307373046875 968.945861816406 959.192504882812 965.409057617188 968.478210449219 969.596740722656 971.778747558594 970.474975585938 971.841918945312 977.953735351562 979.05859375 981.944641113281 980.566955566406 974.447814941406 965.488220214844 972.388366699219 980.910522460938 983.329467773438 977.875549316406 974.409912109375 976.3369140625 972.493286132812 983.122619628906 983.86328125 987.244689941406 989.767150878906 989.175842285156 1000.35516357422 999.066833496094 994.10546875 987.51611328125 987.825805664062 992.199645996094 992.588256835938 996.546508789062 1011.66345214844 1005.83190917969 1008.41656494141 1009.06915283203 1005.35845947266 1012.98797607422 1011.81524658203 1004.65393066406 1007.35998535156 1011.72076416016 1018.22845458984 1022.10974121094 1027.99719238281 1040.42761230469 1041.82592773438 1048.91088867188 1051.03076171875 1058.77172851562 1067.42333984375 1068.76708984375 1070.07958984375 1073.61633300781 1091.74047851562 1098.10949707031 1094.72229003906 1109.9091796875 1111.35827636719 1117.70788574219 1120.18615722656 1135.1328125 1138.14477539062 1132.36352539062 1135.67749023438 1144.96520996094 1140.58056640625
953.980834960938 957.626770019531 958.096740722656 952.414489746094 956.064636230469 962.724670410156 963.566955566406 966.535949707031 973.956176757812 977.276794433594 975.828735351562 979.043640136719 988.78564453125 978.866455078125 978.034362792969 975.137939453125 982.811340332031 977.956176757812 973.155822753906 971.824645996094 966.494262695312 962.586853027344 960.594360351562 968.495178222656 963.251098632812 967.9912109375 958.671630859375 957.044372558594 959.461975097656 966.844665527344 970.366455078125 971.383117675781 972.239562988281 969.668579101562 967.465637207031 962.930969238281 961.420654296875 960.543151855469 966.824645996094 958.460327148438 954.838989257812 952.498718261719 953.343444824219 960.315856933594 960.502502441406 959.673950195312 964.929321289062 966.29296875 967.853637695312 967.446838378906 973.766418457031 961.324279785156 948.594055175781 958.161071777344 956.569396972656 967.645385742188 973.457214355469 979.065246582031 981.089599609375 974.74658203125 969.987487792969 969.093200683594 961.077026367188 959.274108886719 960.403076171875 962.194152832031 969.95849609375 968.075866699219 961.471618652344 957.727233886719 966.846862792969 962.849426269531 970.0830078125 962.624084472656 955.777587890625 960.589294433594 965.264282226562 959.426208496094 972.158264160156 974.666015625 970.6708984375 963.75537109375 965.166076660156 963.486572265625 967.9765625 962.646301269531 966.548583984375 963.586120605469 972.487121582031 968.501892089844 972.585327148438 980.824279785156 978.095275878906 974.594909667969 969.498168945312 970.055358886719 981.266845703125 980.328186035156 980.997741699219 977.57373046875 967.434387207031 974.292053222656 977.065307617188 979.812805175781 986.404174804688 985.051940917969 993.528442382812 999.093627929688 992.638488769531 985.426330566406 984.84912109375 991.953857421875 995.762145996094 1001.5283203125 995.916076660156 1003.77789306641 998.238403320312 1003.92993164062 1006.21380615234 1005.43957519531 1012.76971435547 1019.39788818359 1017.36944580078 1026.60668945312 1030.1298828125 1030.72619628906 1036.27807617188 1039.63940429688 1040.40637207031 1045.3115234375 1043.18383789062 1046.96899414062 1057.3828125 1067.54553222656 1069.26049804688 1073.79724121094 1073.41870117188 1086.28759765625 1094.47741699219 1097.83947753906 1103.15478515625 1104.73596191406 1102.59350585938 1113.25512695312 1134.23950195312 1134.33959960938 1132.60473632812 1134.88525390625 1140.67456054688 1131.54345703125
970.122375488281 958.373291015625 954.047912597656 961.160339355469 962.077758789062 964.2412109375 975.528015136719 975.005493164062 982.412841796875 990.565673828125 979.875549316406 980.185791015625 981.972045898438 978.419921875 973.353759765625 974.675537109375 970.063293457031 970.415283203125 971.920837402344 963.56689453125 968.614135742188 963.036682128906 963.559143066406 964.923828125 965.691833496094 966.977416992188 955.91845703125 955.072570800781 965.256103515625 975.009826660156 977.069641113281 969.587036132812 966.92724609375 962.422790527344 962.143615722656 960.34326171875 952.610046386719 954.072265625 963.187744140625 956.870483398438 950.972412109375 956.633117675781 956.895202636719 962.213134765625 967.171752929688 971.440673828125 962.42724609375 962.926696777344 965.378723144531 970.324401855469 968.472045898438 964.024963378906 952.855346679688 952.564514160156 960.15869140625 964.125122070312 966.900756835938 973.243774414062 970.091552734375 974.11376953125 969.904724121094 967.880615234375 967.309020996094 962.06103515625 965.363586425781 962.903137207031 965.938781738281 963.36669921875 957.19287109375 948.887084960938 957.281372070312 963.715026855469 963.432189941406 964.638122558594 965.103820800781 957.089904785156 959.211486816406 959.608459472656 971.292541503906 973.030639648438 967.429870605469 972.222290039062 967.331665039062 969.02734375 972.083435058594 971.40771484375 970.814331054688 959.902526855469 969.412231445312 977.174560546875 980.115295410156 969.566284179688 968.234436035156 972.007202148438 973.541198730469 969.18505859375 973.801574707031 979.353271484375 979.779235839844 967.850036621094 974.618469238281 972.670166015625 976.4990234375 975.461120605469 975.957946777344 980.352111816406 987.162109375 989.846313476562 987.168823242188 981.565002441406 980.905578613281 987.044921875 994.625732421875 1002.67395019531 998.429504394531 999.843994140625 996.202331542969 1006.02563476562 1004.84741210938 1014.05755615234 1017.55078125 1024.36730957031 1023.95300292969 1028.5771484375 1031.63977050781 1038.34497070312 1043.9462890625 1046.59155273438 1049.11560058594 1045.98120117188 1047.21411132812 1055.83239746094 1057.6708984375 1058.900390625 1069.052734375 1074.31103515625 1079.86413574219 1090.78247070312 1097.59387207031 1102.88232421875 1104.341796875 1096.88671875 1093.25891113281 1103.29113769531 1117.06359863281 1123.11437988281 1127.88891601562 1125.84997558594 1129.0087890625 1134.03076171875
968.578918457031 967.110290527344 959.269470214844 968.1435546875 974.480590820312 966.46240234375 977.901306152344 978.745788574219 980.176208496094 978.832824707031 979.629943847656 979.166015625 971.482482910156 975.006164550781 974.372741699219 965.307922363281 962.901977539062 964.732299804688 965.262878417969 963.139587402344 960.042358398438 964.020202636719 966.417724609375 961.633850097656 961.868469238281 959.36181640625 960.477294921875 955.665405273438 967.339233398438 973.780944824219 968.978210449219 964.825500488281 963.820861816406 958.383361816406 959.77978515625 960.857543945312 955.65625 964.879760742188 963.037719726562 961.694213867188 959.976135253906 961.340698242188 959.06591796875 959.423889160156 966.92138671875 969.340270996094 969.194213867188 964.933349609375 959.723388671875 966.268981933594 961.05908203125 962.326538085938 947.961486816406 949.414978027344 951.260314941406 955.562805175781 961.04638671875 964.286254882812 972.27587890625 966.164001464844 964.320495605469 960.241577148438 962.415832519531 963.28564453125 961.749633789062 958.505126953125 962.1904296875 965.224731445312 962.153869628906 955.894104003906 966.051391601562 970.80810546875 958.442565917969 959.76318359375 961.109069824219 959.091674804688 958.978393554688 965.744384765625 966.0380859375 969.299499511719 964.972778320312 971.464050292969 967.505859375 967.8017578125 965.429016113281 959.168884277344 958.919189453125 961.356384277344 970.83837890625 970.621643066406 971.820373535156 967.595642089844 968.830505371094 963.753662109375 962.304077148438 962.719909667969 961.63037109375 971.500732421875 972.129821777344 980.594177246094 980.617004394531 970.549987792969 970.29638671875 976.800170898438 979.979675292969 975.3828125 992.190185546875 983.492919921875 987.876586914062 976.869934082031 982.497253417969 987.794921875 995.918273925781 1003.77496337891 1001.79705810547 998.823791503906 998.27685546875 1011.61779785156 1012.68054199219 1012.93969726562 1011.30163574219 1012.75213623047 1019.40270996094 1028.84130859375 1029.29711914062 1027.3955078125 1035.36145019531 1034.62145996094 1029.99658203125 1042.07788085938 1047.10522460938 1051.48522949219 1059.56091308594 1065.78857421875 1069.07446289062 1074.79919433594 1080.18713378906 1097.26318359375 1092.92260742188 1102.70654296875 1103.97961425781 1095.66809082031 1096.9404296875 1106.91040039062 1112.55590820312 1114.42028808594 1111.67492675781 1120.47473144531 1111.65856933594 1125.19250488281
967.472229003906 969.509155273438 970.589294433594 969.83642578125 971.432983398438 971.509582519531 972.816833496094 978.420471191406 974.957153320312 980.701599121094 981.391479492188 982.766235351562 975.839538574219 971.005493164062 966.637268066406 968.171508789062 963.812438964844 966.835388183594 973.093078613281 965.822937011719 962.813354492188 964.204284667969 967.874206542969 959.466979980469 953.853088378906 963.503784179688 969.290405273438 961.093994140625 961.203735351562 970.6064453125 964.462524414062 953.430847167969 964.490539550781 958.316955566406 968.948791503906 961.757080078125 963.599304199219 966.698547363281 958.808654785156 959.564514160156 956.251281738281 957.539611816406 965.934143066406 966.238586425781 970.728881835938 969.646057128906 966.329833984375 968.57275390625 964.824401855469 968.70458984375 956.825256347656 957.276672363281 950.723205566406 956.759582519531 954.086242675781 951.259155273438 954.526733398438 957.693237304688 963.287658691406 965.017395019531 956.998474121094 961.355712890625 957.260864257812 965.151245117188 961.876953125 958.763916015625 957.832885742188 960.357604980469 970.595336914062 957.939331054688 968.726318359375 959.669555664062 957.005615234375 959.138000488281 960.405883789062 964.694519042969 963.805969238281 963.341552734375 962.166442871094 963.829711914062 964.226196289062 961.340942382812 975.722045898438 975.53173828125 964.785400390625 965.03125 960.441162109375 959.000549316406 969.748229980469 971.188415527344 967.880615234375 974.249633789062 972.554565429688 963.69580078125 963.190673828125 971.462341308594 970.208801269531 971.187927246094 969.217346191406 964.694763183594 978.666137695312 976.632019042969 970.174194335938 971.710083007812 979.647277832031 982.255981445312 984.8232421875 987.184997558594 981.369445800781 985.441162109375 987.24658203125 993.85791015625 993.440795898438 1002.37786865234 998.203552246094 1000.00213623047 1006.08898925781 1004.99542236328 1008.57189941406 1016.52502441406 1012.56945800781 1018.56622314453 1020.11920166016 1025.45397949219 1029.02075195312 1032.65087890625 1031.43078613281 1031.53918457031 1032.29174804688 1040.36584472656 1048.73059082031 1059.99536132812 1066.48327636719 1067.97583007812 1079.89331054688 1080.99645996094 1090.21069335938 1083.45092773438 1090.873046875 1094.92504882812 1095.39367675781 1097.12023925781 1101.99108886719 1099.33020019531 1099.29626464844 1100.98522949219 1111.14025878906 1109.30224609375 1116.51428222656 1123.65893554688
960.29833984375 964.03955078125 970.804016113281 971.050048828125 969.851196289062 982.879089355469 979.676391601562 974.736511230469 976.205749511719 976.945373535156 967.618286132812 976.517700195312 978.183959960938 974.048095703125 970.673034667969 961.673156738281 968.157287597656 968.904602050781 977.826477050781 967.962097167969 961.902526855469 963.316772460938 956.338012695312 959.79638671875 958.064331054688 964.194580078125 958.049255371094 951.348815917969 958.921997070312 968.402465820312 965.105041503906 956.727233886719 958.4814453125 967.388854980469 970.269348144531 965.689758300781 964.193969726562 967.127868652344 967.348815917969 954.104797363281 951.501403808594 958.490844726562 963.526672363281 966.627014160156 966.461303710938 970.845092773438 966.392944335938 968.875244140625 963.67138671875 960.935729980469 953.672973632812 951.999328613281 951.671020507812 949.601196289062 947.056518554688 956.5361328125 954.72509765625 958.770568847656 960.7763671875 954.534484863281 960.64404296875 973.159240722656 964.586486816406 949.125366210938 963.811767578125 950.290283203125 950.447998046875 949.657897949219 952.988708496094 951.518310546875 959.899291992188 965.052978515625 961.500244140625 957.611145019531 966.486694335938 966.186645507812 959.503845214844 963.179443359375 955.026916503906 968.444091796875 960.325134277344 960.683532714844 969.5107421875 972.958312988281 969.847717285156 970.981994628906 970.798583984375 967.312133789062 970.568664550781 969.153381347656 964.653686523438 966.811218261719 959.887878417969 963.534484863281 966.193542480469 971.3642578125 970.357116699219 966.479736328125 967.93505859375 972.6435546875 975.273498535156 967.286193847656 968.351135253906 974.312744140625 971.299377441406 977.943481445312 978.834594726562 988.502319335938 983.321472167969 988.192321777344 986.004699707031 996.333557128906 995.401428222656 993.894165039062 1002.03308105469 1003.09332275391 1009.44213867188 1012.11987304688 1004.20373535156 1005.28228759766 1014.20825195312 1010.48785400391 1010.60693359375 1016.67974853516 1024.06188964844 1031.33679199219 1030.13220214844 1033.74340820312 1028.70886230469 1033.94079589844 1041.04931640625 1052.94909667969 1067.6171875 1071.40075683594 1081.87268066406 1091.53430175781 1093.00610351562 1087.03442382812 1084.27807617188 1088.35180664062 1084.54919433594 1095.82580566406 1092.83618164062 1095.14416503906 1101.50366210938 1103.0888671875 1104.77221679688 1110.70178222656 1109.96105957031 1112.09985351562
957.630676269531 954.323303222656 966.450378417969 961.804443359375 963.43701171875 971.191589355469 967.694580078125 967.421447753906 972.828002929688 965.273254394531 969.43310546875 971.908874511719 970.230895996094 961.532592773438 966.330200195312 968.502136230469 969.637512207031 973.674682617188 969.26025390625 964.993530273438 967.056213378906 970.052368164062 963.199584960938 957.496032714844 967.991333007812 961.795227050781 952.296813964844 952.394897460938 957.665832519531 959.207580566406 958.307983398438 955.962585449219 956.860107421875 965.67919921875 971.079467773438 968.1064453125 966.663635253906 965.345764160156 955.668579101562 952.513427734375 955.986083984375 954.424743652344 957.253051757812 958.111572265625 970.178344726562 967.400085449219 956.782409667969 959.376159667969 962.23291015625 962.215148925781 955.5771484375 948.18701171875 953.97265625 944.706909179688 949.789794921875 952.43115234375 958.674926757812 958.756103515625 959.375244140625 956.063110351562 963.115905761719 961.56396484375 956.462158203125 950.3984375 961.769409179688 954.505676269531 952.773864746094 949.680480957031 949.411376953125 951.843017578125 954.589965820312 958.306335449219 954.629150390625 964.5732421875 966.325256347656 965.947143554688 967.255004882812 971.90771484375 964.57568359375 961.417114257812 961.728576660156 962.157287597656 975.008239746094 975.943786621094 966.8232421875 961.381591796875 966.510925292969 966.6982421875 967.337219238281 965.143676757812 969.804748535156 966.098693847656 968.192687988281 967.656494140625 970.003173828125 966.417297363281 970.70849609375 980.284606933594 981.560119628906 979.790649414062 979.729125976562 970.039733886719 966.67626953125 971.757141113281 978.260620117188 973.248779296875 989.779602050781 990.110107421875 985.310791015625 984.001953125 985.961181640625 991.128173828125 992.309692382812 992.275146484375 998.766418457031 1005.43023681641 1006.95379638672 1007.17498779297 1004.10406494141 1004.91290283203 1009.81164550781 1009.93322753906 1012.29559326172 1019.88861083984 1024.26318359375 1031.61743164062 1032.66979980469 1034.43859863281 1025.81945800781 1034.37854003906 1043.0009765625 1056.0048828125 1062.97424316406 1080.92932128906 1081.73840332031 1094.39367675781 1086.47778320312 1080.87097167969 1086.93737792969 1090.2431640625 1082.10876464844 1086.34008789062 1091.830078125 1080.4716796875 1102.61547851562 1104.33728027344 1108.03173828125 1112.20532226562 1112.69689941406 1108.25146484375
957.544921875 950.940185546875 965.755065917969 967.507690429688 972.18115234375 968.322448730469 969.111022949219 973.269226074219 975.126159667969 969.962646484375 966.013549804688 962.32373046875 958.077819824219 955.12646484375 961.1298828125 969.626953125 972.908325195312 973.093078613281 969.880187988281 959.200927734375 967.257263183594 968.161499023438 962.569213867188 954.771118164062 959.3359375 952.517944335938 953.859375 955.719299316406 950.417663574219 949.704040527344 950.599975585938 957.995971679688 954.157592773438 959.974060058594 964.414916992188 962.566711425781 969.59814453125 957.17333984375 954.147583007812 949.934631347656 950.010559082031 951.166931152344 951.278076171875 957.537475585938 959.35791015625 961.6044921875 952.563903808594 963.678955078125 961.077270507812 960.813171386719 959.866088867188 958.556030273438 960.198486328125 954.223937988281 949.749816894531 957.914489746094 955.728271484375 953.129577636719 958.440856933594 958.721984863281 957.532592773438 951.884094238281 947.027526855469 958.750244140625 954.096008300781 961.037109375 957.749450683594 955.273498535156 952.197326660156 948.343566894531 952.694763183594 948.65966796875 956.655029296875 959.795959472656 968.668273925781 962.115295410156 964.57958984375 969.138427734375 960.764221191406 961.215515136719 959.107055664062 960.46923828125 965.718200683594 964.489685058594 964.791381835938 973.118774414062 976.854248046875 973.589782714844 971.622619628906 966.500366210938 971.799377441406 968.263610839844 970.012817382812 971.864074707031 975.302673339844 975.292419433594 978.250671386719 980.08349609375 987.3349609375 992.280700683594 985.503662109375 975.793640136719 978.429321289062 981.162414550781 985.330078125 986.986145019531 992.598754882812 994.941772460938 994.485107421875 989.971435546875 988.752807617188 981.927307128906 994.295837402344 992.2265625 991.659484863281 997.607666015625 995.494201660156 1007.76794433594 1010.27429199219 1004.994140625 1008.34729003906 1014.60290527344 1022.15155029297 1030.86547851562 1031.43811035156 1026.55139160156 1031.24865722656 1032.34887695312 1030.37524414062 1032.09228515625 1037.83032226562 1047.431640625 1052.82751464844 1073.80798339844 1082.05480957031 1085.39099121094 1086.9560546875 1084.24450683594 1082.40270996094 1075.49963378906 1074.859375 1079.03527832031 1077.3046875 1080.72265625 1082.46813964844 1090.98156738281 1092.77258300781 1097.9443359375 1098.32348632812 1110.75561523438
966.490295410156 954.553100585938 959.550170898438 970.016662597656 975.422119140625 974.31884765625 972.301818847656 975.778259277344 976.629943847656 974.087585449219 963.227966308594 966.894714355469 952.814758300781 961.31640625 967.829467773438 967.743408203125 972.054443359375 963.016296386719 965.859741210938 966.1318359375 971.7080078125 959.151000976562 958.124267578125 963.666015625 959.409423828125 947.591979980469 961.391235351562 952.51904296875 954.700805664062 952.662719726562 951.658569335938 957.296813964844 957.97216796875 962.864929199219 964.279113769531 958.783447265625 964.589172363281 957.606628417969 947.229248046875 952.299438476562 954.602111816406 954.782531738281 952.022766113281 955.821899414062 957.678039550781 961.145629882812 955.544128417969 960.141540527344 957.991943359375 945.946166992188 955.536804199219 955.957336425781 954.229187011719 953.232849121094 952.369934082031 959.588195800781 953.069885253906 949.942443847656 951.8134765625 952.33837890625 945.306762695312 949.134765625 949.505004882812 956.6044921875 959.745239257812 961.784118652344 957.551574707031 953.127685546875 948.922973632812 957.232482910156 948.952270507812 949.643676757812 955.417053222656 962.214599609375 972.233154296875 961.962890625 961.448791503906 963.509033203125 964.236999511719 962.764526367188 961.627990722656 964.604431152344 965.293518066406 955.904113769531 963.040283203125 973.377197265625 961.094177246094 981.730285644531 973.979858398438 969.728576660156 975.672119140625 973.172790527344 972.763305664062 974.401184082031 969.931335449219 973.784545898438 973.494750976562 973.676574707031 977.715637207031 987.644409179688 986.716003417969 976.972961425781 974.76123046875 977.564208984375 982.643615722656 990.044067382812 987.703491210938 996.649780273438 1000.40026855469 989.876892089844 997.822570800781 1000.61450195312 994.484619140625 993.95458984375 988.223937988281 986.006591796875 993.547180175781 1002.25042724609 1002.09387207031 1007.84906005859 1011.6376953125 1014.60278320312 1017.55993652344 1033.412109375 1039.73254394531 1033.443359375 1017.24572753906 1028.71057128906 1032.3798828125 1033.63049316406 1043.14782714844 1049.29052734375 1051.90246582031 1074.17260742188 1082.87854003906 1079.7412109375 1082.51416015625 1085.4970703125 1085.86279296875 1074.23254394531 1078.39343261719 1076.66870117188 1068.48474121094 1066.29992675781 1065.91101074219 1071.44616699219 1077.58459472656 1087.09326171875 1095.46960449219 1096.79919433594
961.182067871094 957.560241699219 959.751220703125 967.200988769531 969.81640625 973.940551757812 976.587463378906 979.50390625 972.442321777344 970.430297851562 958.765197753906 953.326843261719 952.799438476562 955.263549804688 961.123046875 966.596740722656 965.89990234375 955.090454101562 954.443237304688 961.578002929688 966.158020019531 947.553649902344 952.27587890625 957.353393554688 952.723388671875 956.466247558594 959.61865234375 956.861083984375 952.066711425781 953.237854003906 953.824890136719 958.10400390625 959.685607910156 959.687927246094 964.202514648438 962.706115722656 961.778442382812 958.255615234375 949.678894042969 940.791748046875 954.841430664062 967.512634277344 953.250183105469 948.850219726562 954.08740234375 957.816162109375 952.802307128906 961.0400390625 951.404418945312 946.998168945312 951.584655761719 955.857604980469 951.977844238281 950.51220703125 949.690795898438 952.372863769531 950.789611816406 951.59228515625 953.748901367188 950.326965332031 940.950317382812 947.4228515625 955.74853515625 958.193969726562 959.836975097656 959.174438476562 959.130065917969 961.587036132812 956.062438964844 951.345703125 950.001953125 949.625732421875 954.865478515625 971.22021484375 979.490234375 969.550109863281 967.637573242188 966.167785644531 966.36669921875 964.234802246094 970.185668945312 975.136047363281 962.450622558594 969.188598632812 969.909118652344 976.271057128906 967.261962890625 976.935729980469 979.94091796875 972.569763183594 964.863159179688 967.550903320312 970.513122558594 968.067321777344 972.241027832031 975.066223144531 973.027038574219 976.4345703125 980.268005371094 983.141052246094 988.546997070312 990.369934082031 975.076049804688 977.343383789062 985.259948730469 987.374755859375 983.883483886719 994.286254882812 992.305419921875 1001.85772705078 997.961975097656 994.809936523438 992.904174804688 995.623413085938 988.027282714844 989.949890136719 990.427673339844 994.931091308594 1005.83850097656 1008.52093505859 1003.39825439453 1014.95251464844 1018.10974121094 1024.63012695312 1030.70239257812 1033.55529785156 1037.13854980469 1030.70190429688 1033.15307617188 1035.97790527344 1043.35510253906 1048.76525878906 1049.47827148438 1064.40100097656 1070.40283203125 1068.86059570312 1071.15234375 1081.48046875 1077.37194824219 1072.44274902344 1065.49084472656 1062.408203125 1055.54260253906 1049.70739746094 1059.02294921875 1059.18078613281 1070.01916503906 1066.52001953125 1073.44616699219 1098.16540527344
956.603149414062 959.626342773438 964.398010253906 969.727905273438 977.41943359375 969.777282714844 972.233764648438 974.050354003906 964.187927246094 955.286682128906 956.831604003906 957.879638671875 953.846618652344 951.200439453125 967.546630859375 969.229431152344 958.074157714844 959.79443359375 946.868713378906 955.13232421875 967.909851074219 963.905578613281 959.02978515625 956.962158203125 963.749816894531 959.204772949219 957.94384765625 946.505187988281 953.717041015625 947.037048339844 955.148986816406 961.1005859375 959.423522949219 958.881652832031 957.239868164062 957.483215332031 955.216125488281 951.23681640625 950.517395019531 944.656555175781 947.682067871094 950.395874023438 959.664367675781 963.350463867188 950.302001953125 950.670532226562 949.490905761719 955.088439941406 962.610961914062 948.555053710938 951.673400878906 948.400817871094 946.692749023438 961.934020996094 956.233581542969 958.707275390625 949.644287109375 958.136169433594 960.567321777344 951.991760253906 946.117919921875 956.283325195312 949.485473632812 955.496826171875 952.482116699219 955.240051269531 951.192687988281 966.784484863281 958.56298828125 958.958557128906 951.596069335938 953.872253417969 962.671630859375 975.002685546875 964.903442382812 967.473571777344 961.802856445312 956.731079101562 956.184143066406 966.70166015625 966.889709472656 977.409423828125 968.125305175781 965.97705078125 964.874755859375 972.040161132812 972.120483398438 963.382873535156 975.642333984375 974.975463867188 967.281799316406 966.555236816406 969.763732910156 971.243530273438 971.16845703125 981.122741699219 973.548034667969 976.704650878906 982.211120605469 984.82763671875 987.849487304688 987.346984863281 978.480041503906 984.488037109375 985.571838378906 983.949279785156 991.570556640625 993.676025390625 995.620422363281 990.543762207031 995.683837890625 994.193908691406 991.032897949219 993.8642578125 989.560424804688 987.837097167969 994.020080566406 990.024169921875 1006.92779541016 1005.76403808594 1006.62811279297 994.285461425781 999.173950195312 1012.48303222656 1026.48071289062 1021.40423583984 1037.84167480469 1035.6435546875 1029.37829589844 1039.78405761719 1036.51806640625 1038.56677246094 1036.2255859375 1050.44641113281 1069.43359375 1071.83081054688 1069.50573730469 1072.51232910156 1063.91967773438 1056.85290527344 1059.76501464844 1051.37133789062 1039.91137695312 1040.39465332031 1052.94567871094 1045.69006347656 1050.66625976562 1060.1435546875 1070.93566894531 1085.31518554688
958.099670410156 960.991394042969 971.691345214844 964.621459960938 969.794677734375 971.877502441406 976.103088378906 975.118469238281 966.073425292969 958.245361328125 964.503234863281 947.804504394531 942.728820800781 945.50146484375 961.379333496094 963.632995605469 952.969482421875 954.345520019531 947.216125488281 955.664123535156 961.786499023438 963.409118652344 957.091430664062 956.193908691406 962.38671875 957.794982910156 949.385620117188 945.876770019531 950.07666015625 941.885681152344 946.155334472656 959.481506347656 955.9111328125 952.736633300781 957.90771484375 951.17822265625 944.412292480469 948.35888671875 946.907592773438 949.028991699219 955.204650878906 953.700744628906 956.841247558594 957.551208496094 950.744750976562 946.912170410156 953.209411621094 955.058532714844 959.528076171875 954.415588378906 952.767883300781 946.306396484375 950.745849609375 949.904052734375 957.247192382812 955.892700195312 950.838500976562 954.791015625 961.504211425781 955.265441894531 948.978454589844 950.543334960938 954.304870605469 951.525695800781 957.670776367188 951.329406738281 961.763671875 967.352966308594 968.325317382812 970.948486328125 958.235534667969 954.734313964844 964.696655273438 966.697082519531 959.51904296875 962.35400390625 969.313842773438 966.257202148438 970.709533691406 958.523864746094 960.239379882812 973.634155273438 963.325561523438 963.560668945312 966.673095703125 963.2275390625 971.731079101562 971.761352539062 967.020080566406 976.499267578125 970.118957519531 969.854919433594 961.861450195312 964.938537597656 963.736206054688 970.947509765625 977.773681640625 981.900573730469 987.189880371094 986.544799804688 982.029296875 988.689880371094 982.599792480469 985.116333007812 995.955261230469 978.859802246094 978.961120605469 991.149780273438 1001.94848632812 995.442565917969 989.490173339844 990.703735351562 996.220947265625 1001.03973388672 1004.35308837891 994.486633300781 999.698913574219 1000.44152832031 1004.65020751953 1004.66943359375 1008.25067138672 1002.34515380859 1002.36273193359 999.201416015625 1009.24353027344 1022.52087402344 1030.29040527344 1037.48266601562 1034.40966796875 1036.12512207031 1040.23498535156 1030.77502441406 1029.98205566406 1047.85266113281 1059.69921875 1064.44262695312 1072.06005859375 1064.07434082031 1050.89416503906 1051.32507324219 1047.70751953125 1032.91796875 1026.86572265625 1043.119140625 1041.56640625 1036.98156738281 1040.59204101562 1057.39880371094 1061.99267578125 1072.14953613281
956.684326171875 960.068664550781 962.709838867188 960.532836914062 958.338989257812 965.727783203125 967.257019042969 962.411376953125 961.066467285156 963.020324707031 955.239562988281 959.831787109375 944.633056640625 946.185668945312 945.690979003906 956.963134765625 946.231201171875 950.927429199219 946.521667480469 958.464477539062 963.929321289062 970.49267578125 960.640441894531 954.648986816406 955.891784667969 947.533142089844 943.124877929688 938.946411132812 944.617065429688 942.141784667969 943.668029785156 954.677917480469 953.545349121094 950.087463378906 952.367248535156 944.670288085938 938.450378417969 945.845031738281 947.562072753906 952.49609375 955.903015136719 954.361145019531 946.889099121094 958.4892578125 950.611022949219 951.02783203125 949.118896484375 955.947875976562 957.97412109375 957.063049316406 955.956787109375 954.089782714844 946.413208007812 955.614807128906 952.85595703125 958.861511230469 956.274353027344 959.743408203125 960.961486816406 959.333312988281 952.940795898438 958.651916503906 960.292724609375 960.236633300781 957.688842773438 958.50439453125 967.619384765625 965.279602050781 969.600952148438 963.863891601562 957.356506347656 964.150268554688 968.543334960938 968.327819824219 968.345703125 970.201538085938 973.769714355469 963.5 973.314025878906 968.191467285156 970.1669921875 970.965209960938 961.404296875 968.417358398438 973.367370605469 969.796630859375 967.831604003906 973.373229980469 973.32861328125 969.962158203125 972.618530273438 967.504272460938 966.462463378906 965.189270019531 966.630737304688 969.745849609375 977.238708496094 986.568725585938 990.794616699219 978.792663574219 985.703491210938 980.846923828125 977.160949707031 983.8134765625 985.842895507812 981.430358886719 987.186767578125 991.451538085938 993.40673828125 1000.572265625 997.300048828125 991.029113769531 999.458374023438 1001.42883300781 1003.39477539062 1012.78686523438 1006.57623291016 1004.82342529297 1008.61676025391 1006.00646972656 1007.95794677734 999.689880371094 997.293395996094 997.758728027344 1006.2177734375 1015.01641845703 1025.57299804688 1025.21923828125 1026.95971679688 1038.70922851562 1039.24572753906 1035.53857421875 1038.56286621094 1050.43115234375 1057.1640625 1061.41247558594 1065.60412597656 1054.04956054688 1052.51293945312 1041.82983398438 1027.40576171875 1032.60815429688 1023.72045898438 1030.11181640625 1027.09240722656 1031.57971191406 1035.67541503906 1050.81042480469 1054.03393554688 1072.0517578125
957.171142578125 954.61767578125 946.332946777344 956.782531738281 965.317810058594 966.938659667969 959.858581542969 958.356079101562 959.584899902344 961.473876953125 961.426574707031 945.881713867188 940.482849121094 938.349426269531 937.376586914062 944.339599609375 948.648498535156 950.768005371094 962.697448730469 960.741516113281 962.573913574219 969.494567871094 959.569030761719 944.131469726562 945.01220703125 939.420532226562 938.884704589844 938.449035644531 935.395446777344 941.419982910156 945.603820800781 945.872741699219 942.179138183594 948.608276367188 945.159912109375 946.211975097656 939.608581542969 938.250793457031 941.070495605469 953.979553222656 953.808959960938 948.613220214844 946.825317382812 951.666687011719 954.142944335938 950.92041015625 952.641418457031 959.215881347656 956.25927734375 955.934875488281 958.369201660156 947.631774902344 940.570861816406 952.790161132812 959.424743652344 957.233581542969 963.851257324219 963.65869140625 966.816345214844 968.552978515625 975.674072265625 970.674499511719 967.799255371094 958.696716308594 962.378967285156 965.176574707031 971.200927734375 966.00634765625 967.474975585938 967.919372558594 963.198303222656 965.770874023438 976.399780273438 970.906921386719 966.626342773438 974.806518554688 971.343811035156 967.295532226562 973.04248046875 969.041137695312 972.275634765625 962.352355957031 962.375732421875 957.639282226562 964.5107421875 976.230590820312 982.575988769531 973.693115234375 977.2958984375 973.414794921875 974.520935058594 971.047912597656 966.578796386719 971.171020507812 973.521362304688 985.801025390625 986.64453125 984.255432128906 978.406982421875 980.408813476562 978.886657714844 974.942749023438 984.479248046875 986.797607421875 978.926391601562 981.2705078125 991.988098144531 990.706787109375 992.767272949219 996.7490234375 997.1142578125 1002.29174804688 1004.244140625 1004.49768066406 1014.41424560547 1012.05725097656 1013.02313232422 1006.56896972656 1019.71313476562 1011.60803222656 1011.46618652344 1009.29943847656 1005.53863525391 1003.77770996094 1005.08483886719 1015.48602294922 1027.92749023438 1024.79028320312 1029.96228027344 1037.998046875 1032.98046875 1037.828125 1048.1162109375 1053.71044921875 1060.876953125 1059.87768554688 1062.13220214844 1062.54479980469 1053.51379394531 1041.61096191406 1034.01440429688 1030.53369140625 1029.40490722656 1034.95056152344 1034.44165039062 1031.28356933594 1032.82287597656 1030.03332519531 1046.83020019531 1054.90380859375
956.76416015625 954.306030273438 949.360473632812 953.933715820312 959.563781738281 961.55908203125 961.26416015625 959.597106933594 962.591064453125 961.699279785156 958.742980957031 945.355590820312 939.716674804688 946.577209472656 933.459533691406 936.003784179688 937.693664550781 945.499755859375 953.455871582031 954.968505859375 947.368408203125 949.950439453125 949.105407714844 945.262023925781 934.805541992188 935.693176269531 940.534606933594 940.9072265625 935.574768066406 948.701538085938 946.793884277344 946.8974609375 944.718444824219 950.047607421875 944.777526855469 942.863464355469 933.220092773438 938.070739746094 940.499389648438 948.104553222656 948.59228515625 957.0693359375 951.606750488281 962.005310058594 960.699523925781 959.929565429688 959.669250488281 961.838806152344 956.384765625 956.217590332031 946.6376953125 944.919189453125 941.749450683594 951.617248535156 960.962280273438 967.512329101562 964.365783691406 970.327758789062 963.7900390625 970.797729492188 977.242370605469 977.063842773438 974.249267578125 968.251281738281 961.83251953125 958.097229003906 959.964050292969 965.239501953125 963.206481933594 965.047058105469 959.091552734375 962.133972167969 970.747680664062 972.470886230469 968.911071777344 971.899353027344 972.604553222656 971.092834472656 967.95458984375 975.15478515625 972.104614257812 963.429321289062 962.977172851562 965.728820800781 974.238464355469 980.015563964844 977.595947265625 979.086791992188 977.030029296875 978.197875976562 978.388305664062 975.018371582031 974.091003417969 969.768615722656 983.732055664062 991.777404785156 989.571533203125 990.08984375 986.57080078125 979.934143066406 979.046142578125 977.778930664062 987.790588378906 981.731628417969 977.511352539062 994.239135742188 992.736206054688 995.741271972656 994.760864257812 1005.01934814453 1010.27471923828 1005.15399169922 1005.16650390625 1022.31890869141 1016.56744384766 1014.08294677734 1006.09265136719 1017.95611572266 1022.55120849609 1016.60754394531 1009.42834472656 1012.28527832031 1016.357421875 1008.97991943359 1007.16467285156 1018.30029296875 1030.65344238281 1030.1162109375 1036.09094238281 1022.03356933594 1029.63098144531 1034.68969726562 1040.28295898438 1049.91479492188 1049.40319824219 1060.16674804688 1054.27734375 1053.41577148438 1052.29821777344 1039.01391601562 1028.02685546875 1027.51025390625 1028.89599609375 1037.11767578125 1032.97412109375 1034.5673828125 1024.36352539062 1022.048828125 1029.01416015625 1036.69714355469
961.154541015625 967.795227050781 947.336975097656 957.636352539062 964.209106445312 961.660461425781 959.401672363281 958.958740234375 957.736877441406 959.01708984375 951.733581542969 948.703430175781 939.646179199219 942.449279785156 940.724548339844 940.007141113281 935.031616210938 946.441223144531 953.088134765625 947.311401367188 943.49755859375 946.170776367188 952.345153808594 948.382263183594 935.649658203125 929.030639648438 931.355285644531 942.294067382812 948.248779296875 947.880859375 949.360656738281 944.372802734375 954.153015136719 950.356628417969 948.280822753906 944.921203613281 938.936889648438 940.370483398438 948.823669433594 948.961975097656 952.338806152344 954.338562011719 960.001098632812 958.080993652344 959.596801757812 965.498657226562 956.976196289062 961.616577148438 969.480651855469 957.787963867188 947.731079101562 952.712646484375 959.097351074219 958.347351074219 964.09912109375 969.684387207031 967.28271484375 967.624145507812 971.80419921875 970.261169433594 968.486267089844 963.250549316406 968.701293945312 962.271850585938 957.963134765625 958.638061523438 959.139343261719 961.972961425781 964.504638671875 964.926696777344 966.400085449219 962.447082519531 967.914367675781 965.952819824219 962.16015625 968.84521484375 967.219787597656 971.319519042969 970.872863769531 968.966735839844 968.198913574219 966.7998046875 978.166198730469 971.627502441406 974.881225585938 978.648742675781 973.089904785156 974.107971191406 982.340881347656 985.485412597656 983.153747558594 965.580993652344 974.862670898438 976.289916992188 982.897521972656 990.176574707031 987.29248046875 990.164978027344 979.210815429688 978.486267089844 985.742553710938 985.158996582031 988.971984863281 991.388732910156 988.699584960938 996.132385253906 996.574340820312 998.649108886719 1003.86041259766 1009.16442871094 1006.091796875 1007.73394775391 1015.388671875 1019.92645263672 1012.18402099609 1008.97381591797 1016.28228759766 1019.59240722656 1025.81970214844 1016.31188964844 1009.88885498047 1015.64172363281 1017.22985839844 1008.05773925781 1009.54620361328 1014.50170898438 1032.44372558594 1039.03552246094 1035.47668457031 1017.14825439453 1022.42492675781 1031.60876464844 1032.06774902344 1032.57739257812 1042.23107910156 1046.37438964844 1044.15539550781 1051.36071777344 1048.81372070312 1035.11828613281 1028.31994628906 1022.84759521484 1029.96105957031 1021.63464355469 1016.22271728516 1011.35479736328 1012.41802978516 1012.96270751953 1023.90368652344 1019.32836914062
949.787963867188 950.657409667969 956.051330566406 952.441955566406 954.270690917969 963.332946777344 952.729675292969 959.279846191406 949.835266113281 954.342712402344 949.436401367188 944.7138671875 943.653442382812 945.018371582031 942.564086914062 942.857604980469 934.138000488281 949.742004394531 950.465515136719 947.384521484375 945.080200195312 948.070068359375 959.239379882812 952.538696289062 944.827697753906 937.732055664062 941.909484863281 942.742980957031 949.844909667969 953.181640625 949.134033203125 944.366638183594 948.832763671875 947.855346679688 949.662414550781 941.204895019531 948.08349609375 943.887817382812 952.856994628906 954.4599609375 956.234191894531 958.483215332031 962.331848144531 960.645812988281 954.731872558594 957.993774414062 950.708068847656 950.95166015625 963.453125 960.833190917969 954.917907714844 957.712829589844 962.182250976562 964.755615234375 968.591735839844 968.365417480469 968.210510253906 966.454711914062 975.878845214844 972.664672851562 969.037353515625 965.92041015625 957.776062011719 963.380981445312 962.1611328125 963.044799804688 963.40966796875 969.983032226562 974.701110839844 984.986022949219 975.661560058594 976.157165527344 972.142883300781 965.778381347656 964.352661132812 970.190307617188 976.948608398438 980.0205078125 978.252136230469 971.912841796875 971.671691894531 973.919799804688 968.528137207031 975.419494628906 975.91650390625 973.248840332031 970.690612792969 972.649108886719 984.506591796875 993.983520507812 980.869689941406 978.544677734375 978.603637695312 982.222961425781 982.626342773438 985.865844726562 977.812316894531 976.253479003906 984.269775390625 984.567016601562 988.057373046875 994.7646484375 995.174377441406 997.445068359375 991.896118164062 992.771606445312 993.917602539062 996.529968261719 1001.89343261719 1016.09643554688 1005.90258789062 1015.79602050781 1021.93969726562 1025.04504394531 1012.87976074219 1021.10205078125 1021.45794677734 1022.64190673828 1030.05798339844 1029.0234375 1030.57946777344 1025.75573730469 1019.21356201172 1021.79229736328 1011.25299072266 1015.66729736328 1021.66772460938 1031.43542480469 1026.25927734375 1023.93518066406 1030.32348632812 1038.931640625 1035.25244140625 1041.61462402344 1043.6455078125 1043.14379882812 1038.21936035156 1034.92077636719 1044.6552734375 1030.81164550781 1027.99572753906 1027.9853515625 1030.72253417969 1010.79669189453 1012.52746582031 1003.98577880859 1014.18225097656 1015.43109130859 1013.68133544922 1011.80126953125
949.723876953125 953.966613769531 966.163940429688 961.535583496094 951.561157226562 952.018798828125 952.427001953125 944.487976074219 944.953491210938 947.804260253906 945.485107421875 950.636840820312 947.226196289062 946.826843261719 943.741394042969 942.442443847656 935.639892578125 947.033264160156 951.710327148438 952.300476074219 949.976806640625 957.921142578125 961.298156738281 954.544860839844 945.269348144531 943.296691894531 954.930480957031 949.537292480469 949.338745117188 953.268859863281 950.663330078125 944.744506835938 934.943908691406 936.16162109375 946.492614746094 941.980895996094 951.290161132812 950.96630859375 963.149291992188 959.197814941406 957.713195800781 963.162109375 957.862915039062 961.200500488281 952.309814453125 961.845336914062 954.701232910156 955.3251953125 972.239013671875 979.264892578125 971.382080078125 962.438110351562 967.826782226562 963.775695800781 968.027770996094 965.32666015625 961.00927734375 958.428527832031 976.865783691406 969.296508789062 968.596801757812 966.072937011719 967.141723632812 968.636352539062 968.675109863281 972.02978515625 977.559265136719 975.850402832031 973.094055175781 979.168090820312 978.181701660156 978.546813964844 983.463500976562 973.474182128906 972.782104492188 972.452941894531 982.888671875 984.923522949219 985.946899414062 975.943359375 970.962890625 972.279418945312 978.578491210938 985.441711425781 984.983215332031 977.938110351562 970.5888671875 973.220825195312 979.17919921875 984.714172363281 980.492126464844 972.46875 973.249145507812 974.89697265625 980.093200683594 979.87744140625 977.461730957031 982.770324707031 979.215637207031 982.580078125 998.89990234375 1004.72271728516 1002.39990234375 1004.50543212891 999.616821289062 989.138366699219 992.74560546875 996.11181640625 1004.04992675781 1011.52905273438 1020.64923095703 1017.16558837891 1022.11779785156 1023.81750488281 1025.50415039062 1015.54357910156 1024.20971679688 1023.56707763672 1030.90393066406 1035.97021484375 1033.38659667969 1042.63745117188 1036.56335449219 1029.44641113281 1018.56750488281 1013.51306152344 1023.08203125 1027.05834960938 1031.7509765625 1034.01110839844 1034.71826171875 1035.21057128906 1035.65563964844 1032.64978027344 1042.39135742188 1037.7587890625 1034.18139648438 1033.43505859375 1031.51281738281 1026.91174316406 1029.103515625 1027.2861328125 1025.59973144531 1019.37133789062 1011.20184326172 1010.08953857422 1013.72918701172 1012.69372558594 1004.72412109375 1000.00286865234
949.172180175781 960.826843261719 964.428100585938 954.73291015625 956.876953125 958.299011230469 950.700134277344 949.72900390625 940.774169921875 937.144592285156 951.283508300781 961.94091796875 956.2177734375 951.045349121094 952.984924316406 947.768371582031 946.522094726562 941.160705566406 947.161071777344 954.957885742188 956.539245605469 962.623718261719 967.705749511719 964.533142089844 955.434448242188 957.254516601562 958.141906738281 953.571594238281 956.263671875 945.366333007812 943.838562011719 950.533020019531 940.424438476562 942.141418457031 950.455932617188 948.650268554688 950.623107910156 950.505798339844 964.820983886719 958.958190917969 955.411254882812 963.073364257812 967.378479003906 962.362976074219 964.759521484375 963.474365234375 959.878356933594 961.606811523438 971.513244628906 979.965881347656 974.266235351562 968.780944824219 976.554077148438 976.53125 976.258117675781 965.022399902344 961.15380859375 968.105773925781 971.075317382812 963.122314453125 968.567199707031 967.268737792969 972.917663574219 975.93701171875 974.398071289062 974.046936035156 974.634765625 967.981811523438 970.276306152344 978.42138671875 986.095153808594 983.636047363281 986.267578125 984.577331542969 968.117980957031 973.288940429688 987.896545410156 989.443481445312 979.855529785156 970.438903808594 976.76708984375 979.425170898438 986.895874023438 984.594543457031 986.65576171875 981.512268066406 968.150695800781 972.401672363281 978.677978515625 982.28662109375 975.686645507812 972.668273925781 974.922790527344 984.887878417969 982.819030761719 976.701049804688 987.243469238281 980.3095703125 977.117492675781 984.867431640625 997.623718261719 1010.64007568359 1000.69110107422 997.332763671875 1001.15502929688 988.380920410156 984.314392089844 998.923278808594 1000.38330078125 1010.701171875 1011.99914550781 1009.6806640625 1017.21746826172 1022.87542724609 1013.59753417969 1018.48583984375 1030.15893554688 1029.46826171875 1039.708984375 1038.53125 1043.92407226562 1039.02331542969 1044.00817871094 1037.05395507812 1022.75500488281 1024.16296386719 1020.94622802734 1025.69775390625 1027.15539550781 1034.51293945312 1032.11511230469 1023.94580078125 1024.00317382812 1023.49755859375 1026.20922851562 1029.15100097656 1029.71142578125 1033.64990234375 1031.48693847656 1023.41253662109 1018.78143310547 1011.54949951172 1023.70300292969 1010.42736816406 1006.79913330078 1002.73760986328 1004.33978271484 999.897521972656 1000.44378662109 997.884887695312
956.840393066406 952.48779296875 956.003967285156 951.417724609375 958.005065917969 949.369873046875 946.432983398438 940.082580566406 940.801208496094 930.737548828125 944.327941894531 954.5390625 959.281860351562 959.162231445312 950.781311035156 946.083435058594 949.324462890625 946.829406738281 951.903625488281 962.231872558594 966.75146484375 975.066040039062 973.741760253906 968.169372558594 960.35107421875 955.759704589844 954.375122070312 965.936950683594 963.422790527344 958.166687011719 948.684387207031 949.809814453125 950.728820800781 955.866271972656 964.3134765625 957.968200683594 953.22119140625 959.180603027344 958.641906738281 963.487609863281 965.651794433594 959.835693359375 964.539367675781 967.097595214844 965.012573242188 963.683044433594 965.674621582031 968.064208984375 976.151611328125 981.518249511719 979.5068359375 976.430358886719 971.782958984375 968.086975097656 968.299987792969 969.88427734375 958.974243164062 953.598083496094 962.402221679688 964.704772949219 969.674560546875 971.63037109375 971.274291992188 974.471313476562 970.052368164062 968.673278808594 965.28173828125 973.138916015625 974.18115234375 981.004455566406 986.234252929688 991.347717285156 983.779846191406 978.274230957031 983.439514160156 977.827331542969 983.475219726562 988.769287109375 980.54443359375 969.617980957031 970.624877929688 981.589416503906 984.336791992188 986.470764160156 985.230102539062 987.053100585938 972.011962890625 976.623962402344 978.816711425781 974.045349121094 966.904602050781 981.763427734375 981.266357421875 986.822937011719 985.8427734375 987.124145507812 989.893310546875 990.334655761719 988.027160644531 986.600891113281 992.534606933594 1007.31671142578 1004.54449462891 993.985778808594 991.717346191406 992.882751464844 998.102783203125 1004.48016357422 1005.40081787109 1014.29248046875 1017.3583984375 1013.54675292969 1009.86694335938 1017.85687255859 1015.92254638672 1025.91711425781 1032.00500488281 1033.74621582031 1042.38708496094 1040.56970214844 1043.63195800781 1036.24572753906 1032.01928710938 1033.958984375 1027.46850585938 1022.26446533203 1023.84234619141 1020.36730957031 1017.97033691406 1012.87780761719 1009.03253173828 1018.59796142578 1011.84100341797 1014.36535644531 1013.16632080078 1014.99645996094 1013.73150634766 1025.10974121094 1023.43634033203 1021.01031494141 1022.55450439453 1018.23199462891 1020.80047607422 1014.64611816406 1006.79223632812 1006.46881103516 1009.80810546875 1004.85772705078 1004.70678710938 1002.90283203125
948.894470214844 955.487976074219 950.143249511719 949.99609375 950.951293945312 941.184448242188 937.143310546875 941.041687011719 933.071105957031 940.805053710938 945.524291992188 950.958984375 950.199157714844 952.557922363281 962.534912109375 960.352905273438 946.94677734375 951.702270507812 954.063903808594 963.361389160156 972.914855957031 967.042419433594 965.463623046875 965.4677734375 959.999389648438 953.959716796875 966.769104003906 963.032104492188 956.913208007812 951.942016601562 953.755187988281 958.966247558594 958.865112304688 957.854675292969 959.109558105469 954.852416992188 960.572570800781 957.905822753906 959.951354980469 959.228515625 966.441955566406 971.938598632812 973.726989746094 964.48193359375 963.274475097656 974.729614257812 981.956420898438 975.804565429688 985.363952636719 985.425231933594 984.092590332031 972.997619628906 972.60791015625 970.666931152344 972.000793457031 972.435546875 960.125732421875 964.770263671875 967.684631347656 964.446533203125 971.950988769531 977.712646484375 977.07275390625 973.264831542969 962.886352539062 964.971862792969 967.895141601562 977.713012695312 972.392700195312 976.517761230469 981.683898925781 980.835388183594 983.518615722656 985.684692382812 990.483154296875 986.217346191406 989.774780273438 978.265869140625 986.93408203125 972.774536132812 977.252563476562 985.027770996094 984.671630859375 987.741394042969 989.174987792969 985.662658691406 982.065063476562 979.33154296875 976.149169921875 979.635986328125 976.667236328125 980.550109863281 978.627258300781 982.792053222656 988.206481933594 984.66796875 983.843811035156 988.105224609375 982.353942871094 991.967407226562 992.311096191406 998.541381835938 998.064086914062 994.872680664062 996.794860839844 993.205444335938 1001.96636962891 1009.81164550781 1017.25543212891 1020.17315673828 1021.77899169922 1018.60272216797 1018.25720214844 1022.89825439453 1032.93835449219 1036.73388671875 1029.32482910156 1035.70422363281 1038.77612304688 1040.21569824219 1041.34252929688 1047.18371582031 1041.970703125 1032.02661132812 1034.03247070312 1021.57623291016 1020.97338867188 1016.35382080078 1007.2138671875 1003.52709960938 1004.76489257812 1013.54150390625 1010.28173828125 1011.14379882812 1004.72399902344 1002.26147460938 1011.45263671875 1015.79138183594 1013.47729492188 1015.35528564453 1015.05377197266 1018.93157958984 1015.11016845703 1016.37780761719 1011.62469482422 1008.27447509766 1006.79052734375 1010.14892578125 1006.71197509766 1003.07122802734
947.687866210938 955.068603515625 951.114013671875 944.119262695312 942.001892089844 939.579528808594 937.205200195312 936.664794921875 934.277648925781 943.500244140625 942.578125 953.012451171875 961.004089355469 961.441284179688 959.665954589844 955.884399414062 955.594604492188 959.886169433594 962.995361328125 967.398742675781 973.41748046875 977.196350097656 969.748352050781 963.249450683594 965.293273925781 959.518615722656 961.3916015625 963.655029296875 960.5380859375 956.48779296875 960.155883789062 961.942077636719 960.075012207031 957.310852050781 954.718505859375 961.968139648438 960.693603515625 966.060302734375 960.063537597656 972.26904296875 969.111389160156 975.461853027344 971.420227050781 965.441772460938 973.955505371094 977.011962890625 986.596801757812 992.160217285156 998.228149414062 994.838134765625 987.795104980469 981.978454589844 983.616271972656 975.878295898438 975.9873046875 967.89453125 962.150756835938 968.682739257812 966.865783691406 960.763916015625 966.746643066406 978.754577636719 976.615478515625 969.340515136719 968.596069335938 963.975524902344 972.728210449219 974.906005859375 968.470458984375 965.922607421875 979.829223632812 977.1767578125 975.328308105469 982.685729980469 989.286315917969 996.54931640625 990.654174804688 993.282104492188 993.662475585938 978.274963378906 976.19970703125 978.203735351562 987.636047363281 990.320556640625 984.6708984375 991.099670410156 987.548400878906 978.557189941406 973.167053222656 983.305419921875 976.804748535156 980.448669433594 982.595764160156 985.52099609375 985.441528320312 980.989868164062 992.736572265625 984.261413574219 986.708740234375 990.48681640625 995.002563476562 991.697265625 1003.35260009766 1000.287109375 1004.52508544922 1009.03509521484 1009.20690917969 1023.31884765625 1016.40509033203 1016.78582763672 1023.19903564453 1023.8369140625 1021.64764404297 1031.57690429688 1032.44079589844 1030.70495605469 1032.94860839844 1039.0458984375 1044.96545410156 1042.44885253906 1045.71215820312 1043.60278320312 1040.40783691406 1033.59399414062 1037.8203125 1031.74096679688 1030.23132324219 1012.72155761719 1006.82464599609 1004.63586425781 1008.08502197266 1010.43920898438 1006.25109863281 1006.0400390625 1006.51068115234 1003.77124023438 1011.77014160156 1013.03076171875 1013.73693847656 1008.12194824219 1007.76330566406 1010.54760742188 1007.97875976562 1012.68859863281 1005.52545166016 1004.65887451172 1006.16180419922 1004.64270019531 1003.78125 1000.10260009766
948.99658203125 944.306457519531 945.610595703125 944.72021484375 940.653076171875 935.932434082031 939.765686035156 931.988220214844 936.542297363281 943.290588378906 947.848999023438 955.203674316406 960.403503417969 959.886291503906 962.807006835938 962.261413574219 962.704833984375 971.858581542969 969.095031738281 975.819274902344 968.328308105469 963.545043945312 968.759216308594 967.453674316406 965.369201660156 969.659423828125 966.376647949219 964.9462890625 966.03662109375 961.197875976562 966.607482910156 971.496704101562 967.786010742188 962.900268554688 964.736572265625 959.386657714844 967.876586914062 976.132995605469 977.74658203125 982.234252929688 973.98486328125 969.96484375 971.859130859375 975.128601074219 980.237426757812 978.644409179688 984.06689453125 989.928894042969 1002.51953125 1002.17425537109 998.673156738281 990.890991210938 985.857482910156 973.063842773438 982.315673828125 976.197692871094 973.917846679688 974.713256835938 971.296630859375 973.792602539062 971.385681152344 969.455505371094 976.546508789062 968.17333984375 968.945190429688 973.79345703125 978.48681640625 973.144592285156 967.570861816406 972.047058105469 975.546813964844 970.735046386719 977.253356933594 981.841125488281 985.770751953125 993.903869628906 991.395812988281 998.100158691406 988.664306640625 987.066650390625 979.375061035156 983.794189453125 986.444091796875 992.141235351562 991.435302734375 982.179260253906 985.758605957031 983.123779296875 973.254943847656 973.907958984375 975.099243164062 983.507690429688 973.743957519531 980.035949707031 980.00146484375 987.669006347656 995.610595703125 994.1884765625 993.625305175781 988.78271484375 993.593688964844 993.693969726562 993.1796875 1011.18780517578 1010.50616455078 1010.93353271484 1016.22723388672 1017.63146972656 1017.17071533203 1015.94445800781 1020.66241455078 1024.10400390625 1018.30718994141 1018.3662109375 1021.16864013672 1027.82702636719 1029.37951660156 1040.50805664062 1045.10229492188 1051.77478027344 1049.27746582031 1042.89916992188 1044.19201660156 1036.99584960938 1036.16101074219 1031.16027832031 1034.5224609375 1022.87384033203 1009.603515625 1010.13671875 1004.47119140625 1004.95104980469 1006.67388916016 1008.61798095703 997.322814941406 1003.279296875 1011.90557861328 1014.95056152344 1006.29058837891 1005.69573974609 997.251953125 1010.830078125 1003.02478027344 1006.0146484375 1002.88366699219 997.853759765625 1010.78619384766 1003.11846923828 999.291870117188 1003.22003173828
936.894470214844 938.978393554688 941.311462402344 939.117004394531 940.106384277344 936.396362304688 931.484741210938 932.740417480469 934.394775390625 942.070434570312 951.966979980469 955.37939453125 963.601379394531 960.65283203125 966.335327148438 971.709655761719 968.187194824219 977.146789550781 979.622985839844 985.732727050781 981.297485351562 970.329467773438 972.311340332031 973.952087402344 983.116455078125 975.898620605469 970.941467285156 967.780578613281 963.730712890625 970.273620605469 969.104370117188 972.937622070312 972.638977050781 965.974548339844 967.766479492188 974.49462890625 981.171813964844 976.846862792969 975.701232910156 975.533752441406 977.428161621094 981.279235839844 979.85693359375 983.374755859375 984.860778808594 987.210327148438 996.768981933594 997.241882324219 1003.91082763672 1003.00903320312 1003.79821777344 995.745788574219 992.822937011719 985.02685546875 982.984619140625 983.984497070312 982.78466796875 981.972900390625 968.405944824219 975.732543945312 967.486022949219 971.674865722656 977.095520019531 969.851867675781 969.250915527344 970.984558105469 973.628540039062 978.167114257812 977.773742675781 977.032348632812 975.565612792969 981.332702636719 980.017028808594 976.463806152344 981.635131835938 989.098999023438 990.591796875 1000.76019287109 992.003112792969 985.783264160156 980.262023925781 988.267883300781 985.217590332031 987.521423339844 987.0693359375 978.63671875 976.949584960938 976.095458984375 971.292358398438 976.031311035156 978.814514160156 982.177490234375 981.01318359375 981.345825195312 985.652404785156 993.98486328125 994.749755859375 1001.01037597656 1001.85772705078 999.636779785156 994.057434082031 996.941162109375 997.4169921875 1013.99499511719 1013.13818359375 1020.50408935547 1021.54553222656 1021.75433349609 1018.63348388672 1018.24822998047 1021.57946777344 1016.35302734375 1013.00415039062 1016.33245849609 1021.84783935547 1029.52783203125 1029.71411132812 1034.36755371094 1043.65234375 1045.75842285156 1038.13061523438 1036.72998046875 1037.13464355469 1035.59912109375 1026.96667480469 1041.87902832031 1034.81921386719 1028.34350585938 1010.98175048828 1008.61010742188 1001.33569335938 995.901977539062 1007.4658203125 993.202514648438 1003.10626220703 1005.33319091797 1016.89245605469 1018.25463867188 1010.23052978516 1006.43878173828 1002.92059326172 1000.43939208984 997.586181640625 1001.6982421875 1006.14141845703 1009.68249511719 1007.51177978516 992.914611816406 993.105590820312 1003.63012695312
928.702697753906 943.385070800781 939.886535644531 938.850952148438 936.014465332031 930.308654785156 929.219116210938 936.236572265625 940.864868164062 943.248046875 961.154357910156 970.140319824219 970.38525390625 975.295043945312 968.724487304688 974.829345703125 975.183898925781 980.186889648438 981.975463867188 986.372436523438 988.113647460938 982.411926269531 985.016906738281 986.161376953125 987.279479980469 976.993896484375 976.892211914062 963.430786132812 961.330810546875 968.410339355469 975.995788574219 974.004760742188 977.152648925781 975.851806640625 977.706848144531 977.7939453125 981.257873535156 980.522094726562 978.311706542969 977.951538085938 982.361145019531 988.307373046875 988.83154296875 987.374450683594 985.474670410156 997.487609863281 1006.50598144531 1010.84887695312 1005.99932861328 1007.51171875 1011.96911621094 1006.75311279297 1000.14398193359 992.683715820312 990.486938476562 983.67138671875 990.211730957031 979.867248535156 971.063903808594 968.177612304688 972.667419433594 966.940185546875 973.135375976562 979.312072753906 973.374816894531 984.676147460938 976.568664550781 982.758361816406 981.902465820312 976.640930175781 985.45166015625 986.822265625 982.097534179688 981.677551269531 977.145080566406 993.959838867188 992.678833007812 986.103088378906 993.053894042969 986.060241699219 985.813171386719 990.948669433594 993.206359863281 992.09375 986.502624511719 980.343139648438 981.197998046875 973.716613769531 970.783508300781 968.199768066406 985.003234863281 988.643737792969 978.068664550781 978.432067871094 986.190185546875 988.313232421875 993.567504882812 997.087768554688 1005.68072509766 997.631591796875 1008.32397460938 1003.56536865234 999.696472167969 1001.65258789062 1009.63824462891 1016.99871826172 1020.87152099609 1026.12658691406 1019.72711181641 1022.54248046875 1022.72668457031 1022.04840087891 1019.59631347656 1023.12969970703 1022.81079101562 1025.68469238281 1026.24768066406 1028.7041015625 1033.53686523438 1029.52722167969 1035.52197265625 1024.9853515625 1029.3134765625 1033.490234375 1028.47436523438 1030.77502441406 1035.27380371094 1026.67602539062 1012.74530029297 1008.11096191406 1003.36761474609 1000.65069580078 999.03369140625 998.486572265625 1003.57562255859 1009.69439697266 1015.02777099609 1015.14379882812 1011.09362792969 994.693969726562 994.452209472656 1004.23760986328 995.964660644531 998.040161132812 999.33203125 1008.45910644531 991.955932617188 994.618286132812 992.640258789062 1006.84533691406
929.246032714844 935.513000488281 930.160522460938 933.919799804688 930.243408203125 939.416870117188 940.282531738281 945.767578125 948.822326660156 963.371765136719 969.770935058594 974.9736328125 970.052062988281 979.401184082031 976.438293457031 976.931579589844 977.021118164062 974.960632324219 975.95166015625 976.829895019531 984.492736816406 981.779541015625 978.97802734375 987.961669921875 992.986328125 992.710205078125 976.718017578125 973.859741210938 964.231994628906 962.669250488281 975.512329101562 982.754699707031 979.319213867188 978.80908203125 978.834777832031 984.832946777344 989.109802246094 995.005981445312 994.437927246094 987.049682617188 980.616333007812 988.521850585938 993.462646484375 998.724487304688 997.81884765625 1007.75946044922 1014.78814697266 1012.13134765625 1003.07098388672 1005.703125 1005.21966552734 998.835083007812 996.755615234375 984.204223632812 988.2578125 991.139770507812 985.223266601562 985.936706542969 982.765502929688 981.249267578125 975.825500488281 973.8291015625 972.696838378906 971.817077636719 977.177978515625 980.592895507812 982.406311035156 987.697631835938 989.078735351562 983.703735351562 985.639587402344 982.978210449219 985.56396484375 980.001586914062 976.181030273438 987.196228027344 992.196472167969 989.075378417969 983.833374023438 989.004455566406 986.90625 988.454040527344 989.822875976562 995.318603515625 996.903076171875 991.289733886719 991.606994628906 975.964294433594 981.019958496094 978.68505859375 991.479919433594 983.114685058594 984.471557617188 993.630004882812 989.018371582031 992.051330566406 991.547790527344 994.457580566406 999.604064941406 1002.35400390625 1001.42663574219 1007.20550537109 1002.14044189453 1003.97155761719 1009.49310302734 1009.93768310547 1016.251953125 1024.35168457031 1023.27703857422 1027.03540039062 1027.56274414062 1030.91430664062 1024.89929199219 1021.02709960938 1017.1611328125 1020.53942871094 1015.25170898438 1019.88842773438 1028.525390625 1030.11437988281 1045.60021972656 1037.58605957031 1034.41088867188 1034.8935546875 1033.43823242188 1025.36865234375 1030.88049316406 1012.52954101562 1005.35064697266 1005.55169677734 1007.28302001953 1005.63360595703 1005.17425537109 1009.46356201172 1016.16070556641 1013.34765625 1020.91357421875 1021.435546875 1010.63140869141 1001.96276855469 999.555908203125 993.505920410156 994.160461425781 997.164489746094 998.604614257812 998.781005859375 994.915466308594 991.59423828125 994.022766113281 1004.85711669922
937.063720703125 938.090942382812 937.357116699219 929.057983398438 935.719543457031 940.686828613281 943.844360351562 941.325439453125 958.464233398438 957.398864746094 969.258422851562 977.429443359375 979.702209472656 977.233825683594 982.641418457031 977.277893066406 972.341552734375 978.38623046875 974.814208984375 972.562194824219 975.896789550781 991.305541992188 988.381774902344 990.918518066406 987.64501953125 993.835083007812 976.057922363281 972.077514648438 968.118469238281 970.312377929688 965.760070800781 975.271362304688 979.279052734375 979.514770507812 984.366821289062 984.700073242188 997.396789550781 992.654724121094 994.418701171875 991.42529296875 990.337951660156 992.778991699219 999.859191894531 1005.07775878906 1002.31488037109 1008.01580810547 1012.78643798828 1016.02392578125 1004.80975341797 1010.81695556641 997.643371582031 994.729919433594 993.017456054688 989.40673828125 984.490173339844 984.672302246094 988.529174804688 988.715881347656 981.98291015625 977.601928710938 987.934753417969 988.106872558594 965.925170898438 962.042297363281 970.354736328125 980.735961914062 984.309387207031 979.489074707031 993.554992675781 987.17626953125 990.44287109375 991.6845703125 993.834533691406 984.838684082031 984.358764648438 993.994995117188 996.944946289062 994.04345703125 995.207336425781 989.916931152344 985.088562011719 986.302124023438 988.278564453125 993.258056640625 993.945007324219 994.668579101562 989.360046386719 988.127136230469 983.729919433594 987.886535644531 986.94873046875 984.25927734375 981.958557128906 981.146301269531 985.731872558594 985.49365234375 999.098510742188 1001.712890625 1001.36999511719 1000.28552246094 1004.17120361328 1008.02130126953 1004.23150634766 1009.74041748047 1013.27008056641 1023.47241210938 1025.86437988281 1026.72705078125 1029.59594726562 1038.51647949219 1041.70739746094 1036.34289550781 1017.10711669922 1016.99359130859 1019.98199462891 1024.49694824219 1016.61560058594 1016.36804199219 1024.93041992188 1036.74987792969 1036.47839355469 1034.84399414062 1024.66967773438 1024.76525878906 1025.15502929688 1020.59429931641 1020.189453125 1011.43322753906 1010.02862548828 1009.43640136719 1006.47607421875 1009.56005859375 1012.25756835938 1008.55523681641 1013.34594726562 1016.47375488281 1010.84088134766 1015.84991455078 1006.88696289062 998.665222167969 1002.27374267578 994.581115722656 988.053955078125 991.042419433594 998.368347167969 992.451416015625 993.14990234375 995.028015136719 996.771423339844 996.493530273438
936.297302246094 936.944396972656 927.899108886719 934.978088378906 935.665283203125 937.587097167969 938.109558105469 947.52783203125 957.004699707031 950.732482910156 966.06103515625 971.555419921875 976.37548828125 974.808532714844 986.316223144531 980.821411132812 974.985534667969 984.171997070312 983.073181152344 982.163024902344 982.874450683594 988.228332519531 990.091430664062 984.187622070312 991.883117675781 990.701171875 982.707458496094 976.233825683594 974.855407714844 973.734558105469 968.897521972656 975.774963378906 975.111328125 983.172546386719 981.926696777344 982.770690917969 982.080749511719 990.41845703125 993.543884277344 998.4677734375 994.951049804688 993.947875976562 997.0087890625 1000.45983886719 996.0703125 1007.69952392578 1014.22790527344 1017.52172851562 1012.54571533203 1009.90069580078 1007.90472412109 1000.54443359375 994.421203613281 985.23583984375 984.202819824219 976.780944824219 989.864135742188 981.15869140625 984.230895996094 986.975891113281 986.663391113281 983.155517578125 973.493591308594 968.394775390625 978.199768066406 976.458190917969 984.030212402344 985.870849609375 995.652893066406 998.580932617188 998.560241699219 995.983276367188 997.835388183594 994.371704101562 993.218200683594 990.447937011719 996.828491210938 998.897644042969 997.638488769531 987.933654785156 988.930297851562 986.953247070312 993.629150390625 988.663024902344 990.364379882812 995.0048828125 994.76904296875 996.960632324219 990.179504394531 989.127807617188 996.126586914062 992.45849609375 989.572937011719 985.831665039062 989.966125488281 996.611450195312 993.487854003906 1001.99151611328 1001.69268798828 1004.76898193359 1009.85845947266 1014.30908203125 1011.53082275391 1024.666015625 1022.47784423828 1019.81042480469 1030.67175292969 1034.28393554688 1029.109375 1033.07788085938 1040.67248535156 1037.15930175781 1027.44482421875 1022.33404541016 1024.55676269531 1026.6884765625 1021.85034179688 1022.43273925781 1026.47131347656 1029.56872558594 1028.85388183594 1028.09558105469 1022.30364990234 1027.90795898438 1018.55969238281 1020.37133789062 1016.08026123047 1010.08312988281 999.869567871094 1003.32171630859 1007.10052490234 1004.01788330078 1003.02044677734 1007.33276367188 1012.00909423828 1015.03454589844 1015.89764404297 1012.224609375 1006.87530517578 1002.33569335938 1000.40661621094 988.372741699219 989.250305175781 992.755615234375 984.371826171875 993.290710449219 993.898254394531 987.856201171875 991.164794921875 993.686584472656
940.164245605469 932.098449707031 930.187683105469 936.72119140625 943.946899414062 944.360595703125 942.737243652344 942.917175292969 951.461608886719 956.67724609375 965.382385253906 965.685119628906 969.991088867188 969.121948242188 981.521179199219 979.6875 975.990173339844 987.164733886719 980.424743652344 976.807189941406 972.326354980469 987.320739746094 994.294189453125 991.257507324219 987.120239257812 990.395141601562 985.084045410156 983.170166015625 976.425231933594 978.371337890625 975.322814941406 981.320251464844 973.910217285156 980.6865234375 980.606384277344 984.118530273438 987.352905273438 992.323120117188 988.729187011719 990.63671875 996.926330566406 999.624206542969 999.494323730469 1004.39135742188 1007.38537597656 1004.05346679688 1012.17486572266 1015.90118408203 1022.90795898438 1018.29229736328 1006.5634765625 1010.51226806641 1000.94183349609 992.33251953125 989.184387207031 981.981201171875 976.389038085938 979.310424804688 982.037780761719 976.720458984375 967.779418945312 980.59619140625 978.675231933594 978.496948242188 983.065124511719 979.810363769531 984.735046386719 997.826293945312 1006.49951171875 1004.98913574219 1003.49597167969 1002.75964355469 996.858947753906 1003.78271484375 1000.80108642578 989.45068359375 983.612060546875 994.428833007812 992.741333007812 1003.76123046875 993.519653320312 996.73291015625 995.129577636719 998.875610351562 992.158386230469 989.036804199219 993.319946289062 993.683654785156 993.67236328125 995.851623535156 991.720275878906 993.400634765625 991.925720214844 995.523620605469 991.383361816406 997.486328125 1002.30731201172 1009.97839355469 1000.39117431641 1011.91912841797 1008.36358642578 1011.70599365234 1009.91912841797 1019.00244140625 1027.48156738281 1029.32434082031 1034.74353027344 1031.70776367188 1034.88317871094 1041.02026367188 1042.84460449219 1037.84057617188 1031.74072265625 1022.80352783203 1024.62072753906 1033.65234375 1038.68469238281 1030.6708984375 1030.23828125 1021.76898193359 1028.4189453125 1029.17456054688 1024.8623046875 1020.68206787109 1014.97314453125 1011.82891845703 1007.20135498047 1009.65679931641 999.006225585938 1005.30328369141 1009.74786376953 1002.19830322266 997.560668945312 1006.88208007812 1004.83477783203 1010.26818847656 1010.06219482422 1004.03900146484 1004.17529296875 1011.18579101562 1008.4228515625 990.861694335938 983.886962890625 989.173645019531 987.292663574219 986.130004882812 980.420959472656 979.513366699219 991.839294433594 988.149719238281
949.078308105469 941.849243164062 944.647705078125 944.964477539062 934.0498046875 940.30810546875 939.868408203125 945.242431640625 953.3251953125 958.697326660156 969.914306640625 952.42529296875 958.125305175781 970.415893554688 975.583862304688 989.806823730469 983.617797851562 989.793334960938 983.781494140625 975.155334472656 975.125427246094 989.715393066406 995.19189453125 986.957458496094 989.112487792969 988.943542480469 978.294006347656 973.241271972656 976.887451171875 980.567504882812 986.09912109375 982.871215820312 979.073974609375 986.455444335938 982.444946289062 979.322875976562 989.611145019531 985.594421386719 989.08154296875 996.709350585938 996.03271484375 992.260375976562 998.916870117188 1005.55902099609 1004.36267089844 1009.86376953125 1019.21502685547 1022.5185546875 1012.73748779297 1024.21142578125 1014.70379638672 1014.45513916016 1002.72015380859 996.862548828125 987.608032226562 980.217407226562 978.143432617188 979.759643554688 978.998962402344 975.095031738281 969.852661132812 976.138610839844 980.239929199219 979.703735351562 975.702331542969 976.527709960938 980.485168457031 994.670288085938 998.711730957031 992.451354980469 999.57763671875 1001.04632568359 1000.79907226562 1008.90948486328 1003.85052490234 998.497680664062 988.706237792969 990.348510742188 998.515441894531 1004.44781494141 1009.86090087891 1004.26409912109 996.726989746094 993.921264648438 993.226989746094 997.270751953125 993.252136230469 999.323791503906 999.417419433594 990.129211425781 994.721008300781 982.128723144531 984.376037597656 993.051147460938 994.900329589844 1000.92327880859 1008.1953125 1007.82440185547 1008.61315917969 1009.29772949219 1010.77081298828 1004.93756103516 1012.64251708984 1019.33990478516 1029.6572265625 1035.00415039062 1025.76293945312 1028.28686523438 1030.02978515625 1031.43212890625 1042.86853027344 1039.60546875 1036.36950683594 1028.197265625 1032.90625 1032.6552734375 1031.54125976562 1035.63940429688 1036.34997558594 1029.62585449219 1026.67590332031 1020.52764892578 1021.85589599609 1022.84674072266 1017.43780517578 1013.26708984375 1011.98120117188 996.442993164062 996.073425292969 1005.69464111328 1000.71118164062 1001.04907226562 993.961730957031 998.38525390625 998.018249511719 1004.25482177734 1011.78399658203 1003.48461914062 1011.76666259766 1008.876953125 1001.87133789062 996.647766113281 980.291076660156 988.793273925781 990.143859863281 979.21875 977.798950195312 978.504699707031 986.427978515625 990.942138671875
945.865600585938 942.932434082031 941.407836914062 940.377380371094 941.053833007812 936.604309082031 936.538879394531 946.699523925781 957.978881835938 964.951904296875 965.861267089844 965.470458984375 968.368835449219 969.552307128906 974.306640625 989.714660644531 991.451354980469 984.172058105469 984.927185058594 977.241149902344 975.533569335938 992.310119628906 1000.36633300781 994.461669921875 991.867980957031 983.369750976562 983.377319335938 980.593933105469 978.580261230469 979.5625 982.263854980469 980.834167480469 979.387634277344 989.052185058594 981.835205078125 983.92578125 986.042602539062 984.606018066406 983.770263671875 983.377319335938 991.569152832031 993.535400390625 1000.95806884766 1002.43237304688 998.721801757812 1003.80780029297 1014.57000732422 1013.71795654297 1017.18664550781 1024.42761230469 1023.33941650391 1015.70220947266 994.275939941406 998.228088378906 995.185791015625 989.833312988281 987.716369628906 983.746276855469 981.220275878906 982.937744140625 981.756896972656 974.63427734375 971.290832519531 974.885681152344 976.602478027344 973.76123046875 976.459045410156 982.884521484375 985.928771972656 995.5478515625 994.871887207031 997.669921875 996.452270507812 1000.88818359375 1002.01458740234 993.465209960938 1000.37097167969 995.750854492188 999.060119628906 1008.60955810547 1008.3779296875 1004.86029052734 998.167724609375 998.79931640625 994.913879394531 1001.31970214844 995.910278320312 998.207641601562 999.626037597656 994.013305664062 1003.23834228516 991.328308105469 990.580017089844 989.075988769531 989.033935546875 1002.05249023438 1010.58337402344 1008.42889404297 998.962158203125 996.530334472656 1006.78570556641 1007.04443359375 1007.0576171875 1014.73626708984 1021.79742431641 1032.29150390625 1026.50402832031 1021.07800292969 1034.47595214844 1037.11145019531 1044.26293945312 1038.90490722656 1037.00903320312 1027.92846679688 1032.13317871094 1032.03930664062 1037.15661621094 1041.34350585938 1036.38220214844 1026.81652832031 1023.39263916016 1026.70434570312 1025.67175292969 1012.80560302734 1004.23406982422 1007.37341308594 1005.04895019531 1010.10705566406 1009.40655517578 1003.11138916016 1001.80218505859 1002.09698486328 999.550537109375 992.340209960938 998.854675292969 1006.52893066406 1010.35070800781 1007.95025634766 1005.24871826172 1002.65533447266 998.728393554688 993.6015625 981.39892578125 982.9619140625 983.849853515625 981.678588867188 985.368835449219 980.677062988281 982.201171875 986.38623046875
960.032348632812 940.500915527344 939.235473632812 946.50341796875 946.853881835938 939.582153320312 945.06982421875 931.339782714844 947.739685058594 961.667236328125 972.708557128906 967.486450195312 967.931396484375 976.018127441406 974.487854003906 979.737365722656 986.302307128906 984.491394042969 981.263366699219 977.407897949219 966.786315917969 979.834838867188 985.551147460938 990.975524902344 987.294616699219 982.945678710938 991.294616699219 982.312744140625 980.393432617188 985.931335449219 978.176208496094 977.285522460938 984.246826171875 979.026977539062 983.681579589844 987.718872070312 986.179809570312 988.122131347656 987.585693359375 981.562561035156 984.460144042969 995.051574707031 1002.06604003906 1006.14270019531 1001.1611328125 1009.09259033203 1020.88293457031 1017.90838623047 1017.36145019531 1016.16955566406 1020.46508789062 1013.09545898438 996.061584472656 997.421081542969 992.604309082031 996.151123046875 985.634033203125 979.903442382812 989.80224609375 984.47998046875 978.808288574219 974.774108886719 970.474304199219 975.979125976562 977.538818359375 973.787170410156 978.668212890625 974.681396484375 973.948608398438 992.825988769531 997.794128417969 990.611511230469 994.522583007812 994.762512207031 996.303100585938 997.031799316406 1001.97570800781 994.713439941406 996.539245605469 1007.30279541016 1013.7734375 1009.666015625 1002.49499511719 995.723876953125 996.9072265625 1003.43139648438 996.171691894531 994.6611328125 995.731262207031 986.166076660156 1000.48388671875 994.317626953125 990.326843261719 1002.72766113281 998.785888671875 987.989196777344 1004.05908203125 1001.85687255859 1005.14306640625 1003.18121337891 1004.48413085938 1007.17248535156 1014.62786865234 1016.05035400391 1016.01013183594 1028.02893066406 1028.08862304688 1027.2958984375 1032.55981445312 1033.67443847656 1038.5302734375 1047.59509277344 1043.62365722656 1032.75610351562 1033.09130859375 1039.28344726562 1039.98205566406 1040.81848144531 1035.14782714844 1037.3251953125 1022.41864013672 1021.53552246094 1020.96801757812 1011.35968017578 1005.82965087891 1005.97259521484 1000.04162597656 996.649597167969 1006.61175537109 1000.87969970703 1000.09344482422 999.787780761719 997.505310058594 987.513244628906 996.08544921875 1003.62219238281 1001.47332763672 998.17919921875 992.997985839844 996.693603515625 993.263916015625 987.475402832031 987.576049804688 986.863098144531 984.634521484375 982.507751464844 985.729431152344 983.377868652344 988.450927734375 989.843078613281
953.959411621094 946.475219726562 948.627807617188 943.923828125 939.659729003906 940.393127441406 932.933898925781 931.712463378906 948.8486328125 962.411926269531 967.527221679688 965.671875 966.86376953125 973.324096679688 975.666442871094 975.044128417969 978.469604492188 976.726928710938 968.662658691406 965.843078613281 971.360778808594 982.018859863281 979.478820800781 991.723083496094 972.311706542969 982.051391601562 994.414672851562 985.905578613281 979.746032714844 979.200317382812 976.77783203125 976.789672851562 969.760559082031 979.913146972656 979.338439941406 987.566040039062 991.530578613281 995.005126953125 986.400695800781 989.145324707031 989.377807617188 986.063598632812 992.917114257812 1001.67718505859 1001.35479736328 1006.25415039062 1010.19689941406 1012.39758300781 1015.49420166016 1011.44592285156 1015.01171875 1008.34777832031 1004.80053710938 997.582702636719 996.419494628906 988.540771484375 994.711303710938 989.188415527344 982.39990234375 983.842163085938 981.207275390625 985.360961914062 978.438354492188 972.091796875 972.083557128906 979.202514648438 979.304382324219 973.619140625 978.631469726562 991.368896484375 989.122741699219 986.844848632812 983.949462890625 992.380798339844 998.852661132812 991.234313964844 996.00048828125 990.40673828125 990.896118164062 1008.92767333984 1011.09771728516 1010.40020751953 1013.98785400391 999.890319824219 997.309387207031 1004.5927734375 1007.48718261719 991.430297851562 996.731323242188 999.790466308594 1000.13592529297 1000.73968505859 996.476196289062 1001.82928466797 1001.81793212891 1003.85534667969 996.726257324219 998.346496582031 990.621826171875 1001.41027832031 1006.08044433594 1008.35131835938 1010.22283935547 1014.08209228516 1011.76440429688 1022.04699707031 1024.80187988281 1032.19738769531 1040.54638671875 1048.55786132812 1035.77673339844 1046.00610351562 1046.9375 1049.28332519531 1040.05126953125 1036.46618652344 1038.5302734375 1046.98986816406 1025.9306640625 1029.38610839844 1026.701171875 1020.48193359375 1014.36273193359 1001.89996337891 994.560791015625 995.070861816406 997.661987304688 1000.59826660156 997.125549316406 1000.56121826172 1002.14538574219 998.218505859375 982.227416992188 981.772644042969 978.950927734375 986.161804199219 993.084289550781 991.054870605469 988.868347167969 995.879150390625 994.094848632812 987.913635253906 979.945007324219 984.717651367188 982.453796386719 972.821228027344 970.443664550781 980.827514648438 980.25146484375 981.611511230469
946.145812988281 948.917724609375 947.203796386719 941.176513671875 936.351806640625 935.439636230469 938.871948242188 947.562194824219 955.752136230469 961.064758300781 968.577880859375 974.41650390625 963.749084472656 955.999755859375 960.235595703125 963.354125976562 959.780517578125 970.755859375 965.294860839844 956.383850097656 967.584228515625 969.233459472656 975.247436523438 977.856079101562 979.825012207031 983.001892089844 990.146240234375 986.961608886719 974.50439453125 975.506103515625 973.510375976562 967.699462890625 973.982421875 976.562866210938 982.317993164062 982.270385742188 981.133056640625 983.406677246094 977.343322753906 979.247802734375 984.0595703125 993.755676269531 1004.24475097656 1004.81518554688 1000.96258544922 1003.80596923828 1005.47119140625 1008.29095458984 1005.33917236328 1002.85015869141 1011.0869140625 1003.25506591797 1003.01330566406 997.182189941406 988.461730957031 992.348999023438 987.179565429688 998.22265625 982.95751953125 986.979248046875 979.379333496094 982.237609863281 983.34814453125 986.679931640625 971.141235351562 975.68212890625 976.230712890625 978.651489257812 979.5830078125 987.264953613281 992.689208984375 982.587463378906 984.865478515625 981.997253417969 989.849548339844 989.159057617188 985.923828125 993.0966796875 998.915649414062 1012.38513183594 1008.99462890625 1005.11950683594 1001.81939697266 1001.13208007812 1007.97027587891 1001.02178955078 999.655578613281 999.749267578125 991.696899414062 994.224975585938 997.23486328125 998.054321289062 995.138061523438 999.329040527344 993.690490722656 990.251403808594 991.910461425781 998.902954101562 993.893798828125 1000.26885986328 1001.59997558594 1012.12194824219 1013.53607177734 1011.54064941406 1005.70587158203 1018.89947509766 1030.7197265625 1034.52954101562 1043.642578125 1044.56701660156 1042.4228515625 1042.49560546875 1047.78088378906 1050.03625488281 1051.88049316406 1045.71179199219 1047.34509277344 1039.77160644531 1035.00439453125 1021.35540771484 1017.13409423828 1017.92205810547 1010.27105712891 997.381713867188 996.050170898438 996.025634765625 994.099304199219 997.386840820312 985.318969726562 986.032287597656 984.57275390625 986.226684570312 985.489135742188 970.673767089844 966.556884765625 974.913757324219 977.033630371094 984.859619140625 982.453186035156 982.046569824219 990.284484863281 984.381225585938 986.36572265625 977.8515625 970.533508300781 969.064636230469 971.934814453125 976.700256347656 989.528503417969 981.554443359375
