NCOLS 150
NROWS 37
XLLCORNER 7394249
YLLCORNER 4842029
CELLSIZE 30
NODATA_VALUE -9999
941.565673828125 945.98974609375 955.777770996094 948.363952636719 953.371887207031 960.365600585938 969.992919921875 969.156982421875 963.6328125 963.430114746094 955.869873046875 952.046081542969 963.432189941406 952.767944335938 948.93408203125 944.799377441406 949.96875 950.535400390625 955.449462890625 956.136291503906 964.04443359375 961.700866699219 950.642211914062 951.296264648438 950.352294921875 950.403991699219 953.157653808594 948.450622558594 945.234802246094 945.40283203125 948.461242675781 943.689392089844 939.010925292969 947.027282714844 948.895935058594 951.346130371094 940.817443847656 939.16748046875 938.388549804688 939.825500488281 942.950988769531 943.916137695312 946.043579101562 943.792846679688 950.166198730469 950.212829589844 953.917114257812 956.802917480469 958.219177246094 951.386962890625 960.252075195312 959.746337890625 967.1962890625 964.722045898438 962.095825195312 965.62744140625 968.519470214844 968.141296386719 971.3193359375 963.767517089844 964.399597167969 952.672668457031 948.570556640625 957.771850585938 959.828796386719 961.56640625 948.593994140625 950.241638183594 956.502685546875 964.708923339844 965.70654296875 967.111877441406 971.749755859375 971.643371582031 970.051696777344 964.920715332031 970.678100585938 967.964050292969 964.880432128906 964.10595703125 969.487915039062 978.787536621094 981.765014648438 976.078186035156 961.869323730469 971.872436523438 980.327209472656 980.150512695312 970.67236328125 971.105834960938 974.942993164062 967.84033203125 961.007507324219 967.45703125 977.172973632812 979.322875976562 973.958190917969 974.08935546875 974.644409179688 986.192687988281 983.195983886719 985.286499023438 988.768737792969 990.174682617188 985.5556640625 999.4765625 996.897644042969 994.688415527344 994.084350585938 990.845642089844 987.914428710938 984.453674316406 989.669494628906 988.171691894531 986.617980957031 1000.20251464844 1000.03900146484 992.927978515625 997.271484375 1002.46752929688 1009.98858642578 1011.85089111328 1016.97644042969 1017.47735595703 1017.02258300781 1012.42083740234 1010.81469726562 1018.02325439453 1020.49493408203 1027.95446777344 1037.80517578125 1039.18322753906 1052.15893554688 1052.56616210938 1043.64929199219 1052.19079589844 1055.09594726562 1049.04760742188 1047.97717285156 1047.42114257812 1045.78723144531 1039.87268066406 1035.5078125 1030.54479980469 1036.51049804688 1028.68347167969 1032.59741210938 1027.439453125 1026.53454589844 1029.798828125
945.382995605469 944.389099121094 943.676086425781 951.146484375 956.791137695312 963.360412597656 960.635864257812 968.2822265625 968.440795898438 955.734497070312 942.41748046875 942.871948242188 954.012451171875 955.679016113281 940.678466796875 949.98388671875 953.166015625 947.758666992188 957.272521972656 950.21533203125 951.147216796875 955.891906738281 952.575439453125 952.016845703125 948.105041503906 949.088012695312 950.795593261719 951.203247070312 945.837890625 947.19091796875 952.006225585938 956.201904296875 948.414733886719 943.842346191406 950.416442871094 945.107360839844 946.803344726562 952.736755371094 946.390441894531 946.745727539062 946.351013183594 942.470703125 951.44482421875 947.735534667969 946.152770996094 939.405517578125 948.025512695312 946.513305664062 949.232727050781 960.838073730469 956.292907714844 958.61767578125 967.9384765625 965.602722167969 964.077331542969 974.088073730469 969.814758300781 970.760192871094 962.767333984375 964.77392578125 959.283203125 954.942565917969 952.458190917969 959.421081542969 964.103759765625 958.617065429688 955.104309082031 951.003356933594 966.859130859375 969.796203613281 970.036254882812 973.752319335938 982.276428222656 970.899719238281 968.1611328125 966.343383789062 959.103088378906 960.60107421875 967.779479980469 971.502075195312 972.382446289062 973.46875 981.948303222656 973.867797851562 967.655334472656 978.839294433594 980.437744140625 972.661743164062 972.3388671875 966.554504394531 966.5078125 970.961791992188 967.780639648438 969.69287109375 976.298645019531 980.355041503906 975.077453613281 982.355285644531 977.769226074219 982.66650390625 988.722778320312 989.469909667969 988.218688964844 986.376647949219 983.169189453125 991.135559082031 1003.81323242188 1003.31854248047 996.050537109375 997.673278808594 989.864196777344 988.442077636719 986.453369140625 993.4443359375 993.721862792969 1000.60656738281 1006.84503173828 1009.00720214844 1009.14532470703 1009.94091796875 1012.17639160156 1011.70709228516 1019.75726318359 1025.58862304688 1021.69946289062 1020.08197021484 1013.89605712891 1022.29528808594 1016.76629638672 1021.50073242188 1036.95141601562 1035.65405273438 1044.27893066406 1046.00622558594 1039.91589355469 1042.0546875 1043.77136230469 1040.01306152344 1043.12976074219 1040.93981933594 1035.61889648438 1028.650390625 1030.72509765625 1039.94226074219 1030.05920410156 1033.72351074219 1025.60717773438 1022.70886230469 1019.59997558594 1021.40234375
944.332153320312 941.078308105469 946.152587890625 949.670959472656 953.369018554688 955.325012207031 965.758422851562 963.032348632812 964.268493652344 947.907165527344 951.450988769531 948.074951171875 944.713928222656 949.342224121094 941.220092773438 942.484313964844 945.579528808594 956.001770019531 953.289978027344 952.271606445312 947.721862792969 950.60546875 952.169006347656 958.417846679688 948.385498046875 946.403442382812 939.348388671875 949.588195800781 946.185241699219 950.488464355469 953.188232421875 947.196594238281 946.381591796875 947.793518066406 941.112609863281 949.631774902344 948.154235839844 952.363464355469 943.981567382812 950.836791992188 945.438903808594 955.438537597656 950.140747070312 948.915222167969 950.165344238281 954.327697753906 950.670654296875 959.397033691406 954.011474609375 958.742553710938 959.200927734375 960.044494628906 968.039367675781 961.685913085938 968.723449707031 974.03662109375 969.84716796875 960.511169433594 964.597229003906 975.077941894531 971.093811035156 968.163879394531 957.007019042969 967.736206054688 964.362731933594 960.809326171875 963.480163574219 961.014892578125 962.316955566406 959.01123046875 971.711853027344 979.828308105469 980.966125488281 978.744018554688 971.658142089844 968.932556152344 965.731994628906 971.362182617188 976.941589355469 970.571655273438 980.6064453125 975.672729492188 982.134948730469 979.548522949219 981.121948242188 971.607299804688 975.545654296875 978.12646484375 979.961608886719 967.082153320312 965.1669921875 972.485534667969 973.117553710938 972.132873535156 976.487121582031 980.182373046875 988.664367675781 983.714172363281 984.300476074219 987.528747558594 986.738891601562 985.867736816406 982.441528320312 982.373901367188 991.613098144531 993.861938476562 989.801391601562 1003.92443847656 1005.06970214844 995.012451171875 985.264282226562 985.791809082031 998.994873046875 997.76123046875 1003.44830322266 1004.02337646484 1007.48162841797 1021.53674316406 1019.28363037109 1025.72790527344 1024.67993164062 1019.36737060547 1023.80987548828 1032.54553222656 1026.64672851562 1018.72106933594 1023.72143554688 1017.54943847656 1014.91192626953 1020.86981201172 1024.74169921875 1030.25439453125 1028.78491210938 1025.78796386719 1035.99597167969 1037.11474609375 1032.46740722656 1034.05090332031 1034.42272949219 1029.22814941406 1029.857421875 1026.03039550781 1035.70593261719 1031.35009765625 1022.84991455078 1024.71069335938 1031.12023925781 1026.12219238281 1021.09039306641 1026.63110351562
958.606140136719 948.308044433594 951.620422363281 961.0107421875 950.462036132812 958.94287109375 961.713439941406 954.542724609375 954.480529785156 948.559631347656 944.546081542969 947.376647949219 948.728820800781 951.309814453125 936.235473632812 936.376281738281 948.119689941406 967.179626464844 955.468994140625 952.032775878906 950.120178222656 951.1328125 953.880615234375 948.736389160156 947.177917480469 948.360168457031 945.562377929688 949.5341796875 945.175354003906 939.052978515625 947.406982421875 953.75830078125 948.270446777344 957.105834960938 948.857238769531 945.3369140625 945.6416015625 947.986328125 949.499206542969 952.74609375 960.498291015625 954.755493164062 956.734802246094 956.066223144531 963.701538085938 960.966003417969 957.56201171875 964.75830078125 969.68408203125 964.232849121094 966.177429199219 970.2529296875 969.844360351562 972.644897460938 966.561645507812 973.192077636719 962.92333984375 969.063659667969 975.101501464844 980.275268554688 969.525939941406 975.026000976562 969.872131347656 966.822814941406 970.310180664062 961.933349609375 964.380187988281 966.756408691406 966.218688964844 963.182189941406 977.252014160156 977.533325195312 977.794250488281 976.743530273438 971.041564941406 971.351135253906 970.73291015625 976.316223144531 975.246520996094 971.798583984375 982.946533203125 980.37451171875 979.348510742188 980.053588867188 981.05029296875 971.962585449219 969.770568847656 970.484558105469 974.401916503906 968.797058105469 968.354736328125 974.890808105469 976.856750488281 974.184875488281 975.131408691406 983.549926757812 987.940979003906 991.566833496094 990.768859863281 990.948791503906 990.833190917969 988.265930175781 991.872802734375 992.27197265625 988.458374023438 996.898803710938 993.660217285156 993.704162597656 1004.97991943359 1004.26568603516 1005.24652099609 994.572570800781 998.027160644531 1000.06500244141 1001.78656005859 1012.91229248047 1005.23211669922 1013.96838378906 1024.31762695312 1029.69580078125 1031.52709960938 1028.31091308594 1025.140625 1023.03283691406 1030.87646484375 1028.17724609375 1027.66821289062 1028.32202148438 1019.84045410156 1020.48815917969 1024.47680664062 1024.08715820312 1024.77746582031 1019.78594970703 1025.96618652344 1036.57434082031 1036.79711914062 1043.31860351562 1036.130859375 1024.75451660156 1025.65393066406 1022.93914794922 1021.94610595703 1026.74853515625 1018.00158691406 1028.10595703125 1032.50561523438 1022.68853759766 1024.31298828125 1017.2548828125
950.264526367188 956.364624023438 946.537841796875 951.254272460938 956.834777832031 957.874816894531 952.14208984375 951.07861328125 950.758056640625 940.676879882812 938.29443359375 945.059997558594 951.732116699219 949.311767578125 943.174072265625 947.464721679688 946.127746582031 954.799377441406 955.516296386719 957.487976074219 952.9580078125 949.721923828125 953.560119628906 948.300964355469 951.016967773438 949.287841796875 947.518615722656 948.20166015625 945.000183105469 943.523498535156 943.824035644531 950.270263671875 950.984436035156 950.659606933594 952.652587890625 946.292297363281 944.416259765625 943.599853515625 945.650939941406 957.373046875 962.316284179688 960.867248535156 961.853271484375 957.546875 970.700622558594 968.223266601562 968.023376464844 958.241333007812 964.127685546875 968.732177734375 968.048522949219 968.663330078125 974.093566894531 979.836059570312 975.173217773438 974.597961425781 969.208068847656 974.679565429688 977.365051269531 973.942687988281 973.830871582031 970.918334960938 970.339599609375 967.554809570312 971.326721191406 977.473022460938 971.302429199219 979.800109863281 969.350036621094 977.8740234375 978.601501464844 979.298522949219 977.757263183594 975.530700683594 978.868347167969 976.427612304688 972.57080078125 979.539245605469 982.302856445312 971.381408691406 972.845092773438 972.224670410156 970.067443847656 984.184204101562 981.62451171875 979.20703125 971.931884765625 968.182800292969 975.177368164062 970.320068359375 968.736572265625 975.565612792969 973.463317871094 984.448669433594 983.83642578125 989.502563476562 986.264038085938 988.124328613281 996.518493652344 994.191650390625 992.638610839844 993.304809570312 990.989807128906 991.380920410156 988.910461425781 1000.89923095703 995.3837890625 996.625061035156 1001.68530273438 998.499206542969 1008.15899658203 1005.46520996094 1005.90515136719 1005.87408447266 1008.04333496094 1011.09210205078 1005.97338867188 1015.42065429688 1026.27136230469 1027.74304199219 1038.98291015625 1031.66650390625 1026.02734375 1021.43640136719 1034.3173828125 1028.07751464844 1030.17248535156 1021.36322021484 1023.2080078125 1027.12744140625 1025.37182617188 1024.33752441406 1025.13000488281 1026.01708984375 1016.44799804688 1024.97912597656 1031.06506347656 1037.23327636719 1034.85339355469 1020.27081298828 1012.50006103516 1018.22772216797 1017.26080322266 1020.46087646484 1018.30059814453 1023.0927734375 1021.49060058594 1012.79125976562 1011.41967773438 1017.07427978516
962.557678222656 959.452514648438 954.0869140625 948.526000976562 955.035461425781 953.65625 947.356689453125 946.397766113281 946.515930175781 941.00146484375 938.679382324219 939.903015136719 951.519836425781 952.982055664062 952.996643066406 945.908752441406 947.780090332031 958.05224609375 963.271728515625 961.020568847656 958.865173339844 956.555114746094 953.509887695312 950.019165039062 943.954528808594 952.219421386719 955.408996582031 954.245910644531 947.245788574219 946.507507324219 949.112487792969 954.402160644531 953.605712890625 946.774047851562 954.14013671875 957.0986328125 950.584045410156 936.380676269531 948.756591796875 955.094116210938 966.945495605469 963.014709472656 956.918090820312 957.355346679688 964.670959472656 967.505798339844 974.665710449219 968.510070800781 971.2578125 978.059753417969 976.188842773438 974.965637207031 978.818908691406 986.551696777344 978.268676757812 979.3017578125 981.727783203125 983.911376953125 974.347534179688 980.130981445312 974.549926757812 968.986938476562 960.658569335938 963.856384277344 963.027038574219 975.293151855469 973.003051757812 976.911376953125 983.897827148438 975.333068847656 977.340148925781 982.3857421875 973.84423828125 975.817260742188 980.700744628906 983.379455566406 980.640808105469 981.273864746094 976.985290527344 978.207641601562 975.87841796875 970.5634765625 972.256591796875 980.9912109375 983.585510253906 977.171691894531 980.468872070312 968.733215332031 975.94970703125 974.341552734375 960.374633789062 971.512878417969 974.788269042969 977.862426757812 979.222900390625 984.021728515625 993.285705566406 995.4619140625 994.748413085938 993.502990722656 993.00927734375 992.318420410156 997.413146972656 992.709411621094 999.774475097656 989.942932128906 989.344360351562 995.933532714844 1004.05236816406 1002.11157226562 1016.98150634766 1013.44982910156 1009.57232666016 1012.48016357422 1023.00579833984 1024.41198730469 1014.34057617188 1030.84484863281 1035.68005371094 1040.76733398438 1042.81909179688 1028.41711425781 1027.01220703125 1038.30065917969 1031.82690429688 1029.26184082031 1016.05908203125 1022.67956542969 1026.46716308594 1033.4228515625 1026.43969726562 1026.859375 1016.60528564453 1021.83453369141 1019.46063232422 1017.59381103516 1020.06896972656 1027.87902832031 1030.42639160156 1021.48754882812 1017.42370605469 1018.08673095703 1024.98803710938 1021.89532470703 1010.81872558594 1012.87194824219 1012.58978271484 1009.45513916016 1005.14221191406 1016.04833984375
948.589782714844 947.26416015625 948.738464355469 945.457946777344 944.185363769531 940.385559082031 936.272338867188 945.184143066406 938.464477539062 938.551208496094 940.904541015625 945.207580566406 945.436950683594 950.196960449219 952.744506835938 954.486755371094 953.619445800781 949.03955078125 954.888244628906 953.728088378906 957.30078125 957.216369628906 958.080810546875 953.182495117188 948.252197265625 952.401977539062 964.448791503906 949.682861328125 942.434143066406 942.674499511719 945.878662109375 952.9697265625 958.894653320312 950.734069824219 953.766357421875 965.24658203125 957.730773925781 954.063171386719 955.220336914062 958.596801757812 965.50732421875 967.845031738281 970.191101074219 970.287719726562 972.166259765625 978.202209472656 972.283203125 975.460876464844 974.063781738281 971.11962890625 979.900146484375 980.509338378906 982.899475097656 981.628173828125 987.135559082031 992.784362792969 984.285095214844 982.428833007812 970.632385253906 972.4931640625 970.469055175781 966.518615722656 955.258544921875 960.221069335938 959.0419921875 965.228637695312 969.008544921875 973.509216308594 981.7197265625 976.149108886719 980.012390136719 978.882873535156 976.199279785156 982.274780273438 972.853881835938 980.103454589844 985.148132324219 980.491577148438 968.459533691406 970.893981933594 971.981201171875 972.073120117188 977.2841796875 980.351623535156 976.84521484375 987.04345703125 973.853698730469 976.717041015625 979.783264160156 982.409057617188 969.881103515625 972.063903808594 973.20947265625 981.395263671875 973.531127929688 985.86865234375 994.418212890625 990.885559082031 987.4052734375 984.7607421875 1000.95947265625 1006.10919189453 1002.79974365234 1002.27777099609 988.927307128906 991.385192871094 993.98974609375 1000.4814453125 999.21044921875 1010.76342773438 1016.97778320312 1014.16809082031 1015.50268554688 1027.0947265625 1027.1298828125 1028.90246582031 1029.66040039062 1033.6552734375 1042.68395996094 1050.92236328125 1046.03930664062 1036.01623535156 1038.43884277344 1040.21118164062 1044.63537597656 1041.77648925781 1033.48291015625 1028.34509277344 1028.63012695312 1032.10778808594 1023.82482910156 1019.5439453125 1021.32135009766 1019.18731689453 1016.50939941406 1026.49279785156 1016.31671142578 1027.58068847656 1029.955078125 1026.84204101562 1024.96936035156 1019.19549560547 1028.12683105469 1014.31036376953 1011.07067871094 1005.65679931641 1015.22607421875 1007.52496337891 1009.65802001953 1008.03723144531
954.754577636719 946.979553222656 956.686767578125 950.939575195312 952.557556152344 932.5751953125 931.484558105469 940.304870605469 941.037170410156 938.327331542969 946.267272949219 947.965576171875 952.334655761719 959.531433105469 954.395629882812 955.624694824219 958.253295898438 958.787841796875 964.050720214844 959.426635742188 962.424194335938 964.482604980469 961.102233886719 957.323852539062 947.531921386719 957.806030273438 952.719909667969 950.851806640625 953.340881347656 952.553833007812 948.337890625 946.368286132812 953.139404296875 955.939453125 954.030639648438 958.897338867188 959.944458007812 967.289123535156 965.157348632812 972.63916015625 969.220275878906 964.181396484375 969.755187988281 978.229309082031 976.645812988281 974.011169433594 974.320373535156 981.059326171875 978.031860351562 978.388366699219 984.472106933594 991.159545898438 982.876647949219 988.394958496094 997.099548339844 988.928283691406 978.841430664062 976.900024414062 972.483825683594 968.705993652344 968.868774414062 967.180236816406 960.102783203125 957.758239746094 957.681640625 972.959350585938 971.57763671875 978.395324707031 984.56298828125 982.515563964844 984.339660644531 979.312194824219 981.534362792969 980.592712402344 978.867065429688 976.514709472656 982.661804199219 982.232849121094 982.490844726562 973.995300292969 969.6474609375 980.84619140625 983.520812988281 978.474792480469 975.326049804688 983.179504394531 985.523864746094 979.612854003906 983.437622070312 978.721557617188 975.227600097656 973.415832519531 984.615417480469 987.432067871094 989.345153808594 988.79443359375 994.890991210938 987.648742675781 987.586181640625 993.316650390625 1004.24084472656 999.614196777344 998.705749511719 1002.47094726562 1000.31103515625 993.924255371094 993.679382324219 995.413696289062 1003.40997314453 1010.27685546875 1022.24743652344 1022.20513916016 1031.10852050781 1032.73156738281 1033.69836425781 1028.2470703125 1034.78210449219 1037.740234375 1045.46936035156 1042.40454101562 1046.86108398438 1043.81286621094 1048.7958984375 1042.99194335938 1040.59777832031 1035.638671875 1039.73107910156 1032.78234863281 1031.01684570312 1029.15405273438 1030.98974609375 1021.20379638672 1023.49169921875 1023.27935791016 1019.81640625 1021.12829589844 1025.67395019531 1031.51037597656 1032.69030761719 1032.84118652344 1019.49835205078 1017.97686767578 1017.0009765625 1017.46417236328 1010.36706542969 1005.37835693359 1007.22784423828 1007.67578125 1004.22375488281 1003.28924560547
954.890258789062 954.352661132812 958.211120605469 948.912109375 941.20751953125 933.675415039062 933.112426757812 937.17626953125 935.920532226562 935.335876464844 949.383178710938 945.304504394531 953.787292480469 953.793762207031 956.019226074219 960.067504882812 965.348876953125 959.105590820312 963.796264648438 967.851440429688 964.414611816406 974.32958984375 971.742492675781 963.099792480469 956.588195800781 959.052673339844 953.224548339844 959.20703125 968.409973144531 959.514526367188 949.297546386719 938.821228027344 944.827270507812 946.039428710938 952.299499511719 964.555053710938 970.856628417969 966.310607910156 968.857971191406 968.195861816406 973.808471679688 972.360717773438 973.827209472656 982.046569824219 976.301452636719 980.28125 989.846374511719 989.007690429688 983.885131835938 981.348083496094 987.535339355469 997.550109863281 993.57080078125 992.22119140625 988.100341796875 980.858459472656 981.45068359375 977.023376464844 980.079284667969 975.136291503906 968.1572265625 962.170959472656 962.493408203125 962.185241699219 960.15283203125 970.022766113281 979.363830566406 980.131958007812 984.831848144531 986.815124511719 978.4912109375 972.235961914062 978.85400390625 987.171264648438 981.505493164062 983.119995117188 985.861755371094 979.677551269531 981.306579589844 981.002197265625 977.285766601562 981.36962890625 987.065673828125 984.848876953125 980.376403808594 991.148559570312 988.731323242188 983.949035644531 986.16357421875 973.745361328125 977.421691894531 975.866027832031 981.6748046875 989.240478515625 991.483764648438 990.6416015625 993.606262207031 994.074523925781 991.751892089844 989.234497070312 999.20654296875 998.11962890625 993.920166015625 1009.93591308594 1004.96264648438 1001.47998046875 1000.44683837891 996.706848144531 1013.60400390625 1018.31689453125 1020.29376220703 1021.10772705078 1033.00354003906 1033.66052246094 1032.576171875 1031.74206542969 1031.6728515625 1042.83154296875 1047.72717285156 1046.54711914062 1047.15026855469 1045.95239257812 1044.35717773438 1044.14721679688 1040.88928222656 1040.64794921875 1030.57470703125 1030.63720703125 1023.42547607422 1026.67102050781 1028.0712890625 1022.83410644531 1018.18182373047 1017.40991210938 1017.11798095703 1014.22204589844 1026.66809082031 1026.71520996094 1027.86755371094 1030.0478515625 1018.63110351562 1023.21148681641 1013.73901367188 1009.138671875 1009.22534179688 1005.30981445312 999.54052734375 999.8125 996.476501464844 995.838806152344
955.293334960938 958.509643554688 954.98095703125 950.171569824219 940.982727050781 933.237060546875 936.168151855469 938.682739257812 933.692687988281 933.606567382812 937.921813964844 950.420043945312 956.776184082031 966.873596191406 962.877258300781 970.813659667969 971.915283203125 982.692016601562 967.428039550781 978.682922363281 979.928771972656 990.787353515625 982.458251953125 975.32568359375 960.296142578125 954.470581054688 954.699951171875 965.019775390625 964.210693359375 951.052001953125 942.146118164062 938.295166015625 943.6787109375 944.426635742188 955.612243652344 969.105407714844 969.935913085938 969.640319824219 971.469909667969 964.390319824219 961.857666015625 975.091003417969 979.125244140625 988.104675292969 988.0673828125 989.443908691406 997.603454589844 991.923828125 988.965148925781 984.193908691406 981.846496582031 984.175903320312 989.447448730469 985.700012207031 981.958312988281 981.291809082031 975.989929199219 978.193725585938 975.404296875 977.246520996094 964.888305664062 975.555419921875 973.5546875 963.284729003906 969.00732421875 978.38720703125 972.182495117188 982.447448730469 980.701477050781 984.819458007812 979.449951171875 971.446166992188 974.691833496094 985.948059082031 989.985412597656 982.833923339844 989.276916503906 981.81884765625 983.278564453125 977.429931640625 976.841186523438 984.4462890625 990.876525878906 988.650390625 981.966491699219 978.7958984375 976.482360839844 979.359130859375 972.144226074219 978.065551757812 975.359008789062 971.796997070312 970.448425292969 984.512329101562 987.946960449219 1001.22692871094 993.255920410156 986.407104492188 987.569458007812 998.292053222656 1005.12060546875 1003.35870361328 996.241333007812 1015.32037353516 1014.73101806641 1002.61688232422 1010.65155029297 1013.45941162109 1014.05303955078 1015.48931884766 1023.45770263672 1028.12902832031 1029.365234375 1031.98522949219 1030.87036132812 1026.69604492188 1033.09130859375 1039.16162109375 1050.00158691406 1046.73010253906 1041.81713867188 1036.86071777344 1045.01428222656 1040.81774902344 1030.7119140625 1039.84631347656 1023.41326904297 1018.46868896484 1023.32299804688 1019.61950683594 1021.53857421875 1021.41967773438 1019.97808837891 1019.29754638672 1016.07495117188 1018.21484375 1026.28735351562 1028.24926757812 1030.10327148438 1030.8984375 1027.65014648438 1020.47613525391 1009.77752685547 1005.17315673828 1000.59997558594 999.798278808594 992.377624511719 994.27734375 984.42578125 986.556335449219
952.478881835938 948.201904296875 938.806945800781 943.340148925781 925.2333984375 930.359741210938 940.978088378906 938.293762207031 940.109924316406 930.557739257812 938.660095214844 958.170715332031 959.207214355469 962.114868164062 969.890808105469 975.738342285156 976.502624511719 982.484680175781 980.176818847656 985.547058105469 990.346496582031 993.348205566406 994.540100097656 977.161071777344 971.799743652344 965.9423828125 959.842468261719 966.408630371094 954.986877441406 946.68505859375 943.393127441406 936.438903808594 935.714294433594 941.173278808594 956.643981933594 964.536010742188 964.334228515625 969.675170898438 974.939575195312 975.451171875 984.135620117188 977.262756347656 978.227783203125 987.814331054688 990.784912109375 996.638793945312 1001.00537109375 997.341735839844 990.721130371094 989.080200195312 986.246154785156 985.558715820312 987.136535644531 987.216247558594 978.954711914062 983.227416992188 985.010192871094 986.179138183594 982.486328125 978.830261230469 968.015625 972.767395019531 977.213745117188 971.345703125 969.861511230469 971.385803222656 982.1884765625 983.325805664062 984.588317871094 980.571838378906 977.717956542969 977.483703613281 980.983093261719 990.83349609375 987.749084472656 986.225402832031 981.314331054688 983.384948730469 983.115173339844 982.000244140625 978.465148925781 987.567138671875 990.860412597656 984.058349609375 978.487976074219 974.228210449219 972.43115234375 976.050476074219 975.845947265625 974.866455078125 967.023498535156 969.960815429688 974.338256835938 984.424560546875 994.919982910156 998.899291992188 998.382202148438 991.234436035156 997.179748535156 996.274353027344 1006.90777587891 1010.28619384766 1012.08343505859 1015.85125732422 1013.62646484375 1010.05596923828 1014.84893798828 1022.06689453125 1013.47149658203 1021.07653808594 1027.65185546875 1033.49926757812 1033.2060546875 1040.68054199219 1038.25439453125 1031.01818847656 1034.26599121094 1039.48291015625 1049.15808105469 1045.46228027344 1039.44177246094 1039.12341308594 1040.21276855469 1031.12341308594 1029.06945800781 1026.38610839844 1022.67962646484 1022.49896240234 1023.22473144531 1023.73840332031 1021.86877441406 1016.12677001953 1013.74017333984 1013.49066162109 1023.22503662109 1018.97650146484 1023.83166503906 1025.67712402344 1033.47033691406 1030.24548339844 1029.67370605469 1006.97412109375 999.792175292969 1002.92333984375 996.937194824219 1001.67614746094 989.13818359375 994.098815917969 992.445007324219 993.432006835938
954.185119628906 946.925903320312 946.209289550781 937.766784667969 929.255126953125 930.889953613281 937.349182128906 933.385131835938 931.354248046875 933.561218261719 940.360107421875 953.706665039062 957.900817871094 963.471374511719 970.263244628906 981.5654296875 985.539855957031 984.290710449219 981.294616699219 985.461791992188 992.435424804688 994.809997558594 996.229187011719 984.494384765625 985.896606445312 975.572265625 967.065734863281 973.267883300781 959.814636230469 949.643310546875 949.226257324219 939.173217773438 941.8505859375 948.064453125 953.638793945312 967.667724609375 966.268005371094 976.723022460938 980.455444335938 986.163818359375 990.336547851562 993.66650390625 990.6435546875 992.657836914062 990.769592285156 996.011535644531 1001.17401123047 1003.50653076172 993.711791992188 994.247985839844 990.3662109375 983.744934082031 979.379211425781 981.956726074219 980.589233398438 975.720031738281 986.710021972656 988.710510253906 984.8740234375 973.660827636719 968.363891601562 972.357666015625 969.159301757812 970.615539550781 974.706909179688 972.465270996094 985.873596191406 990.914001464844 978.8251953125 979.740539550781 984.318054199219 984.576049804688 986.156127929688 990.962951660156 994.586547851562 990.457275390625 984.407653808594 981.27197265625 991.216369628906 983.6845703125 984.61083984375 985.566772460938 986.132019042969 988.498474121094 984.688354492188 981.193603515625 972.299438476562 980.525390625 981.795166015625 980.365600585938 978.448913574219 979.258728027344 984.1240234375 989.077819824219 995.300170898438 1003.88983154297 1010.84954833984 1004.14410400391 999.488952636719 1004.55072021484 1008.75402832031 1006.33966064453 1009.41943359375 1011.85437011719 1010.29797363281 1009.01080322266 1020.79943847656 1011.12640380859 1016.40301513672 1025.85412597656 1027.62963867188 1026.50366210938 1028.75146484375 1033.80932617188 1024.86853027344 1025.17626953125 1019.19866943359 1027.97509765625 1033.83923339844 1038.71496582031 1045.97729492188 1043.30639648438 1030.94860839844 1030.20153808594 1034.01635742188 1027.79907226562 1023.59429931641 1023.1259765625 1026.84680175781 1021.16094970703 1019.52337646484 1014.9638671875 1018.51019287109 1016.06207275391 1010.36499023438 1019.36346435547 1018.44409179688 1021.68371582031 1020.60443115234 1022.37750244141 1014.18841552734 1003.17248535156 998.200561523438 996.018188476562 992.119079589844 984.841552734375 985.107299804688 996.681396484375 990.77685546875 999.052307128906
949.951599121094 950.746276855469 939.859741210938 932.544860839844 923.63330078125 936.103576660156 934.625366210938 933.705810546875 936.274169921875 942.710571289062 955.107116699219 960.500671386719 962.579711914062 968.717468261719 981.093872070312 981.239501953125 983.869689941406 985.727233886719 984.064086914062 985.734619140625 989.979675292969 999.585388183594 990.12255859375 993.665954589844 990.925415039062 982.912719726562 978.396423339844 973.244079589844 966.846740722656 954.1005859375 950.290405273438 949.2001953125 946.999572753906 950.634521484375 953.542053222656 962.42724609375 964.842163085938 981.096618652344 990.670959472656 992.665588378906 991.306823730469 1001.638671875 1002.11547851562 1003.05895996094 1006.12243652344 1012.95867919922 1004.77398681641 1002.90991210938 992.286437988281 990.811584472656 994.719970703125 995.891540527344 981.831359863281 976.657165527344 984.367919921875 981.972045898438 984.173156738281 978.248718261719 984.069030761719 974.768493652344 966.608520507812 964.730895996094 970.492919921875 975.227111816406 972.004821777344 976.683776855469 978.788391113281 978.328125 983.052490234375 981.095092773438 988.703308105469 995.317810058594 988.460083007812 985.810668945312 977.240478515625 987.106567382812 977.937744140625 980.3310546875 989.145874023438 995.4853515625 991.348693847656 989.895751953125 992.306945800781 990.311096191406 983.928588867188 986.626831054688 982.475036621094 985.262390136719 984.794921875 983.601867675781 990.169982910156 980.211669921875 982.153930664062 992.825439453125 994.714294433594 1006.97399902344 1003.46893310547 1016.44897460938 1010.56463623047 1006.54010009766 1012.96496582031 1007.59637451172 1013.107421875 1011.17822265625 1013.3984375 1013.11682128906 1023.52746582031 1017.88836669922 1021.42517089844 1028.81884765625 1029.42163085938 1026.41369628906 1031.72119140625 1030.56848144531 1029.47778320312 1017.88836669922 1022.84753417969 1018.69616699219 1026.22033691406 1028.50817871094 1037.41247558594 1031.22265625 1033.57629394531 1029.67053222656 1035.05700683594 1026.87255859375 1021.88494873047 1017.96435546875 1018.9208984375 1016.70275878906 1017.85943603516 1019.67297363281 1010.97387695312 1013.63391113281 1024.06713867188 1023.08544921875 1018.99353027344 1019.37066650391 1011.31976318359 1013.25189208984 1005.96801757812 990.663696289062 993.795776367188 988.643249511719 995.323303222656 986.509887695312 994.339660644531 990.737915039062 1008.453125 997.789123535156
944.427917480469 937.048889160156 937.268310546875 930.826232910156 933.259094238281 938.396301269531 935.143676757812 940.415954589844 946.56689453125 945.130249023438 958.81787109375 966.0341796875 976.727722167969 976.073486328125 979.744812011719 989.768249511719 981.004150390625 985.284790039062 980.671752929688 976.2646484375 983.589050292969 992.938781738281 995.305969238281 986.037902832031 992.749450683594 986.801818847656 984.940246582031 976.549743652344 974.417175292969 977.323303222656 965.292175292969 958.667053222656 950.489135742188 954.547607421875 962.423400878906 975.625854492188 971.723266601562 986.032531738281 986.211303710938 992.248901367188 1001.49182128906 1007.86773681641 1014.04345703125 1010.90423583984 1011.76593017578 1012.42370605469 997.74853515625 998.485473632812 1001.16290283203 1000.33569335938 999.157165527344 999.712646484375 994.80712890625 986.599487304688 988.947326660156 982.783935546875 992.541259765625 991.809875488281 981.950744628906 973.1875 970.614807128906 968.855102539062 973.446350097656 973.853881835938 968.126770019531 975.056579589844 979.273681640625 979.088317871094 981.200439453125 988.045715332031 989.225952148438 996.766357421875 994.481750488281 987.441040039062 982.645202636719 979.191345214844 975.580078125 986.691772460938 992.489624023438 1002.06005859375 1000.45849609375 1002.35668945312 996.511352539062 1003.05584716797 994.520629882812 992.352905273438 980.28466796875 986.16455078125 983.613708496094 990.646423339844 989.081176757812 980.213256835938 987.872192382812 990.184326171875 993.732360839844 992.898132324219 997.600280761719 1010.52789306641 1009.87030029297 1000.83447265625 996.210083007812 1003.06658935547 1011.45849609375 1015.44708251953 1006.20428466797 1017.61145019531 1024.03686523438 1027.74780273438 1019.90783691406 1029.56494140625 1032.45971679688 1027.03210449219 1037.91577148438 1034.57983398438 1035.216796875 1020.99914550781 1025.27331542969 1016.93682861328 1013.08282470703 1017.26654052734 1033.29528808594 1029.18395996094 1025.767578125 1020.54382324219 1024.4765625 1020.50506591797 1010.21496582031 1003.625 1012.05181884766 1008.59301757812 1006.36810302734 1009.65338134766 1012.08081054688 1022.46276855469 1023.50073242188 1014.0244140625 1013.17456054688 1010.58703613281 1012.92767333984 1011.38311767578 994.835876464844 994.9873046875 981.371276855469 994.414794921875 997.373168945312 987.9208984375 987.734191894531 996.860778808594 1004.79162597656 1004.59533691406
934.200256347656 927.120483398438 938.237548828125 929.355163574219 933.658996582031 936.734619140625 937.802734375 943.072326660156 950.743041992188 954.321044921875 961.065734863281 964.116821289062 966.848083496094 973.46240234375 980.602172851562 984.785949707031 984.01025390625 979.692993164062 972.778625488281 974.764709472656 982.992248535156 986.190673828125 991.879272460938 986.168395996094 991.823425292969 990.738830566406 988.020263671875 980.446472167969 973.58056640625 979.499084472656 974.368286132812 970.240478515625 958.966491699219 959.800354003906 972.022583007812 973.124145507812 981.744506835938 992.269165039062 993.094116210938 993.105895996094 1004.68939208984 1016.90521240234 1015.91534423828 1010.79840087891 1011.81982421875 1016.36682128906 1007.96520996094 1008.12823486328 1003.61865234375 1009.17755126953 1012.64080810547 1004.62481689453 990.500427246094 989.543029785156 994.905151367188 991.814025878906 989.664794921875 986.622131347656 985.9765625 969.894897460938 969.161071777344 974.290405273438 973.373291015625 969.086853027344 970.426879882812 970.608703613281 972.441101074219 976.505249023438 981.51416015625 992.014587402344 991.22314453125 1001.75695800781 995.509460449219 987.381164550781 986.091186523438 980.478576660156 983.643493652344 986.720336914062 999.653076171875 1002.95556640625 1007.63543701172 1006.56799316406 1002.79479980469 999.536254882812 997.016784667969 984.974914550781 989.237365722656 990.631896972656 993.420349121094 997.475952148438 991.802062988281 988.752990722656 993.64697265625 995.847229003906 997.319274902344 990.689758300781 995.934509277344 1001.66528320312 998.869689941406 997.749328613281 994.77197265625 994.539916992188 1006.97796630859 1006.09118652344 1012.84674072266 1016.68444824219 1023.78967285156 1029.24401855469 1030.50122070312 1027.4501953125 1027.10974121094 1033.65551757812 1033.91516113281 1024.49890136719 1026.65356445312 1024.10729980469 1019.59033203125 1010.17211914062 1006.72326660156 1012.55847167969 1017.21112060547 1031.4560546875 1025.68078613281 1012.50726318359 1010.73175048828 1020.73638916016 1019.896484375 1010.94390869141 1008.34832763672 1000.57971191406 990.740905761719 993.269775390625 1007.376953125 1013.38360595703 1026.74755859375 1011.21881103516 1010.28277587891 1007.33721923828 1005.59100341797 999.864990234375 992.350036621094 988.522338867188 981.660827636719 991.744262695312 1000.60345458984 992.362060546875 982.974365234375 991.19970703125 994.654235839844 997.519287109375
939.931396484375 937.579956054688 933.446472167969 930.731628417969 930.087646484375 936.514831542969 938.298461914062 943.532409667969 947.163635253906 961.635864257812 963.696716308594 951.43896484375 964.545043945312 974.1337890625 970.864562988281 972.735595703125 977.953430175781 973.1552734375 970.16650390625 980.298767089844 981.05029296875 984.331420898438 987.075805664062 987.112487792969 993.371704101562 998.970275878906 987.230163574219 985.852294921875 978.853515625 977.480224609375 976.91015625 972.720825195312 967.671936035156 971.125 965.648071289062 984.059448242188 984.407287597656 986.818969726562 998.430053710938 999.556945800781 1008.83843994141 1004.75366210938 1013.07995605469 1010.60284423828 1007.19219970703 1014.64294433594 1003.32000732422 1015.72143554688 1014.25177001953 1018.20288085938 1015.70159912109 999.730102539062 989.059448242188 995.492370605469 990.873107910156 985.518249511719 987.511108398438 977.850646972656 975.547058105469 974.800659179688 974.648559570312 978.21435546875 975.879333496094 972.471984863281 977.063903808594 969.2021484375 972.938232421875 978.043579101562 984.176818847656 988.720703125 991.494567871094 991.467651367188 988.568725585938 984.745971679688 987.462829589844 989.511840820312 991.4130859375 994.059143066406 999.735717773438 1008.13690185547 1012.7626953125 995.447448730469 997.891235351562 1009.51629638672 1003.49737548828 993.011901855469 993.448974609375 992.649963378906 995.889831542969 990.573852539062 997.369812011719 993.549499511719 992.767211914062 982.429748535156 988.406372070312 993.439086914062 999.017761230469 1002.29095458984 1000.57879638672 1002.04754638672 998.953430175781 1000.61669921875 1010.45751953125 1015.04614257812 1008.44195556641 1014.15740966797 1011.31866455078 1023.57684326172 1029.23657226562 1018.23309326172 1025.46520996094 1029.56201171875 1021.40948486328 1025.24719238281 1024.66369628906 1020.53967285156 1018.02886962891 1012.69110107422 1011.09014892578 1013.45587158203 1027.92541503906 1022.09252929688 1023.7919921875 1015.90509033203 1017.26721191406 1019.33990478516 1025.35668945312 1009.18414306641 1006.65667724609 999.778991699219 994.911315917969 1004.54248046875 1009.68603515625 1020.00799560547 1021.11437988281 1010.15771484375 1006.38897705078 1011.11199951172 999.972717285156 1000.17462158203 989.050537109375 976.798095703125 976.020141601562 981.5927734375 982.039978027344 985.253601074219 987.845764160156 980.759155273438 987.4326171875 995.291137695312
937.993713378906 943.014282226562 941.054321289062 935.601196289062 936.25146484375 939.852478027344 937.363464355469 940.297424316406 952.910583496094 957.365905761719 957.411254882812 955.208129882812 963.449279785156 976.279907226562 977.152526855469 973.897399902344 974.565307617188 975.375061035156 972.963806152344 978.493530273438 975.13037109375 977.112243652344 974.931701660156 988.903686523438 988.681457519531 989.699829101562 993.956665039062 989.119934082031 985.076965332031 989.778198242188 985.431579589844 977.849609375 978.437744140625 986.973815917969 982.367492675781 985.157897949219 985.413513183594 989.174438476562 987.541625976562 998.268859863281 1008.25659179688 1006.85620117188 1013.76184082031 1011.18902587891 1018.19512939453 1013.29693603516 1008.04919433594 1014.52569580078 1011.20428466797 1016.36004638672 1005.76080322266 994.488220214844 994.833984375 997.641845703125 991.5009765625 991.615783691406 981.259704589844 987.367492675781 985.842834472656 984.640502929688 983.350280761719 975.405639648438 977.216796875 983.084045410156 981.956970214844 971.019653320312 972.915893554688 979.408569335938 985.584289550781 987.403869628906 989.037719726562 988.709533691406 991.830993652344 977.241333007812 991.289916992188 995.512023925781 988.740844726562 990.947387695312 997.597106933594 1006.4326171875 1010.80688476562 1005.84619140625 1006.87261962891 1003.69421386719 998.236328125 1004.90209960938 995.750793457031 1001.21954345703 997.743530273438 993.182006835938 995.495056152344 991.595886230469 989.7880859375 991.808471679688 996.369567871094 1000.12152099609 1010.69244384766 1005.25732421875 1011.05432128906 1007.21258544922 1011.50390625 1001.72985839844 1011.75469970703 1012.84930419922 1012.91864013672 1008.07025146484 1016.87103271484 1024.16662597656 1024.6611328125 1024.63269042969 1032.27319335938 1034.16235351562 1029.369140625 1032.00415039062 1036.98303222656 1031.130859375 1028.18103027344 1016.28607177734 1016.25415039062 1014.12335205078 1015.88470458984 1012.49041748047 1020.92260742188 1013.46044921875 1015.99188232422 1014.59649658203 1012.14758300781 1004.91302490234 1005.55572509766 1005.70269775391 998.5234375 997.314025878906 1011.3447265625 1018.73004150391 1018.97344970703 1014.08331298828 1011.99884033203 1010.03515625 1007.26062011719 992.797241210938 988.594543457031 984.178405761719 978.357604980469 975.554138183594 976.245727539062 984.95947265625 983.625183105469 977.349304199219 987.595336914062 999.006286621094
932.32666015625 931.177001953125 941.494750976562 943.355346679688 932.011047363281 936.354736328125 936.594604492188 947.877319335938 947.550903320312 957.791137695312 957.918212890625 968.609924316406 976.240356445312 975.983520507812 974.233703613281 971.988708496094 966.063720703125 976.253479003906 970.448547363281 975.49462890625 966.337585449219 974.092346191406 975.981506347656 975.805969238281 987.139526367188 986.606140136719 996.192687988281 986.233947753906 982.332275390625 989.600891113281 989.994445800781 980.504150390625 971.332458496094 983.125854492188 989.636779785156 985.231506347656 986.383605957031 982.15380859375 984.513610839844 995.710998535156 1002.70111083984 1004.91192626953 1010.12811279297 1014.83978271484 1011.93542480469 1011.65252685547 1012.64587402344 1015.81408691406 1007.48443603516 1008.23223876953 1007.66351318359 1000.63043212891 997.405029296875 991.385314941406 990.497375488281 987.138366699219 987.19775390625 984.016052246094 986.951293945312 974.172790527344 975.26416015625 976.935119628906 974.083251953125 977.050048828125 980.193603515625 978.016723632812 975.131225585938 976.644226074219 983.638732910156 979.649475097656 984.518737792969 992.492553710938 988.475402832031 987.18212890625 990.230895996094 991.760498046875 998.784545898438 992.82568359375 997.583984375 1000.76885986328 1013.17535400391 1010.28594970703 1008.81793212891 998.9990234375 996.546325683594 1008.00085449219 1004.05151367188 1002.57836914062 997.160461425781 995.221252441406 995.301208496094 989.951354980469 995.028259277344 990.536193847656 996.66845703125 1001.02020263672 995.483154296875 996.136047363281 1001.34130859375 1002.87084960938 1011.80059814453 1012.50134277344 1004.86071777344 1010.86822509766 1005.68579101562 1010.60888671875 1019.93359375 1020.70983886719 1025.98205566406 1033.78601074219 1031.46215820312 1030.92712402344 1037.51818847656 1040.60595703125 1035.32958984375 1036.7890625 1037.15356445312 1026.86083984375 1024.8876953125 1025.25769042969 1014.19696044922 1009.62335205078 1018.97998046875 1014.80505371094 1015.91827392578 1018.92816162109 1008.62829589844 997.148559570312 1000.22369384766 1008.05029296875 1002.02178955078 1003.61254882812 1012.03845214844 1007.56457519531 1012.13104248047 1001.81072998047 1004.37420654297 998.695190429688 996.249694824219 995.888427734375 989.463500976562 981.4091796875 984.357116699219 980.494140625 977.912414550781 991.365844726562 990.358642578125 992.004089355469 983.687255859375 996.754943847656
933.549011230469 938.181823730469 947.337585449219 941.829711914062 942.960266113281 940.768920898438 940.005004882812 946.997985839844 947.106323242188 956.770629882812 959.675231933594 966.299499511719 974.371459960938 976.637268066406 970.708984375 968.357482910156 971.637512207031 972.467529296875 970.473205566406 969.450317382812 959.430053710938 968.140441894531 969.578857421875 987.243835449219 991.2177734375 982.728759765625 986.937194824219 989.096740722656 977.069580078125 987.142028808594 983.921325683594 980.764709472656 966.420837402344 978.664794921875 989.651000976562 987.099548339844 990.43115234375 989.327514648438 984.290832519531 989.835083007812 1000.37042236328 994.059509277344 999.925109863281 1007.09545898438 1009.94079589844 1016.31372070312 1007.01873779297 1000.64794921875 1003.17150878906 1009.65423583984 1005.04388427734 1011.71057128906 997.563049316406 987.152709960938 987.830871582031 985.707580566406 989.635498046875 988.410217285156 979.151245117188 981.055236816406 985.099792480469 971.964477539062 966.813537597656 975.585571289062 982.232666015625 987.389953613281 980.915344238281 978.125061035156 975.679077148438 987.340576171875 984.599182128906 986.765991210938 993.680908203125 989.695556640625 991.52099609375 993.312316894531 993.14599609375 992.114074707031 997.300354003906 1002.39770507812 1012.51342773438 1008.52563476562 1010.87164306641 998.226135253906 998.279602050781 1002.93420410156 1006.78302001953 997.169372558594 991.682739257812 991.845947265625 994.624084472656 994.178955078125 990.419799804688 999.264953613281 993.972473144531 998.195251464844 1000.78442382812 1003.75830078125 1002.06707763672 1006.53106689453 1004.66949462891 1009.74273681641 1010.39447021484 1014.41125488281 1011.20733642578 1009.00988769531 1026.77099609375 1026.279296875 1022.39825439453 1024.03332519531 1026.73156738281 1030.91198730469 1031.21081542969 1041.45727539062 1053.41748046875 1050.74853515625 1044.99841308594 1039.78100585938 1030.56298828125 1026.65893554688 1018.36962890625 1009.60235595703 1023.08825683594 1019.99835205078 1017.54315185547 1011.25341796875 1003.87915039062 1003.44110107422 1001.54443359375 994.152465820312 994.790710449219 995.278381347656 998.444030761719 999.325256347656 997.641784667969 1000.17388916016 997.831970214844 991.363891601562 1005.82940673828 1000.03143310547 990.564697265625 980.332336425781 980.586242675781 980.369567871094 980.523376464844 984.164611816406 990.363647460938 987.925537109375 993.877258300781 995.561889648438
937.818237304688 931.258239746094 947.13134765625 944.439636230469 942.840209960938 934.27978515625 938.451599121094 950.704345703125 956.980834960938 954.490539550781 964.852416992188 979.39697265625 974.929504394531 982.521484375 964.937255859375 965.060668945312 973.888427734375 975.869995117188 977.592346191406 973.823791503906 969.995361328125 967.521545410156 971.833923339844 986.436096191406 984.300231933594 985.6318359375 984.100830078125 985.17529296875 982.729309082031 981.127136230469 988.644409179688 982.200378417969 968.208435058594 977.857421875 989.787902832031 982.831604003906 984.719909667969 989.575439453125 994.954528808594 997.994689941406 990.280029296875 996.538635253906 994.292602539062 992.781311035156 1009.48999023438 1006.30749511719 1006.34710693359 1000.95111083984 998.188598632812 1009.05609130859 1010.98333740234 1004.57177734375 1001.42236328125 1002.57415771484 996.483642578125 991.195373535156 993.123657226562 983.711608886719 983.126647949219 987.767700195312 984.031372070312 976.099487304688 986.521118164062 982.277404785156 983.283081054688 988.6728515625 976.654113769531 971.036804199219 978.515441894531 976.453674316406 993.180358886719 989.282836914062 986.275512695312 989.612182617188 988.083740234375 989.9267578125 984.854125976562 985.021118164062 999.090942382812 1000.67535400391 1012.36022949219 1010.03826904297 1003.80242919922 1005.97326660156 1003.15093994141 994.297912597656 996.048095703125 990.47021484375 1000.19903564453 993.669006347656 995.783813476562 988.588562011719 988.493469238281 999.018615722656 991.889099121094 1002.73358154297 999.680847167969 1000.712890625 1002.4609375 1005.35302734375 1005.34936523438 1006.25543212891 1015.02368164062 1013.4111328125 1013.60668945312 1015.08471679688 1017.95855712891 1020.87548828125 1029.828125 1031.41455078125 1029.15600585938 1026.67138671875 1034.24560546875 1034.0712890625 1049.93334960938 1057.05065917969 1047.18579101562 1039.23022460938 1033.81665039062 1030.07629394531 1019.06518554688 1009.38885498047 1007.78039550781 1009.58996582031 1006.97906494141 999.561401367188 998.134826660156 995.551086425781 994.546325683594 997.432006835938 985.392639160156 978.414733886719 986.678039550781 986.317993164062 987.854309082031 993.439086914062 988.891479492188 997.815490722656 997.256408691406 996.279235839844 994.390319824219 975.501281738281 982.156372070312 977.73681640625 974.715759277344 973.562377929688 981.333312988281 986.44580078125 986.878967285156 995.815979003906
938.211730957031 939.948486328125 946.051025390625 948.830261230469 945.580993652344 941.048278808594 930.241088867188 948.203857421875 953.215881347656 959.373291015625 965.8876953125 974.313659667969 979.222473144531 972.395324707031 972.944519042969 977.242492675781 964.906127929688 973.406677246094 963.997314453125 961.419616699219 963.864135742188 968.507873535156 975.924682617188 981.381958007812 984.653442382812 978.117492675781 979.80029296875 979.790588378906 984.827880859375 984.830932617188 982.039672851562 972.920349121094 972.6533203125 976.309936523438 982.620666503906 988.648681640625 989.691772460938 991.111633300781 1004.32611083984 1000.09259033203 987.513305664062 987.316528320312 987.674377441406 994.087768554688 989.820190429688 995.402893066406 997.28466796875 995.522155761719 1000.77142333984 1005.79284667969 1012.78509521484 1000.11077880859 1001.60687255859 996.671081542969 1006.16680908203 999.168823242188 989.731872558594 983.723510742188 981.220336914062 979.398193359375 981.018127441406 979.577209472656 988.497619628906 984.345031738281 986.74658203125 982.580505371094 976.850769042969 976.458251953125 975.295166015625 982.891906738281 992.023864746094 985.639099121094 982.3486328125 976.682006835938 981.261047363281 989.218811035156 990.372985839844 995.00439453125 987.998229980469 998.088745117188 1005.23559570312 1001.76904296875 1002.01525878906 1006.42053222656 1003.09851074219 996.559020996094 997.222839355469 994.863220214844 1000.49243164062 994.085754394531 991.994445800781 984.695495605469 981.647155761719 991.867919921875 989.903015136719 998.41064453125 998.514526367188 1003.86096191406 1004.46563720703 1003.56671142578 1001.37493896484 1006.21435546875 1013.23834228516 1011.87408447266 1016.17504882812 1021.22430419922 1018.06042480469 1009.24926757812 1024.19653320312 1037.22143554688 1029.05236816406 1034.77014160156 1037.36279296875 1038.14001464844 1051.01916503906 1062.17651367188 1049.79858398438 1045.78955078125 1027.32043457031 1029.57873535156 1025.80444335938 1011.13873291016 1005.2099609375 1004.16638183594 1005.46508789062 997.909423828125 995.475341796875 988.719360351562 985.559204101562 988.648681640625 981.600219726562 972.323425292969 983.015747070312 981.065368652344 980.223083496094 988.207641601562 983.130676269531 982.601928710938 987.041015625 983.859191894531 981.131774902344 985.803894042969 981.800231933594 977.996398925781 983.226257324219 983.941772460938 979.317443847656 978.920166015625 983.858764648438 993.839660644531
939.034606933594 946.872497558594 949.30908203125 942.122253417969 942.300842285156 939.9189453125 942.278503417969 944.890625 945.437133789062 954.136535644531 972.201538085938 973.527038574219 978.962829589844 974.383666992188 965.019104003906 966.827392578125 968.601806640625 966.614929199219 960.394714355469 962.404968261719 961.442016601562 973.944152832031 978.463745117188 973.36962890625 972.895751953125 974.021240234375 983.170349121094 971.800842285156 975.786560058594 981.233093261719 979.668395996094 971.307739257812 967.46533203125 974.793518066406 982.529357910156 995.093994140625 986.492858886719 980.960144042969 997.353088378906 989.511047363281 977.473754882812 983.983581542969 986.62109375 988.109924316406 982.690002441406 985.628723144531 992.511108398438 995.836059570312 1000.52996826172 1011.00463867188 1013.49810791016 1003.90087890625 1006.52758789062 997.682556152344 1009.32867431641 1004.81579589844 998.595703125 988.9990234375 993.117004394531 980.603759765625 975.902099609375 981.074279785156 984.309997558594 984.152221679688 984.630920410156 979.488464355469 977.373229980469 982.573974609375 982.83935546875 982.830932617188 977.073608398438 977.865295410156 981.090209960938 987.509338378906 986.870361328125 988.491394042969 991.850952148438 999.304321289062 1003.29827880859 998.916015625 998.221008300781 1002.56182861328 1006.68383789062 1009.57293701172 1009.41131591797 999.353332519531 994.755615234375 989.948974609375 988.729370117188 993.627319335938 997.218200683594 979.527709960938 978.4130859375 991.532287597656 1001.00250244141 1003.06243896484 1001.72918701172 1001.40704345703 991.205383300781 989.4111328125 1001.78198242188 1014.39038085938 1012.45452880859 1006.30767822266 1016.92199707031 1023.15081787109 1020.04272460938 1022.04681396484 1034.11315917969 1032.076171875 1031.52209472656 1032.92028808594 1037.33203125 1038.23547363281 1044.99047851562 1045.7431640625 1052.2109375 1039.11572265625 1035.7021484375 1028.37329101562 1019.79730224609 1015.11096191406 1014.58447265625 1008.42864990234 1002.37017822266 991.249450683594 980.681091308594 985.748474121094 986.594665527344 986.024291992188 978.087158203125 973.045471191406 961.852905273438 972.205078125 986.468627929688 977.033813476562 980.640686035156 976.604736328125 980.873291015625 985.212219238281 979.789733886719 985.982666015625 984.099243164062 972.2548828125 970.678100585938 977.256469726562 981.208557128906 975.728820800781 983.177490234375 984.528564453125
940.105529785156 950.585510253906 953.052551269531 939.659729003906 946.081298828125 935.420227050781 934.632446289062 939.562622070312 944.158935546875 953.912902832031 965.42919921875 967.817749023438 972.122253417969 969.58935546875 964.812072753906 953.79296875 961.072021484375 959.440063476562 950.495666503906 955.019348144531 955.256652832031 962.093139648438 972.372985839844 967.384460449219 970.666748046875 972.124389648438 968.640747070312 960.26123046875 959.461608886719 977.032409667969 978.649597167969 973.2861328125 971.133178710938 970.550170898438 983.025512695312 988.882263183594 982.795104980469 983.500671386719 985.136962890625 987.348999023438 979.387268066406 982.167175292969 989.581359863281 990.90576171875 974.539916992188 988.429016113281 983.780700683594 994.06591796875 1000.77020263672 1007.69244384766 1007.04998779297 1003.40106201172 1009.08837890625 1009.95770263672 1011.85168457031 1002.50695800781 998.995422363281 995.440124511719 990.766235351562 987.586791992188 986.41552734375 985.722473144531 990.021118164062 980.246887207031 989.621154785156 990.520751953125 980.609008789062 981.227966308594 980.058227539062 986.758605957031 974.6748046875 976.749267578125 985.323852539062 989.398010253906 986.31494140625 985.670166015625 990.194946289062 993.38232421875 998.505554199219 995.810485839844 996.326782226562 999.113586425781 1003.82489013672 1003.25659179688 1000.71844482422 1002.05297851562 996.477905273438 990.838806152344 992.014038085938 995.409912109375 997.376525878906 993.665893554688 985.236511230469 994.54248046875 1001.80706787109 1007.44482421875 998.338195800781 1001.60571289062 995.700439453125 993.584533691406 1001.35961914062 1000.06298828125 1002.15612792969 1003.8671875 1004.00885009766 1014.94311523438 1028.81091308594 1036.05627441406 1038.29309082031 1041.11962890625 1044.59899902344 1047.21081542969 1048.53076171875 1051.32800292969 1048.98754882812 1051.27673339844 1056.0751953125 1060.02014160156 1048.60974121094 1036.40490722656 1026.89794921875 1016.65496826172 1012.11340332031 1002.89202880859 994.575988769531 989.670715332031 982.772216796875 978.17431640625 982.549926757812 974.299560546875 977.985778808594 969.795104980469 970.523315429688 974.496276855469 987.766479492188 979.327758789062 981.860717773438 976.897705078125 978.861694335938 978.81591796875 981.153198242188 986.486938476562 981.7080078125 975.357666015625 971.2724609375 972.549194335938 975.90576171875 977.120178222656 983.537170410156 975.099304199219
940.267211914062 937.723266601562 941.766296386719 940.756042480469 945.932800292969 941.676025390625 937.459045410156 939.5771484375 945.250915527344 949.120178222656 955.271484375 962.744262695312 971.211669921875 965.214965820312 971.611083984375 963.3369140625 957.937377929688 951.799011230469 945.453247070312 952.647766113281 948.793823242188 952.765625 952.913330078125 958.301818847656 966.449951171875 966.570495605469 958.48779296875 958.481750488281 961.291259765625 973.660583496094 969.005249023438 967.350219726562 969.242919921875 972.287841796875 974.24462890625 980.749084472656 976.690063476562 979.689758300781 990.739990234375 987.735595703125 982.652404785156 974.78515625 983.969787597656 987.685485839844 983.57763671875 980.930969238281 992.799987792969 997.662048339844 998.335876464844 1001.47113037109 1002.16156005859 1002.49145507812 996.979370117188 1005.66833496094 1004.86590576172 996.672302246094 1002.29431152344 991.693908691406 989.311096191406 990.066711425781 987.45458984375 982.026000976562 991.882385253906 987.408569335938 993.042907714844 991.553100585938 984.452026367188 985.573425292969 989.576782226562 989.138671875 987.025085449219 980.675415039062 980.908020019531 990.704772949219 980.415832519531 990.836303710938 989.765808105469 994.235229492188 992.98876953125 993.375854492188 1004.21185302734 1012.44201660156 1009.89044189453 1001.41229248047 1010.54504394531 1002.45428466797 1001.26721191406 998.913391113281 993.178100585938 1001.15179443359 1006.30480957031 1000.90368652344 997.376342773438 994.995727539062 1000.68780517578 1007.21740722656 1004.49725341797 1000.53216552734 1000.11474609375 996.826293945312 996.62451171875 1000.17468261719 1004.61767578125 1014.26153564453 1020.94342041016 1030.79956054688 1028.64599609375 1039.81823730469 1040.31213378906 1045.60327148438 1043.11950683594 1054.833984375 1059.96594238281 1063.67639160156 1060.08288574219 1058.81689453125 1069.15026855469 1064.99035644531 1050.77600097656 1041.66760253906 1026.54895019531 1015.28302001953 1006.18780517578 1006.29968261719 999.097229003906 992.34912109375 983.458801269531 979.612548828125 987.148803710938 978.649963378906 978.417053222656 979.315063476562 982.87109375 980.723815917969 995.237243652344 988.14990234375 983.510131835938 975.145935058594 975.953186035156 974.33544921875 980.069396972656 979.921203613281 972.651123046875 971.715087890625 973.796508789062 966.926818847656 970.906555175781 970.710266113281 984.370544433594 979.056091308594
942.53515625 938.9736328125 944.110534667969 937.998962402344 935.22900390625 935.091064453125 941.481262207031 943.414123535156 944.311401367188 950.769287109375 944.713745117188 964.967163085938 968.634704589844 964.964294433594 966.955871582031 955.897583007812 959.939514160156 956.470825195312 960.389587402344 947.211242675781 947.267578125 952.380065917969 949.776428222656 956.650207519531 957.919738769531 957.110717773438 959.314636230469 958.773315429688 968.200439453125 957.370483398438 971.137268066406 972.499145507812 976.0517578125 972.395446777344 976.166931152344 977.301330566406 973.405334472656 968.481689453125 983.667236328125 976.100341796875 972.41748046875 972.261169433594 978.879089355469 986.593688964844 986.330383300781 984.808715820312 992.152893066406 998.893676757812 1005.71533203125 1004.08715820312 1009.09729003906 999.058227539062 991.218872070312 1003.42852783203 1001.94860839844 994.80419921875 997.992065429688 1000.19775390625 991.297058105469 995.463073730469 989.311340332031 991.069702148438 985.229675292969 984.897827148438 990.451843261719 987.222900390625 993.328308105469 989.393798828125 990.249389648438 988.766540527344 992.5966796875 988.109497070312 990.30419921875 992.378112792969 989.696594238281 994.156066894531 988.001403808594 985.27099609375 987.524963378906 994.445129394531 1001.83355712891 1001.55932617188 994.440368652344 1000.06903076172 1006.25189208984 1004.47161865234 1008.45922851562 1005.490234375 1004.30108642578 1005.77838134766 1010.45098876953 1015.56341552734 995.725402832031 994.491271972656 1006.11614990234 1011.82391357422 1010.73260498047 1005.62030029297 1008.26135253906 1001.0419921875 1006.85760498047 1003.22991943359 1009.6513671875 1015.91418457031 1023.42779541016 1022.08740234375 1033.10437011719 1044.0517578125 1048.06701660156 1047.04174804688 1043.38745117188 1058.48754882812 1065.94543457031 1072.12023925781 1064.90588378906 1058.27941894531 1070.61291503906 1066.52966308594 1055.05114746094 1046.93725585938 1033.93029785156 1020.75592041016 1013.63513183594 1005.49438476562 1001.63989257812 989.848876953125 989.739196777344 986.044311523438 991.374206542969 990.779602050781 984.748474121094 979.367492675781 980.990234375 996.090698242188 996.612243652344 990.8291015625 991.608947753906 978.444641113281 976.653930664062 976.504333496094 976.161560058594 973.946899414062 975.671508789062 977.982543945312 970.995483398438 968.183837890625 975.0849609375 975.231079101562 972.082092285156 976.578186035156
943.876403808594 954.527648925781 941.867309570312 942.037231445312 938.752563476562 939.440002441406 944.901733398438 946.598693847656 943.254089355469 944.365356445312 941.73681640625 946.216613769531 960.487182617188 959.731689453125 955.230529785156 955.294860839844 952.881225585938 956.208068847656 954.90966796875 950.162353515625 952.685607910156 957.03662109375 951.305419921875 956.496398925781 954.522033691406 953.662109375 955.903015136719 960.460998535156 957.76611328125 951.634887695312 964.325988769531 971.294494628906 975.502624511719 973.811706542969 968.607604980469 977.826354980469 976.153930664062 964.873474121094 966.883178710938 975.267150878906 974.148620605469 976.213928222656 978.048034667969 976.952453613281 984.753295898438 995.775634765625 988.945556640625 1003.10791015625 1008.37408447266 1001.71862792969 1004.73687744141 992.840515136719 993.139587402344 997.024780273438 998.560668945312 999.388854980469 1000.36401367188 992.755432128906 998.018188476562 995.83203125 991.941223144531 992.779052734375 990.621215820312 993.1474609375 994.800537109375 991.601867675781 997.267822265625 1000.99005126953 993.235473632812 989.444152832031 992.536254882812 987.779479980469 991.7724609375 992.313842773438 994.754089355469 997.782043457031 991.03955078125 987.056945800781 995.803161621094 993.705505371094 990.182434082031 992.744873046875 987.251037597656 1000.72906494141 1008.67071533203 1007.07562255859 1017.48828125 1016.62756347656 1008.24200439453 1011.20550537109 1016.31494140625 1004.82464599609 1002.18365478516 1003.92376708984 1010.07580566406 1003.58087158203 1010.65002441406 1014.76458740234 1008.86175537109 1003.44665527344 1004.27172851562 1014.10150146484 1017.85919189453 1018.84069824219 1022.69104003906 1019.29675292969 1031.3583984375 1037.66625976562 1038.19616699219 1047.86645507812 1053.04663085938 1061.36474609375 1063.12048339844 1066.50830078125 1066.263671875 1065.13623046875 1069.39697265625 1062.65209960938 1060.0234375 1052.26904296875 1045.64733886719 1027.04650878906 1007.58605957031 1007.28942871094 1005.89086914062 996.986450195312 990.313598632812 993.224975585938 983.935607910156 982.103576660156 987.8759765625 981.299926757812 982.850524902344 991.593139648438 1000.15081787109 989.732360839844 980.876586914062 976.878173828125 974.199645996094 978.313171386719 969.58935546875 963.542846679688 969.318176269531 972.557556152344 969.70751953125 966.185974121094 973.971923828125 973.884033203125 974.225219726562 969.300415039062
949.037048339844 952.329711914062 949.047607421875 948.320373535156 939.2724609375 935.547241210938 936.087829589844 939.484375 940.474487304688 940.553344726562 946.457946777344 945.997009277344 955.957092285156 955.378356933594 952.556518554688 953.723205566406 957.743041992188 956.087768554688 956.159423828125 964.218078613281 966.189331054688 957.523315429688 958.216186523438 949.428833007812 960.4189453125 966.189575195312 963.433654785156 960.438232421875 962.205993652344 961.469055175781 960.394104003906 962.981994628906 965.885559082031 968.138916015625 969.672729492188 977.410949707031 980.391052246094 975.558959960938 961.346923828125 965.559143066406 973.145202636719 973.961486816406 980.052612304688 980.044860839844 987.371765136719 988.157409667969 996.139770507812 992.629455566406 999.053283691406 996.409545898438 998.983520507812 995.463439941406 988.43701171875 999.562805175781 1002.10681152344 999.70654296875 1006.91284179688 1005.12969970703 1002.74554443359 1005.52825927734 990.920471191406 986.005126953125 991.058776855469 993.719482421875 988.812927246094 995.011291503906 991.856750488281 994.621276855469 987.818969726562 991.812438964844 991.875183105469 994.153686523438 992.486694335938 1001.66119384766 1000.67456054688 997.425720214844 994.991027832031 994.047058105469 1000.89099121094 994.337890625 999.390747070312 988.502075195312 993.777954101562 1004.57653808594 1006.65216064453 1012.55688476562 1018.84619140625 1024.23327636719 1020.28234863281 1017.75646972656 1023.83441162109 1015.4443359375 1008.98742675781 1004.10522460938 999.101623535156 1001.01000976562 1005.1015625 1007.64410400391 1016.34777832031 1007.57263183594 1005.91595458984 1014.98022460938 1026.05651855469 1030.03894042969 1020.59564208984 1021.60809326172 1039.78271484375 1040.41882324219 1036.47998046875 1041.95043945312 1051.33911132812 1056.51904296875 1060.88195800781 1064.82043457031 1058.72619628906 1062.28442382812 1072.23034667969 1066.59619140625 1059.53369140625 1053.49255371094 1042.87573242188 1035.46716308594 1025.39721679688 1015.57336425781 1011.29309082031 1002.55792236328 996.914733886719 991.747009277344 989.510314941406 987.609741210938 985.792236328125 983.998046875 984.207092285156 987.083251953125 990.490234375 981.642333984375 981.22412109375 971.671691894531 972.948547363281 968.559753417969 965.972106933594 956.463562011719 969.554565429688 975.64501953125 969.66015625 974.224426269531 969.535766601562 970.776428222656 971.348327636719 976.373168945312
954.754638671875 965.315490722656 960.949523925781 956.162658691406 948.259460449219 947.76416015625 946.553039550781 941.195068359375 938.923156738281 951.123413085938 943.718994140625 948.004211425781 961.83544921875 961.510681152344 968.704528808594 968.2685546875 961.146057128906 957.608459472656 955.813537597656 966.709350585938 962.410583496094 962.682250976562 953.922241210938 952.305603027344 956.214965820312 962.128967285156 968.814575195312 966.388366699219 960.333068847656 959.537292480469 963.208862304688 975.363403320312 969.396423339844 967.304626464844 966.309143066406 974.004821777344 981.499145507812 975.313537597656 965.448974609375 976.5810546875 973.576477050781 967.434936523438 976.291870117188 977.468200683594 980.086975097656 985.528869628906 989.230590820312 992.673950195312 994.788818359375 987.153503417969 1000.60266113281 984.092468261719 988.082153320312 999.798095703125 998.230102539062 999.388122558594 1007.99194335938 1007.94818115234 1009.97357177734 1005.79229736328 994.623901367188 987.953735351562 991.692565917969 994.737915039062 1000.67517089844 995.834167480469 995.021545410156 995.565124511719 993.339721679688 999.631225585938 994.681030273438 995.037902832031 996.485229492188 1000.04565429688 996.447143554688 996.875671386719 997.425964355469 995.142028808594 992.159118652344 990.269592285156 989.498657226562 989.020751953125 987.245300292969 989.736328125 995.811401367188 1004.77325439453 1012.93902587891 1019.06756591797 1013.96740722656 1018.88739013672 1021.97424316406 1019.14636230469 1008.16876220703 1005.91180419922 1001.77789306641 1005.24200439453 1003.74786376953 1015.68975830078 1020.4931640625 1009.9873046875 1009.21472167969 1020.92041015625 1034.22888183594 1025.6572265625 1021.23510742188 1026.77746582031 1035.47155761719 1046.25720214844 1045.43310546875 1043.16821289062 1041.45483398438 1056.32141113281 1061.26440429688 1053.41186523438 1057.68615722656 1060.75866699219 1063.18286132812 1062.11474609375 1061.93188476562 1056.71752929688 1044.39294433594 1033.7744140625 1025.67663574219 1025.35388183594 1013.67279052734 1005.67956542969 997.930236816406 995.6982421875 994.819030761719 995.759582519531 982.600708007812 978.230407714844 978.61669921875 984.408020019531 978.128112792969 968.39794921875 969.5546875 969.46630859375 972.176696777344 971.194274902344 966.009948730469 962.077941894531 966.632263183594 974.930114746094 972.614807128906 975.755676269531 974.429870605469 970.154907226562 975.333679199219 973.801940917969
959.639526367188 969.563598632812 966.769653320312 960.720458984375 949.125244140625 951.625732421875 945.871032714844 942.763671875 944.955627441406 944.624572753906 952.349243164062 957.467163085938 965.298034667969 962.076538085938 962.364929199219 971.759704589844 962.915161132812 961.786926269531 960.506652832031 965.250061035156 967.032287597656 963.151123046875 962.163330078125 961.775024414062 968.813415527344 963.48486328125 964.170837402344 973.355346679688 968.757690429688 970.775024414062 957.62060546875 965.092895507812 969.87890625 975.136779785156 972.059997558594 975.491271972656 979.071716308594 984.454040527344 973.719177246094 975.139221191406 978.63720703125 972.209777832031 969.749938964844 969.973571777344 971.81103515625 975.836853027344 981.406433105469 985.357238769531 986.861206054688 996.313537597656 1005.03704833984 988.892517089844 991.686157226562 994.666931152344 999.316528320312 1000.69207763672 1010.19641113281 1006.66119384766 1012.04058837891 1007.05627441406 1002.51293945312 1001.30102539062 996.806762695312 1004.48944091797 1008.61181640625 999.935119628906 996.353332519531 990.34619140625 999.308166503906 993.382446289062 992.154479980469 991.922485351562 1000.25250244141 992.341613769531 994.892272949219 995.202941894531 998.7861328125 988.272766113281 992.767395019531 986.871276855469 996.642700195312 995.885070800781 991.217407226562 991.359252929688 1002.12213134766 1010.36163330078 1011.78436279297 1005.13018798828 1004.58862304688 1012.40704345703 1014.96600341797 1012.75122070312 1015.74914550781 1014.74926757812 1006.62878417969 1019.07965087891 1007.94378662109 1015.02838134766 1023.23004150391 1019.34539794922 1017.39788818359 1012.94073486328 1012.38977050781 1014.01971435547 1019.44915771484 1034.078125 1040.33129882812 1044.7607421875 1037.75524902344 1035.30529785156 1046.52099609375 1055.06811523438 1044.38977050781 1057.6181640625 1049.66271972656 1064.1767578125 1051.09509277344 1058.22485351562 1067.69250488281 1054.85009765625 1049.04968261719 1043.72009277344 1025.75830078125 1028.09362792969 1022.02679443359 1004.47576904297 1001.60339355469 997.496520996094 994.798828125 989.396606445312 988.1357421875 970.427978515625 974.400268554688 977.297546386719 971.185302734375 964.304443359375 974.408325195312 966.936279296875 965.648498535156 967.890502929688 970.636047363281 967.195251464844 960.14453125 969.182067871094 976.716369628906 983.562072753906 975.802490234375 978.66162109375 970.532348632812 968.447937011719
964.765441894531 966.528686523438 966.311584472656 969.091064453125 956.135803222656 954.753967285156 943.753295898438 944.99365234375 942.060974121094 947.528137207031 958.001647949219 957.058715820312 965.427429199219 973.552185058594 962.719787597656 963.421142578125 967.39208984375 964.557312011719 962.757568359375 981.592834472656 967.428527832031 965.029296875 962.123840332031 961.872375488281 965.306762695312 966.108459472656 978.739929199219 971.091735839844 970.556579589844 972.259460449219 966.583251953125 958.861206054688 965.643249511719 976.112121582031 976.282104492188 974.898498535156 980.221862792969 988.813415527344 975.096984863281 972.689880371094 971.553588867188 969.279418945312 965.308837890625 964.456604003906 969.166870117188 978.838745117188 975.393249511719 982.963989257812 987.126342773438 989.831787109375 989.394348144531 994.668273925781 998.285766601562 996.513671875 1000.11309814453 997.597595214844 1004.53619384766 1017.82464599609 1010.16412353516 1008.12335205078 1004.92114257812 1013.21618652344 997.258361816406 1012.2451171875 1008.99652099609 1004.64538574219 997.307922363281 996.88916015625 987.377502441406 990.752868652344 993.97509765625 991.446594238281 997.237854003906 989.319763183594 991.07666015625 996.09716796875 1001.71856689453 1000.04614257812 988.116760253906 991.597290039062 992.245910644531 996.550720214844 998.030639648438 998.590576171875 996.365783691406 998.225402832031 1003.93878173828 1015.90771484375 1010.06451416016 1012.22528076172 1017.75170898438 1015.86291503906 1015.83410644531 1011.75469970703 1018.85931396484 1019.09814453125 1011.39099121094 1016.67321777344 1020.5029296875 1022.37957763672 1023.77416992188 1012.39221191406 1009.23620605469 1011.42053222656 1019.95648193359 1027.23034667969 1034.56774902344 1041.49609375 1034.88134765625 1032.6005859375 1029.82482910156 1037.33410644531 1049.52673339844 1045.01684570312 1049.26147460938 1051.32434082031 1052.189453125 1056.04309082031 1059.00024414062 1050.41320800781 1046.57250976562 1041.25744628906 1034.04162597656 1027.06774902344 1022.23492431641 1014.34887695312 1007.70953369141 999.55224609375 990.377746582031 990.745422363281 991.1875 970.757995605469 968.730895996094 974.590881347656 974.086547851562 972.901489257812 974.545288085938 964.884765625 965.964538574219 964.717346191406 963.200500488281 958.107543945312 949.066955566406 962.046447753906 970.052917480469 981.988647460938 976.515258789062 975.069641113281 972.969848632812 971.460998535156
964.089599609375 969.594543457031 970.238647460938 965.204772949219 956.476135253906 954.576843261719 941.015869140625 941.726867675781 941.59765625 946.094360351562 952.107299804688 956.778137207031 958.737060546875 964.856201171875 963.489135742188 977.358276367188 969.386779785156 972.401489257812 974.164306640625 970.281433105469 968.712646484375 969.232727050781 967.613952636719 966.661193847656 969.187133789062 975.90087890625 965.090148925781 968.682189941406 972.094055175781 972.013000488281 965.21484375 966.648376464844 966.566528320312 975.180541992188 976.089538574219 980.485168457031 982.062622070312 978.30517578125 980.585388183594 983.456604003906 978.003356933594 976.906677246094 971.387939453125 967.556457519531 967.093627929688 976.550903320312 973.404113769531 978.637634277344 983.263732910156 989.001159667969 988.622802734375 997.999267578125 1000.21856689453 996.088562011719 993.23876953125 994.759643554688 1000.49987792969 1010.07293701172 1017.43951416016 1011.68090820312 1024.22021484375 1026.61889648438 1017.15533447266 1011.26123046875 1013.35919189453 1007.08129882812 1003.72784423828 1001.26605224609 996.6240234375 994.988403320312 998.157104492188 996.294250488281 1000.90124511719 993.087341308594 1002.90509033203 1000.57849121094 1010.93518066406 995.918151855469 994.272277832031 994.905029296875 997.596374511719 1000.85931396484 999.884094238281 988.820678710938 992.271423339844 998.795043945312 1007.22723388672 1011.0517578125 1006.87951660156 1012.53356933594 1015.17852783203 1013.31811523438 1014.41064453125 1021.95263671875 1018.42297363281 1017.85260009766 1016.32049560547 1023.20715332031 1020.43951416016 1024.83837890625 1024.92333984375 1019.72503662109 1013.82629394531 1006.96148681641 1013.8857421875 1022.05047607422 1034.71606445312 1029.99890136719 1031.17810058594 1032.2119140625 1032.93493652344 1030.47045898438 1031.41320800781 1043.10998535156 1043.49670410156 1044.619140625 1048.27624511719 1057.087890625 1055.07299804688 1054.75671386719 1052.16918945312 1031.79272460938 1030.62048339844 1031.12634277344 1029.74548339844 1013.24652099609 1003.59924316406 996.664428710938 989.825134277344 989.377624511719 985.829345703125 979.4599609375 974.625183105469 972.747497558594 972.157104492188 964.731872558594 969.919799804688 968.443603515625 960.12744140625 958.017944335938 956.590209960938 955.336547851562 954.872375488281 962.91552734375 968.290771484375 972.408813476562 965.089111328125 958.347106933594 962.334106445312 969.701965332031
972.344787597656 973.001220703125 964.972290039062 963.261047363281 957.473999023438 956.00439453125 949.164184570312 936.966430664062 936.810424804688 942.864929199219 952.591735839844 967.362182617188 964.905883789062 961.40576171875 971.936157226562 976.414245605469 981.021606445312 981.275695800781 990.696899414062 968.858642578125 970.260864257812 975.944152832031 962.045532226562 962.911743164062 967.564636230469 980.260620117188 975.489196777344 969.282104492188 971.962707519531 971.921691894531 963.776062011719 966.629638671875 969.834899902344 961.622863769531 970.270446777344 971.455383300781 979.410400390625 978.427307128906 982.274719238281 981.414611816406 984.058471679688 977.451110839844 969.252258300781 965.988403320312 967.40673828125 970.769409179688 973.278686523438 982.611877441406 979.148559570312 977.365356445312 984.991760253906 995.36279296875 990.259399414062 993.033630371094 997.424133300781 1004.93127441406 1002.88006591797 1003.666015625 1011.19573974609 1015.41467285156 1018.55895996094 1016.09613037109 1020.62377929688 1014.97790527344 1013.95098876953 1005.73651123047 1000.93933105469 1010.88897705078 998.732604980469 994.4736328125 999.881042480469 997.385192871094 1008.31109619141 995.165344238281 998.634948730469 1004.29571533203 997.767639160156 992.846862792969 997.071655273438 992.375305175781 993.1533203125 991.516479492188 999.463928222656 992.716857910156 989.011779785156 1002.79565429688 1008.2734375 1005.56958007812 1010.5322265625 1014.89129638672 1005.4306640625 1016.77136230469 1020.67333984375 1019.49456787109 1015.89398193359 1028.34118652344 1020.55462646484 1022.3388671875 1021.36804199219 1030.47058105469 1027.35559082031 1025.41540527344 1017.85162353516 1013.73736572266 1017.32830810547 1031.60046386719 1032.01892089844 1032.24389648438 1034.08508300781 1036.54113769531 1035.20861816406 1035.57275390625 1038.07971191406 1038.16284179688 1040.54760742188 1045.38598632812 1054.13586425781 1048.8837890625 1056.62744140625 1049.21105957031 1048.08947753906 1038.85864257812 1032.05847167969 1024.03430175781 1026.33154296875 1026.216796875 1016.48565673828 1005.76623535156 994.840759277344 987.050598144531 979.033630371094 970.234130859375 970.206909179688 963.580383300781 964.560180664062 964.580444335938 972.713562011719 969.427795410156 962.732421875 960.071960449219 954.782653808594 958.33740234375 947.837036132812 950.5400390625 955.670532226562 961.460144042969 957.981567382812 952.79541015625 959.0478515625 958.806091308594
976.570007324219 976.413269042969 967.342102050781 964.45654296875 957.821350097656 957.962341308594 951.626647949219 943.457885742188 946.368774414062 952.713562011719 962.25927734375 977.048828125 968.9462890625 964.074951171875 964.616760253906 969.309997558594 974.016235351562 981.728088378906 980.049865722656 976.73583984375 969.953247070312 970.171691894531 963.971435546875 957.15576171875 974.450622558594 979.842956542969 987.111267089844 974.987365722656 975.558715820312 971.31396484375 966.236328125 963.391662597656 974.561340332031 970.4375 965.477416992188 975.922058105469 982.935424804688 983.497009277344 982.419616699219 977.003112792969 978.50634765625 983.563659667969 975.112915039062 973.484130859375 970.05029296875 972.177368164062 980.811096191406 984.241638183594 980.839965820312 990.853942871094 993.733276367188 990.953430175781 987.621704101562 994.752014160156 995.951721191406 1000.14727783203 1004.34796142578 997.555114746094 1005.99377441406 1013.71661376953 1009.68017578125 1011.75616455078 1016.91717529297 1016.98150634766 1014.18432617188 1012.54956054688 1020.04284667969 1014.94421386719 1001.94921875 1004.31762695312 1000.24487304688 1011.13409423828 1004.0361328125 1004.94329833984 1001.34020996094 1007.60797119141 1003.62152099609 993.548828125 995.314758300781 996.60302734375 996.7265625 1003.40264892578 999.068481445312 999.171936035156 997.239501953125 1004.13513183594 1004.77337646484 1001.8662109375 1004.82086181641 1010.02923583984 1009.96807861328 1019.01800537109 1024.08862304688 1024.22802734375 1019.81909179688 1025.56127929688 1027.85681152344 1026.8974609375 1031.1845703125 1031.95874023438 1034.87475585938 1031.79077148438 1027.10986328125 1024.18371582031 1027.19641113281 1029.63549804688 1031.9365234375 1033.40600585938 1026.06823730469 1027.21069335938 1038.80810546875 1040.61010742188 1039.30078125 1040.40966796875 1048.65368652344 1045.73400878906 1052.97045898438 1050.20471191406 1041.642578125 1045.87719726562 1042.17517089844 1025.6533203125 1029.85229492188 1022.91186523438 1024.07727050781 1022.26025390625 1022.70135498047 1005.08154296875 999.9697265625 988.199340820312 976.9404296875 960.379150390625 966.83154296875 968.778442382812 969.249755859375 967.233337402344 963.407897949219 960.588623046875 961.279418945312 954.856628417969 958.866394042969 955.939758300781 943.511657714844 946.56689453125 947.6845703125 955.13916015625 952.910705566406 953.249755859375 955.437866210938 966.683715820312
968.172973632812 971.680053710938 974.253662109375 961.967529296875 960.763122558594 956.9111328125 949.565124511719 943.933837890625 947.829528808594 953.921203613281 959.44482421875 974.533996582031 975.422424316406 960.567565917969 961.941650390625 963.577087402344 981.008422851562 977.849853515625 981.639892578125 986.371826171875 975.332885742188 963.070434570312 961.554077148438 962.961669921875 970.969543457031 970.569580078125 980.415954589844 971.430419921875 970.693359375 980.155029296875 975.421020507812 973.393981933594 969.120788574219 966.268127441406 968.552673339844 975.995849609375 975.9970703125 981.55322265625 979.203674316406 976.535888671875 980.397155761719 978.931274414062 974.871643066406 973.49169921875 969.312866210938 970.965087890625 971.063598632812 982.820556640625 983.595153808594 990.856323242188 989.008422851562 987.358093261719 984.717712402344 988.569458007812 995.020446777344 992.355346679688 1000.95690917969 1006.58056640625 1008.93389892578 1011.720703125 1013.16802978516 1012.40051269531 1011.19720458984 1018.04669189453 1015.74975585938 1010.63928222656 1012.38854980469 1012.61602783203 1009.22192382812 1008.36462402344 1010.96417236328 1009.79998779297 1009.43505859375 1013.39611816406 1013.71484375 1002.294921875 1005.86181640625 996.932922363281 996.809631347656 1003.07281494141 995.188598632812 1008.02160644531 1014.91302490234 999.840393066406 996.153991699219 1008.49896240234 998.673217773438 1001.51287841797 1001.68139648438 1013.21459960938 1013.31829833984 1017.95104980469 1023.64300537109 1023.88665771484 1034.18994140625 1037.07739257812 1038.41625976562 1032.75012207031 1030.7099609375 1042.61120605469 1035.1064453125 1041.08227539062 1033.7626953125 1026.44909667969 1029.58911132812 1030.55407714844 1031.30493164062 1031.26049804688 1031.23791503906 1035.82995605469 1034.63623046875 1043.20031738281 1041.19653320312 1042.38793945312 1048.53881835938 1045.70617675781 1040.85717773438 1040.26501464844 1047.91284179688 1039.68994140625 1026.95349121094 1025.26391601562 1026.11901855469 1023.24584960938 1022.40533447266 1024.96423339844 1021.65051269531 1008.67266845703 991.704833984375 980.983703613281 976.408630371094 970.513061523438 969.700317382812 970.425415039062 975.184875488281 974.449523925781 968.047119140625 959.407287597656 952.425476074219 950.741516113281 960.119384765625 960.011962890625 952.867980957031 952.031188964844 948.90771484375 958.968688964844 954.380004882812 954.322509765625 956.602172851562 966.199462890625
964.0537109375 966.621704101562 969.419250488281 961.926452636719 962.228149414062 950.645202636719 945.894165039062 953.185668945312 952.553344726562 957.211059570312 966.535095214844 965.785827636719 975.657409667969 968.039184570312 972.399475097656 977.971923828125 987.760620117188 981.722534179688 975.791015625 975.841613769531 970.351440429688 963.917297363281 959.232299804688 966.215209960938 974.756591796875 978.040466308594 974.909729003906 977.858032226562 976.9765625 972.084167480469 968.892028808594 972.725463867188 965.679565429688 959.411437988281 967.903930664062 968.700866699219 975.885803222656 977.191955566406 972.013671875 981.746826171875 979.765441894531 982.331665039062 970.975830078125 978.7744140625 978.703247070312 975.358276367188 972.375915527344 987.1259765625 990.109008789062 988.455688476562 992.421569824219 985.610046386719 984.880493164062 988.549621582031 988.471862792969 988.051818847656 1010.89013671875 1008.50860595703 1012.75225830078 1015.47796630859 1013.47241210938 1018.90167236328 1019.14569091797 1016.76220703125 1015.88055419922 1016.36926269531 1016.880859375 1012.81579589844 1008.11602783203 1013.39422607422 1006.95782470703 1009.42614746094 1002.9716796875 1013.84436035156 1018.35418701172 1013.55633544922 997.061218261719 1000.77935791016 998.048156738281 1005.08807373047 1005.86468505859 1016.24475097656 1006.39562988281 1002.71588134766 1000.82757568359 1004.95330810547 997.715087890625 1004.46203613281 1009.63745117188 1006.55108642578 1011.04663085938 1017.26135253906 1023.89434814453 1027.65515136719 1036.53552246094 1032.01062011719 1041.50561523438 1036.90625 1034.728515625 1043.80529785156 1044.46069335938 1050.61340332031 1035.47082519531 1037.54833984375 1035.93530273438 1036.97485351562 1038.37780761719 1025.57458496094 1040.51916503906 1038.15173339844 1029.04150390625 1030.15222167969 1038.54846191406 1038.31811523438 1037.62622070312 1038.34509277344 1040.59106445312 1035.91418457031 1031.19018554688 1031.97766113281 1026.48620605469 1032.98828125 1022.60827636719 1019.96246337891 1016.55651855469 1025.82336425781 1017.01165771484 1003.15826416016 1002.60534667969 985.15185546875 973.648498535156 958.138610839844 961.735168457031 967.940368652344 968.860717773438 969.356201171875 969.599914550781 972.040954589844 960.638977050781 960.664916992188 955.762512207031 959.210510253906 945.995239257812 954.367797851562 946.862243652344 949.905395507812 956.031066894531 955.90380859375 960.389465332031 963.273193359375
957.1865234375 965.689697265625 962.8447265625 960.551513671875 954.103820800781 948.095764160156 949.224792480469 950.366333007812 955.98046875 957.07177734375 968.573547363281 965.234130859375 974.546691894531 971.77587890625 969.395385742188 979.888061523438 981.21142578125 977.609924316406 975.579711914062 975.324401855469 974.918029785156 964.384399414062 959.990844726562 967.777465820312 984.556030273438 984.873657226562 983.328186035156 980.229553222656 976.159423828125 974.494873046875 967.754638671875 974.666259765625 971.487182617188 966.469360351562 965.866394042969 973.774536132812 971.948547363281 970.853515625 975.542907714844 976.267822265625 974.996276855469 978.955139160156 985.827331542969 979.12744140625 972.731750488281 981.604370117188 978.626831054688 974.667297363281 978.989562988281 985.964050292969 981.310607910156 979.908813476562 986.656005859375 983.114013671875 980.873474121094 981.211303710938 1005.96801757812 1011.39416503906 1017.84631347656 1011.42956542969 1012.75787353516 1004.970703125 1005.61657714844 1014.05413818359 1019.49542236328 1022.31103515625 1019.60943603516 1013.74145507812 1014.52178955078 1017.14312744141 1018.88793945312 1010.79412841797 1012.74981689453 1001.3896484375 1017.06842041016 1006.89263916016 997.570068359375 1001.08441162109 1006.17181396484 1009.11303710938 1004.80432128906 1002.74969482422 1005.33990478516 1006.91339111328 1002.23553466797 1006.01800537109 998.158508300781 1002.51129150391 1000.5283203125 1009.80389404297 1008.86907958984 1016.76812744141 1012.6201171875 1022.51214599609 1031.12573242188 1033.1826171875 1036.04919433594 1041.47412109375 1039.12097167969 1043.23620605469 1039.62768554688 1045.22387695312 1037.18884277344 1035.2734375 1029.66784667969 1035.71789550781 1033.47717285156 1030.314453125 1025.24536132812 1032.56188964844 1028.75158691406 1028.13464355469 1031.52038574219 1032.93200683594 1039.51806640625 1035.92407226562 1040.91394042969 1035.22900390625 1024.79675292969 1017.78131103516 1021.16375732422 1025.025390625 1018.44354248047 1014.39562988281 1020.20086669922 1017.79656982422 1015.04473876953 1007.98278808594 1008.04870605469 989.34716796875 977.732788085938 972.108520507812 968.107788085938 966.591125488281 968.064575195312 962.017028808594 967.56982421875 958.262084960938 959.976928710938 963.342346191406 965.396667480469 956.701416015625 956.897033691406 944.971008300781 942.18115234375 947.029174804688 956.856201171875 949.797058105469 953.199340820312 958.466796875
955.322082519531 958.163452148438 964.455139160156 954.737670898438 953.12353515625 955.517517089844 952.69189453125 960.466491699219 961.798950195312 968.148986816406 967.718078613281 966.506958007812 975.909851074219 970.553527832031 980.642761230469 973.77099609375 976.832397460938 977.680847167969 975.248596191406 979.9140625 983.926513671875 969.082641601562 968.479309082031 979.345947265625 983.197631835938 987.729125976562 976.783386230469 981.259094238281 977.549255371094 971.347412109375 970.344360351562 976.570068359375 965.797546386719 964.416259765625 965.177124023438 965.713317871094 972.42431640625 974.736022949219 975.633056640625 985.122497558594 974.644470214844 983.847717285156 975.339721679688 979.34765625 975.922424316406 983.842590332031 984.196655273438 983.677185058594 981.756103515625 979.490051269531 983.345153808594 978.855163574219 980.129821777344 980.493713378906 979.465087890625 988.273559570312 1001.08782958984 1013.12622070312 1016.13250732422 1018.55023193359 1010.13653564453 1009.27655029297 1005.853515625 1012.49426269531 1022.76495361328 1024.98071289062 1020.45562744141 1017.90783691406 1020.34790039062 1020.97717285156 1017.77105712891 1012.45825195312 1010.48266601562 1012.61633300781 1015.67596435547 1002.30493164062 1001.29125976562 999.642272949219 993.776550292969 994.310485839844 992.460815429688 988.626159667969 994.26025390625 1006.33386230469 1006.48962402344 1005.97723388672 1005.38763427734 1012.59625244141 1007.50469970703 1012.43218994141 1012.43560791016 1020.21185302734 1012.43939208984 1018.68792724609 1029.45520019531 1037.66333007812 1037.74938964844 1039.22204589844 1044.38708496094 1043.70751953125 1046.85131835938 1040.59875488281 1039.36987304688 1034.12768554688 1032.58825683594 1033.8486328125 1032.28735351562 1036.38012695312 1031.71215820312 1031.43420410156 1024.67224121094 1027.25170898438 1039.30236816406 1043.64501953125 1043.51062011719 1041.84167480469 1032.73107910156 1019.04278564453 1019.78259277344 1015.88543701172 1013.1591796875 1015.12115478516 1016.25726318359 1011.74719238281 1016.46179199219 1025.58117675781 1016.07293701172 1005.107421875 999.491760253906 998.284118652344 980.149047851562 973.716369628906 966.039367675781 965.812316894531 956.575500488281 956.830078125 950.640502929688 946.650207519531 956.205749511719 965.246765136719 962.439392089844 960.667907714844 954.505310058594 938.52587890625 938.540344238281 944.955017089844 952.187194824219 957.839477539062 949.7646484375 957.651489257812
