NCOLS 150
NROWS 37
XLLCORNER 7394249
YLLCORNER 4842539
CELLSIZE 30
NODATA_VALUE -9999
945.242919921875 934.727355957031 934.48291015625 945.541015625 958.741088867188 963.399353027344 956.697387695312 965.205017089844 960.780151367188 971.703552246094 962.287231445312 962.528076171875 968.524230957031 972.155700683594 980.222961425781 976.424499511719 977.36328125 972.7734375 982.398681640625 975.911987304688 972.216430664062 967.779907226562 963.000061035156 960.675537109375 967.460144042969 962.594543457031 965.086486816406 974.684326171875 976.155944824219 970.405883789062 969.0498046875 973.584045410156 976.376525878906 978.474365234375 969.953186035156 973.9736328125 975.462768554688 973.244140625 971.24462890625 976.511962890625 968.11669921875 971.219787597656 961.027893066406 963.870666503906 959.685302734375 965.152404785156 960.5556640625 959.97607421875 959.471069335938 972.533142089844 970.953247070312 975.469604492188 967.996643066406 973.966247558594 971.233520507812 968.503540039062 967.449768066406 967.23095703125 976.542419433594 974.848815917969 979.99609375 971.182495117188 970.859802246094 969.743896484375 972.587646484375 974.575805664062 983.975769042969 973.444946289062 966.768981933594 964.00439453125 964.30810546875 966.656677246094 966.70068359375 963.452270507812 964.303344726562 975.695251464844 967.9375 961.869995117188 969.523315429688 965.596374511719 966.606506347656 964.1865234375 955.040161132812 963.266845703125 963.934448242188 971.017517089844 975.961181640625 977.866271972656 978.622375488281 982.030456542969 984.695068359375 969.29150390625 968.78271484375 976.011108398438 979.412231445312 978.765747070312 976.922668457031 973.8056640625 968.161010742188 977.307006835938 978.355224609375 970.081115722656 969.900939941406 979.205627441406 988.688842773438 986.524841308594 979.150085449219 983.526977539062 979.338806152344 991.655029296875 996.060485839844 1005.09704589844 1000.00677490234 994.955993652344 990.492614746094 987.567260742188 990.119384765625 992.695678710938 991.551025390625 990.775024414062 1000.97448730469 1007.4873046875 1006.703125 1010.62512207031 1002.41558837891 999.389831542969 1010.39581298828 1029.38989257812 1039.60607910156 1055.42907714844 1049.82482910156 1049.35766601562 1053.17346191406 1055.07287597656 1064.65234375 1076.02111816406 1079.88623046875 1087.85815429688 1098.27819824219 1108.51733398438 1110.14465332031 1119.03356933594 1124.94873046875 1134.46667480469 1128.6015625 1146.20349121094 1157.78002929688 1169.08654785156 1164.32397460938 1170.03015136719
944.945251464844 940.835754394531 934.434631347656 945.473083496094 961.573181152344 961.671630859375 966.461364746094 967.942687988281 964.82763671875 965.528991699219 967.830505371094 968.616455078125 967.381713867188 975.486938476562 977.266357421875 976.473937988281 984.129028320312 982.538330078125 980.016418457031 973.556335449219 972.422668457031 970.814208984375 962.6767578125 966.515991210938 959.694702148438 964.738159179688 968.679077148438 974.207885742188 978.521484375 979.340454101562 980.235900878906 974.310729980469 976.476806640625 979.416381835938 975.289916992188 972.449768066406 967.036682128906 963.353393554688 956.421752929688 954.241149902344 962.659118652344 956.670532226562 967.848815917969 956.547973632812 961.0751953125 961.956604003906 971.351440429688 967.614074707031 963.135437011719 965.682250976562 964.376220703125 969.168273925781 973.880249023438 970.351379394531 970.542602539062 974.426513671875 970.188659667969 974.572631835938 972.365417480469 975.156555175781 976.711120605469 968.647888183594 966.988708496094 971.587036132812 975.943481445312 966.283142089844 970.607055664062 969.49609375 960.057556152344 963.963195800781 963.571105957031 964.951843261719 960.960876464844 958.834350585938 968.434936523438 979.364135742188 972.769836425781 967.315673828125 966.193298339844 965.462524414062 968.04248046875 962.254638671875 960.616760253906 963.203491210938 962.726745605469 970.108764648438 972.795043945312 976.617004394531 987.417358398438 985.626831054688 979.017578125 973.583435058594 964.968017578125 964.845397949219 973.2177734375 983.452392578125 967.636291503906 968.525268554688 975.46630859375 973.770629882812 979.27197265625 972.849060058594 973.927185058594 976.018493652344 989.557434082031 986.854675292969 991.709594726562 984.590637207031 985.604797363281 989.376159667969 995.777038574219 999.555725097656 997.468505859375 999.51953125 991.342895507812 984.350341796875 999.453063964844 1003.85083007812 988.813354492188 994.497375488281 1001.60113525391 1003.23937988281 1001.54498291016 1009.43859863281 1002.67474365234 1008.68286132812 1014.66882324219 1038.78430175781 1043.2998046875 1058.77819824219 1060.80822753906 1057.68493652344 1064.41882324219 1055.65185546875 1073.8408203125 1072.75061035156 1083.13146972656 1091.34130859375 1097.23352050781 1104.57983398438 1110.31958007812 1114.31677246094 1114.92785644531 1126.8642578125 1143.43725585938 1148.74487304688 1153.30700683594 1164.10974121094 1155.36291503906 1167.57055664062
936.657287597656 939.514038085938 941.171691894531 954.202392578125 957.967468261719 966.852844238281 964.040893554688 963.557006835938 962.861145019531 966.61865234375 966.610595703125 972.58203125 969.076232910156 974.980529785156 966.674499511719 974.444519042969 989.936401367188 987.747375488281 978.292602539062 969.97509765625 967.436889648438 968.286560058594 968.427490234375 969.454284667969 962.82177734375 962.021545410156 969.213256835938 965.59326171875 969.112731933594 975.564575195312 973.679931640625 972.858764648438 982.077514648438 979.549499511719 970.828308105469 967.415161132812 965.36474609375 964.760070800781 956.578918457031 953.721313476562 954.013305664062 953.532165527344 960.33447265625 954.1044921875 967.578430175781 963.212768554688 963.407348632812 966.68798828125 960.324279785156 960.620666503906 967.99267578125 970.799865722656 975.057800292969 964.095336914062 961.524291992188 960.256652832031 969.761291503906 976.104248046875 974.748046875 968.142639160156 970.285705566406 969.205749511719 971.710083007812 968.662292480469 967.897888183594 971.218322753906 968.876586914062 955.297180175781 945.579223632812 959.492004394531 958.781005859375 960.52734375 960.086181640625 966.803161621094 967.21240234375 965.438293457031 967.828552246094 967.244934082031 964.811340332031 968.502502441406 968.760925292969 969.402954101562 964.599243164062 969.328247070312 967.997741699219 973.09814453125 976.336669921875 983.7646484375 988.810729980469 982.736938476562 972.01123046875 971.973266601562 971.238098144531 968.334289550781 978.477722167969 975.84521484375 976.022216796875 975.24462890625 978.163879394531 969.864196777344 976.842651367188 977.300720214844 977.940551757812 985.76416015625 984.9365234375 997.120239257812 990.945495605469 999.774108886719 988.424926757812 991.928466796875 997.973693847656 1000.86712646484 998.478271484375 1001.578125 989.352416992188 995.080017089844 1005.38775634766 1011.9609375 997.890075683594 993.510375976562 1003.2978515625 1003.94946289062 1002.50494384766 1006.03125 1012.64135742188 1017.892578125 1021.77239990234 1041.98840332031 1043.86193847656 1052.6328125 1070.09875488281 1071.14904785156 1075.79833984375 1069.55859375 1066.93566894531 1088.52355957031 1088.76953125 1102.23425292969 1095.94311523438 1093.13537597656 1104.39526367188 1115.75598144531 1118.74365234375 1132.90844726562 1144.33972167969 1143.36291503906 1145.52966308594 1147.90112304688 1158.12622070312 1160.03662109375
950.549377441406 946.344543457031 961.672668457031 959.685546875 962.053894042969 964.626586914062 966.010681152344 966.562438964844 966.274475097656 967.278503417969 966.523803710938 965.867919921875 973.742309570312 968.678649902344 967.211975097656 970.668029785156 973.077026367188 983.508666992188 975.457336425781 965.756164550781 962.794494628906 972.012939453125 971.490844726562 967.641784667969 962.521484375 960.962768554688 964.938171386719 963.731628417969 969.328002929688 979.983337402344 976.466857910156 978.716979980469 981.203918457031 974.899353027344 973.564697265625 959.161071777344 955.156799316406 959.877807617188 958.961547851562 949.907897949219 955.25927734375 955.065734863281 949.876892089844 958.508117675781 962.717956542969 958.060852050781 967.989318847656 965.556274414062 956.2646484375 971.777221679688 967.76708984375 966.385070800781 965.58984375 963.508422851562 960.729553222656 956.997375488281 964.893920898438 972.908630371094 971.684448242188 970.961364746094 973.605102539062 974.591247558594 965.832824707031 966.701354980469 972.475463867188 972.189697265625 972.442810058594 961.165222167969 954.634460449219 948.797180175781 961.291625976562 965.381774902344 959.159790039062 961.449401855469 964.803833007812 964.521301269531 967.7080078125 965.113464355469 962.799682617188 969.210266113281 973.146118164062 970.825744628906 966.956420898438 966.4921875 970.689697265625 971.851806640625 976.507934570312 978.957702636719 974.393676757812 976.480407714844 972.585876464844 965.914245605469 974.04541015625 972.160034179688 982.292175292969 976.848083496094 980.05859375 980.219604492188 983.55517578125 984.0107421875 978.450805664062 973.235107421875 980.172973632812 990.703552246094 983.865905761719 990.343566894531 989.215881347656 995.068969726562 985.959899902344 981.344909667969 986.799133300781 998.689025878906 1003.80047607422 1003.24981689453 1004.35589599609 1007.28350830078 1003.35076904297 1004.81854248047 1003.42388916016 999.498901367188 1006.82348632812 1009.51287841797 1010.26794433594 1017.13775634766 1028.86608886719 1029.22937011719 1043.10375976562 1049.07287597656 1053.76672363281 1069.54309082031 1067.8740234375 1069.25231933594 1080.10388183594 1075.34765625 1081.73217773438 1088.02709960938 1096.57006835938 1102.07470703125 1101.15014648438 1088.40795898438 1105.3466796875 1108.12805175781 1118.68933105469 1127.19519042969 1143.48315429688 1140.72937011719 1138.14855957031 1142.71362304688 1153.85803222656 1151.57189941406
956.203796386719 956.322265625 952.664672851562 959.81005859375 963.526489257812 966.776306152344 968.171081542969 964.920776367188 966.857788085938 962.369506835938 967.799499511719 962.244689941406 967.315856933594 966.878479003906 980.403564453125 980.127380371094 969.994201660156 968.415161132812 970.4873046875 971.842468261719 970.147583007812 973.509094238281 965.985656738281 962.406433105469 963.894775390625 958.819213867188 958.934204101562 960.570861816406 965.437072753906 968.894592285156 974.811950683594 971.85302734375 975.411560058594 977.919250488281 966.789489746094 958.647338867188 955.771789550781 961.853637695312 955.083557128906 966.612854003906 949.486755371094 947.196533203125 946.848449707031 959.829284667969 965.937072753906 961.93212890625 970.489135742188 970.994262695312 974.527648925781 974.609375 969.580139160156 962.8369140625 968.801391601562 965.52587890625 965.167785644531 962.002258300781 964.743041992188 971.107238769531 969.964660644531 979.085754394531 980.728271484375 975.675415039062 969.847595214844 968.687744140625 969.517028808594 961.192077636719 967.311218261719 956.581970214844 956.136413574219 950.790954589844 957.054321289062 961.866821289062 959.138671875 962.894897460938 966.621887207031 962.824523925781 958.526245117188 957.202819824219 960.307800292969 968.261657714844 968.634094238281 966.544982910156 971.630126953125 970.736999511719 974.994201660156 974.104309082031 969.304504394531 970.34375 976.881103515625 972.87890625 971.490234375 971.663940429688 976.835021972656 980.180969238281 981.814331054688 980.295837402344 984.202941894531 981.305480957031 986.504638671875 978.336730957031 984.069396972656 978.640197753906 968.748168945312 972.9921875 988.009582519531 988.452392578125 987.641418457031 987.191223144531 977.548583984375 976.98828125 992.338500976562 988.59814453125 997.042785644531 1003.64001464844 1006.92822265625 1003.62268066406 997.841247558594 999.99560546875 1007.61315917969 1007.48162841797 1007.59020996094 1013.94293212891 1007.47064208984 1025.68981933594 1036.48120117188 1046.44604492188 1046.34362792969 1057.30932617188 1067.22790527344 1067.09790039062 1067.49670410156 1071.14758300781 1076.708984375 1074.177734375 1073.81079101562 1087.2890625 1099.7607421875 1098.11206054688 1097.88208007812 1093.72583007812 1097.3515625 1105.59997558594 1113.36791992188 1121.83959960938 1127.35388183594 1132.00183105469 1139.35888671875 1141.78503417969 1144.78332519531 1142.63464355469
954.054931640625 947.15966796875 960.121154785156 959.196472167969 952.859191894531 963.015747070312 966.15576171875 972.74951171875 967.348266601562 967.124938964844 966.073059082031 962.2421875 965.622680664062 971.4677734375 982.0380859375 975.581115722656 961.621154785156 967.970581054688 963.722961425781 967.569030761719 969.583129882812 971.765747070312 963.220825195312 953.288391113281 959.074401855469 956.294067382812 959.623596191406 961.903198242188 956.803161621094 963.05859375 973.585083007812 977.420532226562 975.274780273438 962.590209960938 959.25244140625 965.876892089844 958.327758789062 963.744873046875 959.522766113281 958.178771972656 954.598937988281 955.763305664062 967.867370605469 954.875793457031 965.585998535156 962.5205078125 969.004760742188 976.636352539062 980.019470214844 974.366577148438 969.791015625 965.007019042969 972.277282714844 968.558227539062 964.256591796875 959.686157226562 960.18115234375 961.999267578125 971.49658203125 976.994567871094 978.890991210938 984.062377929688 963.254699707031 958.13720703125 954.115234375 953.327209472656 958.678283691406 956.594543457031 950.560485839844 957.990112304688 966.744140625 960.954467773438 960.580688476562 964.079956054688 968.12890625 961.041687011719 953.428833007812 960.803405761719 964.698974609375 967.343688964844 967.263610839844 970.848815917969 963.121765136719 971.076110839844 969.568298339844 977.110778808594 966.247192382812 970.557312011719 968.976135253906 970.428405761719 976.183227539062 979.71484375 979.885375976562 975.729064941406 979.572937011719 978.07470703125 983.164611816406 980.430419921875 988.700073242188 981.208923339844 975.702453613281 977.002502441406 969.754821777344 984.392211914062 989.825561523438 987.314270019531 986.37451171875 984.2021484375 976.841613769531 981.001220703125 988.908874511719 994.683288574219 993.768432617188 992.809326171875 996.350036621094 1006.83843994141 1001.58135986328 997.772277832031 1006.25415039062 1011.08990478516 1013.13232421875 1013.53991699219 1013.33843994141 1031.00537109375 1034.43090820312 1044.37475585938 1046.04321289062 1054.21508789062 1072.52551269531 1066.24487304688 1070.41516113281 1073.11999511719 1076.65576171875 1068.21984863281 1058.43432617188 1081.93676757812 1094.75756835938 1101.13708496094 1091.22998046875 1097.44860839844 1094.24951171875 1107.12182617188 1110.72497558594 1116.94482421875 1118.04663085938 1124.67492675781 1133.32092285156 1133.15051269531 1130.83276367188 1122.98693847656
946.478881835938 947.385803222656 945.859741210938 957.576171875 958.818725585938 967.44287109375 968.691711425781 973.4033203125 965.837829589844 962.201721191406 966.479248046875 974.425170898438 972.893249511719 970.135803222656 976.005615234375 973.917846679688 968.335021972656 967.899719238281 970.497802734375 975.860412597656 968.142272949219 974.403442382812 970.419677734375 967.256164550781 962.009399414062 957.805541992188 957.329650878906 957.631408691406 964.261047363281 967.470947265625 970.698913574219 972.532104492188 966.453002929688 964.708068847656 959.700988769531 963.851135253906 958.687377929688 962.326721191406 957.441528320312 957.268981933594 960.73828125 961.288635253906 962.392578125 956.274536132812 958.637817382812 966.518493652344 967.824157714844 977.407104492188 979.392578125 974.009155273438 961.206787109375 966.981262207031 965.910522460938 963.517639160156 962.992065429688 961.933410644531 958.405883789062 959.883361816406 970.231689453125 971.786743164062 970.143676757812 971.067749023438 966.15380859375 955.935180664062 960.777465820312 959.948486328125 956.055725097656 957.844970703125 958.898559570312 961.773498535156 960.254760742188 960.430541992188 964.349182128906 972.228942871094 969.873657226562 965.532348632812 962.956848144531 958.949523925781 965.73974609375 963.725463867188 965.631958007812 976.737976074219 970.151489257812 969.251098632812 971.914123535156 967.412902832031 965.4990234375 960.176940917969 963.10107421875 969.592529296875 977.130798339844 981.342956542969 970.924194335938 968.168762207031 968.4697265625 974.968688964844 981.560607910156 977.513916015625 977.949829101562 975.627685546875 977.28857421875 976.125366210938 979.536560058594 986.687255859375 977.967407226562 985.704711914062 979.37109375 975.574096679688 978.934997558594 985.003723144531 984.678894042969 987.070556640625 991.636413574219 990.111694335938 993.136962890625 994.032043457031 1006.85437011719 1001.05541992188 1011.85235595703 1008.24737548828 1015.98327636719 1025.60815429688 1029.36108398438 1026.01867675781 1027.13623046875 1031.43896484375 1042.07861328125 1045.15258789062 1060.84533691406 1070.10729980469 1081.23596191406 1071.96276855469 1074.71655273438 1070.20568847656 1075.43115234375 1085.09826660156 1087.8017578125 1097.68627929688 1098.24035644531 1096.27746582031 1095.54602050781 1102.322265625 1110.32604980469 1111.25146484375 1113.23522949219 1113.12487792969 1119.47644042969 1117.73974609375 1114.17797851562 1113.90283203125
956.447814941406 946.124816894531 952.405395507812 956.081726074219 963.480102539062 969.217041015625 968.074035644531 970.197875976562 970.398498535156 971.727478027344 974.163146972656 977.482971191406 973.319274902344 973.240112304688 977.824584960938 970.989013671875 971.535339355469 970.719482421875 985.704223632812 976.022399902344 970.739929199219 972.363708496094 970.345764160156 970.446533203125 965.273010253906 969.092834472656 961.787292480469 961.726745605469 967.500183105469 968.947570800781 971.435302734375 967.610900878906 960.155578613281 959.097839355469 964.861389160156 973.027648925781 966.971435546875 967.554016113281 963.340576171875 958.702392578125 956.37841796875 959.775695800781 961.648620605469 959.093322753906 968.992309570312 967.209106445312 972.737548828125 964.014831542969 968.510009765625 968.772583007812 963.6630859375 961.463439941406 962.544921875 966.482604980469 956.294189453125 962.262939453125 957.272216796875 952.910217285156 962.54833984375 960.127502441406 962.1767578125 961.496643066406 959.980773925781 956.293640136719 954.049621582031 959.269165039062 958.448486328125 960.517883300781 964.08251953125 956.109680175781 963.419372558594 966.924072265625 965.711486816406 973.399841308594 975.29052734375 966.070983886719 967.151794433594 965.901184082031 964.607299804688 961.240600585938 963.698364257812 968.794128417969 965.005859375 965.911010742188 968.643310546875 972.463256835938 964.452087402344 962.138610839844 966.798767089844 971.944763183594 972.396057128906 978.323303222656 975.918762207031 970.481018066406 969.349914550781 970.8681640625 970.212341308594 971.751037597656 977.565734863281 979.03955078125 970.800720214844 972.686584472656 981.546752929688 980.879760742188 981.417663574219 976.028991699219 977.433166503906 978.532531738281 981.740905761719 980.499633789062 979.981506347656 986.719848632812 985.964660644531 987.432861328125 994.757873535156 999.171203613281 1000.26214599609 1005.86291503906 1010.08575439453 1006.46228027344 1009.42950439453 1016.10455322266 1022.68530273438 1029.38342285156 1030.05419921875 1029.34838867188 1035.02111816406 1040.25512695312 1051.36889648438 1064.59729003906 1068.72021484375 1066.24682617188 1073.91015625 1080.21496582031 1077.31616210938 1090.42199707031 1103.05895996094 1101.54528808594 1096.49938964844 1087.36791992188 1096.38818359375 1103.46728515625 1101.63891601562 1098.90417480469 1102.36987304688 1098.22155761719 1107.14929199219 1111.50598144531 1103.05883789062 1097.49951171875
955.426635742188 953.566528320312 964.124145507812 961.48583984375 967.707153320312 972.001770019531 986.945007324219 972.311157226562 977.80810546875 973.615295410156 968.407897949219 968.932434082031 970.616271972656 973.0966796875 965.937561035156 969.673522949219 967.435363769531 975.080017089844 973.628051757812 966.842102050781 966.857604980469 968.381591796875 971.379760742188 965.184631347656 960.351745605469 966.173522949219 968.416015625 966.548828125 969.122680664062 971.102600097656 966.324951171875 965.534545898438 967.259948730469 969.953674316406 966.457702636719 963.796691894531 967.281005859375 964.445617675781 966.089416503906 963.610473632812 963.011779785156 965.58349609375 959.8984375 968.699829101562 964.975646972656 967.909118652344 966.466979980469 963.881713867188 967.881042480469 967.037475585938 958.91064453125 963.238464355469 962.83837890625 960.461608886719 959.375244140625 958.986877441406 963.636352539062 958.481811523438 959.424377441406 952.225463867188 951.919616699219 951.057312011719 954.281188964844 957.842407226562 963.407531738281 958.253540039062 959.3447265625 951.714172363281 960.341430664062 957.565734863281 962.292236328125 963.033386230469 965.592529296875 969.783874511719 967.430725097656 974.21484375 962.020568847656 961.428588867188 973.133178710938 970.440856933594 972.834167480469 975.761779785156 962.668518066406 971.415344238281 968.461242675781 964.500854492188 969.726623535156 961.569458007812 959.279113769531 972.750427246094 980.314392089844 978.423461914062 977.498413085938 972.017211914062 976.513549804688 978.299011230469 969.007934570312 969.388732910156 969.052551269531 976.4267578125 976.744201660156 965.435852050781 978.471008300781 985.66650390625 983.675048828125 981.75341796875 981.919921875 986.882995605469 980.062377929688 985.686157226562 994.562377929688 989.222229003906 989.539978027344 983.398681640625 988.796203613281 988.115234375 1000.38348388672 998.480773925781 1003.19451904297 1002.98406982422 1005.94714355469 1006.31634521484 1022.07373046875 1018.90393066406 1033.65075683594 1030.09985351562 1042.75598144531 1045.10693359375 1035.27880859375 1058.13781738281 1060.22216796875 1066.77807617188 1068.533203125 1070.54650878906 1081.18786621094 1083.29809570312 1097.34533691406 1094.994140625 1097.49133300781 1098.37377929688 1099.58972167969 1097.05737304688 1096.57849121094 1091.09802246094 1095.40283203125 1095.97473144531 1094.65515136719 1104.52319335938 1097.73645019531 1098.8095703125
969.0703125 972.511901855469 963.199340820312 970.411010742188 975.608642578125 974.759521484375 975.406005859375 973.24609375 971.28369140625 968.345031738281 973.501770019531 963.612365722656 975.112731933594 967.7939453125 976.612976074219 977.592041015625 971.592651367188 971.843322753906 968.620056152344 972.746154785156 972.526977539062 964.443786621094 959.257263183594 961.994873046875 955.792236328125 960.215637207031 960.844360351562 962.2216796875 967.309143066406 967.228210449219 965.379333496094 961.1513671875 965.189270019531 968.6513671875 966.01220703125 958.885681152344 960.281616210938 956.045043945312 967.859313964844 961.708679199219 964.543334960938 964.556640625 953.300598144531 961.970336914062 964.271179199219 962.641235351562 955.014770507812 957.439392089844 951.929504394531 964.227783203125 954.274353027344 963.064208984375 964.7861328125 966.910766601562 960.611755371094 968.686828613281 959.027770996094 962.826721191406 963.714599609375 964.934265136719 947.117980957031 939.684265136719 943.442504882812 958.835266113281 959.465209960938 951.27099609375 959.082641601562 954.269897460938 959.617431640625 953.707153320312 960.685607910156 959.701232910156 958.335876464844 963.039794921875 976.806762695312 965.891662597656 966.748657226562 967.793334960938 975.867919921875 972.508972167969 972.228576660156 971.380798339844 966.902770996094 968.206115722656 967.450561523438 955.119018554688 959.994384765625 957.770263671875 967.011901855469 973.522521972656 970.107727050781 973.584899902344 978.468811035156 970.560485839844 967.185791015625 971.101623535156 968.085998535156 963.971496582031 973.156311035156 980.548034667969 973.4716796875 964.450439453125 976.915161132812 975.081726074219 975.837951660156 978.594421386719 979.329833984375 974.174743652344 975.532287597656 986.99609375 986.034057617188 989.644348144531 994.440856933594 983.305297851562 983.922485351562 985.174682617188 991.535034179688 990.528015136719 999.292358398438 997.217407226562 1003.49676513672 1016.31512451172 1013.01263427734 1022.95037841797 1028.31518554688 1026.16027832031 1035.83654785156 1031.41101074219 1034.08557128906 1050.11010742188 1059.44921875 1067.01452636719 1064.14892578125 1071.70434570312 1079.11303710938 1072.77026367188 1081.81713867188 1090.056640625 1093.61279296875 1097.86865234375 1094.15417480469 1094.70446777344 1096.65808105469 1089.60229492188 1091.33715820312 1096.29699707031 1102.23486328125 1088.60424804688 1085.53662109375 1090.74426269531
973.528747558594 972.896484375 971.107849121094 976.618041992188 966.674987792969 962.057189941406 971.434509277344 973.354431152344 970.137329101562 973.640258789062 965.694396972656 973.432434082031 969.43798828125 979.044921875 968.352661132812 964.076721191406 968.223388671875 971.862915039062 968.3193359375 966.014953613281 966.751586914062 962.599731445312 957.702758789062 962.377197265625 958.766662597656 967.532287597656 956.685729980469 965.2802734375 965.882507324219 968.648986816406 964.299499511719 962.925537109375 958.098083496094 971.996887207031 969.650756835938 963.536682128906 966.988159179688 973.404418945312 964.31005859375 955.910217285156 962.371643066406 948.811950683594 947.046020507812 955.009826660156 959.073181152344 953.757141113281 946.779296875 952.923034667969 951.398498535156 951.095520019531 951.505493164062 952.538818359375 965.682006835938 966.422668457031 963.663146972656 960.709716796875 962.394104003906 962.89501953125 960.462097167969 958.54248046875 952.931091308594 958.136901855469 944.939086914062 946.99609375 962.342895507812 968.617431640625 965.205993652344 956.942810058594 961.311401367188 965.66162109375 964.214538574219 964.649047851562 963.026611328125 975.357849121094 970.490417480469 967.885437011719 970.041564941406 971.283996582031 970.006164550781 966.752624511719 970.829772949219 967.76220703125 967.74365234375 959.268249511719 953.892639160156 960.471923828125 952.30224609375 960.353515625 966.169982910156 972.266235351562 967.584167480469 976.838317871094 967.298889160156 968.660766601562 975.172729492188 977.837158203125 968.963256835938 958.175476074219 964.740966796875 980.011779785156 969.456909179688 971.618041992188 970.591674804688 979.112548828125 980.049194335938 979.145446777344 985.758544921875 984.254699707031 972.044616699219 979.307434082031 982.730041503906 988.579772949219 990.82861328125 987.041687011719 989.983581542969 993.397277832031 997.181579589844 990.92138671875 993.528198242188 999.665466308594 1002.14526367188 1016.07659912109 1012.34997558594 1014.58361816406 1016.57824707031 1025.77075195312 1027.11987304688 1033.8603515625 1041.92102050781 1047.89135742188 1063.76318359375 1063.95336914062 1073.09362792969 1075.66943359375 1084.43115234375 1075.38793945312 1077.30004882812 1076.55078125 1082.15734863281 1093.45080566406 1093.63256835938 1091.2939453125 1086.33349609375 1092.88232421875 1093.54504394531 1094.71606445312 1093.31616210938 1079.4248046875 1080.95629882812 1082.95288085938
969.93310546875 969.008972167969 973.818786621094 970.927673339844 973.091613769531 966.149658203125 978.029418945312 970.668518066406 973.523864746094 973.379638671875 974.157165527344 968.80078125 973.402465820312 970.382751464844 958.629943847656 964.527770996094 970.908020019531 972.981994628906 976.299926757812 962.715209960938 968.974731445312 963.630126953125 959.730834960938 951.089782714844 947.86376953125 945.299133300781 956.115051269531 963.953369140625 964.137878417969 965.422668457031 967.968444824219 961.651062011719 966.633544921875 970.813049316406 964.186157226562 961.113708496094 960.55859375 964.932189941406 965.887512207031 968.573852539062 969.96484375 950.674011230469 947.223449707031 954.689575195312 952.432800292969 948.724609375 954.191528320312 947.219055175781 952.244812011719 952.693786621094 953.221923828125 950.105224609375 965.357666015625 962.543151855469 962.450378417969 958.865905761719 953.530334472656 969.498779296875 957.49853515625 947.670227050781 953.95703125 955.997253417969 951.413330078125 948.212707519531 955.133239746094 959.017822265625 960.811401367188 961.957092285156 961.518676757812 962.277160644531 962.718688964844 957.907592773438 959.039184570312 971.183471679688 965.577575683594 959.667358398438 966.912109375 968.234375 970.103210449219 960.257080078125 961.554260253906 969.90771484375 965.324401855469 966.8798828125 951.803466796875 956.653381347656 959.1669921875 965.035400390625 968.953430175781 964.945373535156 966.897155761719 967.997009277344 970.555541992188 967.125427246094 969.471252441406 973.325439453125 969.161437988281 973.401733398438 972.953552246094 983.343017578125 964.532836914062 967.95458984375 975.498107910156 976.961730957031 982.478271484375 983.273620605469 987.258056640625 988.549499511719 986.377807617188 986.538146972656 992.451110839844 986.882080078125 987.832580566406 987.418029785156 995.733032226562 990.506713867188 995.170288085938 996.072082519531 992.116333007812 997.049621582031 1007.75701904297 1009.05352783203 1003.98101806641 1012.37377929688 1019.98822021484 1024.45751953125 1028.26586914062 1025.39929199219 1033.59533691406 1043.04663085938 1051.90954589844 1065.2744140625 1069.03820800781 1078.43762207031 1082.14489746094 1080.15515136719 1081.48046875 1078.14440917969 1082.49926757812 1079.67333984375 1082.24719238281 1083.263671875 1081.16687011719 1090.49206542969 1090.10327148438 1094.84362792969 1093.46875 1088.09777832031 1075.99768066406 1076.0966796875
971.842041015625 970.908630371094 973.828002929688 973.978759765625 972.409729003906 969.114440917969 973.418334960938 972.014343261719 972.691650390625 976.053100585938 976.834045410156 973.564758300781 972.399536132812 971.999145507812 962.931884765625 968.426818847656 970.09033203125 971.380432128906 969.479431152344 969.702331542969 958.547546386719 956.331909179688 949.195190429688 945.940612792969 948.657592773438 944.105346679688 949.628967285156 952.093994140625 958.56591796875 963.562316894531 955.046447753906 965.536010742188 961.428039550781 955.948181152344 952.781066894531 953.750549316406 955.115783691406 961.446350097656 961.751953125 961.621459960938 962.541870117188 951.744384765625 950.424194335938 958.976806640625 956.250183105469 956.424560546875 941.612670898438 951.664001464844 954.5068359375 954.428955078125 942.712951660156 960.4970703125 953.848266601562 952.699584960938 947.336364746094 948.209777832031 956.942626953125 955.871215820312 956.611572265625 957.935302734375 960.146850585938 956.718994140625 950.134033203125 947.586059570312 956.90185546875 959.324645996094 960.281494140625 968.387329101562 965.48193359375 965.622375488281 961.956420898438 956.799621582031 957.546569824219 962.832214355469 967.557861328125 961.311706542969 961.960144042969 965.0322265625 955.542785644531 955.669311523438 956.3984375 960.46875 961.212768554688 959.545654296875 958.891235351562 961.12744140625 966.775512695312 963.621704101562 969.205627441406 969.986999511719 972.234924316406 974.884094238281 959.803833007812 970.323059082031 973.752990722656 973.689880371094 977.99169921875 976.429809570312 977.834899902344 979.050598144531 972.506286621094 970.412719726562 969.261962890625 974.810241699219 980.599487304688 985.593200683594 986.1044921875 997.982238769531 991.612121582031 998.345703125 987.362365722656 986.751831054688 993.948669433594 990.817932128906 988.729675292969 991.329040527344 996.634033203125 1005.67102050781 995.859008789062 996.668090820312 1000.80126953125 1009.29144287109 1010.14428710938 1010.56048583984 1016.00122070312 1018.40905761719 1023.55212402344 1023.95532226562 1035.19079589844 1034.66479492188 1046.56274414062 1064.76513671875 1064.01513671875 1078.02868652344 1079.80920410156 1089.27038574219 1082.64624023438 1077.77282714844 1070.05102539062 1067.75915527344 1065.00756835938 1069.55004882812 1069.27673339844 1080.04602050781 1083.37268066406 1086.87292480469 1084.64624023438 1073.05590820312 1067.40087890625 1069.45166015625
957.632507324219 962.596435546875 962.752319335938 962.895629882812 967.286376953125 971.246765136719 972.452514648438 971.208312988281 969.601806640625 977.7451171875 969.412353515625 964.256713867188 967.28466796875 964.876159667969 971.49609375 967.688781738281 969.71142578125 966.006469726562 970.642944335938 961.106079101562 955.131469726562 947.656066894531 944.711120605469 945.670532226562 949.918884277344 942.306701660156 947.269287109375 954.39111328125 957.887573242188 949.709716796875 951.834594726562 948.119506835938 964.611572265625 963.688110351562 956.68603515625 960.00146484375 956.529357910156 952.737731933594 961.59716796875 955.027282714844 955.006408691406 950.851135253906 964.3701171875 955.259094238281 956.439270019531 953.960754394531 944.472351074219 944.390563964844 948.015808105469 948.682678222656 946.14208984375 950.203369140625 948.165649414062 940.887084960938 945.13037109375 951.309753417969 958.118591308594 960.97119140625 960.827392578125 970.1484375 964.122192382812 969.757995605469 966.666625976562 951.671752929688 954.685546875 959.57568359375 964.326416015625 973.976684570312 974.8359375 959.270751953125 958.662658691406 964.064514160156 954.58642578125 963.816467285156 965.025573730469 965.529907226562 962.232177734375 953.360412597656 959.290222167969 965.95166015625 959.345397949219 962.084655761719 957.427917480469 959.20556640625 954.737609863281 959.60205078125 958.27392578125 970.92333984375 964.785278320312 969.5234375 974.001831054688 974.219665527344 964.47265625 974.038391113281 975.379211425781 978.105712890625 988.410766601562 982.667419433594 975.576843261719 986.175476074219 977.969421386719 978.678833007812 975.46923828125 982.281433105469 987.823547363281 985.667602539062 985.879699707031 993.041809082031 995.956115722656 1000.19561767578 994.354370117188 994.739562988281 994.401123046875 993.424072265625 999.120239257812 999.465393066406 1000.29284667969 1004.54400634766 1007.78277587891 1004.49206542969 1002.98394775391 1012.92822265625 1015.49133300781 1013.73089599609 1011.57208251953 1021.52484130859 1023.578125 1023.09619140625 1027.64929199219 1039.54357910156 1053.509765625 1053.78674316406 1069.15209960938 1069.43103027344 1076.55017089844 1072.50476074219 1069.33251953125 1071.62512207031 1062.44458007812 1057.05395507812 1054.3603515625 1053.67858886719 1057.49938964844 1064.85961914062 1078.28137207031 1077.673828125 1081.51489257812 1065.57421875 1057.53649902344 1059.02197265625
957.158996582031 959.432983398438 960.31005859375 963.599853515625 965.669677734375 966.502563476562 976.261962890625 969.913879394531 968.195922851562 972.138427734375 964.944274902344 962.924133300781 955.232727050781 948.980407714844 956.998474121094 963.7236328125 963.455200195312 968.363403320312 960.822143554688 947.055969238281 943.769409179688 938.107666015625 946.446655273438 943.398742675781 943.540283203125 945.503967285156 945.63330078125 943.645141601562 948.347045898438 949.157348632812 950.836730957031 956.151977539062 952.716125488281 960.100341796875 955.200439453125 948.883605957031 951.809387207031 957.38720703125 961.503784179688 958.736328125 952.263366699219 954.298217773438 960.520202636719 963.835327148438 950.389465332031 950.811096191406 945.718933105469 948.225402832031 949.943420410156 945.138977050781 943.8349609375 949.30859375 955.607727050781 950.992858886719 948.710754394531 952.969482421875 962.6630859375 955.450378417969 963.061645507812 973.984008789062 971.121337890625 966.174438476562 963.538208007812 960.216918945312 957.303527832031 962.505859375 964.203796386719 968.818725585938 972.862182617188 960.427551269531 962.695556640625 954.57080078125 968.125 971.3583984375 968.584655761719 969.304138183594 964.350769042969 963.774963378906 968.188842773438 965.057373046875 958.841369628906 969.302062988281 971.893310546875 970.718872070312 966.615478515625 970.015075683594 970.929504394531 972.414489746094 963.695983886719 970.180236816406 968.3818359375 976.105407714844 972.737731933594 977.8427734375 971.621032714844 971.140258789062 970.973083496094 971.405639648438 974.486694335938 981.844055175781 983.139343261719 985.162231445312 993.197937011719 978.326782226562 985.272277832031 986.339172363281 986.426879882812 999.106384277344 1006.12359619141 1013.59777832031 1000.88232421875 996.668029785156 999.505676269531 999.495666503906 1008.36486816406 1001.17950439453 1000.66442871094 1001.04931640625 1003.11895751953 1005.8603515625 1004.73986816406 1005.66094970703 1009.66204833984 1015.60876464844 1015.50775146484 1011.65106201172 1014.1416015625 1025.58129882812 1036.36267089844 1033.63977050781 1034.57641601562 1046.07568359375 1055.84399414062 1065.30187988281 1068.28295898438 1066.53564453125 1070.58898925781 1055.11584472656 1054.12561035156 1046.18493652344 1046.79406738281 1045.15551757812 1045.41711425781 1054.05090332031 1057.29345703125 1066.66040039062 1065.51684570312 1059.49353027344 1062.634765625 1053.11254882812
958.344299316406 968.377563476562 960.239868164062 959.285461425781 965.097473144531 971.80615234375 976.316772460938 969.021911621094 973.111328125 969.454345703125 964.298461914062 959.641967773438 953.718566894531 956.720397949219 956.539367675781 963.509582519531 965.968505859375 966.560729980469 962.689697265625 951.337097167969 945.95166015625 937.692321777344 937.500366210938 937.869384765625 939.581909179688 950.079833984375 951.737976074219 949.823059082031 949.168823242188 963.019592285156 960.949401855469 954.252990722656 950.461242675781 951.178344726562 954.47802734375 950.148864746094 946.943725585938 952.694274902344 959.323547363281 956.367126464844 955.1318359375 954.4423828125 950.396179199219 959.598693847656 955.775939941406 950.421630859375 952.4453125 951.836608886719 947.671936035156 950.445251464844 953.259887695312 956.274108886719 948.811462402344 951.441955566406 949.747924804688 958.993957519531 959.364685058594 951.051513671875 956.044311523438 961.735412597656 970.022521972656 960.56982421875 974.518371582031 969.836120605469 963.805969238281 958.837036132812 962.452270507812 963.040222167969 965.648498535156 961.077270507812 960.343933105469 956.795593261719 967.315979003906 959.176147460938 966.830505371094 971.674011230469 969.078308105469 962.046630859375 965.578918457031 970.081237792969 967.933410644531 964.77978515625 971.163696289062 970.694580078125 973.635070800781 972.224487304688 976.777160644531 969.674072265625 968.582763671875 973.138061523438 966.225524902344 969.227600097656 974.389770507812 976.325500488281 969.604431152344 966.252319335938 965.405944824219 970.862060546875 975.478332519531 986.163635253906 991.747497558594 985.792175292969 994.638732910156 983.645568847656 984.374084472656 988.663330078125 986.255676269531 994.469848632812 1006.21936035156 1008.08331298828 1005.38800048828 999.261657714844 1005.50164794922 1004.09307861328 1003.48297119141 1001.74096679688 995.607421875 996.190795898438 1000.55010986328 1011.55590820312 1004.47290039062 1009.634765625 1008.96533203125 1018.54541015625 1022.08013916016 1017.71978759766 1013.6298828125 1030.01733398438 1034.99841308594 1029.85461425781 1031.35412597656 1043.34997558594 1050.73022460938 1060.90588378906 1058.51086425781 1055.67297363281 1057.83703613281 1058.71887207031 1052.88208007812 1051.84594726562 1047.66491699219 1035.57214355469 1030.43469238281 1045.32421875 1049.10314941406 1051.60913085938 1054.61987304688 1051.74279785156 1048.63879394531 1050.28771972656
962.749389648438 963.241149902344 961.4765625 961.915771484375 960.280456542969 970.30419921875 969.230834960938 966.421142578125 972.128540039062 969.290832519531 964.232116699219 964.040466308594 956.848327636719 959.494689941406 963.960571289062 962.417541503906 963.368530273438 959.463745117188 953.9345703125 950.249328613281 942.283752441406 937.349609375 942.545532226562 934.374816894531 948.141296386719 943.495788574219 948.267639160156 949.05810546875 946.037963867188 955.020568847656 964.279907226562 956.391662597656 949.476501464844 942.864562988281 941.051513671875 947.557495117188 942.56298828125 946.827270507812 957.520141601562 961.963439941406 955.581298828125 950.25830078125 946.883483886719 947.807739257812 948.121398925781 942.87109375 949.714660644531 945.2802734375 954.097717285156 952.211120605469 958.264831542969 955.528625488281 949.066162109375 951.813720703125 944.976501464844 952.807739257812 956.572875976562 955.697692871094 953.738891601562 963.962219238281 964.424194335938 961.969604492188 970.922912597656 966.496826171875 969.219543457031 969.836669921875 964.945678710938 966.966064453125 961.438720703125 964.027221679688 969.527709960938 965.034851074219 965.4765625 963.061706542969 969.133361816406 971.519836425781 961.587158203125 965.597900390625 969.523315429688 965.774536132812 966.512573242188 959.306945800781 962.241271972656 974.611877441406 971.547912597656 969.038818359375 972.270935058594 972.751037597656 972.107177734375 971.037719726562 970.046813964844 962.9580078125 966.366638183594 977.439819335938 970.699340820312 969.1513671875 969.989074707031 968.631042480469 983.748107910156 984.406311035156 982.05322265625 983.163208007812 984.462768554688 984.255798339844 982.276977539062 991.598205566406 999.702575683594 998.092834472656 1007.65478515625 1005.59222412109 999.816528320312 999.128479003906 1005.67413330078 1005.28240966797 1002.25555419922 997.051208496094 998.665649414062 1003.55444335938 1007.83166503906 1000.30908203125 1007.83721923828 1002.51391601562 1009.23583984375 1008.52807617188 1012.67529296875 1019.67687988281 1018.03466796875 1020.94641113281 1031.30676269531 1028.71960449219 1026.0205078125 1043.001953125 1048.29406738281 1056.54748535156 1053.50695800781 1053.01135253906 1052.17297363281 1050.72827148438 1052.31457519531 1046.33642578125 1039.34399414062 1025.40100097656 1022.63488769531 1034.26977539062 1042.41540527344 1042.525390625 1049.44653320312 1049.47973632812 1049.892578125 1048.47094726562
960.608642578125 964.681945800781 956.518798828125 954.565612792969 955.968078613281 967.441589355469 970.857299804688 965.439270019531 964.78759765625 962.465209960938 960.141235351562 956.737121582031 955.46337890625 956.848388671875 958.614501953125 953.006713867188 948.397094726562 953.235717773438 945.150451660156 949.098815917969 945.839660644531 942.433044433594 942.105895996094 932.820861816406 942.101318359375 943.826538085938 945.585998535156 942.379760742188 945.701416015625 958.230590820312 953.492919921875 951.431274414062 953.786315917969 942.928833007812 945.711364746094 934.381103515625 940.440063476562 942.138488769531 941.496398925781 944.180786132812 956.179077148438 952.926879882812 947.972717285156 942.357177734375 943.555297851562 948.169616699219 949.622131347656 949.512878417969 949.783874511719 952.577880859375 956.8427734375 952.781433105469 949.869140625 947.039611816406 941.007690429688 947.908996582031 959.564819335938 960.654418945312 964.303405761719 963.659423828125 955.614379882812 955.647888183594 971.939147949219 978.471984863281 967.961059570312 976.704650878906 959.388305664062 962.437133789062 959.97265625 966.01611328125 973.214599609375 970.307922363281 978.868591308594 973.426696777344 967.626586914062 969.204406738281 954.54736328125 967.221008300781 963.408447265625 967.820922851562 960.789916992188 962.342590332031 969.115295410156 965.528137207031 975.113952636719 967.459350585938 973.8232421875 985.880187988281 980.34033203125 973.031311035156 970.188598632812 967.573547363281 973.371520996094 982.749572753906 974.348815917969 979.684936523438 971.006042480469 985.003295898438 985.130737304688 989.332946777344 986.886047363281 990.305603027344 978.8525390625 980.870544433594 988.480041503906 995.860290527344 995.651977539062 1005.78106689453 1012.08837890625 1011.13409423828 1015.99639892578 1005.52160644531 1010.02020263672 1013.1943359375 1010.67547607422 997.210510253906 1004.86566162109 1003.56964111328 1004.73034667969 1002.89794921875 1007.90155029297 1008.64227294922 1012.80712890625 1012.16009521484 1016.19738769531 1014.38885498047 1013.99310302734 1018.19201660156 1027.86743164062 1018.19317626953 1023.80462646484 1029.02270507812 1050.70581054688 1044.82971191406 1040.27490234375 1035.61145019531 1040.58935546875 1040.19348144531 1042.11145019531 1033.56030273438 1024.189453125 1021.32379150391 1020.94812011719 1018.61212158203 1031.56774902344 1032.58728027344 1040.76135253906 1043.66296386719 1038.20727539062 1041.86645507812
961.083374023438 955.089660644531 948.888244628906 962.016967773438 962.77734375 963.389587402344 969.111328125 974.676208496094 960.662170410156 960.734680175781 950.182312011719 950.232421875 948.049987792969 950.765625 961.658020019531 957.003601074219 949.421081542969 942.326965332031 943.010864257812 952.882995605469 954.446899414062 949.401611328125 939.746398925781 941.455078125 945.415832519531 947.616333007812 941.236328125 942.429748535156 941.91259765625 954.260192871094 957.405090332031 946.395080566406 949.222045898438 948.90478515625 947.334594726562 948.456909179688 942.858520507812 945.262084960938 943.890197753906 948.304565429688 961.390258789062 952.540771484375 947.489624023438 945.398132324219 942.367248535156 940.316528320312 955.778381347656 943.211853027344 949.788391113281 952.347106933594 946.961364746094 957.516845703125 960.87158203125 962.394287109375 961.872253417969 966.552734375 959.868347167969 969.216125488281 971.992431640625 963.049499511719 958.717651367188 956.943969726562 965.953186035156 976.270141601562 971.335632324219 974.587524414062 972.379577636719 972.489929199219 966.1376953125 971.70947265625 982.814453125 972.742553710938 969.99853515625 969.174926757812 965.749084472656 965.28271484375 956.947448730469 959.612548828125 965.018249511719 972.356994628906 966.008178710938 972.813842773438 973.713806152344 977.275207519531 975.40966796875 973.470947265625 980.766235351562 979.450744628906 979.973937988281 978.919677734375 975.896728515625 977.065551757812 982.73291015625 981.965637207031 975.343566894531 973.222595214844 973.914489746094 982.881774902344 987.867736816406 986.973571777344 991.371337890625 984.153686523438 992.317077636719 991.553466796875 989.05078125 985.967346191406 998.363586425781 1003.54443359375 1005.60510253906 1014.84881591797 1013.677734375 1009.15057373047 1009.27606201172 1024.10046386719 1017.18908691406 1012.7705078125 1016.8291015625 1012.74133300781 1015.48516845703 1011.74761962891 1019.52758789062 1015.98065185547 1013.63781738281 1015.99731445312 1015.68035888672 1026.69763183594 1008.71856689453 1009.62945556641 1023.67755126953 1021.49279785156 1014.83392333984 1029.61157226562 1034.83972167969 1038.17443847656 1034.49182128906 1034.15661621094 1034.98327636719 1035.4013671875 1033.07556152344 1034.58190917969 1031.84057617188 1033.12329101562 1021.94287109375 1021.65289306641 1020.17797851562 1020.60717773438 1021.87707519531 1030.33361816406 1037.62353515625 1043.10192871094
954.290283203125 951.053588867188 960.869689941406 957.450073242188 965.872192382812 956.720092773438 959.054626464844 972.274597167969 954.623352050781 954.948791503906 944.299743652344 943.255554199219 945.814086914062 957.762817382812 952.341552734375 946.884887695312 943.22705078125 941.318359375 939.816833496094 948.442016601562 951.743896484375 954.266540527344 941.748596191406 940.760925292969 943.701782226562 950.331115722656 945.860290527344 943.827087402344 945.765197753906 954.628051757812 951.005310058594 954.078308105469 954.374816894531 955.812927246094 945.753723144531 952.393005371094 959.39501953125 961.66357421875 949.835998535156 952.113586425781 957.533813476562 955.570739746094 944.271728515625 947.760070800781 951.528747558594 955.042175292969 959.953186035156 962.975830078125 958.417358398438 958.39599609375 945.661437988281 957.608825683594 959.529724121094 966.56005859375 974.500610351562 973.838928222656 972.97216796875 970.503601074219 967.237976074219 960.020935058594 971.069091796875 965.609558105469 966.072082519531 969.641540527344 973.470458984375 967.006408691406 968.867797851562 967.88330078125 962.095886230469 970.619689941406 970.233276367188 964.041381835938 975.532409667969 976.029724121094 966.8583984375 965.078918457031 968.248596191406 968.574523925781 979.057006835938 982.531921386719 978.464416503906 974.67724609375 980.4814453125 983.652709960938 984.359130859375 982.46435546875 977.632934570312 973.817565917969 973.403198242188 970.574890136719 972.6142578125 973.522521972656 977.858154296875 985.876647949219 982.159729003906 971.588195800781 974.398010253906 984.827880859375 983.291687011719 986.091369628906 988.354064941406 1001.63055419922 997.921630859375 995.915161132812 988.265625 989.829956054688 994.318298339844 995.939086914062 1008.44140625 1009.32080078125 1020.37817382812 1009.89910888672 1011.83099365234 1014.02337646484 1018.44769287109 1019.39343261719 1019.65179443359 1020.92797851562 1021.31646728516 1019.09790039062 1023.66003417969 1025.27563476562 1013.88287353516 1013.04364013672 1021.54040527344 1026.03186035156 1015.59912109375 1020.15197753906 1018.30639648438 1023.04742431641 1029.59680175781 1034.60205078125 1033.04638671875 1023.89501953125 1025.27209472656 1031.87548828125 1036.65356445312 1034.98803710938 1028.26123046875 1036.86999511719 1035.96691894531 1028.89709472656 1016.30981445312 1015.09521484375 1018.25689697266 1013.32336425781 1022.76000976562 1014.8271484375 1017.58166503906 1026.57019042969
954.1142578125 951.872131347656 956.080078125 953.579650878906 951.010559082031 955.486389160156 960.196105957031 954.09814453125 955.099853515625 949.217224121094 948.553344726562 944.571838378906 946.987976074219 949.6337890625 946.976623535156 949.481750488281 936.1123046875 944.986572265625 943.244079589844 948.124328613281 946.471313476562 943.24462890625 943.646118164062 954.935607910156 948.459167480469 942.6796875 942.043762207031 942.05517578125 956.115112304688 947.088317871094 951.284423828125 952.59375 959.097290039062 957.206604003906 947.180419921875 948.755981445312 961.033813476562 963.161987304688 955.218078613281 950.018005371094 961.283569335938 957.744323730469 950.130737304688 951.165344238281 948.543090820312 958.947631835938 963.13720703125 964.928649902344 968.109008789062 964.107055664062 959.211853027344 961.038513183594 957.151794433594 969.901489257812 972.485595703125 979.874389648438 976.561706542969 965.828186035156 968.094055175781 974.010681152344 976.361755371094 968.944091796875 962.183959960938 965.782043457031 961.522644042969 966.830871582031 957.295959472656 965.534973144531 964.861389160156 968.994384765625 980.382080078125 972.058776855469 969.6689453125 971.785522460938 968.026489257812 972.427490234375 973.969360351562 976.057983398438 979.231323242188 979.063171386719 981.419067382812 983.475524902344 980.237976074219 974.909240722656 982.251281738281 979.873779296875 985.975769042969 974.568786621094 969.746704101562 972.333984375 977.785461425781 977.387390136719 975.910461425781 979.461242675781 982.91357421875 978.019104003906 975.907836914062 974.247741699219 983.139526367188 989.333374023438 995.47998046875 1005.05932617188 988.792358398438 984.921569824219 988.7705078125 987.796630859375 990.251770019531 988.891296386719 1000.20074462891 1007.32073974609 1023.52893066406 1017.22674560547 1019.29809570312 1017.36474609375 1029.68054199219 1027.80310058594 1025.59399414062 1022.20336914062 1039.05517578125 1033.349609375 1029.44738769531 1030.65295410156 1026.15051269531 1025.39758300781 1023.59771728516 1021.10260009766 1027.49926757812 1028.78796386719 1019.35076904297 1031.40283203125 1039.376953125 1034.5947265625 1037.92810058594 1029.12561035156 1019.41137695312 1031.02075195312 1031.99426269531 1031.63610839844 1037.15307617188 1039.06030273438 1032.51159667969 1029.1337890625 1017.56732177734 1018.08020019531 1017.75036621094 1009.47589111328 1017.02947998047 1013.56823730469 1016.75598144531 1019.52233886719
960.246154785156 957.278869628906 950.382202148438 953.681945800781 954.462219238281 956.854248046875 958.335144042969 956.556091308594 950.607360839844 949.647766113281 950.409851074219 948.550476074219 941.795654296875 938.9423828125 949.041748046875 941.332336425781 937.615783691406 946.240844726562 946.995971679688 948.349975585938 952.217712402344 949.428283691406 951.092651367188 951.238891601562 948.757690429688 949.909973144531 940.092468261719 947.546936035156 949.996643066406 951.761108398438 949.884765625 950.72412109375 946.300231933594 949.092529296875 953.644897460938 962.237915039062 962.850158691406 964.646850585938 961.670349121094 957.42724609375 953.857116699219 957.305908203125 949.90087890625 957.315612792969 952.987487792969 967.455078125 980.558654785156 966.756774902344 968.536071777344 967.393005371094 962.639282226562 962.654907226562 966.027099609375 966.85498046875 975.026489257812 978.3369140625 973.507202148438 971.734130859375 969.447021484375 972.204223632812 973.257202148438 970.444763183594 972.223205566406 973.520385742188 960.118103027344 962.52587890625 964.909790039062 959.222778320312 968.715087890625 975.916320800781 980.758178710938 975.279113769531 977.035217285156 969.825317382812 985.793579101562 972.852600097656 971.79736328125 976.948852539062 982.047790527344 979.2041015625 978.989013671875 976.840759277344 982.441040039062 980.180847167969 979.494934082031 982.686340332031 983.82958984375 971.451171875 978.501892089844 976.414428710938 978.809631347656 975.068237304688 977.879943847656 979.940979003906 987.66455078125 976.021850585938 979.955078125 969.610046386719 982.720886230469 985.799133300781 995.723327636719 995.765197753906 982.807312011719 981.854125976562 985.068786621094 980.2373046875 975.045776367188 989.800354003906 1004.02465820312 1011.83465576172 1024.23815917969 1025.19128417969 1023.33465576172 1028.44580078125 1034.6259765625 1015.17895507812 1025.65258789062 1032.59973144531 1037.10241699219 1036.98364257812 1035.62866210938 1029.19287109375 1030.21606445312 1023.93505859375 1030.84387207031 1032.6328125 1031.47155761719 1027.93835449219 1030.05651855469 1023.42272949219 1028.76123046875 1029.16442871094 1033.38146972656 1033.55419921875 1027.39111328125 1033.478515625 1026.4384765625 1028.73168945312 1032.88427734375 1035.2021484375 1027.65734863281 1025.42272949219 1026.38305664062 1019.97705078125 1027.43627929688 1012.60681152344 1007.24127197266 1008.15386962891 1012.28881835938 1008.47583007812
959.698608398438 959.917419433594 950.447448730469 952.602905273438 956.089294433594 959.639343261719 946.420166015625 951.820617675781 950.267944335938 942.917358398438 938.355224609375 941.7705078125 947.286010742188 952.89599609375 941.300048828125 936.448425292969 940.733642578125 947.751281738281 949.466613769531 955.189147949219 962.572692871094 958.751098632812 962.508056640625 958.336364746094 949.038330078125 950.516723632812 943.961669921875 950.792663574219 946.497985839844 951.913757324219 953.392395019531 951.783386230469 950.178283691406 947.741333007812 955.162780761719 961.179870605469 966.792663574219 969.952026367188 963.973022460938 967.637084960938 956.071533203125 966.705017089844 965.18798828125 955.130798339844 957.683471679688 965.068237304688 978.806091308594 974.030517578125 974.321105957031 974.343139648438 963.751586914062 971.338745117188 971.466491699219 971.733154296875 974.049133300781 974.368469238281 979.258666992188 970.334533691406 972.106018066406 976.373840332031 969.248229980469 969.572082519531 968.713256835938 965.672546386719 957.636352539062 955.290100097656 963.675659179688 966.4775390625 971.861389160156 974.55517578125 975.074096679688 980.030090332031 977.642456054688 974.572387695312 978.588134765625 974.031005859375 977.760314941406 977.930725097656 979.928405761719 978.477233886719 980.492553710938 990.318542480469 986.654174804688 978.134094238281 982.258666992188 995.343933105469 982.514465332031 981.361206054688 975.685424804688 970.825378417969 969.805114746094 972.459289550781 989.651428222656 994.567199707031 988.180786132812 991.414916992188 978.1171875 995.908142089844 997.686096191406 994.907348632812 992.275817871094 997.239807128906 994.184143066406 982.722290039062 976.880249023438 975.701965332031 985.873779296875 1001.53039550781 1014.96807861328 1023.74243164062 1027.67602539062 1027.35876464844 1031.90454101562 1033.17749023438 1027.95068359375 1027.45581054688 1025.32409667969 1035.28137207031 1036.54174804688 1041.54345703125 1037.86743164062 1029.67749023438 1031.10021972656 1030.73156738281 1026.1748046875 1034.23449707031 1038.27209472656 1037.75598144531 1029.47216796875 1030.90747070312 1025.79064941406 1030.81286621094 1030.09973144531 1024.62561035156 1017.61596679688 1020.13049316406 1020.73486328125 1022.42816162109 1020.93566894531 1025.33898925781 1033.23669433594 1027.802734375 1028.36193847656 1019.88659667969 1016.93139648438 1016.78192138672 1005.63330078125 1006.42517089844 1006.04638671875 1007.44580078125
960.745422363281 956.510192871094 944.307800292969 948.120727539062 949.915222167969 944.722961425781 954.43310546875 946.390563964844 941.620544433594 938.610961914062 936.258056640625 942.636901855469 947.389465332031 949.543212890625 945.884216308594 942.651062011719 944.558715820312 951.256958007812 954.415405273438 960.589538574219 966.121337890625 970.105773925781 972.00634765625 968.530883789062 957.499328613281 953.005676269531 956.061218261719 950.912231445312 945.961120605469 946.921020507812 954.213562011719 952.244812011719 955.99267578125 958.067504882812 961.552429199219 961.776245117188 964.783264160156 965.947082519531 971.036254882812 970.539184570312 964.274169921875 964.318908691406 962.852233886719 972.284118652344 962.722412109375 969.968139648438 986.40234375 980.644348144531 972.300048828125 980.432312011719 975.066162109375 967.404846191406 971.826293945312 972.168273925781 974.475646972656 974.868347167969 979.664428710938 974.294494628906 979.343139648438 976.471008300781 969.417663574219 965.006530761719 965.003540039062 962.697875976562 962.146850585938 961.362915039062 971.6806640625 968.223449707031 969.280700683594 971.005737304688 971.101257324219 975.140686035156 979.381286621094 984.688171386719 981.407287597656 978.659851074219 977.607849121094 979.520385742188 984.191711425781 978.652160644531 979.705627441406 990.474304199219 986.178649902344 987.7880859375 991.745239257812 999.349487304688 989.834777832031 981.851867675781 981.496643066406 980.824645996094 976.148986816406 980.070495605469 988.934265136719 989.734008789062 990.78515625 987.792785644531 992.354797363281 992.774536132812 989.731567382812 987.275451660156 992.658996582031 996.178894042969 1001.33532714844 997.547912597656 995.882202148438 992.448974609375 996.8486328125 1004.26696777344 1022.18334960938 1024.61242675781 1027.67041015625 1025.26379394531 1028.86254882812 1029.28881835938 1029.01770019531 1030.52124023438 1026.58154296875 1035.73681640625 1048.27258300781 1030.42346191406 1037.18151855469 1034.13525390625 1029.34582519531 1036.14074707031 1032.63940429688 1037.15148925781 1028.64172363281 1024.91638183594 1024.48522949219 1024.06408691406 1024.3359375 1027.32495117188 1022.01586914062 1016.83502197266 1014.54766845703 1014.57110595703 1015.08923339844 1010.02392578125 1018.38317871094 1027.94909667969 1019.69512939453 1024.4404296875 1015.88232421875 1020.18487548828 1015.24133300781 1012.810546875 999.547180175781 1004.20880126953 1004.44708251953 1007.85186767578
956.892944335938 953.705627441406 948.036560058594 949.827697753906 949.902404785156 948.458984375 946.989501953125 943.213806152344 935.4287109375 942.036437988281 945.962341308594 946.247253417969 944.013427734375 941.516235351562 946.682312011719 944.960510253906 950.025390625 957.340148925781 949.9169921875 958.05810546875 957.821594238281 967.0234375 974.778381347656 960.085388183594 955.315124511719 954.006225585938 955.194946289062 958.784118652344 951.765686035156 941.829467773438 953.270446777344 961.447875976562 954.644653320312 955.890747070312 960.471801757812 957.847717285156 965.661499023438 970.078857421875 972.377685546875 973.521362304688 968.164306640625 968.330322265625 974.371704101562 977.981872558594 971.681579589844 976.661376953125 989.233581542969 983.978698730469 979.09716796875 977.401611328125 977.872619628906 971.594848632812 969.051025390625 968.622314453125 977.374572753906 980.001159667969 977.053100585938 978.832458496094 976.1474609375 981.458129882812 976.602905273438 970.096923828125 962.107055664062 961.400512695312 959.991271972656 961.640014648438 965.833923339844 975.941589355469 972.696594238281 975.7021484375 977.108032226562 984.704711914062 981.35009765625 983.230041503906 988.258056640625 988.1171875 981.230651855469 984.60009765625 982.381958007812 984.454711914062 982.928955078125 980.339721679688 986.379211425781 986.238525390625 989.479248046875 986.290100097656 978.494689941406 986.432250976562 980.955749511719 980.536315917969 982.731262207031 984.371215820312 985.991394042969 994.705200195312 991.321655273438 985.721252441406 997.533325195312 996.831237792969 989.405944824219 994.662536621094 987.113952636719 1005.88031005859 1001.76904296875 1002.91168212891 998.051025390625 995.971801757812 1003.35021972656 1002.57092285156 1027.00170898438 1021.52270507812 1022.22692871094 1016.05505371094 1018.111328125 1027.76330566406 1032.33764648438 1022.44506835938 1023.37048339844 1034.93713378906 1037.46240234375 1039.02600097656 1044.955078125 1035.75341796875 1032.97277832031 1029.51391601562 1029.42504882812 1032.25390625 1025.22326660156 1022.27233886719 1018.93579101562 1019.99877929688 1027.17114257812 1029.38073730469 1023.705078125 1021.26397705078 1018.96069335938 1007.13159179688 1010.85675048828 1007.63623046875 1020.03051757812 1018.55023193359 1021.13116455078 1013.04693603516 1020.10961914062 1015.83489990234 1008.84899902344 1004.74395751953 995.910583496094 994.336608886719 999.840209960938 1000.20239257812
956.168395996094 954.149963378906 957.07568359375 947.561462402344 944.724975585938 941.627868652344 949.069458007812 945.895202636719 943.832336425781 941.320373535156 943.288269042969 947.23046875 948.225219726562 950.015502929688 950.457702636719 951.704833984375 958.449462890625 955.126159667969 955.518676757812 963.694763183594 961.151977539062 959.243591308594 965.480407714844 959.90625 960.076110839844 967.369079589844 962.4599609375 962.655822753906 955.993286132812 951.606628417969 954.017211914062 960.0869140625 956.249633789062 952.304931640625 960.601745605469 964.4921875 966.014282226562 960.532592773438 960.187438964844 969.829772949219 973.070251464844 972.845153808594 976.0576171875 984.187683105469 978.062805175781 976.600524902344 990.171936035156 988.057373046875 989.482055664062 980.613891601562 985.169921875 979.235412597656 970.897033691406 973.271118164062 983.728088378906 992.523620605469 981.901428222656 980.989318847656 980.473266601562 979.969421386719 985.077941894531 966.522033691406 962.833190917969 959.643615722656 960.849731445312 957.903503417969 966.158447265625 972.413269042969 980.267639160156 980.9150390625 974.958618164062 979.451538085938 981.915649414062 979.391845703125 985.512023925781 990.334533691406 987.230651855469 988.466064453125 983.033813476562 980.935180664062 979.28125 985.571594238281 988.488830566406 986.313720703125 985.440368652344 987.866821289062 979.177368164062 987.934875488281 981.27001953125 975.347900390625 974.917602539062 970.728576660156 980.710327148438 989.374328613281 988.849060058594 980.063232421875 989.926086425781 997.348937988281 995.436828613281 992.332641601562 994.188537597656 1004.99346923828 1008.99609375 1012.72784423828 1014.85485839844 1008.00463867188 1007.22961425781 1007.45983886719 1009.92230224609 1020.57897949219 1019.82891845703 1020.24768066406 1025.32861328125 1030.271484375 1031.33154296875 1020.29309082031 1027.66662597656 1030.08288574219 1028.29809570312 1037.85180664062 1043.99047851562 1035.34875488281 1044.93627929688 1040.50708007812 1031.28674316406 1033.57470703125 1024.93139648438 1016.07159423828 1025.06787109375 1026.72570800781 1022.43249511719 1021.93316650391 1015.45825195312 1015.32464599609 1017.10272216797 1009.30731201172 1011.38562011719 1018.38531494141 1009.41217041016 1009.6533203125 1012.88629150391 1015.32342529297 1016.36456298828 1013.45147705078 1016.89007568359 997.400756835938 997.690124511719 993.60791015625 987.694458007812 990.082763671875
950.537170410156 949.031372070312 945.882568359375 951.375793457031 944.524963378906 940.81201171875 936.983520507812 945.294921875 938.412536621094 940.562438964844 943.781372070312 945.089721679688 949.245422363281 952.391967773438 964.113708496094 956.004638671875 957.895935058594 956.725219726562 963.926330566406 958.890686035156 957.960754394531 960.5712890625 959.836975097656 961.263671875 964.864807128906 970.843383789062 973.42626953125 974.650085449219 960.578002929688 958.071899414062 956.694458007812 952.227355957031 958.507934570312 952.011535644531 951.657470703125 960.265014648438 959.297424316406 956.234008789062 971.214172363281 970.133911132812 969.765258789062 959.673950195312 969.226379394531 981.173706054688 987.522705078125 994.518737792969 993.6484375 1000.34637451172 991.903015136719 987.120910644531 987.252380371094 977.860046386719 969.375061035156 970.230102539062 977.39990234375 993.446411132812 984.359130859375 978.00634765625 971.930969238281 988.060668945312 975.4931640625 973.950012207031 964.675415039062 969.619750976562 964.738464355469 968.624877929688 963.92919921875 974.950744628906 986.736633300781 974.355773925781 970.194580078125 977.041564941406 979.628540039062 981.510559082031 991.59326171875 992.573608398438 983.453979492188 984.043884277344 981.648681640625 974.768737792969 985.723022460938 990.039794921875 987.747863769531 988.155395507812 985.648742675781 989.322204589844 978.531860351562 971.866149902344 964.976379394531 970.476806640625 977.003051757812 965.302551269531 973.004028320312 983.353149414062 990.763427734375 982.142700195312 995.881408691406 990.786682128906 996.991455078125 1008.59460449219 1007.53833007812 1013.28460693359 1014.62548828125 1013.36846923828 1011.15112304688 1004.25506591797 1011.04553222656 1007.75372314453 1014.73455810547 1018.94763183594 1025.31567382812 1027.82604980469 1033.56457519531 1032.68200683594 1027.60485839844 1033.42529296875 1030.71008300781 1027.76000976562 1023.18762207031 1029.99792480469 1033.38244628906 1030.21997070312 1038.39624023438 1032.84826660156 1027.51086425781 1023.47082519531 1029.62731933594 1017.09130859375 1023.18548583984 1024.11376953125 1022.41906738281 1017.63293457031 1009.22711181641 1008.51440429688 1009.04864501953 1008.05358886719 1017.77789306641 1016.03137207031 1015.98040771484 1006.53137207031 1006.84057617188 1010.28039550781 1012.07055664062 1012.30535888672 1003.87115478516 998.049743652344 1007.82800292969 1006.67816162109 980.5302734375 987.424682617188
950.222290039062 945.708374023438 945.337524414062 939.033630371094 945.016967773438 945.2470703125 934.752746582031 939.494873046875 939.958923339844 937.084167480469 943.722106933594 948.665466308594 954.974426269531 960.485412597656 963.156555175781 967.239501953125 960.367309570312 965.368408203125 971.641784667969 972.67333984375 969.304260253906 962.857421875 964.411926269531 969.973693847656 971.775939941406 980.471740722656 976.538146972656 970.19580078125 969.325622558594 968.326721191406 964.6708984375 957.870971679688 959.118957519531 955.424072265625 949.716125488281 956.726440429688 968.78955078125 966.733764648438 971.315734863281 971.424560546875 970.829162597656 968.041137695312 964.425903320312 979.962280273438 989.202270507812 990.430969238281 992.714538574219 993.289184570312 1001.82745361328 993.291748046875 991.860229492188 981.687622070312 978.768005371094 983.959716796875 981.876892089844 987.63330078125 988.122802734375 980.065368652344 968.250244140625 972.180419921875 980.370666503906 967.265991210938 966.926940917969 969.754150390625 969.28466796875 972.687805175781 976.260192871094 979.735046386719 980.923828125 972.321044921875 974.499755859375 974.734252929688 988.400329589844 982.791015625 985.807922363281 984.113464355469 981.079895019531 988.114440917969 982.985229492188 973.860778808594 980.769226074219 979.126220703125 985.651916503906 993.373901367188 981.498291015625 985.35546875 983.9609375 975.980285644531 971.816162109375 979.824768066406 982.855346679688 979.165649414062 976.623901367188 985.308288574219 995.820739746094 992.474609375 993.551330566406 992.3466796875 1001.99487304688 1008.80523681641 1011.66821289062 1002.87646484375 1000.86920166016 1013.40197753906 1008.30609130859 1010.29663085938 1012.07110595703 1008.16632080078 1018.99041748047 1020.30432128906 1026.333984375 1030.57385253906 1028.44653320312 1031.13012695312 1031.39270019531 1033.14404296875 1022.62426757812 1034.15100097656 1021.27496337891 1019.36578369141 1024.01843261719 1019.43927001953 1028.6669921875 1026.33227539062 1023.22570800781 1022.2314453125 1026.25476074219 1019.06365966797 1010.41613769531 1023.78979492188 1014.88146972656 1016.13031005859 1006.34704589844 1004.68023681641 1007.22436523438 1014.68133544922 1016.63806152344 1015.12457275391 1006.91040039062 1005.08544921875 995.0068359375 999.282348632812 1003.96704101562 1010.28283691406 1002.39599609375 1009.62158203125 1000.45928955078 998.372924804688 991.643188476562 985.372192382812
944.642700195312 939.991577148438 940.936340332031 933.213012695312 940.049377441406 945.882080078125 941.134460449219 938.867919921875 944.470092773438 949.100646972656 954.063049316406 949.097595214844 957.250671386719 963.932922363281 968.981140136719 970.665893554688 967.815002441406 966.02587890625 971.733459472656 973.905395507812 992.66162109375 970.357849121094 959.26025390625 966.870544433594 968.322509765625 974.248413085938 971.384033203125 970.054382324219 968.436157226562 972.221801757812 970.4580078125 959.909484863281 954.099792480469 957.091064453125 947.861206054688 964.867309570312 970.772644042969 969.139526367188 977.177795410156 976.019836425781 975.003051757812 972.4248046875 985.639038085938 986.971008300781 999.431030273438 1001.40960693359 1004.5673828125 1000.58197021484 996.540283203125 996.810302734375 993.369018554688 983.878662109375 984.214965820312 984.296508789062 987.177490234375 990.07470703125 976.386047363281 970.683166503906 973.018798828125 978.705139160156 980.85546875 970.766784667969 971.385192871094 971.311767578125 970.889282226562 969.835815429688 972.504760742188 983.649230957031 976.020263671875 978.48486328125 981.82666015625 983.093078613281 989.573669433594 988.440551757812 986.793334960938 978.099975585938 985.802185058594 990.55126953125 989.771789550781 988.373168945312 982.485656738281 982.261535644531 979.735961914062 991.303161621094 976.457275390625 972.07080078125 977.045104980469 982.915710449219 982.011962890625 979.180847167969 987.414184570312 989.249206542969 981.371704101562 986.566101074219 998.359558105469 995.984130859375 986.874938964844 989.552612304688 999.897705078125 1004.37463378906 1008.85723876953 998.34521484375 1006.02954101562 1007.16583251953 1008.4453125 1012.92822265625 1011.93920898438 1013.09985351562 1024.66491699219 1028.96350097656 1027.02124023438 1033.74462890625 1025.8837890625 1031.35314941406 1037.19909667969 1042.20617675781 1034.67834472656 1037.39404296875 1025.59619140625 1021.06695556641 1020.37164306641 1017.75555419922 1021.84057617188 1023.67626953125 1019.22509765625 1015.37286376953 1023.31268310547 1014.00402832031 1018.47515869141 1017.69287109375 1014.13177490234 1007.63421630859 1010.41375732422 999.097961425781 1011.55426025391 1019.46899414062 1023.9609375 1021.66418457031 1012.03875732422 1010.38543701172 1007.51513671875 999.282287597656 1007.22241210938 999.419616699219 999.709533691406 997.735046386719 998.87255859375 994.873718261719 988.776489257812 989.691040039062
944.337951660156 940.313720703125 932.796508789062 936.227905273438 944.941284179688 938.800842285156 936.213317871094 936.938171386719 943.321228027344 935.753051757812 948.287719726562 959.262878417969 960.901977539062 977.26416015625 976.589477539062 972.826538085938 970.251037597656 964.75244140625 972.045104980469 979.426574707031 989.698303222656 978.564697265625 968.225891113281 973.705871582031 970.671142578125 975.653625488281 976.923217773438 972.592712402344 966.393798828125 972.887145996094 982.550048828125 968.074462890625 958.577453613281 959.933166503906 965.395629882812 978.411560058594 980.03515625 981.996948242188 984.658264160156 991.157592773438 989.517272949219 994.6044921875 995.287231445312 994.463073730469 1006.30078125 1011.87084960938 1008.98516845703 1005.49353027344 1004.47082519531 1000.30621337891 999.442260742188 984.762756347656 983.886108398438 986.754028320312 993.276794433594 985.492797851562 971.924377441406 978.517700195312 979.28662109375 981.923034667969 983.76611328125 972.963928222656 970.096923828125 979.128662109375 974.367004394531 978.580322265625 984.701721191406 980.982788085938 982.910034179688 986.885681152344 991.150939941406 995.88916015625 987.342041015625 986.997924804688 990.501342773438 991.011657714844 984.961364746094 990.771179199219 999.264343261719 988.458374023438 986.1826171875 987.752014160156 986.126403808594 981.788696289062 976.721069335938 983.725036621094 984.198059082031 982.097229003906 989.729675292969 994.642395019531 984.713317871094 978.748291015625 982.708557128906 990.365051269531 993.137451171875 987.626342773438 988.395080566406 997.373779296875 997.107971191406 1003.97857666016 1006.94293212891 1003.94976806641 1012.61242675781 1009.15856933594 1014.36962890625 1014.31182861328 1009.83923339844 1009.07409667969 1011.13317871094 1015.72521972656 1024.77648925781 1030.90234375 1024.46569824219 1032.47387695312 1040.15100097656 1040.21374511719 1034.34729003906 1023.404296875 1021.83410644531 1018.06958007812 1013.61303710938 1011.60827636719 1012.53155517578 1022.54632568359 1020.08489990234 1017.09680175781 1021.38018798828 1019.43981933594 1017.93542480469 1007.22192382812 995.033020019531 1004.56066894531 1003.724609375 1000.36993408203 1011.04870605469 1016.88806152344 1019.22296142578 1012.87866210938 1010.09320068359 1004.22564697266 1003.46264648438 991.211608886719 1000.21575927734 989.643371582031 995.625854492188 998.343872070312 997.555541992188 992.104309082031 989.698181152344 995.8076171875
943.105285644531 938.922241210938 937.721008300781 936.57080078125 936.117736816406 939.825561523438 936.863037109375 942.092712402344 944.144897460938 935.319763183594 950.389343261719 954.66748046875 969.156433105469 978.747131347656 980.595642089844 973.660095214844 965.887390136719 971.616455078125 978.481994628906 982.525085449219 982.941467285156 981.434020996094 974.028015136719 974.840026855469 973.872192382812 969.254577636719 970.972351074219 975.514709472656 970.090698242188 964.944519042969 967.500366210938 964.634155273438 966.779907226562 961.819213867188 969.135192871094 972.166748046875 982.848510742188 989.057556152344 983.189270019531 999.325500488281 1009.45416259766 1001.59429931641 1003.98010253906 999.754333496094 1013.86431884766 1019.77648925781 1022.47619628906 1007.78094482422 1007.81170654297 1004.78765869141 1002.53173828125 988.866638183594 995.562194824219 983.835693359375 985.893310546875 983.74609375 984.621887207031 980.676330566406 979.334716796875 971.329650878906 969.932922363281 969.912170410156 978.131591796875 983.237426757812 974.950988769531 971.905029296875 980.99365234375 982.616943359375 978.959411621094 981.668395996094 1000.93646240234 990.214599609375 997.215209960938 998.253845214844 991.356506347656 991.955810546875 989.051696777344 989.770385742188 996.710266113281 989.382690429688 995.084533691406 992.66357421875 994.042358398438 984.677978515625 984.491638183594 988.817932128906 985.436767578125 978.773315429688 985.838195800781 989.856323242188 983.844177246094 985.282836914062 982.1533203125 987.549011230469 989.440612792969 995.017944335938 994.487487792969 995.676391601562 997.434020996094 1002.91326904297 1007.35382080078 1003.24450683594 1012.87524414062 1017.67626953125 1014.26513671875 1014.10095214844 1009.7451171875 1011.31488037109 1014.03790283203 1015.86773681641 1017.93176269531 1031.99621582031 1028.48327636719 1029.15417480469 1030.47595214844 1031.61486816406 1023.20135498047 1018.24395751953 1017.8251953125 1012.81311035156 1013.69818115234 1009.43792724609 1015.03356933594 1022.38763427734 1012.73651123047 1016.23028564453 1014.73046875 1019.89447021484 1012.50830078125 1005.2958984375 1000.04718017578 1004.58172607422 1006.21527099609 1000.55285644531 1006.16809082031 1013.97003173828 1014.64593505859 1023.96697998047 1016.39874267578 1001.13757324219 998.751037597656 993.988586425781 995.255004882812 992.332458496094 994.706970214844 996.153625488281 993.982055664062 990.47705078125 994.602233886719 1006.7041015625
952.268493652344 937.869689941406 939.577514648438 936.387390136719 940.057983398438 938.634338378906 933.982482910156 938.709655761719 935.784545898438 932.780822753906 946.195495605469 956.352233886719 969.728149414062 980.445251464844 983.363098144531 986.007873535156 980.517578125 975.153686523438 981.898620605469 981.62451171875 976.569458007812 983.678405761719 982.584228515625 979.703247070312 989.096374511719 978.993041992188 975.541625976562 976.379089355469 978.966796875 974.253601074219 971.255798339844 975.143615722656 980.02685546875 968.714965820312 973.396179199219 977.700988769531 988.980895996094 990.481872558594 989.017211914062 999.611389160156 1006.96673583984 1003.72723388672 1005.48645019531 1018.02258300781 1019.27349853516 1021.84796142578 1022.08911132812 1011.88238525391 1002.58001708984 1006.90393066406 999.960388183594 993.899047851562 987.853759765625 985.671508789062 984.975646972656 982.545593261719 977.891052246094 974.535461425781 974.9541015625 976.401672363281 983.461181640625 980.588623046875 975.884948730469 974.689147949219 969.658630371094 970.80517578125 978.879211425781 976.623596191406 981.297119140625 982.268737792969 995.446350097656 985.663269042969 992.055053710938 1001.46258544922 1001.54089355469 1001.97094726562 1001.38543701172 993.850830078125 999.104431152344 1002.19207763672 999.267150878906 996.282409667969 997.568054199219 991.821411132812 991.1357421875 994.909484863281 991.249389648438 993.278198242188 991.087524414062 991.111511230469 990.216613769531 990.183349609375 981.795043945312 990.904846191406 990.140319824219 995.987915039062 1000.80670166016 998.957153320312 996.0234375 997.105590820312 1013.14184570312 1015.85858154297 1013.03771972656 1017.04870605469 1017.13897705078 1013.05584716797 1019.16906738281 1017.08337402344 1008.53118896484 1011.08801269531 1023.48016357422 1024.86022949219 1025.64636230469 1028.47521972656 1029.943359375 1023.15020751953 1015.58630371094 1009.92333984375 1008.89483642578 1008.77661132812 1006.73040771484 1007.54327392578 1016.96643066406 1012.87072753906 1013.45544433594 1020.171875 1016.98303222656 1012.40704345703 1010.0283203125 1004.32891845703 1012.62615966797 1007.23272705078 1005.98529052734 1004.57360839844 1005.82318115234 1008.06768798828 1010.29504394531 1017.16693115234 1006.01177978516 1000.08074951172 998.439697265625 990.297668457031 989.874084472656 989.438293457031 994.137145996094 987.505920410156 981.345581054688 996.032958984375 989.806945800781 996.15087890625
947.682800292969 932.861572265625 933.538879394531 935.824157714844 934.924743652344 935.390014648438 938.23583984375 937.501037597656 937.578369140625 947.234375 951.264099121094 955.905822753906 970.769104003906 980.898864746094 981.583312988281 985.322998046875 982.988220214844 973.454711914062 977.750305175781 980.286071777344 983.714233398438 991.452331542969 990.717651367188 992.042907714844 997.733093261719 993.028076171875 986.24560546875 984.863952636719 978.621337890625 979.96435546875 973.980346679688 977.473754882812 978.865173339844 982.59814453125 981.22314453125 979.262329101562 977.789794921875 979.955017089844 982.197204589844 989.137573242188 998.694763183594 1005.4755859375 1009.78656005859 1014.67828369141 1018.43811035156 1016.58898925781 1009.98193359375 1015.58062744141 1003.98291015625 1004.91296386719 996.525451660156 988.306640625 986.504089355469 991.050903320312 984.101806640625 984.914672851562 982.438232421875 982.159362792969 980.0693359375 978.276977539062 977.509521484375 982.481018066406 977.529174804688 972.886047363281 973.912902832031 973.747863769531 977.709228515625 971.714233398438 985.468933105469 985.16357421875 992.964111328125 989.465026855469 993.656372070312 992.254943847656 999.002014160156 997.279174804688 994.772277832031 994.616149902344 1003.26428222656 1006.71008300781 1009.19580078125 1006.10211181641 1001.36120605469 1000.11975097656 1006.88488769531 1000.42987060547 989.705505371094 991.008056640625 994.390808105469 988.73583984375 979.465698242188 992.179992675781 988.595581054688 987.662414550781 991.770751953125 995.931213378906 994.891174316406 994.9736328125 996.01513671875 1001.71844482422 1009.60052490234 1006.91223144531 1010.21032714844 1016.76165771484 1016.10571289062 1019.66674804688 1019.07550048828 1017.75811767578 1012.13580322266 1016.21618652344 1026.28955078125 1028.10400390625 1024.82482910156 1022.67211914062 1028.02233886719 1023.685546875 1018.87719726562 1015.93048095703 1010.96667480469 1010.521484375 1017.68725585938 1015.06909179688 1020.88592529297 1009.9443359375 1019.06610107422 1016.09637451172 1022.08068847656 1019.68713378906 1014.21405029297 1007.28131103516 1014.87628173828 1007.14947509766 1005.55096435547 992.859252929688 1002.95733642578 1005.74420166016 1002.16845703125 1005.03674316406 1006.83245849609 1004.24365234375 998.217102050781 1003.23260498047 982.174743652344 991.71484375 984.966186523438 991.434875488281 979.722778320312 981.950134277344 984.780212402344 980.653991699219
950.553466796875 929.476745605469 936.192504882812 937.75341796875 937.046813964844 943.0361328125 938.495849609375 936.143005371094 948.883361816406 950.8056640625 952.586486816406 955.236267089844 962.326965332031 980.765441894531 976.872192382812 976.9423828125 974.421447753906 978.397033691406 976.701416015625 980.504150390625 973.508422851562 981.33447265625 996.767333984375 989.960632324219 995.365295410156 996.245971679688 989.746765136719 995.241577148438 985.513549804688 981.877563476562 979.693054199219 975.056091308594 986.176696777344 987.323364257812 984.445739746094 981.852844238281 980.426635742188 981.659912109375 984.823547363281 984.868835449219 996.077026367188 1000.49542236328 1006.93267822266 1002.87933349609 1017.09429931641 1011.02166748047 1015.57873535156 1004.84326171875 1007.59759521484 1003.62744140625 993.939819335938 991.817687988281 994.219177246094 989.433410644531 992.172302246094 989.832458496094 986.023010253906 989.750305175781 988.559631347656 982.951599121094 979.60888671875 983.59765625 979.607299804688 973.624206542969 976.623474121094 968.999145507812 981.653625488281 986.404907226562 989.284973144531 984.554077148438 989.17919921875 991.089965820312 991.346374511719 987.582946777344 989.298522949219 990.057250976562 986.82568359375 989.115112304688 995.007141113281 1006.45806884766 1008.29663085938 1012.11822509766 1006.41333007812 1001.05987548828 997.92724609375 993.852905273438 992.611267089844 997.579772949219 993.616821289062 992.449157714844 990.263671875 991.608459472656 988.581665039062 990.2265625 994.139038085938 994.680236816406 1001.93194580078 994.184448242188 997.317199707031 1003.94311523438 1008.03894042969 1009.55187988281 1007.95855712891 1004.53497314453 1010.13287353516 1010.93615722656 1021.79052734375 1022.75701904297 1028.88952636719 1022.46459960938 1024.98120117188 1023.21173095703 1019.24530029297 1026.67443847656 1030.25012207031 1042.1943359375 1037.72338867188 1028.65734863281 1024.7265625 1013.09527587891 1015.96661376953 1024.44189453125 1021.36810302734 1018.89251708984 1011.44342041016 1010.93798828125 1020.07501220703 1015.81555175781 1008.72015380859 1007.34399414062 1003.12634277344 996.903137207031 993.9052734375 994.261108398438 1000.52056884766 1002.70764160156 1002.84735107422 1008.57440185547 1012.31176757812 1003.69305419922 1000.04028320312 996.998962402344 984.553771972656 980.083190917969 988.492858886719 992.101257324219 972.43701171875 985.500549316406 975.144775390625 968.96728515625
951.285034179688 944.912475585938 940.512390136719 941.163879394531 937.169128417969 944.208190917969 936.874389648438 947.168151855469 954.501586914062 950.394897460938 959.53466796875 955.921325683594 969.111083984375 973.907958984375 981.006591796875 981.821533203125 982.569274902344 981.377075195312 981.940307617188 976.972106933594 977.160583496094 988.1005859375 993.045104980469 990.294799804688 997.802673339844 994.812622070312 993.475280761719 997.575500488281 985.459838867188 975.618774414062 982.4521484375 986.139709472656 987.051818847656 986.0068359375 985.125793457031 989.002258300781 985.962219238281 986.047058105469 985.833435058594 987.241333007812 995.650268554688 1001.68908691406 1004.72430419922 1009.89196777344 1019.31414794922 1009.97271728516 1007.4326171875 1001.65582275391 1000.61248779297 999.75830078125 997.506652832031 996.526062011719 998.913940429688 993.438354492188 990.820251464844 986.530456542969 989.829040527344 984.853088378906 990.128173828125 981.936340332031 980.083129882812 982.892150878906 984.238586425781 978.611328125 973.921997070312 973.991149902344 981.183837890625 987.936218261719 994.653930664062 982.214599609375 985.083312988281 985.691833496094 1000.25274658203 991.730407714844 991.988159179688 984.062316894531 984.408569335938 998.77783203125 998.852355957031 1004.99865722656 1006.63958740234 1007.78936767578 1009.09509277344 1005.70147705078 1008.34204101562 1006.62451171875 998.128845214844 989.593444824219 994.814025878906 991.241088867188 987.840026855469 980.169982910156 990.511047363281 982.205810546875 991.210388183594 990.098510742188 995.979797363281 997.973999023438 1000.19116210938 1006.65545654297 1006.73864746094 1011.74163818359 1003.87536621094 1006.42309570312 1013.29638671875 1014.25909423828 1024.76953125 1029.31372070312 1037.59301757812 1030.83923339844 1029.54357910156 1025.79614257812 1032.2109375 1043.81811523438 1049.095703125 1043.99377441406 1044.57824707031 1041.79150390625 1024.70581054688 1016.45477294922 1026.33056640625 1023.88452148438 1021.99536132812 1018.9736328125 1007.90747070312 1008.94592285156 1010.97766113281 1008.25933837891 1012.56072998047 998.519226074219 992.607482910156 990.07470703125 988.98779296875 988.189758300781 995.606384277344 1004.23864746094 1003.25543212891 1000.37573242188 1006.19952392578 992.5791015625 993.856811523438 988.630676269531 983.209289550781 979.8955078125 980.747741699219 985.023315429688 982.614318847656 969.595642089844 961.590576171875 964.112670898438
952.796569824219 948.120483398438 948.691162109375 946.569274902344 947.212707519531 939.721313476562 937.506042480469 947.461791992188 956.555114746094 959.422302246094 964.95458984375 968.783325195312 970.810424804688 974.508605957031 979.633605957031 980.097900390625 979.83740234375 976.247802734375 975.668151855469 981.436462402344 972.665161132812 977.099731445312 976.403564453125 988.306518554688 993.134399414062 996.462707519531 989.809020996094 998.433288574219 990.031677246094 985.898132324219 982.109008789062 986.132690429688 993.223999023438 991.493713378906 985.235900878906 990.839904785156 1000.24957275391 987.053833007812 987.509704589844 993.567626953125 1000.95397949219 996.076049804688 998.406494140625 1013.73315429688 1016.11700439453 1007.98809814453 999.833251953125 994.752502441406 994.005554199219 996.457763671875 990.801452636719 988.608520507812 993.981567382812 995.5009765625 995.464538574219 997.18896484375 987.1279296875 981.900634765625 985.252380371094 981.382568359375 981.231018066406 984.330505371094 981.017639160156 976.729919433594 976.618225097656 983.130737304688 984.599670410156 979.978820800781 982.041931152344 980.185729980469 983.490966796875 988.230102539062 989.817504882812 988.594665527344 990.95556640625 989.023376464844 979.410949707031 988.224670410156 991.622985839844 993.32861328125 1002.07684326172 1012.88842773438 1000.70281982422 996.247924804688 1007.26806640625 1002.90844726562 995.874816894531 990.85302734375 996.188110351562 988.5029296875 989.30078125 984.558532714844 993.86328125 995.510070800781 994.705383300781 992.997863769531 991.046203613281 990.503845214844 997.861145019531 1002.53430175781 1006.20031738281 1010.89416503906 1010.35168457031 1003.52154541016 1005.93438720703 1017.20037841797 1019.06433105469 1027.06298828125 1032.11047363281 1036.21118164062 1032.67749023438 1033.69372558594 1042.39855957031 1047.51379394531 1045.8427734375 1049.87805175781 1049.10571289062 1031.36645507812 1034.58508300781 1032.13171386719 1026.20007324219 1023.01733398438 1016.88238525391 1005.89929199219 1000.68176269531 995.886840820312 1007.55755615234 1007.47137451172 1009.21527099609 994.66650390625 992.485961914062 985.060607910156 985.377563476562 983.835876464844 986.982543945312 999.991394042969 996.806335449219 991.391052246094 993.621459960938 990.200866699219 991.700012207031 985.3720703125 977.754577636719 980.48681640625 976.642639160156 980.341979980469 975.405578613281 964.092041015625 962.900939941406 967.377197265625
946.204345703125 950.286865234375 947.66552734375 942.684753417969 949.165893554688 944.776977539062 939.962829589844 945.894897460938 958.409790039062 966.164489746094 961.613403320312 973.793518066406 976.581604003906 976.01953125 970.781188964844 974.455993652344 976.248596191406 969.866394042969 973.165344238281 975.471923828125 968.809020996094 965.977111816406 975.537719726562 987.780456542969 987.764282226562 989.599365234375 986.496398925781 989.016723632812 984.139343261719 983.264831542969 974.91064453125 989.374084472656 992.512268066406 991.579406738281 996.251342773438 992.619079589844 996.969665527344 985.711364746094 989.799987792969 992.042663574219 1000.46392822266 994.629028320312 999.245300292969 1003.72131347656 1002.19079589844 994.491577148438 980.36572265625 988.504333496094 988.902770996094 990.236145019531 992.31494140625 988.86181640625 986.221435546875 995.864318847656 999.600036621094 992.647521972656 991.79296875 983.867309570312 979.020141601562 990.828979492188 984.961853027344 985.729248046875 985.796875 977.680969238281 980.390502929688 979.51806640625 974.6767578125 978.837707519531 980.966918945312 977.21240234375 984.151062011719 986.836486816406 987.509399414062 981.812072753906 978.831298828125 982.612426757812 992.514221191406 995.299743652344 1004.50280761719 996.613952636719 1003.94970703125 1010.12194824219 1011.20562744141 1004.38031005859 1007.37933349609 1004.98712158203 1006.05072021484 1000.49047851562 1006.72802734375 993.894470214844 1003.55944824219 996.855102539062 995.145446777344 996.63037109375 997.712646484375 998.642700195312 998.947326660156 995.464477539062 1000.35723876953 1006.40032958984 1003.77862548828 999.915710449219 1003.99182128906 1003.900390625 1003.32000732422 1014.55786132812 1022.20330810547 1024.95068359375 1035.69958496094 1036.64733886719 1036.97119140625 1037.623046875 1035.27197265625 1042.50378417969 1046.3740234375 1055.66235351562 1042.96752929688 1041.86401367188 1036.10412597656 1034.58044433594 1032.5869140625 1027.59997558594 1016.95593261719 1000.55718994141 996.305847167969 1001.97204589844 995.111511230469 990.71484375 992.388549804688 987.015747070312 980.979675292969 982.472290039062 985.37060546875 987.812866210938 989.497802734375 990.573852539062 987.066528320312 984.762817382812 990.515869140625 988.210144042969 979.267272949219 970.563354492188 966.399108886719 975.091674804688 978.700256347656 981.143005371094 976.5234375 968.013671875 966.752868652344 970.758178710938
