NCOLS 150
NROWS 37
XLLCORNER 7394249
YLLCORNER 4843169
CELLSIZE 30
NODATA_VALUE -9999
947.485595703125 951.585144042969 947.029296875 946.807250976562 936.273742675781 942.385803222656 945.872375488281 963.22265625 951.784362792969 951.765075683594 941.78466796875 947.51611328125 953.663452148438 954.784362792969 964.301879882812 966.659362792969 962.582458496094 978.2294921875 994.726440429688 988.380493164062 990.315185546875 983.050842285156 989.679992675781 995.980163574219 994.281188964844 1010.5615234375 998.867004394531 994.769592285156 988.9853515625 991.916442871094 994.992004394531 997.527282714844 996.703125 994.783630371094 996.337951660156 999.712097167969 1003.18829345703 1013.42181396484 1019.81829833984 1013.37274169922 1016.11492919922 1005.35009765625 1001.31811523438 1008.34765625 1008.95153808594 1000.37091064453 1005.15472412109 1002.85516357422 1000.01788330078 995.54150390625 990.526123046875 997.147338867188 987.925354003906 988.907470703125 992.383056640625 1004.36840820312 1005.15551757812 1011.22485351562 1015.40832519531 1027.48034667969 1021.01123046875 1011.73608398438 1024.78271484375 1024.80603027344 1019.79852294922 1018.59234619141 1011.11108398438 1011.72125244141 1014.05114746094 1011.21752929688 1013.44982910156 1018.20178222656 1019.85241699219 1015.44921875 1010.48828125 1006.18072509766 1006.30603027344 1003.29577636719 1004.08947753906 999.735961914062 1008.88842773438 1006.26525878906 1010.70227050781 1003.95239257812 1012.18615722656 1012.54504394531 1004.22979736328 1014.83062744141 1018.603515625 1017.16998291016 1012.14367675781 1016.50628662109 1016.3955078125 1022.49072265625 1021.14208984375 1019.20501708984 1013.21087646484 1014.55657958984 1013.41473388672 1010.37768554688 1001.25708007812 1004.32049560547 999.969665527344 1011.44641113281 1004.42529296875 1011.28186035156 1009.79827880859 1006.24279785156 991.146911621094 976.416748046875 970.940673828125 960.991638183594 952.041564941406 952.643005371094 940.67431640625 949.177795410156 947.684936523438 952.515197753906 970.259765625 990.234436035156 999.972473144531 1007.46673583984 1009.66625976562 1018.32177734375 1031.03930664062 1037.09606933594 1041.92858886719 1043.92175292969 1041.23352050781 1032.12841796875 1045.49841308594 1043.38049316406 1039.07641601562 1042.50109863281 1045.14001464844 1035.41674804688 1041.70458984375 1058.70446777344 1056.73706054688 1068.28308105469 1078.42822265625 1081.5224609375 1080.10949707031 1083.72802734375 1084.32397460938 1083.97265625 1081.37646484375 1092.55554199219 1095.91479492188 1097.44982910156
940.27294921875 949.130981445312 946.589782714844 946.431518554688 946.234375 942.504577636719 947.879333496094 958.804260253906 961.649475097656 953.908020019531 952.429504394531 949.797912597656 952.098754882812 954.777038574219 963.919921875 964.013549804688 970.986389160156 981.899963378906 991.103393554688 987.995727539062 983.879028320312 993.552917480469 978.184326171875 991.082824707031 995.513671875 1000.18359375 1005.88348388672 992.047729492188 996.883361816406 997.853637695312 994.965759277344 995.890625 993.1005859375 996.578674316406 995.814025878906 997.917297363281 1005.36474609375 1007.71600341797 1006.05609130859 1002.50469970703 1004.75500488281 1002.48657226562 999.973815917969 1001.27642822266 996.274780273438 996.443359375 997.208251953125 997.844055175781 999.014465332031 1000.01312255859 994.559020996094 997.517150878906 986.605224609375 986.566223144531 998.27783203125 1000.64953613281 1001.05603027344 1009.03472900391 1021.75109863281 1025.11352539062 1026.0244140625 1017.35656738281 1012.05725097656 1023.16882324219 1018.46496582031 1010.24353027344 1015.16442871094 1011.31475830078 1011.51037597656 1006.63891601562 1015.08544921875 1003.65472412109 1005.18603515625 1002.84722900391 1003.31225585938 1006.48101806641 1003.57568359375 999.121032714844 1002.11614990234 1008.85144042969 1013.46008300781 1006.84313964844 1012.66217041016 1003.65991210938 1011.68768310547 1006.53259277344 1009.70452880859 1012.61273193359 1023.79467773438 1013.16094970703 1020.34936523438 1021.22882080078 1021.83618164062 1024.05200195312 1026.78112792969 1026.07531738281 1021.78485107422 1019.96203613281 1024.40905761719 1016.57995605469 1007.99969482422 1004.80090332031 1004.193359375 1006.1533203125 1008.12670898438 1013.59228515625 1014.51232910156 1007.00726318359 995.559509277344 980.229309082031 976.935852050781 968.058776855469 950.339050292969 944.952270507812 938.958251953125 947.322387695312 952.171875 963.185974121094 972.458435058594 982.278686523438 1001.53088378906 1011.61169433594 1011.75079345703 1021.18103027344 1033.98657226562 1040.80749511719 1042.19091796875 1038.84338378906 1035.39440917969 1033.19360351562 1042.53125 1047.19616699219 1039.92980957031 1039.76147460938 1038.40661621094 1045.59228515625 1044.2529296875 1059.25524902344 1054.85546875 1063.88098144531 1068.91674804688 1082.22009277344 1075.50744628906 1069.95861816406 1083.1728515625 1078.19665527344 1081.09045410156 1100.69287109375 1109.59289550781 1104.70190429688
945.31884765625 944.186645507812 940.763610839844 939.987121582031 944.327331542969 946.274597167969 956.654113769531 956.78466796875 958.042541503906 958.039306640625 957.694396972656 956.496520996094 957.995971679688 964.212768554688 961.867492675781 961.645935058594 970.497131347656 974.625427246094 981.208251953125 973.499633789062 979.300903320312 982.206359863281 987.087646484375 987.497863769531 987.152160644531 986.627990722656 991.873046875 993.135864257812 991.893493652344 995.520446777344 1000.24053955078 995.961547851562 992.046264648438 996.23486328125 1000.19305419922 1003.63629150391 1003.056640625 1004.53198242188 1006.52166748047 1000.60406494141 1000.26605224609 1010.7822265625 1005.89752197266 1002.64794921875 994.0498046875 995.597290039062 1003.16223144531 993.609741210938 997.153015136719 992.167236328125 992.535461425781 986.902465820312 980.072143554688 979.994262695312 994.835021972656 995.119812011719 993.858642578125 1018.15124511719 1014.96740722656 1023.73004150391 1017.35986328125 1000.63421630859 1005.19097900391 1016.52026367188 1011.94683837891 1011.939453125 1013.80297851562 1009.05023193359 1005.6435546875 1004.58245849609 1011.71411132812 1006.06494140625 1005.25921630859 1000.84814453125 997.0693359375 994.10595703125 991.072204589844 993.701538085938 995.232482910156 998.795043945312 1004.41522216797 1006.70031738281 1007.50201416016 1006.45983886719 1014.18530273438 1010.82354736328 1017.21398925781 1020.19873046875 1023.95959472656 1024.67651367188 1028.984375 1031.18701171875 1031.44592285156 1025.24353027344 1019.24468994141 1022.5693359375 1017.71795654297 1025.08251953125 1026.712890625 1017.93774414062 1012.70745849609 1011.00189208984 1000.32330322266 999.845703125 1004.30645751953 1013.00616455078 1006.43432617188 1006.97235107422 995.195495605469 982.443115234375 967.509765625 964.725402832031 948.826904296875 943.462829589844 953.632446289062 951.831176757812 956.658386230469 961.601928710938 969.8583984375 974.752990722656 990.790771484375 1008.14599609375 1014.34454345703 1024.41931152344 1038.14770507812 1030.08801269531 1034.61474609375 1034.37915039062 1035.51232910156 1034.92321777344 1040.0693359375 1035.50769042969 1032.43811035156 1041.40612792969 1041.22485351562 1054.09594726562 1048.06787109375 1055.13037109375 1057.33349609375 1062.23596191406 1076.23229980469 1076.74987792969 1075.57507324219 1067.50024414062 1079.16723632812 1082.41418457031 1088.05834960938 1096.11730957031 1121.07678222656 1121.30627441406
949.712097167969 950.449157714844 946.217834472656 945.405151367188 940.531555175781 938.622680664062 954.704406738281 957.149597167969 956.950073242188 956.689392089844 966.909729003906 963.015014648438 963.508178710938 971.291320800781 971.719177246094 971.301879882812 971.8173828125 980.765563964844 976.588317871094 975.98095703125 976.933532714844 983.384765625 984.961486816406 993.249877929688 981.963012695312 992.517578125 988.759399414062 985.473999023438 989.686767578125 988.670593261719 991.141418457031 993.2060546875 985.307739257812 991.184387207031 994.981994628906 996.362854003906 998.495178222656 1001.57550048828 999.322204589844 996.309631347656 1001.36682128906 999.591552734375 996.103637695312 999.804870605469 1006.61346435547 992.337768554688 993.815734863281 993.050659179688 998.509338378906 1002.52673339844 988.946228027344 987.905639648438 982.962158203125 987.165649414062 992.650573730469 983.931457519531 993.099182128906 1009.59478759766 1015.56091308594 1013.34838867188 1008.13873291016 1002.93334960938 999.846801757812 1001.57305908203 1003.69879150391 1008.29479980469 1004.94854736328 1001.42651367188 997.500549316406 995.20361328125 1002.06329345703 1005.30169677734 1007.76782226562 1003.72943115234 993.144958496094 990.851196289062 994.169494628906 997.407836914062 995.45166015625 998.265014648438 1003.83367919922 1000.91931152344 1000.04284667969 1000.08666992188 1016.78039550781 1010.02282714844 1014.21252441406 1027.16174316406 1020.08898925781 1028.95239257812 1034.826171875 1040.29089355469 1028.74438476562 1026.20825195312 1020.03765869141 1023.01489257812 1027.47680664062 1024.84997558594 1014.74493408203 1013.04504394531 1012.03662109375 1011.89324951172 1009.9453125 1005.34539794922 1001.67962646484 1003.83636474609 1004.56085205078 996.526245117188 994.967163085938 981.451843261719 971.27734375 949.997009277344 942.228149414062 939.383422851562 951.184509277344 950.349914550781 949.185119628906 953.947082519531 966.3837890625 972.859924316406 992.784423828125 1000.77014160156 1009.10003662109 1035.77954101562 1029.23693847656 1032.7421875 1038.68041992188 1035.30310058594 1034.55883789062 1034.57104492188 1028.22143554688 1032.86657714844 1037.60864257812 1040.11108398438 1049.26110839844 1055.61572265625 1058.26892089844 1060.16857910156 1055.9873046875 1068.015625 1070.10034179688 1073.81652832031 1068.63903808594 1069.71435546875 1075.19140625 1087.56311035156 1087.52331542969 1107.76818847656 1112.51318359375 1116.07971191406
952.26318359375 951.716125488281 956.446594238281 950.135925292969 943.883361816406 949.396911621094 947.80029296875 954.774230957031 950.152770996094 956.276550292969 959.421081542969 973.308654785156 982.153686523438 980.975219726562 973.37548828125 974.302612304688 977.456481933594 983.918029785156 982.94580078125 978.153137207031 967.949035644531 984.92333984375 985.532653808594 977.133056640625 983.140258789062 992.310852050781 989.287231445312 993.7392578125 985.955017089844 982.482238769531 986.916625976562 988.294677734375 991.130981445312 990.498596191406 997.015808105469 994.4775390625 994.254272460938 991.450378417969 1001.28167724609 987.986450195312 994.046936035156 994.018310546875 989.783874511719 995.880310058594 991.490661621094 992.740661621094 993.878356933594 991.592041015625 992.488952636719 996.114685058594 995.200561523438 994.567138671875 980.00927734375 983.998352050781 991.088195800781 985.886779785156 987.889038085938 1005.7734375 1005.6708984375 998.689270019531 1003.54718017578 997.275085449219 999.498107910156 1005.52960205078 997.857360839844 1002.70581054688 997.873657226562 1001.46368408203 1003.84417724609 1004.87573242188 999.346801757812 999.370300292969 1006.37841796875 995.872375488281 994.902526855469 994.27783203125 1003.28350830078 995.973876953125 995.452880859375 997.427917480469 994.299133300781 990.261291503906 999.741088867188 995.771789550781 1003.95355224609 1009.88238525391 1015.82965087891 1020.36065673828 1029.42443847656 1027.94873046875 1037.013671875 1034.18017578125 1029.85388183594 1023.87231445312 1023.01928710938 1023.46337890625 1026.11889648438 1022.84906005859 1023.83142089844 1019.80725097656 1014.78851318359 1015.30285644531 1008.3271484375 1004.90148925781 989.741027832031 993.752014160156 994.011779785156 994.158813476562 991.118469238281 975.487121582031 966.763549804688 951.223510742188 943.442749023438 940.033569335938 944.186462402344 949.7978515625 950.64404296875 953.379699707031 966.813598632812 981.143127441406 990.046020507812 995.462341308594 1005.03015136719 1025.18994140625 1025.07580566406 1026.71276855469 1037.23522949219 1034.93212890625 1038.25646972656 1041.83386230469 1036.32055664062 1044.83996582031 1045.03479003906 1040.77514648438 1038.77026367188 1052.83703613281 1048.22387695312 1060.05639648438 1068.87109375 1069.19177246094 1074.54040527344 1067.52734375 1069.40246582031 1074.60119628906 1079.73229980469 1085.77514648438 1092.34191894531 1110.72180175781 1120.45483398438 1126.37243652344
952.147827148438 956.815612792969 954.6416015625 955.908935546875 961.3896484375 956.427978515625 956.244995117188 954.478576660156 949.798095703125 952.452087402344 963.073120117188 979.758544921875 980.580932617188 977.491394042969 977.588500976562 979.593566894531 981.170776367188 982.271301269531 988.134521484375 980.261962890625 976.375549316406 983.261840820312 981.650268554688 982.714477539062 985.503723144531 989.799743652344 987.803466796875 989.390930175781 984.744812011719 981.220642089844 985.295593261719 977.875427246094 989.975402832031 989.119201660156 990.667297363281 992.689758300781 993.30517578125 997.00439453125 993.085144042969 991.096069335938 979.65283203125 993.089538574219 991.858337402344 991.038940429688 993.552429199219 989.50927734375 988.869323730469 994.396911621094 984.073486328125 976.620910644531 980.955871582031 987.675231933594 979.865661621094 985.1298828125 989.846069335938 984.527770996094 987.363952636719 999.443969726562 1002.26489257812 995.874084472656 997.446899414062 991.900146484375 1001.40716552734 1005.54724121094 993.235473632812 997.356018066406 993.723449707031 996.292602539062 1001.65289306641 1007.28411865234 1009.36181640625 1006.31591796875 998.850646972656 998.215881347656 1000.4453125 1002.767578125 993.408508300781 991.704711914062 994.347717285156 997.47705078125 987.806396484375 987.327819824219 988.39794921875 990.217163085938 998.554138183594 1008.05291748047 1007.02008056641 1020.74157714844 1027.47009277344 1027.71081542969 1035.65454101562 1027.17883300781 1020.69152832031 1024.94201660156 1027.38220214844 1021.15142822266 1022.00860595703 1026.52966308594 1018.32623291016 1021.27893066406 1024.49230957031 1019.93835449219 1011.87640380859 1002.60650634766 997.792236328125 998.638427734375 988.322326660156 986.32275390625 983.526062011719 972.512268066406 968.0537109375 950.260009765625 944.118896484375 935.263000488281 946.115417480469 957.715454101562 957.790161132812 962.293701171875 968.418029785156 977.689514160156 983.334350585938 991.200317382812 1009.33831787109 1018.73785400391 1017.75811767578 1030.81408691406 1035.18994140625 1030.06958007812 1037.41772460938 1041.26281738281 1040.73400878906 1038.17529296875 1035.91540527344 1029.5625 1031.02294921875 1043.46179199219 1047.53637695312 1056.69641113281 1060.91296386719 1058.52709960938 1072.77587890625 1071.72875976562 1075.69714355469 1084.69787597656 1084.60412597656 1088.87451171875 1095.27795410156 1111.66357421875 1112.13610839844 1126.76318359375
961.911010742188 964.328552246094 963.674682617188 958.034790039062 967.795959472656 968.773376464844 961.885986328125 958.668579101562 963.675842285156 966.859497070312 964.514465332031 973.880859375 976.016052246094 980.355102539062 980.49267578125 976.343322753906 978.3779296875 980.186157226562 986.654968261719 989.715209960938 981.908264160156 982.951843261719 985.790893554688 987.064086914062 990.55322265625 988.436218261719 992.565551757812 989.5634765625 977.570068359375 987.312133789062 985.620239257812 990.651489257812 984.809448242188 983.447143554688 984.565002441406 996.116821289062 989.862243652344 987.987365722656 990.373840332031 984.928771972656 984.743469238281 985.270812988281 994.890869140625 991.601928710938 991.877197265625 992.767700195312 987.991027832031 988.740539550781 983.721069335938 978.867553710938 978.242797851562 985.233947753906 993.344665527344 980.452514648438 972.509338378906 984.065246582031 986.743103027344 995.699951171875 987.962646484375 985.241760253906 990.380676269531 990.235961914062 1001.166015625 991.993041992188 986.681274414062 988.936645507812 987.678588867188 996.799682617188 1003.30151367188 1007.05914306641 1000.69885253906 994.051391601562 991.820617675781 995.890014648438 998.757141113281 995.903747558594 983.842712402344 981.678588867188 990.740173339844 993.897277832031 1004.93334960938 989.757995605469 991.817504882812 988.399291992188 994.203796386719 1000.91876220703 1009.59167480469 1020.08660888672 1024.6767578125 1031.03137207031 1032.20520019531 1016.29724121094 1013.92877197266 1016.76849365234 1020.52789306641 1016.72692871094 1025.693359375 1019.84625244141 1021.89129638672 1017.06781005859 1020.53588867188 1014.16339111328 1005.70001220703 1001.10101318359 1000.90936279297 1002.88537597656 999.573486328125 987.648803710938 987.337707519531 978.228332519531 970.9228515625 957.484558105469 952.773132324219 952.977111816406 948.091735839844 955.203552246094 963.808471679688 970.588989257812 969.460021972656 982.355773925781 993.3759765625 995.313659667969 1004.47314453125 1013.74053955078 1022.3857421875 1030.91552734375 1033.02355957031 1030.59814453125 1028.53674316406 1036.1123046875 1043.01574707031 1036.63415527344 1036.21130371094 1031.40649414062 1035.23815917969 1034.15710449219 1040.24035644531 1039.94055175781 1051.71142578125 1054.439453125 1067.42944335938 1055.74597167969 1066.28759765625 1075.68872070312 1089.56652832031 1101.47021484375 1099.03234863281 1116.5869140625 1126.39379882812 1138.74145507812
957.970520019531 961.226379394531 969.930786132812 967.265563964844 968.326232910156 965.119995117188 966.946411132812 964.992248535156 968.327087402344 970.735412597656 972.960205078125 978.126098632812 980.937866210938 982.062438964844 980.324462890625 979.181518554688 975.621826171875 976.330932617188 978.47265625 983.150756835938 980.966186523438 983.704223632812 987.228454589844 985.537475585938 985.039611816406 980.855834960938 977.837463378906 974.336486816406 976.191284179688 985.468688964844 993.226745605469 991.292663574219 988.560729980469 981.909545898438 984.6279296875 989.475402832031 995.116638183594 985.446350097656 987.833679199219 978.2158203125 986.550598144531 989.333679199219 990.053833007812 990.804809570312 987.712707519531 994.103576660156 988.310302734375 988.06591796875 975.57373046875 982.0234375 984.965698242188 986.289306640625 983.5625 968.964233398438 973.151733398438 973.708862304688 977.685852050781 978.775451660156 989.3837890625 993.445678710938 989.274780273438 993.555236816406 989.726440429688 982.259826660156 983.848266601562 986.367980957031 987.744689941406 993.190246582031 1001.41387939453 998.89892578125 989.33642578125 995.651000976562 990.94921875 991.81689453125 992.554809570312 992.065124511719 991.642211914062 991.536804199219 994.497680664062 1001.83410644531 1003.94659423828 999.108947753906 1005.92803955078 993.093139648438 1003.62945556641 1005.85516357422 1001.81512451172 1017.27532958984 1027.36645507812 1019.52746582031 1015.81549072266 1012.95428466797 1012.27947998047 1019.80407714844 1020.73718261719 1018.12103271484 1015.11163330078 1009.10980224609 1010.95617675781 1011.76611328125 1014.54724121094 1009.61737060547 999.263427734375 999.596252441406 1000.62030029297 1003.03680419922 1000.76196289062 993.130126953125 988.157409667969 981.581237792969 975.16650390625 969.677185058594 962.168640136719 963.252075195312 962.632751464844 953.339111328125 958.539123535156 968.256530761719 977.486389160156 982.274780273438 996.129150390625 998.972717285156 1011.93365478516 1022.91912841797 1015.71240234375 1024.51940917969 1027.08703613281 1026.22314453125 1024.2177734375 1029.16870117188 1031.6611328125 1026.42150878906 1022.67370605469 1020.97644042969 1033.72485351562 1030.40368652344 1037.44470214844 1031.45642089844 1039.02770996094 1047.68505859375 1062.47277832031 1063.39672851562 1075.25646972656 1078.17858886719 1088.92004394531 1097.7880859375 1102.201171875 1119.34484863281 1126.89379882812 1134.25268554688
969.644226074219 960.543640136719 961.497192382812 963.457458496094 964.8740234375 968.735107421875 966.507629394531 967.503479003906 970.743896484375 978.803527832031 981.359497070312 979.407897949219 984.741271972656 986.6943359375 977.238098144531 975.150085449219 979.213012695312 985.469543457031 982.76708984375 983.034851074219 982.720336914062 988.517822265625 985.064331054688 988.3662109375 976.971923828125 980.970336914062 985.037719726562 968.570190429688 971.148620605469 975.02001953125 981.339721679688 979.427429199219 986.828308105469 985.016845703125 980.426330566406 987.308166503906 986.81201171875 985.391967773438 979.576293945312 987.008117675781 980.392639160156 985.815368652344 990.721740722656 987.54296875 985.863098144531 989.052978515625 987.346252441406 982.144775390625 979.520385742188 982.419189453125 985.382934570312 980.801147460938 978.751403808594 973.869140625 970.936645507812 972.498229980469 971.137939453125 978.619018554688 990.482604980469 990.838012695312 990.579711914062 989.857055664062 986.674438476562 986.638854980469 986.364196777344 989.653991699219 980.200378417969 993.95751953125 992.418701171875 986.026672363281 989.861633300781 992.503601074219 993.099609375 990.093566894531 992.804260253906 994.029418945312 996.691223144531 997.306945800781 998.948364257812 997.488891601562 1006.2900390625 1006.90454101562 1002.98986816406 998.411193847656 1000.67498779297 1007.05291748047 1009.91204833984 1018.26336669922 1021.26208496094 1015.11572265625 1009.61730957031 1006.96783447266 1006.70916748047 1011.56317138672 1012.25225830078 1014.43634033203 1015.53582763672 1010.19372558594 1007.94024658203 1007.04577636719 1003.50445556641 1006.47998046875 1005.17468261719 993.368408203125 994.278137207031 1006.79205322266 1005.25482177734 1003.32257080078 982.120727539062 983.510803222656 978.170227050781 977.622985839844 980.069458007812 960.738342285156 962.662170410156 957.2001953125 964.26123046875 971.437072753906 974.955505371094 994.900695800781 992.089965820312 997.0400390625 1009.15667724609 1020.44586181641 1026.30969238281 1029.09716796875 1019.36761474609 1027.66235351562 1021.29168701172 1024.23754882812 1024.81079101562 1024.60412597656 1020.21771240234 1016.30859375 1025.53576660156 1014.72119140625 1022.86853027344 1032.03674316406 1037.82800292969 1044.18713378906 1056.10607910156 1061.04711914062 1071.10119628906 1073.55712890625 1079.31896972656 1087.5927734375 1105.923828125 1118.47619628906 1127.53161621094 1127.326171875
958.275390625 957.442321777344 953.735778808594 959.43896484375 966.107482910156 965.488464355469 976.161193847656 969.525512695312 969.108581542969 968.493041992188 981.670776367188 980.788330078125 973.989807128906 975.682067871094 978.420227050781 975.497619628906 979.878540039062 995.151123046875 985.462280273438 987.005615234375 987.233032226562 991.599365234375 988.698181152344 985.959411621094 977.592651367188 987.433044433594 979.818786621094 980.713928222656 979.409301757812 971.011535644531 980.099914550781 983.344421386719 982.6748046875 980.6181640625 980.794860839844 976.327697753906 982.756469726562 980.428100585938 978.342407226562 980.567687988281 980.515930175781 988.692993164062 988.35986328125 990.823791503906 982.435668945312 989.353393554688 986.55517578125 982.834167480469 979.601684570312 982.930480957031 984.500549316406 981.311706542969 975.098693847656 975.921936035156 971.06396484375 978.382263183594 979.9609375 981.323425292969 986.526916503906 980.715515136719 982.032836914062 991.706909179688 990.223999023438 988.217468261719 985.948303222656 987.014709472656 982.206848144531 979.594177246094 983.387268066406 984.000915527344 985.624694824219 983.424072265625 986.611755371094 978.230529785156 980.601806640625 989.340454101562 997.990295410156 1001.16088867188 996.871520996094 1003.6083984375 1013.18273925781 1005.21710205078 1003.55218505859 1009.98907470703 1005.69921875 1004.73822021484 1017.58575439453 1016.88696289062 1014.23162841797 1013.40270996094 1006.06970214844 999.707214355469 1001.30505371094 1011.09753417969 1010.95739746094 1014.79425048828 1017.86285400391 1013.47705078125 1005.00415039062 1007.31268310547 1002.13934326172 995.051147460938 994.805541992188 999.853149414062 999.906066894531 996.937316894531 995.473510742188 995.051391601562 986.542846679688 986.198547363281 984.108520507812 979.005493164062 971.211364746094 975.514038085938 965.954528808594 963.901000976562 968.151672363281 974.030883789062 971.085327148438 980.491333007812 987.785217285156 1001.75872802734 1011.33679199219 1019.02349853516 1023.45245361328 1022.94427490234 1022.69012451172 1020.20520019531 1023.05029296875 1019.9580078125 1019.98004150391 1015.12677001953 1020.74468994141 1016.41052246094 1022.78692626953 1019.15191650391 1017.02691650391 1020.64642333984 1027.44787597656 1043.33532714844 1053.62829589844 1058.18859863281 1069.10949707031 1068.59326171875 1077.92663574219 1089.470703125 1102.89868164062 1123.505859375 1129.64001464844 1127.34753417969
954.701904296875 952.575317382812 958.14599609375 949.732238769531 967.433044433594 973.096862792969 969.385925292969 971.07666015625 970.795593261719 973.457824707031 974.880126953125 968.833923339844 972.634948730469 973.640563964844 967.384948730469 976.765930175781 972.779296875 978.516784667969 979.975158691406 981.800231933594 986.471252441406 981.228454589844 983.866455078125 978.09326171875 970.417785644531 969.610107421875 971.068115234375 971.18896484375 978.029602050781 976.803649902344 976.611511230469 988.761596679688 983.56201171875 972.946411132812 967.96435546875 974.626403808594 982.754455566406 979.138793945312 974.533020019531 980.148742675781 985.255798339844 987.70556640625 990.845825195312 983.191040039062 983.21875 989.974792480469 975.983093261719 976.314880371094 973.1806640625 980.179443359375 980.612670898438 971.807861328125 982.981384277344 974.361206054688 973.311828613281 973.391540527344 969.447937011719 969.822021484375 969.864685058594 976.282348632812 976.761413574219 986.864196777344 983.706848144531 993.707214355469 995.240173339844 990.190002441406 987.656921386719 985.990600585938 980.709533691406 986.293823242188 993.766723632812 984.416259765625 984.164245605469 980.760620117188 985.449157714844 985.431213378906 995.502319335938 1002.23303222656 1002.81536865234 1005.04339599609 1012.59210205078 1005.97387695312 1002.51940917969 1003.46942138672 1006.16900634766 1007.62628173828 1010.15441894531 998.331237792969 1003.26037597656 1005.80895996094 1001.08227539062 1004.33386230469 1003.04461669922 1003.67834472656 1002.20886230469 1007.70654296875 1010.25366210938 1007.11358642578 1005.50152587891 1008.68823242188 999.727661132812 1004.80499267578 999.133605957031 997.015380859375 996.524291992188 986.177185058594 989.156982421875 983.156921386719 987.96044921875 989.239929199219 985.279541015625 980.787170410156 974.122741699219 979.652770996094 976.522644042969 974.621826171875 975.053649902344 972.847290039062 986.091064453125 989.931518554688 989.418884277344 1000.05584716797 1004.06884765625 1001.97625732422 1011.11480712891 1021.54840087891 1011.61297607422 1017.85473632812 1009.69317626953 1014.19104003906 1019.48400878906 1017.27947998047 1021.80389404297 1022.36138916016 1013.33984375 1021.33984375 1017.73803710938 1016.46655273438 1033.15002441406 1045.99816894531 1059.6650390625 1053.90551757812 1073.69226074219 1067.25012207031 1080.24609375 1089.14282226562 1102.48364257812 1116.16052246094 1125.07934570312 1128.29858398438
953.689880371094 961.417053222656 960.652526855469 956.527221679688 965.088012695312 971.083129882812 971.803161621094 974.284545898438 971.420471191406 970.178894042969 961.766418457031 962.7265625 975.899780273438 961.610717773438 966.231567382812 966.991271972656 980.41796875 977.300170898438 973.659118652344 977.617919921875 988.364440917969 983.981750488281 979.131713867188 972.664916992188 965.547058105469 966.598937988281 971.495056152344 973.736694335938 975.045104980469 973.087646484375 970.471313476562 976.242370605469 976.34716796875 970.543029785156 977.456726074219 972.923400878906 977.606567382812 972.804931640625 971.704772949219 977.888671875 981.149475097656 977.084350585938 987.551208496094 980.328857421875 982.365905761719 980.820007324219 980.737121582031 970.962890625 974.370727539062 979.605407714844 978.822143554688 969.132385253906 966.623840332031 967.619689941406 972.601440429688 972.967041015625 972.906188964844 971.054992675781 970.122192382812 977.53662109375 976.857421875 978.152587890625 979.572509765625 995.520690917969 992.486267089844 990.404968261719 984.500854492188 974.320373535156 975.422973632812 985.940307617188 989.840454101562 974.971923828125 982.466369628906 978.454345703125 983.745788574219 986.582702636719 992.778076171875 1004.08410644531 1013.11486816406 1006.13781738281 1007.80914306641 1001.46466064453 997.548583984375 1001.73626708984 1001.12670898438 1001.82727050781 1003.80883789062 999.633544921875 998.26123046875 1007.04162597656 1009.64288330078 1011.73388671875 1005.9853515625 1010.17993164062 997.774658203125 999.690246582031 999.545715332031 997.176452636719 996.014953613281 1002.5634765625 1006.02221679688 996.345397949219 987.011535644531 1002.00622558594 994.841613769531 998.283630371094 996.0693359375 989.174926757812 997.651428222656 991.374755859375 987.376892089844 983.976684570312 988.080505371094 980.991516113281 988.914733886719 990.732116699219 981.779235839844 981.983764648438 994.305053710938 1000.97711181641 997.652770996094 994.128662109375 998.659423828125 994.804748535156 1008.84722900391 1016.56188964844 1008.17132568359 1009.86608886719 1007.42980957031 1007.32208251953 1011.92010498047 1014.43536376953 1025.64807128906 1016.28021240234 1008.15020751953 1013.70184326172 1025.32153320312 1022.79730224609 1041.55615234375 1060.29064941406 1063.75830078125 1052.19458007812 1063.00927734375 1067.86474609375 1076.17846679688 1096.666015625 1109.62451171875 1132.45727539062 1131.10485839844 1131.94873046875
950.956481933594 956.058776855469 957.663940429688 961.377624511719 963.813537597656 977.374206542969 976.422058105469 975.927307128906 973.352600097656 969.399047851562 967.19677734375 964.745666503906 969.894470214844 968.725524902344 966.697265625 970.818664550781 972.375610351562 978.012329101562 976.384338378906 977.073852539062 984.191772460938 976.643798828125 979.257690429688 970.869445800781 969.759338378906 966.704406738281 971.576416015625 968.913391113281 968.013366699219 967.33154296875 958.95947265625 968.330017089844 970.564758300781 972.66650390625 971.471984863281 974.286193847656 975.475830078125 977.705871582031 984.072875976562 981.240051269531 980.444519042969 979.3544921875 975.676940917969 976.769470214844 978.748168945312 978.281616210938 974.534057617188 978.535095214844 974.681640625 968.415222167969 969.260070800781 965.88623046875 966.736999511719 968.205810546875 971.747985839844 972.048950195312 976.549682617188 974.897094726562 977.626342773438 981.750427246094 977.952880859375 975.050109863281 985.771423339844 990.625915527344 992.578857421875 984.489807128906 984.068115234375 982.612487792969 982.51513671875 973.817626953125 973.369934082031 973.661560058594 977.614135742188 974.646362304688 970.859619140625 987.112670898438 992.406433105469 991.214172363281 999.527160644531 1001.62835693359 994.849243164062 1004.62524414062 1010.13952636719 1001.47375488281 991.762634277344 991.930236816406 995.779663085938 1003.54174804688 1004.34844970703 1007.04827880859 1001.77502441406 1003.15869140625 1001.89837646484 999.181823730469 999.140808105469 996.259155273438 989.506469726562 997.421813964844 994.508422851562 988.468505859375 988.291931152344 991.111755371094 986.93701171875 1001.07965087891 992.522521972656 1000.79119873047 992.72509765625 991.561462402344 997.804321289062 995.501220703125 990.551147460938 986.237609863281 991.388854980469 998.155212402344 993.269653320312 991.80224609375 992.31982421875 993.36474609375 996.730773925781 998.209289550781 999.740966796875 996.994079589844 1003.03289794922 992.909484863281 1003.49627685547 1013.67340087891 1014.46978759766 1007.09625244141 1006.60906982422 1013.05963134766 1005.66088867188 1013.72320556641 1019.82189941406 1017.14361572266 1007.90869140625 1019.64739990234 1024.70129394531 1036.16748046875 1048.06066894531 1057.501953125 1062.23742675781 1066.49340820312 1065.30432128906 1076.67138671875 1084.6484375 1100.35192871094 1122.59875488281 1129.7919921875 1138.42321777344 1146.955078125
947.476135253906 948.790344238281 959.038757324219 953.644409179688 963.403747558594 969.966125488281 966.571533203125 966.962097167969 975.952880859375 966.475524902344 967.431701660156 966.130126953125 973.836486816406 975.305419921875 969.073486328125 971.96630859375 974.564636230469 979.086669921875 968.34375 970.174499511719 978.781921386719 976.896362304688 976.721374511719 974.678466796875 977.004455566406 975.523010253906 963.453491210938 966.397583007812 968.451843261719 976.257019042969 963.541809082031 973.398742675781 973.404968261719 975.701171875 967.976928710938 968.350952148438 970.908996582031 978.644348144531 979.989501953125 973.389282226562 973.677185058594 981.887817382812 971.873352050781 975.010559082031 972.260131835938 977.656188964844 977.930114746094 978.564636230469 978.5908203125 974.994995117188 974.658508300781 979.205749511719 972.265869140625 967.451782226562 973.97021484375 970.6923828125 977.729187011719 977.112121582031 978.541198730469 984.656555175781 981.286254882812 985.705932617188 982.3623046875 992.354736328125 996.175476074219 989.10546875 987.955383300781 976.402954101562 977.624938964844 980.4248046875 971.843139648438 971.624450683594 977.16259765625 973.727722167969 971.854248046875 986.74853515625 982.279602050781 994.600830078125 985.79052734375 993.339599609375 996.90380859375 1003.70465087891 995.910217285156 993.335693359375 996.624816894531 995.890380859375 994.455200195312 1000.49603271484 1009.43511962891 1009.59777832031 1003.51354980469 1006.42736816406 1003.59143066406 1006.60162353516 997.947143554688 996.300048828125 993.785949707031 996.660827636719 993.007385253906 988.089660644531 995.645812988281 988.129028320312 983.876098632812 994.670654296875 992.328247070312 993.145751953125 999.053955078125 1001.32788085938 996.635925292969 998.595458984375 996.829895019531 993.094116210938 986.769226074219 995.9638671875 994.904724121094 1000.14367675781 1001.65618896484 995.939697265625 994.477416992188 999.122741699219 1004.99450683594 1005.67370605469 1006.25396728516 1001.86163330078 1007.07232666016 1010.60430908203 1005.26141357422 1012.09027099609 1014.33306884766 1006.25836181641 1010.81579589844 1006.96270751953 1014.3330078125 1017.60510253906 1016.04309082031 1024.60925292969 1034.89233398438 1043.75122070312 1055.96594238281 1071.91796875 1065.12023925781 1076.66918945312 1078.48974609375 1082.44299316406 1094.04516601562 1115.63879394531 1121.33984375 1140.13110351562 1146.513671875 1154.02221679688
949.287414550781 950.966613769531 960.43603515625 962.259643554688 975.13330078125 969.044555664062 967.088500976562 972.348266601562 977.888671875 966.904663085938 968.130004882812 967.415771484375 970.593811035156 961.845825195312 973.848815917969 977.136047363281 980.730346679688 972.190368652344 977.064025878906 975.732055664062 973.40185546875 973.273193359375 970.255249023438 976.23486328125 970.598022460938 970.202941894531 968.083740234375 967.02880859375 973.6279296875 968.248291015625 973.665405273438 981.883422851562 972.503112792969 970.82568359375 975.980895996094 977.144714355469 984.45361328125 985.441101074219 972.25341796875 965.503356933594 978.397583007812 978.722045898438 972.150756835938 978.959838867188 964.894653320312 970.298217773438 974.901489257812 970.866638183594 973.517944335938 979.379272460938 976.081176757812 985.109497070312 973.412780761719 972.275573730469 974.473327636719 977.396118164062 990.184753417969 983.466430664062 990.69140625 991.993408203125 985.587951660156 985.964782714844 985.090148925781 987.956604003906 986.800720214844 989.609802246094 986.411437988281 981.29052734375 979.188049316406 970.856506347656 972.644836425781 971.027648925781 972.226135253906 969.993041992188 973.593322753906 985.39990234375 982.561828613281 986.251525878906 989.222473144531 991.935363769531 998.509460449219 997.719482421875 999.267822265625 1004.70257568359 995.240905761719 998.869079589844 994.459228515625 997.798706054688 997.539855957031 1003.43218994141 992.163513183594 994.802551269531 996.8154296875 988.835815429688 979.024108886719 988.766540527344 983.127380371094 983.646667480469 984.594177246094 988.457458496094 992.944030761719 992.959838867188 990.940307617188 996.950317382812 983.610534667969 985.252868652344 1002.92645263672 999.350036621094 989.986328125 988.153686523438 990.854858398438 999.424682617188 990.616149902344 994.31640625 1004.5546875 1004.32189941406 999.19140625 993.710266113281 998.590393066406 1004.83355712891 991.148864746094 998.776977539062 999.451293945312 1001.26104736328 1005.55023193359 1006.64276123047 1003.91015625 1015.39453125 1014.46875 1007.43041992188 1014.68304443359 1024.0966796875 1020.42657470703 1026.46362304688 1027.09875488281 1044.20031738281 1047.96301269531 1054.44677734375 1057.66882324219 1069.021484375 1078.796875 1090.07287597656 1094.70190429688 1104.55554199219 1112.30419921875 1123.70190429688 1123.82470703125 1142.16052246094 1140.0908203125 1155.24438476562
951.738342285156 945.0927734375 953.095703125 958.339477539062 969.491760253906 965.887084960938 968.404113769531 970.761108398438 971.011291503906 970.765869140625 968.556213378906 965.424377441406 969.26708984375 969.184936523438 974.472961425781 974.125427246094 974.859924316406 969.303161621094 974.795349121094 974.7548828125 975.567687988281 974.974609375 972.198120117188 972.320617675781 977.330932617188 972.770751953125 976.167419433594 967.918579101562 964.362915039062 971.666381835938 968.755065917969 977.858947753906 981.439392089844 977.001892089844 979.773498535156 979.334594726562 982.67822265625 977.736389160156 970.353515625 966.03515625 972.56201171875 975.415771484375 969.797912597656 957.96923828125 967.315856933594 964.213684082031 971.820983886719 973.481384277344 971.857849121094 972.037414550781 976.349182128906 980.143371582031 968.660888671875 970.303527832031 973.349365234375 974.520812988281 980.803894042969 991.261169433594 987.318298339844 994.31787109375 986.516540527344 991.55419921875 984.358276367188 979.579345703125 980.03271484375 986.019226074219 988.011657714844 976.297607421875 975.48974609375 975.143737792969 971.376403808594 967.648498535156 979.219177246094 975.504577636719 985.057189941406 983.430236816406 969.121520996094 970.48974609375 983.665893554688 986.641357421875 988.174255371094 998.848815917969 997.438232421875 1000.72912597656 996.30322265625 994.38037109375 998.540710449219 1001.99291992188 1001.86071777344 1000.93817138672 998.702270507812 992.411193847656 986.617004394531 993.05908203125 983.43896484375 982.234252929688 983.634704589844 983.314697265625 985.734680175781 983.995361328125 994.741516113281 1000.08483886719 991.879821777344 992.588989257812 983.072448730469 988.066101074219 998.954040527344 993.5126953125 998.976013183594 986.840881347656 988.843627929688 997.864685058594 996.066589355469 995.857177734375 1014.11389160156 1005.13177490234 1006.65106201172 995.49267578125 1004.62670898438 998.001037597656 993.652770996094 988.263671875 990.894714355469 992.254516601562 999.914855957031 1005.09307861328 1013.78839111328 1007.95715332031 1009.79260253906 1014.05029296875 1019.13372802734 1027.701171875 1020.26623535156 1024.1005859375 1034.767578125 1044.66284179688 1044.07873535156 1056.10864257812 1055.89440917969 1060.90795898438 1080.27746582031 1092.91955566406 1109.86315917969 1115.60668945312 1122.48022460938 1127.33288574219 1128.81909179688 1144.68225097656 1148.71435546875 1158.224609375
945.478149414062 949.750061035156 951.966796875 961.355834960938 963.645324707031 966.413757324219 958.7216796875 966.780700683594 964.035522460938 961.834716796875 962.09912109375 968.568542480469 969.696533203125 978.807739257812 982.388854980469 975.413879394531 975.004760742188 977.010314941406 974.032348632812 975.903991699219 977.950622558594 980.243347167969 976.874084472656 975.117065429688 983.444763183594 980.676574707031 969.37939453125 970.613891601562 969.919250488281 972.986022949219 966.216918945312 972.924926757812 986.058166503906 969.40576171875 969.375305175781 974.326049804688 978.814208984375 975.907409667969 970.840270996094 960.851806640625 968.65087890625 975.862365722656 965.31396484375 961.144226074219 960.709289550781 962.318237304688 963.671936035156 975.776428222656 971.913879394531 971.734741210938 980.127197265625 974.695678710938 969.023193359375 959.27197265625 969.5205078125 969.603088378906 974.518371582031 982.254272460938 982.908447265625 986.380493164062 990.778686523438 995.477233886719 994.898864746094 984.711669921875 983.523315429688 978.449768066406 974.412658691406 976.25 971.505920410156 969.290283203125 968.446716308594 970.159973144531 976.001281738281 971.142150878906 969.629211425781 977.760681152344 970.978881835938 974.408386230469 979.414367675781 979.693664550781 977.924011230469 983.715393066406 1000.34265136719 992.655395507812 989.520935058594 997.241638183594 992.7822265625 997.909118652344 1002.03564453125 995.994689941406 986.385864257812 986.744506835938 988.813049316406 985.487609863281 990.755920410156 993.261840820312 983.927551269531 981.449523925781 986.415954589844 989.462707519531 993.87060546875 987.214721679688 991.319152832031 981.228088378906 983.747131347656 982.323059082031 984.654357910156 998.206665039062 992.250915527344 994.872009277344 990.791931152344 989.458801269531 1001.92449951172 995.420715332031 1003.34783935547 1002.16931152344 999.918579101562 995.648132324219 1006.3759765625 1003.18133544922 998.626708984375 993.564208984375 997.598815917969 995.551330566406 1002.56036376953 1005.8388671875 1015.63763427734 1020.71875 1016.71014404297 1022.01861572266 1030.06018066406 1024.283203125 1028.17407226562 1021.60333251953 1031.0810546875 1038.73498535156 1044.18896484375 1056.41357421875 1057.25622558594 1063.70288085938 1091.23205566406 1099.22314453125 1113.47399902344 1119.64245605469 1131.42687988281 1142.37255859375 1142.49682617188 1156.73486328125 1154.07434082031 1154.12707519531
940.664733886719 951.82373046875 954.92578125 948.311462402344 958.638122558594 958.958801269531 969.827087402344 968.258605957031 966.735961914062 973.582885742188 970.796752929688 973.221923828125 963.384948730469 966.201904296875 978.879821777344 976.203125 973.67431640625 982.08203125 976.512634277344 968.68115234375 967.212707519531 975.522338867188 976.378356933594 962.484497070312 975.109802246094 975.253967285156 969.552734375 967.183837890625 967.700317382812 974.164001464844 977.841979980469 975.470642089844 977.305419921875 976.54736328125 973.747375488281 970.317749023438 968.640991210938 975.385986328125 974.884216308594 971.428466796875 969.482543945312 971.710571289062 964.661071777344 962.871948242188 956.258972167969 963.485473632812 969.205810546875 966.412109375 969.074462890625 977.601867675781 978.563659667969 975.512634277344 972.297241210938 971.947387695312 969.934143066406 967.033325195312 978.505249023438 970.634521484375 978.406372070312 981.606872558594 984.558776855469 984.298217773438 991.004760742188 992.294738769531 992.021301269531 978.20947265625 979.345458984375 977.049621582031 980.633728027344 964.445068359375 970.25244140625 967.883117675781 972.148864746094 971.142578125 971.975891113281 968.742919921875 970.479125976562 970.877319335938 977.639770507812 980.25732421875 971.134826660156 982.964050292969 987.99853515625 986.506774902344 987.644409179688 982.827087402344 993.357666015625 994.966064453125 990.984558105469 992.819091796875 985.03759765625 981.858947753906 976.394348144531 985.846313476562 990.204711914062 989.518371582031 989.809997558594 987.181213378906 988.401672363281 981.207092285156 989.098449707031 990.6591796875 987.73095703125 985.053283691406 978.25390625 983.013427734375 985.702026367188 981.259887695312 992.134643554688 988.73876953125 981.961181640625 985.796508789062 999.833862304688 993.81494140625 994.033508300781 997.754150390625 1000.9287109375 998.953735351562 1002.77874755859 1007.34033203125 995.413391113281 991.92236328125 997.686279296875 1000.11328125 1001.29187011719 1006.05865478516 1007.28302001953 1011.09173583984 1023.19384765625 1027.03210449219 1025.29345703125 1027.34814453125 1028.26892089844 1026.62512207031 1040.10485839844 1040.79797363281 1049.45751953125 1058.7783203125 1059.93103027344 1073.47839355469 1099.03259277344 1108.751953125 1119.8857421875 1128.44213867188 1141.89038085938 1149.13061523438 1161.087890625 1156.83813476562 1162.96704101562 1153.78405761719
936.462707519531 944.929504394531 951.892211914062 957.990173339844 952.104370117188 957.742919921875 960.064025878906 970.330444335938 968.27392578125 971.303039550781 976.577575683594 971.012939453125 957.429870605469 953.997863769531 961.765991210938 969.412902832031 975.414794921875 972.881042480469 978.404663085938 972.241088867188 976.552185058594 972.233337402344 975.254760742188 976.651611328125 968.223388671875 966.440856933594 972.795715332031 974.108703613281 981.561706542969 984.781127929688 981.888793945312 980.0341796875 974.325500488281 976.667114257812 968.720764160156 972.765625 973.885131835938 973.64453125 973.6162109375 970.844116210938 971.23779296875 969.402770996094 970.412353515625 957.865234375 965.094299316406 964.925537109375 969.804565429688 967.570861816406 968.894165039062 970.534423828125 968.1982421875 968.903564453125 966.93115234375 967.259338378906 966.411804199219 969.249328613281 971.390808105469 965.258483886719 969.952453613281 973.13232421875 979.864562988281 988.75634765625 987.628845214844 988.685729980469 980.013732910156 982.890563964844 984.190856933594 987.842895507812 984.248229980469 982.191589355469 968.122009277344 965.868286132812 969.320251464844 965.145202636719 971.735229492188 965.007202148438 973.750183105469 972.248718261719 978.548889160156 974.023742675781 973.876831054688 969.426330566406 972.155639648438 976.663146972656 984.714538574219 981.022705078125 988.395935058594 982.228515625 982.18798828125 986.668762207031 989.538452148438 990.09326171875 989.727966308594 984.611022949219 986.224731445312 984.377563476562 992.780944824219 995.635192871094 999.214721679688 1002.02197265625 993.194580078125 988.534973144531 991.359130859375 990.096923828125 983.082580566406 977.070373535156 981.111572265625 988.109313964844 981.114196777344 988.358154296875 984.236022949219 984.4736328125 983.475769042969 985.300659179688 990.737976074219 996.596740722656 1004.15936279297 995.680786132812 999.82958984375 998.265991210938 995.778015136719 992.610656738281 1003.85821533203 1003.20513916016 998.677062988281 1008.12658691406 1012.25823974609 1016.55700683594 1026.54650878906 1031.67626953125 1030.18432617188 1030.40222167969 1032.18835449219 1032.62329101562 1034.98461914062 1053.98461914062 1063.43432617188 1074.150390625 1073.78173828125 1083.65197753906 1091.23413085938 1110.70629882812 1129.599609375 1136.212890625 1146.00891113281 1149.36279296875 1154.32385253906 1160.11669921875 1167.04833984375 1157.83801269531
946.63525390625 951.644836425781 955.316284179688 952.350524902344 951.384094238281 952.659545898438 967.316650390625 967.122619628906 968.502075195312 976.808471679688 970.810607910156 959.018798828125 966.635925292969 973.779357910156 963.32275390625 971.744689941406 972.536560058594 979.260559082031 979.612731933594 979.928955078125 986.754211425781 982.785583496094 985.465026855469 979.941772460938 967.132019042969 971.7431640625 966.599731445312 972.572387695312 972.275817871094 978.080993652344 982.097412109375 977.474548339844 974.343383789062 968.690368652344 971.471923828125 973.065490722656 971.677734375 976.916625976562 980.392883300781 977.798522949219 968.254333496094 979.243041992188 967.283447265625 961.950439453125 962.376525878906 962.945129394531 967.490783691406 969.432067871094 965.061828613281 961.635864257812 967.001708984375 968.021179199219 969.605285644531 971.362609863281 969.302734375 967.915893554688 965.267822265625 956.165710449219 969.522033691406 975.286376953125 981.635070800781 986.10888671875 986.339965820312 994.739074707031 986.073059082031 985.204406738281 980.673645019531 977.746459960938 978.460388183594 979.947692871094 961.388061523438 962.771179199219 972.091125488281 974.816711425781 963.505554199219 958.856567382812 970.172241210938 968.594848632812 975.137329101562 968.548767089844 970.335205078125 966.503051757812 972.679260253906 972.0380859375 980.910217285156 982.201721191406 984.354248046875 994.758666992188 987.661071777344 983.975036621094 987.821899414062 983.513305664062 981.269348144531 983.845764160156 985.826232910156 994.541259765625 996.20703125 998.0087890625 1005.07141113281 995.234924316406 988.254150390625 986.470764160156 989.910705566406 980.590942382812 975.019226074219 983.697998046875 985.153503417969 985.468078613281 984.926818847656 983.684875488281 985.542419433594 992.086853027344 986.737854003906 992.669372558594 993.945617675781 998.209655761719 998.762634277344 994.264526367188 997.463745117188 995.082702636719 1003.49945068359 998.188293457031 999.031494140625 1001.00152587891 1005.53875732422 1019.17584228516 1022.74011230469 1021.65509033203 1028.22766113281 1034.64147949219 1029.99267578125 1036.83862304688 1041.79150390625 1040.23681640625 1054.43383789062 1060.47998046875 1067 1076.98510742188 1084.94750976562 1092.77014160156 1110.09326171875 1126.11584472656 1130.83422851562 1131.32983398438 1137.38330078125 1150.14880371094 1161.32666015625 1169.69165039062 1163.68713378906 1171.43127441406
940.471740722656 945.116088867188 951.586242675781 957.669616699219 962.222412109375 956.969665527344 967.896423339844 970.604370117188 967.520324707031 969.599670410156 968.844360351562 966.07958984375 971.318603515625 980.25830078125 980.797058105469 976.41796875 969.217590332031 971.369689941406 983.131774902344 988.921447753906 980.618957519531 981.726989746094 981.278991699219 976.256286621094 980.851257324219 969.739624023438 963.415649414062 967.927795410156 974.780883789062 974.839294433594 983.753723144531 980.637023925781 980.468872070312 977.24560546875 979.221801757812 969.735534667969 961.322814941406 970.265686035156 969.128967285156 977.934692382812 965.087036132812 970.577514648438 956.779357910156 958.176391601562 971.031005859375 962.724304199219 956.789001464844 955.356750488281 971.303527832031 965.126403808594 967.134582519531 973.691040039062 976.284606933594 979.805419921875 973.773132324219 968.754577636719 955.09228515625 964.864929199219 963.340576171875 976.851806640625 981.990966796875 994.362365722656 988.873413085938 980.097229003906 980.865539550781 981.134216308594 973.686279296875 982.168029785156 977.287963867188 978.697570800781 961.44384765625 964.538940429688 972.337158203125 967.058898925781 959.83349609375 961.64111328125 965.715881347656 978.777587890625 977.857543945312 966.927978515625 972.902221679688 976.478942871094 968.742736816406 974.258850097656 965.837036132812 970.41552734375 982.581909179688 983.478820800781 980.479675292969 976.9755859375 982.911926269531 976.3779296875 986.473937988281 979.349609375 980.195556640625 985.512939453125 990.134643554688 991.179321289062 999.698608398438 990.109375 980.757873535156 983.511535644531 985.576599121094 993.771667480469 977.281982421875 981.215393066406 983.751037597656 978.8662109375 982.701599121094 984.774597167969 990.260986328125 993.000793457031 985.926086425781 1002.01159667969 1001.28466796875 998.611145019531 1001.99261474609 1002.6884765625 993.398193359375 999.172424316406 1005.60418701172 1009.93743896484 1007.69079589844 998.681823730469 1013.60192871094 1017.26275634766 1028.85107421875 1031.05639648438 1033.13757324219 1036.98889160156 1041.40368652344 1036.80078125 1048.11340332031 1047.67932128906 1061.29614257812 1070.8857421875 1078.43200683594 1081.25903320312 1083.025390625 1085.49279785156 1099.72216796875 1117.61791992188 1132.107421875 1131.63171386719 1139.53662109375 1149.55383300781 1162.3876953125 1171.60998535156 1169.16320800781 1171.77526855469
942.762145996094 950.211853027344 955.642333984375 965.732299804688 972.535827636719 961.064086914062 966.629089355469 972.101928710938 967.572631835938 962.30517578125 963.389404296875 967.710876464844 962.937683105469 971.173217773438 984.320556640625 978.835266113281 976.129638671875 972.401977539062 975.656616210938 984.485656738281 971.904541015625 978.873046875 985.109069824219 986.608215332031 982.316955566406 979.522766113281 972.146606445312 974.258850097656 976.085754394531 972.524475097656 981.562438964844 978.699035644531 982.4306640625 978.339660644531 982.329223632812 968.838500976562 969.215759277344 961.761474609375 958.721801757812 963.998291015625 969.673400878906 959.642333984375 963.2099609375 966.273620605469 967.749755859375 967.691955566406 964.223510742188 960.466369628906 968.910095214844 974.785217285156 971.947021484375 973.650207519531 977.077026367188 981.4365234375 963.320739746094 954.562744140625 960.637451171875 957.831665039062 966.050903320312 974.019348144531 981.893920898438 985.731811523438 981.283081054688 979.619750976562 970.249633789062 962.232604980469 973.540344238281 976.93701171875 968.012817382812 974.994934082031 965.603271484375 974.563720703125 971.499694824219 958.035217285156 961.8115234375 966.793090820312 965.990478515625 970.500427246094 970.729736328125 968.913696289062 975.17529296875 970.625427246094 972.258117675781 972.522705078125 969.706848144531 971.637634277344 970.807983398438 978.948608398438 973.005676269531 975.042114257812 981.998413085938 988.935607910156 980.49072265625 981.202880859375 973.02685546875 985.843505859375 992.456115722656 992.260192871094 988.085876464844 978.541442871094 971.220947265625 979.235290527344 982.9345703125 986.794128417969 982.398498535156 981.954528808594 984.871154785156 987.490417480469 987.653686523438 986.764282226562 999.224182128906 996.786254882812 996.068542480469 1003.26586914062 1004.81994628906 1004.73022460938 999.693786621094 1012.49981689453 994.093322753906 1001.64855957031 1002.25665283203 1002.40374755859 1013.06286621094 1007.01208496094 1010.76531982422 1022.32989501953 1032.97595214844 1034.87927246094 1036.55529785156 1042.00537109375 1052.71765136719 1050.45092773438 1052.94580078125 1057.08422851562 1059.49475097656 1075.03747558594 1077.57202148438 1082.42395019531 1087.39428710938 1091.28259277344 1102.07592773438 1118.89672851562 1123.572265625 1125.38439941406 1145.76416015625 1158.48547363281 1160.92517089844 1174.69763183594 1167.48278808594 1162.02600097656
941.803466796875 946.91064453125 954.033508300781 960.054138183594 973.386047363281 978.895385742188 977.936889648438 971.853820800781 965.797424316406 962.41357421875 966.425231933594 965.34521484375 971.719970703125 969.402038574219 979.182556152344 981.777465820312 986.347290039062 978.494018554688 967.900573730469 966.833618164062 967.2021484375 969.746276855469 983.763061523438 981.523864746094 978.1162109375 976.286010742188 971.73876953125 978.063720703125 973.377258300781 977.093322753906 975.033081054688 975.078247070312 976.806884765625 977.297668457031 976.60546875 974.535766601562 969.317260742188 965.4326171875 962.070556640625 952.950073242188 956.413330078125 960.354125976562 961.285583496094 962.500305175781 964.795776367188 965.967163085938 956.673706054688 963.790710449219 972.55224609375 976.898620605469 979.184143066406 969.60107421875 975.156188964844 965.572204589844 964.93896484375 960.286437988281 964.475463867188 964.289306640625 967.602722167969 969.584350585938 980.360290527344 976.541442871094 971.756164550781 975.184509277344 971.48486328125 969.98388671875 975.79736328125 969.772521972656 966.625 969.527404785156 970.922729492188 970.818054199219 961.583251953125 960.396179199219 961.432067871094 966.126892089844 971.9775390625 974.011657714844 974.970397949219 970.336791992188 970.624145507812 975.015686035156 978.532775878906 977.64599609375 974.394653320312 972.185241699219 971.830505371094 969.547607421875 970.245788574219 979.237060546875 978.430053710938 986.546813964844 981.155944824219 980.285400390625 970.080871582031 972.813842773438 978.797912597656 982.378479003906 975.50244140625 978.223510742188 973.554382324219 982.682556152344 984.6357421875 989.418273925781 983.050048828125 984.936950683594 989.956420898438 989.013244628906 991.770812988281 990.310791015625 996.263488769531 993.295654296875 1005.99249267578 1005.45544433594 1004.62689208984 1001.33715820312 1005.75726318359 1010.2138671875 1004.33093261719 996.769287109375 1003.82873535156 1001.69818115234 1016.1142578125 1017.49353027344 1021.13159179688 1023.58093261719 1031.61791992188 1033.01940917969 1036.73669433594 1046.49963378906 1057.48913574219 1053.08056640625 1051.85388183594 1058.92578125 1067.53735351562 1070.98803710938 1073.37878417969 1077.98266601562 1090.43054199219 1091.11584472656 1099.93395996094 1114.88732910156 1122.62194824219 1120.23950195312 1135.71081542969 1149.154296875 1157.25366210938 1155.83666992188 1160.22082519531 1152.92590332031
946.574096679688 961.197875976562 964.603515625 964.473327636719 966.057983398438 963.256408691406 965.12939453125 970.717407226562 968.811401367188 963.480834960938 962.595886230469 963.456909179688 964.614929199219 972.726806640625 971.134826660156 974.947998046875 986.293762207031 982.746459960938 970.254455566406 964.964599609375 967.915222167969 972.4267578125 981.276184082031 982.998413085938 971.402221679688 966.282592773438 964.626770019531 963.110412597656 971.449462890625 975.372619628906 969.74658203125 966.724914550781 974.677062988281 975.961486816406 972.154052734375 971.365539550781 966.049499511719 963.951843261719 963.287414550781 955.561828613281 965.153930664062 962.129333496094 964.169738769531 963.350158691406 960.214904785156 960.3505859375 962.001953125 960.688537597656 966.471130371094 973.720886230469 975.115234375 971.972473144531 972.794738769531 969.078552246094 972.97021484375 963.846130371094 977.634826660156 965.579772949219 969.390686035156 971.873046875 973.043334960938 972.4345703125 974.218994140625 969.21240234375 970.440063476562 974.09228515625 973.997253417969 964.623901367188 955.7998046875 960.119018554688 970.949157714844 962.719421386719 966.537292480469 961.026672363281 963.538269042969 969.825073242188 970.874206542969 976.73828125 972.7919921875 975.785766601562 970.952941894531 968.327453613281 977.015747070312 978.146545410156 972.819274902344 972.454895019531 965.295776367188 970.4970703125 977.460510253906 978.852478027344 974.353149414062 972.884826660156 974.001525878906 976.859924316406 975.376831054688 978.587524414062 977.268737792969 975.078674316406 973.19580078125 973.441467285156 975.203186035156 974.641723632812 989.872314453125 987.905334472656 992.704650878906 994.168090820312 988.989074707031 990.602905273438 987.738098144531 989.396240234375 997.567504882812 985.564514160156 992.05029296875 997.089416503906 1002.82312011719 997.849426269531 1005.24969482422 1007.34112548828 1007.58410644531 1004.92779541016 1006.66931152344 1010.85711669922 1009.05590820312 1008.86285400391 1015.19781494141 1026.26574707031 1032.39672851562 1042.90905761719 1043.02124023438 1048.99182128906 1050.35498046875 1055.61535644531 1055.39343261719 1059.95166015625 1070.80029296875 1069.79650878906 1074.90441894531 1079.00622558594 1095.37353515625 1104.47338867188 1109.63684082031 1106.13684082031 1118.78283691406 1122.6513671875 1129.06616210938 1137.55834960938 1144.08325195312 1146.93225097656 1147.62072753906 1139.51611328125
947.602844238281 957.513061523438 964.11767578125 965.699768066406 963.804565429688 967.976135253906 966.370483398438 967.086303710938 967.027099609375 961.488098144531 964.289855957031 969.280456542969 968.142028808594 971.367553710938 975.427307128906 980.557189941406 980.341735839844 976.603759765625 975.770568847656 969.697875976562 982.945495605469 983.903747558594 988.309326171875 975.24951171875 977.569946289062 968.778564453125 968.559143066406 960.466735839844 968.098205566406 970.922119140625 976.106872558594 975.4990234375 975.865356445312 980.0283203125 968.221008300781 970.83935546875 971.961303710938 961.480590820312 961.351318359375 964.78857421875 966.973022460938 967.069091796875 965.29541015625 963.331604003906 962.776550292969 963.312072753906 958.561950683594 959.088562011719 969.033447265625 972.090698242188 972.353942871094 970.858276367188 969.050964355469 967.422424316406 970.502258300781 968.435424804688 974.483154296875 965.105346679688 970.457397460938 975.818298339844 973.376403808594 967.978454589844 970.802917480469 969.326416015625 966.733032226562 973.559997558594 972.155883789062 963.163757324219 961.443786621094 959.118774414062 976.825256347656 964.401000976562 957.764404296875 961.408142089844 962.348937988281 966.662353515625 971.359191894531 972.078002929688 967.895446777344 973.542419433594 969.163024902344 965.639221191406 967.119201660156 980.984252929688 979.856750488281 983.192749023438 975.548156738281 976.312194824219 973.413208007812 970.065307617188 968.691284179688 971.26953125 973.393249511719 972.461059570312 966.183227539062 971.251342773438 974.601318359375 977.980041503906 968.8466796875 971.9140625 973.867858886719 980.312438964844 985.529541015625 992.569274902344 985.924682617188 993.21533203125 991.953002929688 987.799072265625 981.144958496094 984.414672851562 993.966552734375 985.380493164062 993.953552246094 996.6240234375 1000.38653564453 1003.46990966797 1004.35906982422 1003.66143798828 1008.93621826172 1000.32635498047 1004.62548828125 1002.55950927734 1004.59674072266 1015.42211914062 1016.67236328125 1026.0419921875 1033.98864746094 1033.5634765625 1039.10827636719 1051.36328125 1051.86059570312 1058.49035644531 1055.53173828125 1068.52185058594 1075.56994628906 1076.17163085938 1080.92199707031 1091.54846191406 1108.65161132812 1112.73413085938 1111.89697265625 1108.7138671875 1120.06115722656 1124.0498046875 1128.23754882812 1134.01110839844 1139.23095703125 1139.20385742188 1128.93969726562 1135.15185546875
952.764709472656 959.186645507812 962.839477539062 963.702758789062 963.245056152344 961.409545898438 966.89501953125 967.029907226562 964.987670898438 960.326049804688 966.794555664062 970.205444335938 963.325744628906 969.330078125 979.851013183594 979.516845703125 971.624755859375 971.865844726562 977.721435546875 983.49267578125 976.965454101562 980.807495117188 978.197387695312 972.992797851562 965.837036132812 963.4345703125 964.860229492188 956.10302734375 971.583251953125 978.3603515625 975.107604980469 972.700927734375 987.356018066406 982.168579101562 978.050598144531 974.607299804688 971.607299804688 966.102661132812 969.417663574219 962.167724609375 960.396667480469 957.450866699219 957.752746582031 958.216125488281 953.112487792969 963.536193847656 965.485656738281 962.807006835938 967.075988769531 964.55908203125 968.887634277344 965.013977050781 962.802429199219 966.585815429688 962.550109863281 963.731567382812 967.892028808594 963.300415039062 966.8212890625 974.611267089844 972.506896972656 978.952575683594 977.407470703125 965.347717285156 964.182678222656 965.532775878906 964.881652832031 967.169921875 957.838439941406 962.879455566406 969.807434082031 957.769104003906 967.127502441406 967.845825195312 963.711303710938 965.359985351562 968.972290039062 972.729919433594 977.476745605469 976.499450683594 967.336975097656 966.444702148438 970.8193359375 975.394348144531 977.295837402344 977.515014648438 971.988708496094 974.60595703125 966.150390625 968.138366699219 961.650390625 960.956481933594 965.734252929688 974.606201171875 971.040161132812 969.194702148438 970.460144042969 973.361022949219 983.546691894531 975.437927246094 971.575317382812 967.81103515625 976.423583984375 979.576171875 977.789733886719 987.275024414062 986.825866699219 985.493286132812 981.927856445312 987.765319824219 991.857849121094 985.946105957031 990.659729003906 990.574462890625 999.197692871094 1007.37664794922 1010.72857666016 999.318969726562 995.994934082031 1004.97241210938 1007.94427490234 1015.33142089844 1003.59484863281 1013.99206542969 1021.38952636719 1015.34484863281 1031.29504394531 1040.44213867188 1039.54187011719 1043.56237792969 1054.94653320312 1066.64929199219 1063.19018554688 1068.15441894531 1079.65625 1086.29028320312 1090.59020996094 1104.34020996094 1105.87072753906 1102.53515625 1106.83178710938 1110.19848632812 1108.11682128906 1121.9990234375 1129.29272460938 1121.1591796875 1124.41394042969 1123.91735839844 1121.318359375 1112.61804199219
953.005737304688 955.253234863281 960.09814453125 957.414245605469 959.095642089844 959.469360351562 966.776184082031 970.983459472656 966.709594726562 966.2958984375 972.822631835938 969.323181152344 972.36865234375 977.22802734375 970.419189453125 981.578125 983.924133300781 978.01318359375 985.79541015625 983.553100585938 980.191101074219 978.188415527344 970.693542480469 960.18359375 960.96728515625 952.981262207031 961.365661621094 958.058898925781 961.815002441406 970.33447265625 973.029846191406 974.524841308594 984.247985839844 981.832397460938 977.222839355469 976.598327636719 968.974731445312 956.004089355469 963.341247558594 962.762512207031 962.453918457031 954.717956542969 965.406494140625 960.379455566406 955.714294433594 956.355407714844 964.007141113281 963.073547363281 965.977355957031 967.327270507812 962.036499023438 963.9072265625 964.994323730469 957.310363769531 963.463500976562 957.389099121094 951.902954101562 953.925109863281 965.919372558594 970.880249023438 974.549194335938 980.813171386719 982.551452636719 969.851379394531 958.199462890625 967.961853027344 957.003112792969 959.624389648438 959.546325683594 955.076599121094 964.857177734375 958.005126953125 956.885986328125 963.968811035156 963.351928710938 958.812744140625 965.497192382812 967.598693847656 980.570739746094 973.438354492188 967.124694824219 964.873168945312 968.390869140625 977.996887207031 975.224060058594 974.202697753906 974.174865722656 969.808715820312 972.77978515625 960.195373535156 955.866943359375 959.380615234375 966.784301757812 971.776062011719 977.687438964844 979.174621582031 974.675109863281 979.0166015625 980.06396484375 976.839233398438 974.146911621094 969.164184570312 969.046630859375 981.032104492188 980.299194335938 981.430541992188 977.604248046875 981.342102050781 976.751953125 985.916809082031 992.2080078125 994.106079101562 994.781372070312 990.915222167969 992.121520996094 998.928283691406 1006.40344238281 1001.82934570312 997.289916992188 1002.5439453125 1014.08013916016 1014.11419677734 1012.71563720703 1018.77075195312 1023.20501708984 1025.66442871094 1028.73828125 1038.59899902344 1042.99096679688 1044.02819824219 1049.21826171875 1060.87268066406 1057.72497558594 1070.22082519531 1076.76037597656 1091.09069824219 1103.82751464844 1095.20788574219 1093.87548828125 1093.31652832031 1100.27856445312 1105.181640625 1115.12072753906 1131.46032714844 1123.52563476562 1120.42639160156 1109.36413574219 1111.57141113281 1104.14294433594 1105.02124023438
963.698486328125 960.581909179688 962.75830078125 956.152526855469 959.245849609375 963.713806152344 968.839172363281 972.758850097656 969.513000488281 970.986938476562 971.907287597656 974.977966308594 975.775573730469 967.184509277344 974.149169921875 978.715576171875 978.919921875 977.562377929688 979.419250488281 980.716674804688 975.154174804688 979.206481933594 966.11181640625 968.304382324219 961.611389160156 949.038146972656 955.633911132812 958.495361328125 965.827026367188 970.474670410156 975.985473632812 975.410705566406 973.447509765625 971.958251953125 968.78271484375 975.985412597656 969.615539550781 968.434204101562 956.557556152344 965.655639648438 957.949829101562 963.23388671875 962.995544433594 960.4365234375 969.170776367188 965.554870605469 957.882629394531 959.145385742188 960.051391601562 964.756164550781 968.387023925781 959.437866210938 965.626037597656 960.00439453125 946.171569824219 942.677001953125 945.730895996094 954.588500976562 959.558410644531 969.32568359375 972.404724121094 978.5927734375 969.285095214844 966.6748046875 962.066101074219 957.725402832031 959.923950195312 954.166931152344 959.162780761719 962.00390625 963.650451660156 957.609558105469 949.840576171875 962.543823242188 965.1328125 963.447692871094 964.336303710938 964.279174804688 980.272399902344 976.86376953125 980.215698242188 966.223327636719 970.714111328125 960.895690917969 961.72314453125 970.380798339844 970.622131347656 973.60107421875 971.057800292969 969.309997558594 972.986938476562 972.73828125 970.458251953125 965.134704589844 974.371032714844 979.021789550781 983.08544921875 976.515075683594 983.829162597656 980.847290039062 979.771240234375 983.438659667969 977.422058105469 983.145568847656 974.454650878906 985.057006835938 983.448486328125 984.674987792969 979.885559082031 987.078125 995.118469238281 992.370300292969 995.254760742188 987.896545410156 1001.07800292969 1003.76348876953 1001.25561523438 1006.59753417969 1010.06402587891 1011.83178710938 1016.1904296875 1014.25189208984 1016.07446289062 1022.98352050781 1025.91711425781 1021.95642089844 1034.02819824219 1039.46716308594 1040.68273925781 1048.46728515625 1053.64294433594 1049.0498046875 1061.20251464844 1062.73962402344 1076.29187011719 1089.61694335938 1097.54895019531 1092.37158203125 1087.43835449219 1090.11071777344 1100.91162109375 1105.79309082031 1116.17236328125 1121.07141113281 1120.41052246094 1112.05920410156 1103.72521972656 1103.06079101562 1100.50170898438 1109.52966308594
970.643432617188 971.752258300781 963.512878417969 969.083374023438 971.43798828125 967.821166992188 971.804504394531 974.695983886719 972.110595703125 964.585754394531 970.19970703125 972.488708496094 980.543823242188 974.603454589844 973.054809570312 974.484741210938 977.455749511719 987.824157714844 985.909729003906 977.76611328125 971.7138671875 972.33642578125 968.080078125 958.042907714844 961.7939453125 964.106811523438 963.091918945312 968.690673828125 970.722595214844 966.42626953125 968.269958496094 966.524169921875 965.412902832031 967.7431640625 971.2890625 981.173034667969 969.574401855469 972.738891601562 964.332153320312 962.30908203125 960.085693359375 959.797729492188 958.768005371094 964.239624023438 968.411804199219 968.523193359375 968.486450195312 963.502990722656 959.040222167969 960.121887207031 966.62060546875 957.01904296875 956.153259277344 952.613342285156 951.664001464844 947.190246582031 953.551208496094 956.225524902344 965.036804199219 967.934631347656 961.745178222656 966.775268554688 955.983520507812 950.335266113281 952.84130859375 954.794372558594 951.903991699219 960.81396484375 959.8369140625 962.620849609375 961.861206054688 959.113708496094 963.772033691406 965.934936523438 962.924255371094 962.090209960938 961.568542480469 963.015014648438 969.83984375 973.161987304688 981.219543457031 974.701232910156 963.2236328125 965.250671386719 963.302429199219 963.530700683594 969.410949707031 972.432312011719 974.643127441406 968.51904296875 969.019287109375 966.139526367188 970.800231933594 972.022033691406 974.025756835938 974.208862304688 979.046264648438 969.830505371094 968.999084472656 978.8935546875 984.324279785156 979.68896484375 980.528686523438 978.265808105469 982.40771484375 976.649353027344 972.815612792969 980.538391113281 972.196350097656 984.651062011719 988.407775878906 1002.88592529297 990.425231933594 989.8427734375 998.532958984375 996.703430175781 999.854736328125 1001.14294433594 1008.5126953125 1017.28179931641 1023.34344482422 1020.54119873047 1018.51245117188 1027.77026367188 1031.07824707031 1029.37109375 1035.38330078125 1043.40026855469 1045.06042480469 1043.49450683594 1051.84204101562 1056.74230957031 1067.24353027344 1070.42712402344 1070.09594726562 1087.70935058594 1095.84228515625 1088.21813964844 1084.03784179688 1089.44152832031 1098.04858398438 1106.08972167969 1104.73278808594 1116.08581542969 1116.99890136719 1112.35620117188 1105.73681640625 1102.05517578125 1109.22277832031 1101.58557128906
963.244995117188 973.822021484375 972.929260253906 969.907470703125 973.6357421875 968.725830078125 971.097106933594 978.027282714844 971.035034179688 975.283508300781 979.591064453125 976.222229003906 979.62255859375 984.319885253906 978.065307617188 973.647338867188 978.531494140625 976.126403808594 983.038757324219 979.961120605469 967.844909667969 967.399169921875 966.318054199219 961.311462402344 968.777587890625 965.815795898438 961.605712890625 964.240539550781 966.472106933594 961.587829589844 970.954833984375 972.338256835938 968.700927734375 968.258911132812 970.492980957031 970.35888671875 967.694152832031 966.074951171875 963.824157714844 965.236450195312 963.7978515625 956.507080078125 948.748657226562 951.614196777344 959.725219726562 968.659790039062 964.645935058594 962.943664550781 966.758728027344 962.038024902344 961.636474609375 959.721862792969 954.4404296875 962.732177734375 954.12646484375 954.085632324219 950.722106933594 958.848327636719 959.670654296875 962.463256835938 959.461730957031 954.703796386719 957.475830078125 956.499877929688 950.96728515625 953.909912109375 958.394470214844 953.20166015625 965.670959472656 967.79296875 967.243713378906 962.501708984375 962.965087890625 969.729187011719 954.182861328125 962.012268066406 963.717590332031 957.110717773438 960.059997558594 972.052673339844 976.820861816406 972.786376953125 964.756286621094 971.4833984375 964.04638671875 960.7666015625 964.277404785156 968.566833496094 971.127990722656 977.083984375 974.081176757812 963.960388183594 973.665283203125 969.8857421875 969.175720214844 977.146606445312 971.904296875 969.078186035156 968.22802734375 977.744445800781 973.693176269531 981.679809570312 975.961059570312 982.81884765625 977.195434570312 973.779968261719 971.794006347656 979.845397949219 971.570251464844 984.90087890625 993.260131835938 987.455444335938 992.019775390625 985.941833496094 985.241027832031 996.810974121094 1000.47009277344 1001.58758544922 1002.44293212891 1007.82653808594 1008.91259765625 1017.59210205078 1014.01165771484 1030.21240234375 1027.46081542969 1031.69519042969 1034.07836914062 1027.83471679688 1040.8115234375 1042.62780761719 1049.29211425781 1065.97436523438 1062.97082519531 1064.62780761719 1071.26123046875 1087.54565429688 1091.79626464844 1079.4306640625 1083.01220703125 1091.93322753906 1094.94140625 1093.33508300781 1093.37145996094 1104.47692871094 1111.900390625 1109.69775390625 1113.76818847656 1110.07849121094 1111.96691894531 1115.47741699219
965.6484375 964.975708007812 982.957458496094 972.399108886719 971.778930664062 973.733459472656 973.096618652344 976.002502441406 973.360656738281 975.809936523438 970.677795410156 974.780029296875 980.64404296875 974.812805175781 973.427001953125 966.987548828125 968.893310546875 967.233520507812 974.292785644531 977.889831542969 976.156982421875 967.75732421875 961.688659667969 954.193481445312 958.899108886719 961.762084960938 970.095397949219 963.729797363281 968.809936523438 967.034484863281 959.363647460938 964.6337890625 956.08251953125 970.925659179688 969.002563476562 967.717468261719 959.601196289062 956.589477539062 961.309875488281 961.079895019531 959.969116210938 959.05078125 960.838684082031 961.048767089844 968.885009765625 972.863647460938 964.167236328125 963.029907226562 960.911865234375 963.51708984375 962.212585449219 960.002319335938 963.726867675781 955.098693847656 955.105224609375 951.394348144531 946.044555664062 951.309143066406 963.46240234375 961.990234375 956.90673828125 967.451171875 957.337707519531 960.033142089844 962.859008789062 956.1474609375 949.589538574219 954.790222167969 960.333862304688 965.992370605469 960.82275390625 966.0712890625 968.098510742188 962.562927246094 960.781494140625 963.529968261719 961.106018066406 956.121887207031 954.992248535156 970.169006347656 972.380554199219 962.587341308594 957.275939941406 966.089111328125 954.54833984375 950.325073242188 960.809265136719 966.520812988281 974.830017089844 970.561462402344 972.084899902344 975.422485351562 971.443603515625 971.833557128906 972.021728515625 972.455810546875 976.238098144531 974.984619140625 973.937866210938 975.262939453125 972.535705566406 973.596557617188 975.089660644531 981.533874511719 984.891052246094 978.747253417969 976.181274414062 968.711303710938 965.099426269531 979.852416992188 987.727783203125 989.579833984375 989.277709960938 987.608459472656 985.750183105469 988.990417480469 989.484252929688 994.855163574219 1005.73529052734 996.616943359375 1007.16784667969 997.353454589844 1015.60229492188 1025.86401367188 1028.55029296875 1030.8212890625 1034.78344726562 1032.73608398438 1048.53552246094 1048.56970214844 1051.15954589844 1062.3388671875 1064.98327636719 1070.44775390625 1080.11584472656 1097.23596191406 1087.45959472656 1084.41003417969 1086.70593261719 1092.16955566406 1084.36242675781 1081.8662109375 1085.52685546875 1096.60107421875 1095.25451660156 1104.46704101562 1105.01965332031 1110.64794921875 1109.94543457031 1114.43981933594
970.422180175781 969.247680664062 980.053466796875 977.887390136719 975.230651855469 977.170654296875 976.007751464844 980.418823242188 975.039001464844 972.673645019531 968.177429199219 966.769348144531 974.420227050781 979.513305664062 971.373779296875 960.086608886719 969.918334960938 975.436096191406 979.646911621094 979.616271972656 969.134582519531 965.20751953125 952.365905761719 962.06884765625 960.496337890625 964.96240234375 960.102783203125 964.236389160156 955.925354003906 966.529418945312 963.585510253906 955.080261230469 959.88720703125 965.199890136719 962.929077148438 960.413757324219 959.490905761719 960.418579101562 959.978332519531 956.79931640625 960.10205078125 957.434204101562 951.513061523438 961.715148925781 964.438842773438 970.683410644531 966.042236328125 963.635192871094 963.538940429688 964.369384765625 959.185852050781 953.719665527344 959.045593261719 957.418151855469 949.402465820312 950.73486328125 949.401184082031 957.31982421875 950.672058105469 957.791076660156 950.822692871094 961.359497070312 962.716918945312 950.898864746094 957.138305664062 957.468383789062 957.467102050781 964.460327148438 971.583679199219 963.830810546875 967.705932617188 963.904724121094 968.704711914062 965.548156738281 962.448303222656 958.2392578125 961.310913085938 956.789794921875 954.215515136719 965.839294433594 966.550903320312 958.128173828125 955.589233398438 955.066345214844 956.485290527344 965.807312011719 965.99755859375 969.381652832031 965.394897460938 970.829528808594 973.216857910156 964.780517578125 967.520874023438 973.145446777344 970.796752929688 971.665588378906 969.858337402344 977.858154296875 974.271301269531 972.751770019531 979.21923828125 975.959167480469 980.962341308594 976.681945800781 982.712158203125 982.310668945312 972.704162597656 969.032897949219 971.131896972656 981.554138183594 985.776306152344 991.997680664062 989.515441894531 986.151000976562 987.459655761719 986.657958984375 991.253173828125 994.188293457031 994.807006835938 994.261535644531 989.638427734375 1006.69024658203 1008.55364990234 1018.51745605469 1030.53088378906 1029.98498535156 1035.70971679688 1036.41076660156 1041.09606933594 1045.86584472656 1045.3232421875 1058.20458984375 1070.02551269531 1073.96508789062 1085.75964355469 1094.60705566406 1085.4130859375 1084.4326171875 1088.87524414062 1093.30139160156 1082.93420410156 1083.89367675781 1080.240234375 1089.35473632812 1090.46435546875 1105.37072753906 1094.50463867188 1097.02673339844 1093.46179199219 1104.26342773438
961.32275390625 964.509460449219 968.212768554688 970.698913574219 979.018310546875 980.626342773438 976.600769042969 967.040771484375 976.124572753906 966.925598144531 956.372619628906 957.443237304688 961.098876953125 970.216857910156 968.806030273438 966.258483886719 967.21142578125 971.551086425781 971.112854003906 970.0712890625 963.598815917969 958.987121582031 950.087341308594 959.991821289062 959.917846679688 956.39794921875 964.729797363281 960.328552246094 951.659606933594 962.1484375 962.315246582031 951.587341308594 954.888061523438 954.097412109375 955.471801757812 962.785278320312 963.277221679688 970.157897949219 958.937683105469 951.473327636719 957.393432617188 953.995056152344 955.052795410156 957.744445800781 958.271911621094 953.1630859375 955.508544921875 954.695556640625 958.081237792969 965.624145507812 962.2646484375 961.062377929688 957.115112304688 954.793212890625 955.135803222656 944.673522949219 954.942565917969 953.225769042969 955.812622070312 953.680419921875 952.78759765625 951.588500976562 963.589416503906 962.509399414062 959.309387207031 955.100280761719 962.424133300781 963.228759765625 972.434692382812 972.669128417969 966.728332519531 968.56005859375 970.4912109375 959.936096191406 958.477661132812 961.038940429688 955.294372558594 951.787048339844 952.838989257812 961.008483886719 962.717224121094 964.347351074219 951.615844726562 958.674743652344 958.547668457031 966.988525390625 968.574951171875 968.386047363281 969.494445800781 970.962280273438 971.170959472656 964.051208496094 968.954711914062 973.397277832031 971.913330078125 983.280151367188 977.009155273438 981.368713378906 975.397521972656 976.569274902344 976.825317382812 982.858520507812 984.504211425781 974.606323242188 976.983581542969 980.809692382812 977.37744140625 981.840087890625 984.051086425781 989.468872070312 993.21484375 991.43701171875 990.907104492188 985.153686523438 989.77685546875 988.815307617188 992.273254394531 994.866760253906 993.218627929688 994.077026367188 994.283203125 1002.81604003906 1008.04498291016 1018.38159179688 1018.39367675781 1019.79357910156 1038.6455078125 1039.01770019531 1040.59997558594 1045.84924316406 1043.95654296875 1053.50988769531 1064.71398925781 1077.43908691406 1093.24108886719 1101.029296875 1091.25390625 1078.31848144531 1078.35961914062 1084.85205078125 1079.3955078125 1077.29504394531 1080.66442871094 1072.49853515625 1083.2177734375 1074.36962890625 1079.55749511719 1085.31213378906 1086.25366210938 1090.83508300781
959.884948730469 963.093811035156 970.079406738281 968.215759277344 973.590515136719 973.550170898438 970.157043457031 966.542846679688 965.098327636719 962.193664550781 961.804443359375 949.743774414062 955.758666992188 962.830139160156 969.194091796875 972.840148925781 969.535766601562 964.414184570312 966.363708496094 972.556884765625 965.977783203125 960.676513671875 955.418579101562 952.02294921875 953.472717285156 955.162475585938 954.488464355469 952.375061035156 953.823425292969 956.523071289062 958.66845703125 957.711669921875 950.236206054688 949.1171875 948.74658203125 951.85546875 964.138488769531 959.217529296875 944.008178710938 948.924560546875 957.465087890625 954.888061523438 959.477172851562 960.697265625 959.170776367188 955.435302734375 947.522766113281 946.496154785156 950.549682617188 964.814331054688 957.161560058594 963.447692871094 961.348876953125 956.941955566406 951.84375 951.071044921875 954.425109863281 952.410400390625 951.901184082031 951.498413085938 943.531677246094 953.849853515625 969.456665039062 959.609497070312 950.142822265625 956.831237792969 963.32861328125 959.149047851562 967.270751953125 966.859802246094 970.43798828125 962.907409667969 962.094177246094 956.986511230469 958.345031738281 947.822937011719 957.472839355469 955.859313964844 960.411682128906 967.249206542969 962.192932128906 961.772033691406 961.816223144531 962.017822265625 957.135986328125 963.989624023438 968.017333984375 971.271789550781 972.084655761719 972.280090332031 970.628540039062 962.250183105469 969.922302246094 970.879943847656 972.60888671875 974.715270996094 972.942626953125 977.411071777344 982.656127929688 982.802429199219 978.095642089844 979.350524902344 979.217468261719 982.696350097656 975.936584472656 974.646606445312 983.4287109375 987.97900390625 985.587768554688 999.622497558594 999.491516113281 993.370544433594 994.681823730469 996.123779296875 1001.47296142578 992.124145507812 992.443115234375 998.330383300781 994.504028320312 995.833068847656 1000.51812744141 1000.54058837891 1004.41802978516 1011.44885253906 1010.13433837891 1022.20001220703 1038.51672363281 1037.39440917969 1041.37109375 1044.41174316406 1041.09411621094 1052.4541015625 1061.96813964844 1078.36877441406 1081.13427734375 1077.19592285156 1076.84924316406 1070.41564941406 1067.01550292969 1073.15393066406 1068.47155761719 1062.22180175781 1068.64001464844 1069.47924804688 1068.13757324219 1057.58959960938 1057.31579589844 1074.69299316406 1082.98718261719 1077.98742675781
951.502990722656 961.332336425781 968.286254882812 971.580871582031 970.881042480469 969.122619628906 966.599975585938 971.671081542969 962.50390625 957.1357421875 951.694946289062 951.197570800781 964.8427734375 959.812927246094 966.434265136719 967.382873535156 971.625549316406 968.68408203125 960.054870605469 960.031188964844 962.929626464844 969.036437988281 957.8642578125 949.590576171875 950.315612792969 954.267700195312 943.546630859375 950.594177246094 954.978271484375 956.730712890625 959.455444335938 957.571594238281 955.781372070312 950.710021972656 945.824096679688 950.486633300781 961.620239257812 954.7734375 940.182434082031 938.391967773438 942.725341796875 946.698425292969 955.424194335938 957.455200195312 947.880065917969 946.446716308594 950.426940917969 945.596069335938 945.1318359375 952.945739746094 959.427795410156 962.328979492188 953.668701171875 948.078979492188 943.0244140625 957.043884277344 954.664245605469 953.898010253906 958.17041015625 951.508666992188 948.527770996094 959.243103027344 959.60400390625 961.726989746094 956.390686035156 955.579772949219 956.211181640625 963.427856445312 960.460510253906 967.774169921875 957.321655273438 961.416870117188 959.384643554688 951.262268066406 960.221008300781 953.005310058594 957.304870605469 955.8984375 963.192199707031 968.804260253906 965.689270019531 966.725769042969 966.562072753906 963.397521972656 957.268005371094 964.606140136719 973.500915527344 967.508483886719 969.978088378906 969.134521484375 964.875244140625 968.824829101562 968.263977050781 965.492736816406 967.611633300781 978.85009765625 980.658020019531 975.411376953125 977.523315429688 977.596313476562 979.87451171875 976.104858398438 978.677612304688 986.633911132812 986.871276855469 990.243225097656 993.912292480469 997.398498535156 995.881103515625 997.864440917969 996.388671875 997.801452636719 998.660400390625 1011.65734863281 1011.23663330078 1005.75354003906 1003.30029296875 998.685485839844 995.614624023438 995.78515625 1003.24731445312 1002.10229492188 1003.82165527344 1003.84295654297 994.160095214844 1019.46276855469 1033.93481445312 1041.93151855469 1036.75769042969 1039.34912109375 1042.38244628906 1057.66760253906 1067.26879882812 1075.67333984375 1082.34460449219 1075.58947753906 1074.51611328125 1070.31274414062 1071.37683105469 1073.29919433594 1062.919921875 1054.04919433594 1062.47485351562 1061.73486328125 1054.85192871094 1057.24877929688 1056.10009765625 1060.82250976562 1064.6806640625 1062.58898925781
949.904541015625 958.020690917969 966.916259765625 977.667663574219 975.776000976562 968.213562011719 965.304260253906 964.311950683594 961.049377441406 958.343994140625 954.789428710938 955.685729980469 963.093627929688 962.978881835938 965.110717773438 966.825744628906 969.752075195312 960.028564453125 960.064392089844 963.752380371094 960.528503417969 958.545104980469 941.469177246094 942.256713867188 946.499389648438 939.509826660156 943.400268554688 946.582092285156 943.920532226562 960.349670410156 949.460021972656 956.940979003906 954.168090820312 949.155700683594 947.190368652344 951.733154296875 957.922119140625 954.774658203125 944.558837890625 940.775756835938 949.773193359375 944.701782226562 953.581481933594 954.090942382812 956.284973144531 954.14208984375 942.7939453125 945.805419921875 952.1376953125 961.222473144531 957.6279296875 960.779052734375 951.614013671875 940.031494140625 939.47265625 946.937194824219 958.609741210938 956.888488769531 968.260009765625 953.693481445312 946.948791503906 955.362121582031 961.102294921875 966.269592285156 965.75439453125 964.558715820312 965.990661621094 968.896911621094 963.871765136719 956.557800292969 957.2021484375 951.356811523438 957.547729492188 954.134704589844 964.591796875 952.560302734375 962.693664550781 964.498352050781 970.168395996094 964.796997070312 968.279602050781 972.166198730469 965.395751953125 964.916137695312 968.434814453125 965.302978515625 971.771545410156 968.514343261719 974.414672851562 969.319458007812 968.7939453125 969.538696289062 971.586669921875 964.345458984375 968.510009765625 969.091796875 978.526977539062 976.594116210938 974.049072265625 980.639831542969 980.88525390625 976.470642089844 986.494323730469 981.192932128906 980.605834960938 989.322875976562 989.66650390625 995.653930664062 1002.49224853516 1010.66918945312 1005.35540771484 1003.83654785156 1004.57318115234 1004.58557128906 1008.90606689453 1010.06677246094 1004.98626708984 1005.8974609375 996.394409179688 992.683227539062 998.981140136719 1007.25305175781 1000.109375 1004.10815429688 1005.57684326172 1011.00756835938 1023.65393066406 1035.95886230469 1043.61938476562 1038.95336914062 1045.63671875 1053.57214355469 1057.46545410156 1066.46142578125 1070.37756347656 1065.59594726562 1058.45825195312 1068.26452636719 1072.0849609375 1062.06713867188 1049.02893066406 1048.19787597656 1043.51611328125 1042.25524902344 1053.74133300781 1049.11694335938 1045.9443359375 1049.32653808594 1060.48583984375 1059.62548828125
955.333679199219 954.188293457031 968.377319335938 977.078735351562 976.287902832031 972.817199707031 961.154052734375 964.544006347656 967.460632324219 959.174438476562 951.935363769531 957.876037597656 962.136352539062 965.053527832031 963.351440429688 955.464477539062 961.268005371094 956.7509765625 956.488342285156 942.075805664062 952.328796386719 950.644958496094 935.19287109375 932.615295410156 935.794982910156 946.65283203125 950.556030273438 953.568542480469 943.670532226562 949.390686035156 954.452331542969 952.685729980469 957.562622070312 957.806030273438 953.676086425781 947.308532714844 948.858703613281 947.85595703125 944.444213867188 947.322937011719 952.599853515625 955.732116699219 951.983032226562 955.537475585938 958.178100585938 956.471130371094 956.502014160156 957.704162597656 950.495483398438 955.346435546875 954.286193847656 961.798645019531 953.716491699219 950.477600097656 947.264892578125 959.607604980469 954.920043945312 970.111694335938 972.2490234375 963.028198242188 960.941040039062 955.488708496094 957.969055175781 965.315551757812 958.917053222656 954.472839355469 958.70458984375 963.875 956.556457519531 956.967651367188 959.507202148438 957.852661132812 964.009643554688 962.512756347656 964.453552246094 963.992126464844 964.4296875 963.018493652344 970.165405273438 972.81591796875 971.516784667969 978.219909667969 968.700134277344 967.532653808594 970.173217773438 970.174926757812 973.339782714844 961.944091796875 973.609558105469 967.529724121094 964.307983398438 971.992553710938 974.052734375 971.975830078125 961.737854003906 968.841796875 978.004089355469 977.801086425781 980.658142089844 992.267028808594 989.759582519531 984.380737304688 985.44921875 977.914306640625 986.858459472656 996.503662109375 1005.54577636719 1012.2998046875 1008.46252441406 1010.36022949219 1004.49389648438 1002.12945556641 997.831237792969 1004.83892822266 1003.57135009766 1003.88531494141 1005.10479736328 1008.02844238281 1005.82550048828 989.614440917969 998.087585449219 1000.96343994141 998.821716308594 998.86962890625 1007.13818359375 1004.99932861328 1024.56323242188 1027.00390625 1034.1328125 1038.87548828125 1041.87841796875 1044.81518554688 1045.49328613281 1049.65844726562 1057.11047363281 1060.78833007812 1056.03100585938 1047.76098632812 1046.45373535156 1046.09716796875 1045.38098144531 1041.58374023438 1026.212890625 1038.86376953125 1054.57983398438 1044.12878417969 1049.5849609375 1053.58874511719 1049.48132324219 1050.02600097656
