NCOLS 150
NROWS 37
XLLCORNER 7394249
YLLCORNER 4842569
CELLSIZE 30
NODATA_VALUE -9999
937.505920410156 950.063049316406 948.638549804688 949.48876953125 954.050537109375 957.91943359375 960.674072265625 960.686584472656 965.535400390625 957.111022949219 966.991088867188 964.979553222656 965.612365722656 967.935119628906 976.833618164062 986.094360351562 980.423889160156 980.811950683594 977.478881835938 986.171020507812 974.690063476562 975.003723144531 973.015258789062 967.721740722656 969.148803710938 967.954528808594 961.728759765625 962.843078613281 956.121459960938 971.753540039062 984.780395507812 977.18798828125 973.886840820312 976.679138183594 984.215881347656 985.755004882812 985.678894042969 977.55615234375 966.068359375 976.187927246094 970.424011230469 969.721374511719 965.482421875 970.042724609375 959.813659667969 965.526184082031 962.156860351562 962.165222167969 974.230712890625 966.087768554688 966.744567871094 972.315490722656 972.449462890625 977.238952636719 964.951416015625 968.7421875 966.366394042969 976.399047851562 973.422119140625 967.424743652344 974.247436523438 980.170776367188 975.878723144531 972.798034667969 968.706237792969 974.816955566406 968.648132324219 967.1240234375 961.842956542969 955.544738769531 945.791564941406 956.206909179688 964.401489257812 967.478393554688 974.08984375 977.526611328125 965.597717285156 966.627685546875 966.634155273438 976.713317871094 982.693786621094 983.595458984375 987.75732421875 994.346618652344 992.444030761719 979.118774414062 972.088134765625 979.774169921875 985.295288085938 987.010803222656 987.456848144531 984.251159667969 987.041198730469 982.836242675781 984.46728515625 981.425415039062 989.546142578125 982.956909179688 971.147827148438 958.928771972656 976.798950195312 979.672729492188 972.875915527344 970.932800292969 975.303039550781 980.882568359375 980.852844238281 980.084106445312 985.078063964844 991.646118164062 992.807067871094 997.298583984375 993.527893066406 990.250122070312 995.0546875 1000.30432128906 1001.55737304688 997.485412597656 998.557495117188 1000.43518066406 996.151733398438 999.803955078125 996.546081542969 1005.89044189453 1011.0048828125 1019.46240234375 1016.26947021484 1032.94958496094 1021.84216308594 1028.21875 1019.60229492188 1033.39978027344 1039.5126953125 1042.35998535156 1056.61376953125 1070.20227050781 1073.09167480469 1081.30871582031 1078.53295898438 1087.97204589844 1090.787109375 1116.56213378906 1123.47131347656 1123.65539550781 1128.30810546875 1143.77307128906 1161.63415527344 1165.19067382812 1168.11877441406 1171.33410644531
937.183837890625 945.513977050781 948.378479003906 945.949584960938 952.574096679688 958.674072265625 960.380676269531 964.363159179688 968.240478515625 960.488037109375 958.397705078125 957.00927734375 966.313415527344 974.902221679688 977.252075195312 978.35888671875 977.841003417969 985.475524902344 984.357421875 979.040771484375 974.140686035156 966.827697753906 975.018127441406 968.213073730469 963.44921875 961.706481933594 960.5517578125 966.356994628906 962.735656738281 970.851806640625 981.961486816406 977.969421386719 977.676452636719 977.716979980469 975.649475097656 977.320922851562 970.264526367188 970.236755371094 972.352600097656 982.498718261719 968.090698242188 965.5166015625 962.516296386719 971.683776855469 964.680297851562 969.332763671875 961.4296875 962.244750976562 968.87939453125 971.8095703125 966.764953613281 971.312927246094 967.440856933594 971.75244140625 966.241760253906 973.115417480469 965.375427246094 979.510498046875 976.748474121094 977.250610351562 972.265197753906 972.285400390625 975.259338378906 978.6630859375 972.348205566406 976.317687988281 969.500671386719 970.248474121094 957.211242675781 949.006225585938 954.461608886719 958.509765625 966.263427734375 964.700012207031 972.746887207031 984.081787109375 974.997680664062 960.349487304688 966.124755859375 979.489196777344 977.203063964844 977.174377441406 978.273498535156 979.834533691406 990.704162597656 980.022644042969 968.297180175781 971.479614257812 976.412231445312 986.911254882812 987.161376953125 985.085998535156 984.885375976562 992.653625488281 990.433349609375 983.745788574219 987.721496582031 979.722961425781 973.880737304688 962.767028808594 973.061340332031 976.414428710938 971.94677734375 977.9697265625 977.1650390625 981.959594726562 971.939392089844 972.200317382812 984.728637695312 985.20166015625 997.568786621094 1000.60815429688 1002.23376464844 998.878295898438 1001.83197021484 1008.80700683594 1001.06225585938 1002.44091796875 1006.75189208984 1007.76849365234 1000.21716308594 998.2119140625 1003.91845703125 1019.10388183594 1012.75671386719 1017.88952636719 1023.80133056641 1023.51763916016 1028.20629882812 1034.69140625 1024.32263183594 1032.04235839844 1045.05517578125 1050.7109375 1069.52185058594 1078.248046875 1085.78771972656 1095.56457519531 1095.77111816406 1096.693359375 1104.34582519531 1110.25964355469 1120.71240234375 1116.4814453125 1131.73901367188 1146.85705566406 1168.35095214844 1171.84106445312 1166.16662597656 1159.70861816406
941.932922363281 943.641906738281 954.751037597656 955.3828125 955.204528808594 952.408325195312 963.049560546875 965.543029785156 964.192932128906 957.162170410156 951.18603515625 965.42919921875 966.696716308594 968.177551269531 988.464965820312 982.902954101562 985.45361328125 989.724975585938 980.058471679688 976.68212890625 973.86279296875 967.258666992188 965.6025390625 961.679382324219 960.416076660156 964.334106445312 970.7578125 968.654907226562 969.192687988281 970.089599609375 977.642456054688 970.927062988281 970.818420410156 971.422973632812 963.721252441406 972.785461425781 967.191223144531 971.481079101562 972.480712890625 970.85791015625 970.885864257812 965.493408203125 965.486999511719 967.973266601562 970.775268554688 959.390991210938 961.106201171875 958.3916015625 966.685791015625 968.889587402344 974.520141601562 973.280517578125 971.309875488281 970.559509277344 965.094055175781 963.479187011719 967.155700683594 981.749694824219 979.345458984375 976.240234375 976.089477539062 970.595153808594 970.872436523438 974.471069335938 974.284301757812 968.765502929688 963.319030761719 958.967041015625 953.736572265625 954.079223632812 955.899719238281 965.31884765625 975.046020507812 974.903381347656 973.75537109375 974.435424804688 969.1064453125 954.930297851562 970.187744140625 966.020446777344 970.834899902344 970.86376953125 976.389526367188 982.584228515625 982.013793945312 979.547058105469 972.840759277344 973.363342285156 971.832702636719 977.431213378906 981.322448730469 977.336364746094 987.752380371094 985.357299804688 978.216186523438 989.511352539062 988.637390136719 983.9130859375 976.68310546875 974.426635742188 980.469482421875 975.775268554688 977.258178710938 977.128723144531 984.569152832031 988.0283203125 982.185363769531 983.499694824219 984.962646484375 997.52099609375 1000.76861572266 1003.97869873047 1002.81072998047 1004.93908691406 1009.42944335938 1003.92547607422 1003.45635986328 1013.32928466797 1015.35729980469 1011.28155517578 1005.48297119141 1006.06842041016 1012.603515625 1013.84149169922 1010.41754150391 1019.86840820312 1016.38336181641 1022.01916503906 1028.81140136719 1045.6650390625 1035.0439453125 1032.17346191406 1044.86535644531 1054.0283203125 1061.92602539062 1077.16662597656 1091.27465820312 1100.22888183594 1096.5947265625 1111.69262695312 1113.73498535156 1120.88684082031 1118.32971191406 1119.82690429688 1138.34399414062 1148.90026855469 1152.30200195312 1167.03356933594 1159.3359375 1157.50134277344
948.027648925781 949.553955078125 953.725463867188 950.661071777344 954.814453125 965.766906738281 969.896423339844 967.396728515625 961.55615234375 961.321350097656 951.828063964844 968.44140625 980.494689941406 978.765563964844 978.450622558594 977.9423828125 985.105041503906 981.977294921875 977.233215332031 978.564208984375 973.073120117188 965.384216308594 960.920166015625 950.510925292969 967.053100585938 973.052001953125 974.43701171875 971.970458984375 973.460815429688 970.493713378906 971.628295898438 968.572692871094 971.665344238281 973.376037597656 968.799255371094 972.055114746094 973.349792480469 975.56396484375 980.878723144531 972.854370117188 961.812744140625 968.922241210938 958.2998046875 969.174072265625 967.728393554688 962.293762207031 967.96923828125 961.273742675781 962.645080566406 974.328491210938 971.154479980469 977.530334472656 970.16357421875 967.647644042969 968.580078125 953.367309570312 969.042358398438 978.51611328125 972.098022460938 966.456359863281 967.112976074219 968.205444335938 970.256103515625 963.433410644531 974.302856445312 965.169860839844 957.908142089844 955.813171386719 957.258666992188 950.832458496094 960.568725585938 965.343383789062 972.972961425781 983.269104003906 973.8681640625 970.726135253906 975.087646484375 968.472473144531 967.977416992188 974.638122558594 966.588073730469 978.0576171875 968.330383300781 984.512634277344 983.781372070312 979.511840820312 972.821472167969 973.822082519531 962.431396484375 970.426879882812 974.64501953125 970.751037597656 974.124572753906 976.061645507812 983.942810058594 986.905456542969 988.922424316406 979.723815917969 981.986755371094 977.611755371094 981.256286621094 984.8955078125 978.166564941406 980.462097167969 984.858459472656 986.020080566406 992.658020019531 993.22900390625 997.121215820312 998.95751953125 1001.11584472656 1006.59411621094 994.75390625 1007.68157958984 1011.15252685547 1012.04962158203 1013.55322265625 1023.07183837891 1029.15759277344 1024.04418945312 1016.49963378906 1011.51928710938 1024.333984375 1019.91925048828 1014.9716796875 1017.48065185547 1023.43646240234 1025.4755859375 1031.0419921875 1036.33776855469 1041.16271972656 1037.02893066406 1042.46826171875 1060.44641113281 1065.52587890625 1078.88208007812 1091.4365234375 1102.46240234375 1104.95349121094 1103.11840820312 1112.27819824219 1116.09790039062 1126.63659667969 1133.36083984375 1139.40856933594 1145.29699707031 1144.54174804688 1149.13891601562 1145.88049316406 1148.56481933594
955.278503417969 957.201965332031 964.746459960938 961.217895507812 959.727294921875 962.793212890625 966.701354980469 964.341857910156 960.420043945312 966.662170410156 967.719360351562 970.926818847656 974.715270996094 980.344055175781 975.839111328125 972.997497558594 977.16943359375 980.76171875 984.230895996094 982.756103515625 972.820556640625 959.273010253906 956.342712402344 955.948486328125 969.369689941406 969.556640625 972.890258789062 965.103820800781 974.656860351562 964.794677734375 962.779846191406 966.1640625 973.369812011719 972.957580566406 979.044677734375 969.367126464844 970.766357421875 970.837890625 969.182495117188 972.519775390625 965.924072265625 966.830200195312 962.480285644531 959.174560546875 965.036437988281 953.759704589844 958.762084960938 953.7060546875 964.656005859375 972.772277832031 965.682006835938 975.536926269531 970.549743652344 968.8056640625 964.416320800781 964.504699707031 969.188659667969 967.428955078125 962.640625 972.952941894531 972.824645996094 970.878540039062 975.0361328125 973.747741699219 967.530212402344 964.942077636719 954.676025390625 951.281616210938 952.516784667969 958.38134765625 953.18505859375 957.336853027344 966.374694824219 969.857055664062 971.612243652344 971.083190917969 959.245849609375 964.093688964844 968.98046875 961.060913085938 967.264587402344 969.063903808594 971.33544921875 976.924438476562 986.8798828125 976.386169433594 967.567993164062 967.02978515625 960.872985839844 969.064086914062 968.323791503906 971.403930664062 972.69921875 975.468566894531 988.283142089844 989.704345703125 982.871459960938 978.754577636719 973.689392089844 969.621398925781 977.388610839844 980.021118164062 983.639526367188 992.418334960938 985.049133300781 994.475708007812 998.816650390625 999.102294921875 1000.96240234375 993.180847167969 995.173156738281 1004.11657714844 999.96435546875 1004.9091796875 1015.43084716797 1014.11157226562 1017.83020019531 1025.59423828125 1025.47607421875 1029.19006347656 1018.65393066406 1017.400390625 1017.92175292969 1029.68530273438 1023.75677490234 1030.72546386719 1027.43737792969 1030.38659667969 1036.96264648438 1045.63732910156 1045.60827636719 1043.44030761719 1047.12182617188 1066.80078125 1066.09912109375 1070.08056640625 1083.21838378906 1089.42626953125 1092.16809082031 1098.96838378906 1107.47937011719 1110.21057128906 1124.5703125 1124.033203125 1132.41516113281 1136.90209960938 1133.5537109375 1137.64636230469 1144.00573730469 1142.53820800781
959.36083984375 953.874145507812 962.136596679688 966.377685546875 964.132141113281 974.255615234375 966.165405273438 971.195495605469 967.523864746094 966.459228515625 967.725952148438 978.455688476562 980.613464355469 982.109130859375 978.376220703125 980.239440917969 979.180969238281 976.626831054688 974.912719726562 978.888916015625 978.695373535156 959.116455078125 963.974060058594 965.976013183594 967.945983886719 969.233947753906 966.854309082031 965.48193359375 963.498901367188 970.994506835938 968.848815917969 969.16015625 956.586669921875 959.83984375 970.282653808594 977.634643554688 967.89501953125 963.648681640625 959.332458496094 965.741821289062 961.863403320312 971.119018554688 967.126953125 961.333374023438 963.143981933594 959.380615234375 959.299987792969 954.913452148438 951.552429199219 961.697998046875 967.903381347656 969.023559570312 962.288391113281 967.439514160156 964.066528320312 961.986755371094 971.667358398438 968.471740722656 970.106994628906 970.208801269531 962.068664550781 973.624877929688 974.432800292969 961.647033691406 962.744201660156 969.467407226562 960.406555175781 959.046813964844 954.646484375 953.783142089844 957.835021972656 956.282043457031 961.946105957031 968.807067871094 969.132690429688 964.693908691406 958.720336914062 970.481689453125 970.04443359375 964.8681640625 969.473510742188 975.511962890625 974.602966308594 970.754150390625 982.361267089844 976.103515625 970.538269042969 964.080017089844 962.492492675781 965.402893066406 973.223510742188 975.403686523438 971.11328125 972.934204101562 975.907043457031 985.553466796875 983.7529296875 970.725952148438 975.136169433594 972.129211425781 975.130065917969 977.566772460938 982.5830078125 990.064208984375 989.695495605469 992.551391601562 993.537292480469 993.779846191406 994.347229003906 1000.98266601562 993.182189941406 1001.57141113281 1000.4765625 1001.06872558594 1014.47821044922 1016.70501708984 1020.3759765625 1022.60858154297 1022.0849609375 1021.65252685547 1024.02197265625 1024.90502929688 1020.53015136719 1025.27587890625 1030.39978027344 1024.84423828125 1036.22778320312 1041.56750488281 1042.66650390625 1049.33081054688 1049.62536621094 1048.94909667969 1049.84985351562 1061.43823242188 1071.47729492188 1079.90954589844 1078.33251953125 1097.33422851562 1096.44213867188 1098.6748046875 1115.140625 1108.5849609375 1117.47619628906 1124.67626953125 1121.09814453125 1128.82824707031 1125.52954101562 1132.53503417969 1137.20593261719 1130.75012207031
949.390686035156 957.5986328125 959.917602539062 966.986022949219 960.010009765625 971.517700195312 975.262084960938 971.180908203125 973.854248046875 974.598388671875 973.964294433594 986.316345214844 982.934814453125 979.325622558594 976.125732421875 980.158020019531 983.224060058594 977.753540039062 970.450378417969 969.500915527344 969.433837890625 975.820190429688 970.672546386719 970.700073242188 961.064208984375 967.911743164062 959.038269042969 961.413330078125 963.164916992188 967.152099609375 972.032104492188 968.445007324219 961.989013671875 967.558776855469 968.6328125 977.304626464844 966.350952148438 955.229675292969 955.563293457031 962.730224609375 964.508483886719 962.028625488281 963.651489257812 966.064453125 959.389282226562 962.725830078125 958.99072265625 953.15869140625 949.839782714844 954.715209960938 967.541625976562 965.022888183594 960.221984863281 961.796081542969 963.239807128906 960.548706054688 965.049255371094 963.855590820312 967.00390625 971.677795410156 967.742736816406 969.327880859375 969.52099609375 962.1962890625 963.7705078125 964.372009277344 957.786987304688 957.612915039062 955.836669921875 962.214660644531 955.132141113281 966.922668457031 962.601623535156 972.382629394531 969.744323730469 963.471618652344 962.791198730469 961.081115722656 966.7109375 972.075378417969 974.192504882812 978.953247070312 975.201843261719 971.575744628906 972.489562988281 968.830200195312 970.769592285156 965.556030273438 969.755004882812 972.230041503906 974.613647460938 970.093017578125 968.711608886719 971.281860351562 979.068298339844 984.531677246094 981.735046386719 969.787963867188 974.357116699219 974.731750488281 969.469848632812 972.751342773438 984.895202636719 986.590942382812 989.013244628906 980.415771484375 986.540344238281 987.997436523438 994.544677734375 991.103332519531 990.261413574219 992.621643066406 988.996948242188 992.315063476562 1004.87640380859 1019.49230957031 1019.99890136719 1016.57763671875 1021.00372314453 1022.55407714844 1014.09020996094 1019.39501953125 1023.98419189453 1026.78491210938 1030.64501953125 1028.77270507812 1032.40686035156 1037.64050292969 1046.93127441406 1045.20751953125 1047.31713867188 1046.49572753906 1060.31701660156 1061.89318847656 1074.56701660156 1079.0498046875 1083.20324707031 1090.86999511719 1094.40563964844 1105.14465332031 1107.73522949219 1105.70446777344 1111.78674316406 1120.70678710938 1113.8427734375 1118.6083984375 1112.25671386719 1119.32653808594 1122.18286132812 1126.75036621094
952.354858398438 959.639038085938 962.956298828125 964.486694335938 964.146484375 975.865051269531 975.520751953125 972.981506347656 975.507385253906 968.22998046875 974.899291992188 981.428527832031 975.759643554688 976.309753417969 975.499877929688 972.252685546875 973.940856933594 974.705261230469 973.390502929688 973.501342773438 976.563232421875 978.113220214844 964.830871582031 964.952453613281 967.248657226562 965.123718261719 967.496398925781 959.309997558594 958.650573730469 962.690002441406 965.477905273438 966.904724121094 964.588073730469 969.854125976562 969.740661621094 971.660217285156 964.063537597656 957.804748535156 958.867370605469 958.082214355469 959.821899414062 959.881591796875 964.368957519531 964.939392089844 963.651000976562 969.6435546875 959.772399902344 952.867004394531 947.878479003906 952.588073730469 964.656799316406 959.358337402344 954.502075195312 957.429626464844 955.273803710938 966.4140625 958.424377441406 964.6201171875 965.30810546875 965.970886230469 974.305603027344 968.40185546875 965.649230957031 959.110900878906 959.06884765625 956.255676269531 949.494140625 952.948486328125 958.342895507812 955.815368652344 955.371032714844 960.5751953125 963.009521484375 968.280578613281 966.383056640625 965.661865234375 967.298950195312 969.944091796875 965.106506347656 969.138122558594 976.194946289062 974.788330078125 970.591003417969 970.035583496094 971.358032226562 967.532104492188 972.070983886719 968.858703613281 963.647644042969 962.010009765625 977.049072265625 976.635498046875 974.05712890625 973.840393066406 982.684692382812 979.638427734375 979.3857421875 968.963073730469 965.941650390625 978.002014160156 974.044006347656 973.447937011719 976.936340332031 985.095275878906 984.699951171875 982.098388671875 986.096130371094 989.276000976562 992.924194335938 990.493408203125 990.698791503906 992.258911132812 980.677551269531 981.734252929688 999.942687988281 1005.80047607422 1009.68475341797 1019.56658935547 1018.09576416016 1020.51678466797 1014.1845703125 1012.8095703125 1020.47668457031 1025.31640625 1026.64782714844 1022.33819580078 1029.39367675781 1032.20727539062 1031.35534667969 1037.47875976562 1051.60400390625 1059.85693359375 1064.69409179688 1077.06018066406 1074.14538574219 1076.86743164062 1088.82800292969 1089.72644042969 1090.61437988281 1103.13671875 1095.02819824219 1099.72509765625 1100.58239746094 1106.39489746094 1113.14868164062 1102.66760253906 1106.90466308594 1113.49133300781 1119.35717773438 1123.99230957031
952.658630371094 965.087585449219 967.573486328125 973.408813476562 971.128845214844 965.006896972656 970.599182128906 972.191589355469 979.307434082031 972.828247070312 970.6513671875 975.870788574219 981.328796386719 972.903442382812 980.106994628906 976.090515136719 970.633178710938 979.501525878906 981.050720214844 967.061218261719 971.916625976562 970.946838378906 964.781127929688 958.003723144531 955.293823242188 967.585571289062 959.247375488281 962.63720703125 959.762268066406 971.982421875 968.637573242188 969.02880859375 967.030700683594 970.270080566406 966.543518066406 977.145690917969 971.603088378906 958.111267089844 958.873046875 960.447082519531 955.667602539062 963.456115722656 970.243041992188 959.378784179688 960.1767578125 959.777709960938 958.293518066406 949.4833984375 954.869018554688 946.454284667969 955.906127929688 960.042175292969 956.002197265625 958.125671386719 958.275634765625 962.285217285156 965.613037109375 960.092102050781 963.915344238281 968.422668457031 957.245910644531 959.731018066406 964.457824707031 973.206787109375 952.253723144531 955.695068359375 956.008117675781 950.674743652344 954.236755371094 959.521789550781 958.103393554688 959.348937988281 964.447509765625 961.3271484375 958.730102539062 966.309814453125 963.686157226562 965.071838378906 966.97119140625 964.003173828125 971.923645019531 969.632934570312 974.0400390625 964.211547851562 968.194702148438 971.551635742188 970.640258789062 963.027465820312 968.436157226562 964.06787109375 964.03369140625 968.982543945312 971.031127929688 978.742614746094 967.144409179688 972.426513671875 975.943420410156 971.397766113281 969.721374511719 986.89794921875 978.406433105469 979.425415039062 981.741760253906 983.007507324219 981.745056152344 985.605773925781 989.732543945312 989.3203125 1000.20306396484 1003.29907226562 993.394470214844 985.369445800781 979.217224121094 983.122924804688 990.960754394531 994.968322753906 1003.49279785156 1004.3720703125 1015.35614013672 1012.75427246094 1020.2216796875 1019.98083496094 1024.708984375 1031.19787597656 1034.27819824219 1028.09509277344 1030.80798339844 1026.19458007812 1031.12170410156 1034.72827148438 1051.35510253906 1060.12512207031 1065.80822753906 1072.11413574219 1076.49450683594 1080.1435546875 1087.75146484375 1088.75158691406 1085.59118652344 1090.3408203125 1089.62866210938 1091.98669433594 1097.01037597656 1096.33447265625 1101.57397460938 1101.05981445312 1100.36950683594 1106.29797363281 1112.48291015625 1112.79870605469
960.931091308594 964.682495117188 971.756286621094 970.115783691406 974.665710449219 972.668395996094 970.3623046875 972.311828613281 970.448059082031 968.904113769531 976.585510253906 973.449645996094 978.3076171875 977.176391601562 978.53759765625 977.091613769531 973.431091308594 971.262878417969 974.956604003906 975.012939453125 971.441101074219 966.334838867188 963.812438964844 956.025451660156 968.118347167969 965.65576171875 967.378112792969 967.972290039062 964.368347167969 976.715454101562 972.809997558594 966.591125488281 962.471313476562 964.253601074219 968.116088867188 969.47705078125 969.167846679688 961.208435058594 961.992126464844 961.431945800781 964.698608398438 969.516357421875 973.667602539062 960.978454589844 958.181579589844 957.300048828125 947.820861816406 944.472351074219 950.813720703125 950.92529296875 958.619323730469 957.247863769531 962.310607910156 955.260864257812 955.946350097656 955.325927734375 959.395812988281 956.794677734375 956.212463378906 958.130004882812 958.351867675781 956.687683105469 959.296936035156 955.9853515625 962.990966796875 952.988464355469 955.082641601562 959.433166503906 952.208618164062 958.374694824219 963.837646484375 959.732788085938 962.107177734375 959.392578125 957.182800292969 964.206787109375 964.82177734375 960.064758300781 950.847229003906 964.089538574219 969.137268066406 966.0859375 964.352416992188 965.061340332031 968.087341308594 973.361206054688 971.833618164062 972.058471679688 964.920104980469 967.009826660156 969.864379882812 973.891540527344 969.281616210938 984.787536621094 979.250366210938 969.08154296875 969.172790527344 973.425231933594 978.08056640625 983.276184082031 979.435791015625 983.404846191406 985.432250976562 984.91748046875 982.554260253906 976.860961914062 981.717163085938 989.605407714844 997.969604492188 1001.38354492188 990.972534179688 993.622619628906 987.9892578125 984.726318359375 989.573547363281 986.182189941406 999.745788574219 1010.39752197266 1016.35113525391 1013.70794677734 1019.82720947266 1029.54748535156 1034.42358398438 1032.32983398438 1036.6318359375 1025.76928710938 1026.74572753906 1025.89184570312 1038.1435546875 1038.79064941406 1045.1064453125 1059.44665527344 1059.6318359375 1060.99011230469 1077.46801757812 1091.39514160156 1086.18969726562 1092.40759277344 1087.486328125 1081.39038085938 1075.39794921875 1070.40283203125 1083.80969238281 1085.26391601562 1088.01953125 1094.32409667969 1092.48425292969 1100.55908203125 1105.40478515625 1105.29992675781
964.65478515625 970.365478515625 978.651428222656 975.978332519531 976.376892089844 969.910461425781 973.536865234375 971.487609863281 974.902526855469 970.792785644531 974.356079101562 977.181030273438 975.20751953125 986.850036621094 975.772338867188 975.00732421875 970.488098144531 970.770385742188 981.909057617188 973.331115722656 967.648132324219 968.449951171875 965.940734863281 962.956665039062 956.84521484375 962.011596679688 963.233520507812 962.943542480469 971.185607910156 968.6904296875 961.534729003906 962.035278320312 962.979187011719 968.514953613281 969.9287109375 971.798278808594 966.534973144531 959.560607910156 956.752258300781 956.255554199219 960.385620117188 963.374389648438 964.433898925781 969.960632324219 954.917846679688 956.4306640625 950.234252929688 945.981079101562 949.889038085938 957.70703125 960.238525390625 967.687927246094 958.488586425781 955.31884765625 957.781616210938 963.723449707031 959.995910644531 968.5771484375 953.132690429688 952.866943359375 959.460021972656 956.642456054688 953.920471191406 961.039184570312 959.167419433594 952.450439453125 956.31201171875 956.354125976562 960.514282226562 953.104370117188 965.511413574219 964.469360351562 968.50439453125 964.226928710938 957.251403808594 952.939086914062 954.129211425781 952.970947265625 951.367126464844 959.827026367188 965.259704589844 971.344909667969 966.317626953125 968.828796386719 970.62451171875 970.917846679688 968.93798828125 969.643188476562 974.535095214844 966.482482910156 969.576232910156 982.119140625 981.385375976562 977.764709472656 975.761657714844 971.030578613281 971.587585449219 974.086669921875 976.7587890625 978.533264160156 977.861206054688 985.319519042969 986.054931640625 970.10009765625 972.339294433594 977.850524902344 983.35546875 985.761962890625 980.894226074219 987.628173828125 982.360656738281 982.393371582031 985.562683105469 981.934020996094 984.114074707031 990.58056640625 993.024047851562 1001.45043945312 1010.44982910156 1010.296875 1016.45172119141 1022.71002197266 1026.77905273438 1033.61401367188 1029.37890625 1031.6806640625 1030.81042480469 1033.41247558594 1030.9091796875 1043.57275390625 1051.08911132812 1050.30700683594 1051.15222167969 1064.01904296875 1079.05822753906 1091.43981933594 1088.97314453125 1086.46875 1086.3330078125 1084.09240722656 1078.89453125 1077.43811035156 1080.62731933594 1077.1923828125 1081.6376953125 1083.61499023438 1086.26171875 1088.69921875 1099.76013183594 1089.57983398438
963.904235839844 970.949890136719 974.373779296875 971.264465332031 970.047180175781 973.452026367188 981.44677734375 973.186889648438 976.753173828125 974.286071777344 973.598693847656 968.485290527344 980.337280273438 979.07275390625 973.84326171875 972.225219726562 968.563842773438 974.602905273438 981.124206542969 968.40087890625 976.724182128906 962.216186523438 956.858520507812 966.05419921875 958.794006347656 965.273315429688 959.818359375 961.174011230469 973.349548339844 968.228088378906 963.030334472656 959.282104492188 964.374267578125 967.368103027344 959.559509277344 958.584289550781 961.179992675781 952.082885742188 961.325439453125 961.408386230469 955.531555175781 966.76171875 971.652526855469 970.500915527344 967.248596191406 948.475830078125 944.794067382812 943.673828125 949.573364257812 951.994689941406 953.426635742188 955.285278320312 964.962280273438 955.161010742188 959.580505371094 960.802978515625 958.275085449219 960.879333496094 954.802734375 952.838439941406 953.831848144531 962.874328613281 964.9990234375 962.476379394531 956.119018554688 950.484985351562 958.020324707031 947.778259277344 958.487915039062 957.619079589844 965.322875976562 966.06884765625 964.180541992188 961.107055664062 950.520324707031 952.261840820312 953.012634277344 957.407775878906 960.644348144531 961.138793945312 965.945678710938 970.179016113281 960.7265625 964.199401855469 974.312377929688 971.128112792969 969.715881347656 962.827697753906 958.834045410156 958.874877929688 964.241577148438 970.661254882812 970.456115722656 973.186828613281 969.607482910156 975.139404296875 972.863342285156 971.469909667969 976.879577636719 980.834777832031 976.9560546875 981.848022460938 986.720886230469 981.724243164062 978.606079101562 978.891296386719 986.991271972656 990.939331054688 984.613098144531 975.565673828125 985.567443847656 985.786254882812 988.769104003906 982.760986328125 988.071594238281 992.285583496094 991.655822753906 998.202514648438 1005.03039550781 1010.60498046875 1013.46453857422 1010.46270751953 1019.869140625 1026.18249511719 1030.16967773438 1030.505859375 1028.76806640625 1032.80847167969 1033.39831542969 1043.79370117188 1050.8916015625 1053.49584960938 1065.14184570312 1075.19482421875 1087.61755371094 1091.50854492188 1088.6162109375 1084.29479980469 1075.17736816406 1075.01721191406 1073.46752929688 1076.29956054688 1081.16589355469 1072.45654296875 1073.07409667969 1075.19152832031 1072.46789550781 1086.02514648438 1087.16467285156 1083.23034667969
963.694458007812 969.983825683594 971.434631347656 966.228210449219 970.294860839844 975.664367675781 970.113708496094 974.251037597656 970.987426757812 969.499328613281 969.589965820312 974.056396484375 976.432983398438 977.880432128906 969.507263183594 971.662841796875 964.694396972656 966.037170410156 968.469177246094 963.826782226562 965.047058105469 951.045776367188 948.69140625 958.400512695312 960.377380371094 961.694885253906 955.806274414062 955.884521484375 960.220886230469 958.132629394531 953.120239257812 963.063903808594 962.576782226562 960.155700683594 960.381958007812 965.835571289062 961.607299804688 956.291442871094 956.079650878906 961.416320800781 962.364440917969 967.11767578125 963.204223632812 959.370178222656 964.353637695312 952.110046386719 953.921936035156 948.847778320312 942.559204101562 950.471801757812 957.554260253906 958.963012695312 957.101318359375 953.102478027344 968.044494628906 964.871826171875 958.735717773438 953.345947265625 959.654357910156 957.464904785156 956.988342285156 960.807312011719 959.089660644531 962.38720703125 961.995422363281 955.835083007812 949.682739257812 959.920776367188 965.096801757812 962.593383789062 950.072937011719 958.19921875 962.776489257812 961.157104492188 950.653198242188 953.460388183594 954.242797851562 950.662536621094 949.747131347656 963.365966796875 962.657043457031 974.180297851562 966.65576171875 973.961730957031 968.3583984375 965.811340332031 969.685363769531 969.094299316406 962.149230957031 962.51904296875 967.480102539062 968.711853027344 962.652770996094 968.714660644531 967.280151367188 972.458251953125 976.427978515625 975.497985839844 981.037536621094 981.383178710938 984.330505371094 974.936767578125 984.994567871094 992.391174316406 985.94677734375 981.253784179688 989.376098632812 987.411437988281 985.270385742188 978.686462402344 981.805480957031 991.111572265625 985.042724609375 989.100402832031 994.507690429688 991.572265625 990.258911132812 996.987854003906 1000.375 1011.1806640625 1016.61218261719 1017.58825683594 1009.85375976562 1017.79760742188 1034.53881835938 1031.95666503906 1029.82165527344 1023.14465332031 1034.70959472656 1043.42468261719 1051.06774902344 1053.65454101562 1063.75024414062 1082.52819824219 1089.6376953125 1092.33813476562 1090.69030761719 1080.62182617188 1074.06188964844 1065.47106933594 1069.9306640625 1062.89050292969 1063.2939453125 1062.49548339844 1060.71374511719 1065.70007324219 1064.76538085938 1072.87927246094 1080.84741210938 1076.26281738281
956.050231933594 967.586120605469 969.925659179688 970.386535644531 972.671630859375 974.955139160156 974.423522949219 964.454162597656 966.711608886719 970.251525878906 967.231506347656 969.396728515625 977.440124511719 974.525939941406 970.187316894531 972.602233886719 970.672180175781 965.94287109375 969.458190917969 964.4873046875 951.292602539062 948.990173339844 950.79296875 960.562744140625 956.861267089844 953.47607421875 954.850891113281 953.397766113281 956.834655761719 956.642456054688 954.550476074219 956.609313964844 961.736755371094 957.001403808594 953.289489746094 952.2080078125 950.1689453125 950.164978027344 949.53271484375 951.398803710938 954.704528808594 955.341247558594 954.36376953125 960.960815429688 956.355285644531 950.955383300781 944.413391113281 945.536376953125 944.10546875 949.891784667969 954.249084472656 953.73876953125 951.78515625 952.676330566406 953.470703125 958.945495605469 955.728576660156 951.3544921875 956.769775390625 959.282409667969 964.424255371094 964.694274902344 964.197204589844 966.969055175781 969.275695800781 959.91064453125 958.563049316406 956.290222167969 953.190246582031 952.293273925781 953.513122558594 966.947143554688 962.801086425781 957.051818847656 953.297790527344 955.909362792969 959.240295410156 949.574768066406 959.480712890625 964.646057128906 960.49609375 965.832702636719 967.101501464844 964.072570800781 967.234680175781 957.181762695312 965.710998535156 962.296020507812 962.007507324219 958.337768554688 977.407775878906 970.818237304688 967.772766113281 966.309875488281 964.055847167969 975.678100585938 981.389404296875 982.270568847656 976.228637695312 981.626037597656 984.864379882812 987.190063476562 979.322204589844 986.23046875 982.495666503906 979.294494628906 985.144958496094 989.623413085938 987.961608886719 982.690246582031 976.754272460938 983.864135742188 991.619506835938 989.325500488281 994.256103515625 989.043029785156 997.884826660156 995.954650878906 995.479187011719 1004.30670166016 1017.82769775391 1022.29180908203 1011.79095458984 1017.88354492188 1021.3828125 1021.978515625 1020.93090820312 1026.16955566406 1037.54418945312 1042.36828613281 1053.61450195312 1057.78796386719 1068.49255371094 1082.12561035156 1092.48181152344 1088.66149902344 1082.85339355469 1080.60314941406 1074.09875488281 1065.7060546875 1054.38000488281 1058.5693359375 1058.37927246094 1058.30322265625 1061.6181640625 1077.03503417969 1068.27453613281 1071.56530761719 1078.5380859375 1070.92626953125
948.9287109375 959.711791992188 976.730285644531 967.627685546875 973.312622070312 975.666809082031 973.838134765625 966.302551269531 961.6689453125 963.880981445312 960.473449707031 972.795166015625 970.523376464844 973.719665527344 969.140991210938 965.251831054688 968.492065429688 966.51171875 963.930053710938 957.028503417969 942.273376464844 945.572814941406 941.444396972656 956.727600097656 956.179260253906 952.596435546875 951.987731933594 954.5517578125 958.579833984375 955.028137207031 963.204284667969 960.9677734375 957.596984863281 946.384155273438 951.784545898438 950.394104003906 952.484558105469 957.001220703125 956.334899902344 953.184692382812 948.683654785156 949.122192382812 946.856567382812 961.862365722656 951.34912109375 953.953857421875 952.961730957031 946.024658203125 950.702575683594 952.113342285156 947.352172851562 949.783325195312 956.795593261719 953.6328125 952.762023925781 951.731811523438 955.653625488281 960.527954101562 958.053955078125 963.861267089844 965.429626464844 959.801452636719 954.306945800781 961.633056640625 955.071044921875 962.295959472656 957.617919921875 954.290710449219 959.796630859375 954.392272949219 956.500854492188 961.790832519531 955.649719238281 965.194396972656 959.829467773438 961.482727050781 956.912231445312 953.420654296875 954.228515625 969.049072265625 957.343627929688 969.098449707031 970.128540039062 963.435607910156 956.549011230469 959.723571777344 969.571655273438 963.4833984375 966.826354980469 971.5703125 969.792785644531 973.0234375 968.430358886719 962.451232910156 971.519287109375 981.308471679688 986.263000488281 979.341918945312 979.421813964844 980.627563476562 990.29052734375 985.399291992188 984.330383300781 977.532470703125 982.334228515625 982.301879882812 983.066711425781 981.442016601562 982.857788085938 990.086303710938 986.775329589844 984.566040039062 988.934204101562 986.426147460938 990.809326171875 990.749084472656 997.405334472656 997.024169921875 998.037658691406 1000.61578369141 1007.04711914062 1016.21215820312 1016.86462402344 1014.18176269531 1011.88531494141 1021.20178222656 1019.23852539062 1021.66760253906 1034.57385253906 1039.44848632812 1058.013671875 1070.56433105469 1066.37145996094 1072.865234375 1079.77661132812 1076.98974609375 1080.18701171875 1078.62963867188 1057.17565917969 1052.97338867188 1047.32055664062 1049.76611328125 1050.22265625 1055.56396484375 1051.39233398438 1058.46398925781 1068.73059082031 1071.0703125 1068.3154296875 1055.90002441406
951.340454101562 960.073059082031 969.2109375 968.412963867188 971.5341796875 974.529541015625 965.402404785156 969.100646972656 961.177124023438 960.228942871094 958.118957519531 966.105529785156 963.035522460938 959.470336914062 964.314575195312 961.851684570312 970.865783691406 959.396667480469 952.627380371094 946.94287109375 944.167663574219 949.755126953125 941.81103515625 942.302612304688 944.233276367188 956.389831542969 956.502685546875 949.197875976562 951.837463378906 955.527465820312 958.998046875 957.163940429688 952.653747558594 951.54541015625 955.434814453125 945.82421875 952.855346679688 944.289428710938 949.051330566406 955.285827636719 949.878601074219 953.80078125 957.505249023438 950.753723144531 960.833557128906 959.683654785156 954.415344238281 949.631408691406 956.942626953125 956.158996582031 948.722351074219 950.265930175781 956.017883300781 952.282592773438 961.159545898438 958.26513671875 962.523254394531 965.219665527344 962.268859863281 961.48828125 957.705688476562 959.77734375 959.673156738281 957.879699707031 953.109619140625 959.696350097656 960.1796875 957.709350585938 968.437316894531 962.983642578125 949.240539550781 962.345642089844 958.62841796875 965.607604980469 970.924621582031 967.845886230469 960.840209960938 964.342895507812 967.750915527344 972.369323730469 959.590087890625 963.100830078125 963.8662109375 963.759582519531 963.175354003906 965.029235839844 964.528564453125 964.06884765625 965.228881835938 974.944091796875 973.31396484375 972.058959960938 967.533996582031 972.539611816406 970.432312011719 979.019836425781 976.035217285156 975.962036132812 975.878845214844 981.869384765625 989.588684082031 975.613342285156 968.695556640625 975.443786621094 978.460205078125 976.682067871094 975.86962890625 980.255310058594 985.605651855469 990.194519042969 999.490600585938 996.736877441406 999.314331054688 994.743957519531 993.348571777344 990.786315917969 991.920043945312 1000.69934082031 1017.32830810547 1009.46960449219 1010.43920898438 1015.02886962891 1015.76354980469 1006.54333496094 1007.93438720703 1009.55078125 1017.82800292969 1021.78173828125 1030.74060058594 1038.1826171875 1060.59399414062 1069.87243652344 1065.46850585938 1076.25061035156 1077.72717285156 1067.72009277344 1063.64501953125 1065.04699707031 1049.216796875 1045.37194824219 1048.50183105469 1042.79528808594 1045.43249511719 1039.767578125 1043.82751464844 1047.86865234375 1054.87634277344 1052.79711914062 1049.20166015625 1048.05651855469
949.931701660156 958.513488769531 963.567077636719 966.362487792969 972.907470703125 968.149169921875 970.915405273438 960.977111816406 956.782165527344 957.207641601562 963.070007324219 951.688842773438 957.675659179688 952.110412597656 954.48095703125 950.142639160156 955.331115722656 955.985961914062 952.725524902344 948.2939453125 948.850708007812 947.635559082031 943.9580078125 947.091003417969 943.669921875 949.559814453125 951.506896972656 946.815734863281 949.953063964844 956.294616699219 961.870910644531 956.926025390625 951.60498046875 951.636779785156 945.679016113281 947.956848144531 951.962768554688 946.198303222656 941.646484375 955.261291503906 954.784545898438 953.943725585938 955.630493164062 951.953247070312 957.073913574219 959.476745605469 955.264099121094 953.752624511719 966.903991699219 959.996032714844 945.701049804688 956.254333496094 956.088073730469 956.200988769531 958.098815917969 959.188781738281 954.032165527344 959.190795898438 964.086730957031 946.856140136719 962.30078125 964.249145507812 957.546569824219 958.031494140625 958.180480957031 958.591369628906 960.351867675781 967.388549804688 968.233337402344 967.666687011719 960.006042480469 959.084838867188 963.411865234375 965.656982421875 965.273193359375 967.501220703125 966.564086914062 976.377319335938 969.982360839844 967.859130859375 966.990234375 970.785522460938 967.711364746094 962.906005859375 973.877258300781 970.016723632812 974.083740234375 958.213073730469 963.024841308594 964.092590332031 970.313354492188 968.021301269531 971.060363769531 973.84521484375 980.291015625 973.896606445312 977.097900390625 974.669006347656 973.930419921875 981.864990234375 989.109680175781 979.634643554688 970.759033203125 969.949584960938 971.713439941406 985.776611328125 984.189025878906 990.508361816406 983.013854980469 990.527526855469 1004.87884521484 1007.34387207031 995.606567382812 1003.50628662109 1003.57379150391 1001.16339111328 999.547912597656 1002.80712890625 1010.85601806641 1014.12548828125 1003.07312011719 1008.35119628906 1017.76684570312 1019.14208984375 1018.13256835938 1007.43115234375 1019.13201904297 1028.53784179688 1038.96264648438 1044.12268066406 1056.62329101562 1059.21423339844 1069.86376953125 1065.41735839844 1069.41589355469 1062.58544921875 1055.02709960938 1052.150390625 1045.48571777344 1044.82458496094 1038.47583007812 1043.10046386719 1026.27490234375 1035.52709960938 1041.86877441406 1046.94323730469 1046.09130859375 1051.39208984375 1047.11547851562 1040.57360839844
949.805603027344 954.169555664062 967.72509765625 968.979675292969 967.443542480469 963.9677734375 965.333801269531 966.406433105469 958.112670898438 955.046875 954.762145996094 952.706604003906 953.292297363281 948.226257324219 944.281799316406 941.484130859375 938.146484375 952.303527832031 945.330688476562 945.200622558594 950.901306152344 951.148315429688 943.00146484375 949.40380859375 942.1884765625 949.723754882812 942.687377929688 945.51708984375 944.280212402344 946.138305664062 955.077087402344 951.150756835938 959.389038085938 950.671142578125 953.917236328125 948.554382324219 953.556213378906 947.992797851562 948.160217285156 948.2177734375 954.776428222656 944.006164550781 947.443176269531 948.633666992188 952.49853515625 953.517639160156 952.223327636719 952.948852539062 958.126953125 954.990173339844 947.072387695312 945.098999023438 952.498779296875 960.726501464844 953.442565917969 955.990295410156 965.12255859375 967.789489746094 960.539123535156 959.448913574219 963.978271484375 968.683166503906 959.574340820312 967.588073730469 954.957885742188 953.887573242188 964.600341796875 964.973205566406 975.592956542969 973.12548828125 962.605773925781 964.044921875 969.910217285156 975.783752441406 975.793395996094 973.627685546875 974.272277832031 982.150085449219 975.999633789062 978.079833984375 970.530456542969 968.349731445312 963.218994140625 965.138488769531 970.665222167969 969.113586425781 970.798522949219 969.494018554688 968.986633300781 963.635437011719 973.645446777344 964.721313476562 964.332580566406 974.063720703125 973.409606933594 973.496032714844 970.675109863281 976.587829589844 984.935852050781 986.93408203125 984.354187011719 989.359741210938 991.270263671875 980.428161621094 987.07861328125 985.647399902344 988.582641601562 993.178771972656 991.52783203125 986.561218261719 991.96337890625 1001.09301757812 1003.20520019531 1006.87005615234 1005.56573486328 1007.84741210938 1013.11206054688 1008.23181152344 1004.46600341797 1003.06427001953 1006.96026611328 1005.59301757812 1010.12756347656 1022.52221679688 1029.6064453125 1027.27307128906 1026.88146972656 1030.09094238281 1043.09118652344 1039.88696289062 1044.29919433594 1053.67724609375 1059.74365234375 1063.67114257812 1060.42944335938 1058.66418457031 1052.36437988281 1048.04223632812 1041.42211914062 1033.41662597656 1032.58813476562 1034.16943359375 1026.47033691406 1029.41589355469 1028.18542480469 1039.1171875 1037.41931152344 1037.03198242188 1035.18225097656 1043.00769042969
959.844970703125 954.738037109375 965.94384765625 964.331726074219 958.563293457031 964.469787597656 971.111877441406 966.264770507812 965.771728515625 956.008361816406 958.681091308594 959.569458007812 958.115783691406 944.88330078125 939.869384765625 932.0078125 926.086181640625 926.578369140625 938.419372558594 942.623840332031 942.732116699219 948.952880859375 944.695861816406 950.893859863281 954.162841796875 954.632141113281 940.137390136719 942.148986816406 944.757873535156 938.216918945312 936.555236816406 945.06591796875 945.774719238281 950.600708007812 957.843383789062 953.814514160156 950.644592285156 953.029602050781 941.555358886719 949.735778808594 944.538879394531 949.9658203125 950.612243652344 951.923034667969 951.292053222656 949.118713378906 960.211486816406 959.278625488281 951.148010253906 949.166076660156 949.356018066406 950.95703125 952.15771484375 957.076721191406 953.712097167969 955.664978027344 970.168640136719 962.769836425781 967.373901367188 968.081909179688 973.032897949219 970.721130371094 965.600219726562 965.81787109375 962.009704589844 956.9990234375 965.726013183594 965.411193847656 971.596313476562 973.501159667969 968.87548828125 974.538024902344 971.636535644531 976.193908691406 973.601806640625 975.595275878906 972.146728515625 971.364135742188 965.28173828125 970.129272460938 965.984436035156 962.968688964844 959.223449707031 969.121154785156 983.364990234375 979.989074707031 980.149169921875 975.259338378906 974.084533691406 964.864990234375 973.683471679688 966.715881347656 977.022521972656 973.497253417969 964.910766601562 971.10009765625 974.868469238281 987.647277832031 987.169250488281 986.913879394531 997.110046386719 993.912292480469 990.209228515625 984.134094238281 994.990600585938 986.917541503906 993.880615234375 995.805236816406 998.478942871094 996.189514160156 993.421691894531 1002.73406982422 1008.43035888672 1002.20666503906 1005.70886230469 1017.65643310547 1015.87799072266 1010.91687011719 1006.09442138672 1015.47637939453 1017.68823242188 1008.82965087891 1011.60772705078 1027.57702636719 1026.28540039062 1029.32568359375 1025.76086425781 1034.3486328125 1036.36145019531 1040.85437011719 1042.66906738281 1048.83715820312 1055.55151367188 1050.04919433594 1057.87658691406 1045.72204589844 1048.26245117188 1045.576171875 1028.88635253906 1023.60852050781 1036.265625 1030.26342773438 1020.58807373047 1024.90393066406 1017.92370605469 1023.45330810547 1031.75659179688 1031.77221679688 1030.63952636719 1045.96447753906
959.945495605469 955.844421386719 956.606628417969 959.790344238281 955.395690917969 960.6826171875 963.949401855469 967.099426269531 962.106201171875 952.11474609375 949.940490722656 954.719543457031 957.328186035156 945.177551269531 936.111145019531 932.263977050781 933.862915039062 925.054809570312 940.504150390625 942.96923828125 940.125183105469 944.783752441406 938.806823730469 949.965698242188 953.119323730469 951.1962890625 944.594055175781 944.741271972656 943.232299804688 937.3486328125 932.916687011719 936.079284667969 943.328918457031 952.76708984375 949.584411621094 949.140258789062 943.8310546875 942.618225097656 944.965026855469 944.828247070312 949.197021484375 954.448120117188 952.725646972656 951.349304199219 948.36181640625 948.041564941406 954.663757324219 963.043273925781 958.802062988281 953.986999511719 955.596618652344 954.792907714844 952.08642578125 958.867309570312 965.619262695312 956.337829589844 957.814636230469 959.130187988281 971.346557617188 966.759826660156 974.823791503906 968.944641113281 972.244750976562 963.305541992188 964.495361328125 964.714904785156 969.695739746094 971.9189453125 963.108703613281 971.046936035156 977.883544921875 976.500122070312 966.375549316406 967.941833496094 968.281799316406 962.576232910156 971.111022949219 977.382690429688 968.358703613281 967.159118652344 969.339416503906 964.791259765625 965.25146484375 969.23876953125 985.087768554688 985.194396972656 972.8193359375 970.656616210938 971.906372070312 977.888610839844 969.124389648438 972.520568847656 977.2509765625 977.385620117188 978.717407226562 985.103820800781 986.64208984375 985.701965332031 983.944152832031 990.308471679688 1000.33898925781 1003.33062744141 995.421630859375 987.557739257812 992.494812011719 990.974243164062 996.824768066406 1004.78692626953 1000.44720458984 996.420288085938 996.053405761719 994.045104980469 1012.0029296875 1009.61590576172 1005.11431884766 1012.44342041016 1018.22644042969 1024.62414550781 1019.36285400391 1022.33044433594 1017.42352294922 1011.02545166016 1015.37255859375 1023.31237792969 1025.2490234375 1027.1201171875 1023.29772949219 1025.07373046875 1033.14038085938 1043.05505371094 1045.14599609375 1045.81616210938 1062.68518066406 1053.0986328125 1048.25170898438 1046.77722167969 1043.42797851562 1046.66271972656 1028.74462890625 1030.11962890625 1027.02648925781 1032.29309082031 1019.28497314453 1017.76794433594 1014.14776611328 1013.44604492188 1019.80157470703 1022.84637451172 1026.97412109375 1025.64611816406
962.670654296875 955.616149902344 955.351196289062 961.092529296875 953.023864746094 947.363525390625 954.893737792969 961.608947753906 956.882202148438 956.165161132812 958.704345703125 959.761047363281 954.60546875 947.322448730469 943.6484375 933.36572265625 938.68359375 928.445007324219 929.150146484375 937.061584472656 943.870483398438 935.427001953125 932.615417480469 944.993469238281 947.643005371094 956.171691894531 955.900085449219 944.791687011719 940.391662597656 934.538208007812 939.31884765625 937.675476074219 948.063537597656 953.811950683594 948.735717773438 946.162353515625 936.630004882812 939.3740234375 956.251770019531 947.246826171875 950.063171386719 953.081359863281 952.717834472656 953.482482910156 944.342651367188 957.724914550781 959.030883789062 961.6533203125 969.755065917969 959.503234863281 963.7294921875 963.693420410156 959.914245605469 962.670227050781 966.986083984375 958.331909179688 963.300964355469 971.547119140625 974.345764160156 964.883117675781 960.9013671875 966.184814453125 970.977478027344 957.652893066406 960.25244140625 968.988891601562 967.059448242188 958.013488769531 976.753967285156 973.476379394531 979.264526367188 979.115478515625 972.704895019531 964.510314941406 962.442626953125 961.537475585938 970.678100585938 973.711669921875 966.5390625 966.395446777344 970.340270996094 972.132446289062 979.82958984375 974.815307617188 982.343872070312 976.827026367188 970.745910644531 970.290893554688 975.027648925781 967.011474609375 967.329895019531 964.839233398438 985.597778320312 974.469360351562 976.062438964844 981.80322265625 986.61083984375 977.425354003906 992.196350097656 997.484313964844 1009.28472900391 998.440551757812 998.367065429688 988.901733398438 987.963623046875 998.400756835938 1001.98608398438 1010.45971679688 1005.3349609375 999.800720214844 1000.15606689453 1003.23162841797 1006.79614257812 1011.54095458984 1014.33489990234 1014.09228515625 1014.03210449219 1025.28784179688 1025.19543457031 1022.65008544922 1022.21496582031 1020.88806152344 1023.68731689453 1034.93969726562 1024.96069335938 1022.24029541016 1013.67083740234 1025.83154296875 1027.04626464844 1035.06286621094 1043.84008789062 1043.00659179688 1050.58581542969 1048.07531738281 1047.02990722656 1044.07641601562 1047.17248535156 1039.23303222656 1029.88037109375 1025.51940917969 1020.55908203125 1015.43566894531 1024.943359375 1021.15704345703 1009.80255126953 1011.29351806641 1018.77227783203 1019.50372314453 1020.54174804688 1029.78527832031
953.261840820312 958.954833984375 956.812316894531 958.607055664062 961.143249511719 957.832763671875 948.296325683594 945.653442382812 949.975402832031 945.079162597656 953.193420410156 957.275207519531 958.819091796875 940.161376953125 945.336547851562 949.274353027344 947.184631347656 938.679260253906 933.777648925781 940.684631347656 943.33349609375 944.075927734375 938.748291015625 938.880981445312 942.549560546875 945.4453125 948.595153808594 953.959350585938 947.668701171875 936.194152832031 935.005981445312 937.136596679688 945.773132324219 951.0625 940.962097167969 940.520141601562 945.231872558594 943.720947265625 948.036315917969 956.922424316406 953.181823730469 956.063659667969 955.328063964844 958.438171386719 959.852111816406 956.069213867188 969.183044433594 972.64453125 979.936279296875 974.847290039062 974.328002929688 963.938720703125 966.919616699219 965.090026855469 971.884582519531 980.632385253906 973.173950195312 977.151733398438 972.519409179688 967.366882324219 965.757446289062 964.428955078125 971.860717773438 968.893676757812 964.245910644531 960.798706054688 969.049865722656 973.378112792969 972.575744628906 977.094421386719 983.761596679688 979.970581054688 979.707763671875 974.022888183594 962.234741210938 968.467163085938 973.187561035156 983.006225585938 982.961486816406 975.826782226562 970.857116699219 974.003295898438 983.851501464844 980.040832519531 975.571350097656 972.509338378906 973.905456542969 976.339111328125 979.635375976562 975.567016601562 968.117736816406 972.056823730469 978.019897460938 974.048950195312 982.842712402344 984.009460449219 982.383728027344 982.193786621094 993.532592773438 995.276428222656 995.546325683594 994.483825683594 987.920593261719 992.266479492188 988.898620605469 992.438171386719 996.310913085938 1003.09521484375 1003.26751708984 1002.68579101562 1003.03045654297 1010.48291015625 1014.36401367188 1017.29187011719 1009.26977539062 1003.53955078125 1013.44122314453 1029.32836914062 1029.90234375 1025.61486816406 1029.17492675781 1034.7919921875 1035.73327636719 1038.76159667969 1038.83837890625 1020.947265625 1014.32305908203 1020.92321777344 1024.73913574219 1034.02575683594 1035.48913574219 1039.72534179688 1037.79455566406 1041.30285644531 1039.87622070312 1038.48608398438 1039.99951171875 1035.47290039062 1037.47839355469 1033.96569824219 1024.57250976562 1025.28845214844 1017.60729980469 1020.14996337891 1010.32769775391 1012.94000244141 1013.99572753906 1019.79833984375 1015.89807128906 1024.70874023438
955.526489257812 952.872375488281 955.875671386719 958.327209472656 953.676574707031 947.909118652344 947.285278320312 952.217590332031 944.625244140625 945.19140625 952.705322265625 942.857055664062 948.710998535156 943.030395507812 956.853881835938 955.912963867188 945.075866699219 940.074951171875 934.840759277344 940.818237304688 950.835693359375 946.790893554688 956.567321777344 950.001342773438 953.341857910156 949.205810546875 950.758544921875 948.869140625 941.133239746094 937.392028808594 948.364685058594 941.695922851562 945.805603027344 949.013793945312 942.22119140625 946.701293945312 957.826293945312 949.416015625 958.849975585938 960.906494140625 956.207092285156 954.913513183594 959.685485839844 954.816833496094 962.369689941406 964.744018554688 967.309875488281 976.497741699219 973.630065917969 982.265441894531 977.211242675781 971.596130371094 972.673889160156 969.135437011719 977.403930664062 980.929748535156 977.66259765625 971.920532226562 968.193298339844 960.886474609375 961.147338867188 970.6357421875 962.381225585938 963.725219726562 962.747924804688 962.094909667969 962.451110839844 964.263610839844 970.388061523438 977.216125488281 976.198608398438 976.717346191406 968.809143066406 979.940124511719 968.372741699219 978.264099121094 983.123107910156 988.833435058594 983.388549804688 977.235046386719 972.751953125 979.607482910156 984.445861816406 993.234802246094 987.338684082031 988.225952148438 982.159484863281 984.800170898438 979.957885742188 976.01416015625 976.858459472656 981.845642089844 985.697692871094 977.258911132812 972.12548828125 985.018676757812 976.969482421875 990.782348632812 989.795959472656 988.765380859375 983.352844238281 990.333251953125 988.279602050781 989.572143554688 990.517944335938 999.333068847656 1002.16516113281 1007.43115234375 1007.09405517578 1010.23132324219 1013.59545898438 1011.30432128906 1016.86511230469 1013.43383789062 1006.78070068359 1011.26702880859 1017.21594238281 1027.66479492188 1029.18383789062 1032.12719726562 1038.22546386719 1043.55053710938 1027.16137695312 1034.60083007812 1035.8681640625 1026.49731445312 1017.53057861328 1022.09393310547 1025.83081054688 1026.40649414062 1026.91369628906 1026.21728515625 1039.26892089844 1045.82275390625 1042.91784667969 1034.24926757812 1031.99035644531 1030.90075683594 1030.90112304688 1025.93029785156 1030.14343261719 1017.71575927734 1016.21936035156 1016.62713623047 1015.88439941406 1018.66192626953 1018.99145507812 1022.89190673828 1016.48815917969 1022.32348632812
955.619995117188 955.331665039062 953.161926269531 954.365783691406 952.576965332031 944.105224609375 937.163024902344 934.825073242188 939.093078613281 942.309020996094 950.667785644531 950.307067871094 949.908447265625 948.918029785156 951.702697753906 959.069580078125 953.263854980469 948.973937988281 946.240112304688 943.882019042969 945.213989257812 956.161987304688 957.341796875 968.044250488281 959.1298828125 949.069152832031 948.987976074219 950.3896484375 946.577514648438 953.664428710938 947.057434082031 948.270202636719 948.936340332031 949.234802246094 945.068908691406 952.525024414062 959.724548339844 965.405517578125 963.120422363281 960.816284179688 963.9501953125 961.186828613281 967.963989257812 964.39892578125 971.976440429688 973.445678710938 979.712890625 978.365844726562 975.193542480469 977.653686523438 973.599609375 966.378356933594 966.122253417969 973.601013183594 973.21435546875 989.429504394531 987.234558105469 979.238098144531 970.068298339844 963.81103515625 961.97802734375 967.63134765625 964.532043457031 966.921936035156 962.133422851562 962.662536621094 962.848693847656 964.388793945312 964.718505859375 972.455505371094 978.268615722656 980.320861816406 975.352966308594 971.764831542969 980.087219238281 982.774291992188 986.288635253906 980.988525390625 978.606018066406 975.4111328125 979.939453125 978.445739746094 990.292114257812 992.800964355469 981.440673828125 980.899780273438 986.712158203125 986.396606445312 983.065979003906 983.013854980469 980.433959960938 987.731994628906 987.300170898438 976.494689941406 976.536376953125 986.061096191406 984.40185546875 977.795349121094 981.45556640625 984.802429199219 990.386962890625 990.572082519531 994.285827636719 991.196228027344 986.881469726562 998.893798828125 996.367614746094 1002.29376220703 1010.68487548828 1013.51245117188 1012.66271972656 1009.15484619141 1014.76141357422 1005.32489013672 1005.70092773438 1011.46697998047 1018.96405029297 1030.92846679688 1034.79284667969 1038.44165039062 1035.41271972656 1040.38537597656 1041.45520019531 1034.88061523438 1029.84741210938 1036.24072265625 1028.46130371094 1029.40551757812 1023.51336669922 1027.51892089844 1026.29260253906 1024.89575195312 1029.42736816406 1035.90100097656 1044.25610351562 1031.84838867188 1033.05578613281 1028.55603027344 1026.17785644531 1030.9130859375 1022.98510742188 1021.43615722656 1008.60064697266 1004.40850830078 1007.60198974609 1015.05169677734 1017.04290771484 1021.16448974609 1013.52410888672 1025.41052246094
961.637878417969 963.417236328125 956.093811035156 953.430480957031 947.100769042969 937.033203125 942.800170898438 937.018249511719 940.531616210938 944.791442871094 946.475830078125 962.183532714844 944.166564941406 955.162719726562 953.940002441406 967.874877929688 961.294982910156 956.808410644531 951.238708496094 947.195678710938 955.221984863281 954.609497070312 960.629333496094 956.132568359375 956.09912109375 956.381591796875 956.632934570312 950.151489257812 954.458679199219 952.809020996094 956.339416503906 945.590454101562 949.830993652344 947.801818847656 954.33837890625 949.424011230469 959.291320800781 965.50390625 958.741271972656 957.25830078125 961.492309570312 963.893920898438 960.869567871094 971.781188964844 979.705749511719 977.317565917969 978.36474609375 985.249389648438 979.813781738281 975.720581054688 974.785766601562 971.564208984375 975.447570800781 984.135620117188 981.320068359375 990.396118164062 993.118957519531 984.487365722656 976.933532714844 974.203979492188 968.463195800781 972.454162597656 969.776245117188 967.436401367188 968.672485351562 967.241516113281 973.90673828125 965.492492675781 969.318481445312 970.066467285156 976.28466796875 974.078002929688 975.202758789062 981.261169433594 988.709350585938 980.005310058594 979.237915039062 985.428039550781 984.066467285156 980.656982421875 979.529052734375 988.322265625 997.774536132812 985.901611328125 979.210632324219 982.642395019531 986.028869628906 982.204345703125 991.888732910156 986.320678710938 988.949890136719 982.316223144531 983.81494140625 983.960571289062 980.794311523438 985.904052734375 984.162536621094 980.513793945312 981.546630859375 987.951171875 982.854736328125 994.935485839844 999.969421386719 994.628540039062 990.916809082031 999.623046875 1002.65319824219 1004.7470703125 1011.16729736328 1016.87030029297 1012.59503173828 1011.63067626953 1009.98773193359 1011.89019775391 1012.76531982422 1016.00653076172 1028.72399902344 1026.97436523438 1035.87231445312 1044.91748046875 1036.94702148438 1039.98071289062 1036.90747070312 1028.20031738281 1038.6171875 1032.78308105469 1023.61865234375 1027.04895019531 1019.78845214844 1019.57495117188 1015.81341552734 1022.65625 1029.28076171875 1032.34985351562 1042.71252441406 1042.51647949219 1036.98400878906 1024.96166992188 1025.59790039062 1032.57153320312 1027.10681152344 1019.74737548828 1016.15740966797 1014.22320556641 1015.18511962891 1007.13195800781 1007.13415527344 1021.88946533203 1012.12506103516 1013.8857421875
957.303527832031 950.43896484375 952.727355957031 950.294982910156 949.442321777344 937.792297363281 941.958312988281 937.543212890625 936.651672363281 949.999206542969 940.34375 952.560546875 954.901611328125 954.0595703125 956.161376953125 959.175659179688 971.747497558594 966.622680664062 961.437194824219 953.53955078125 953.677062988281 960.65771484375 963.850280761719 958.353454589844 956.381896972656 953.671508789062 955.522399902344 961.492553710938 958.410888671875 958.956848144531 963.968994140625 961.177856445312 956.82666015625 957.720703125 955.703002929688 953.985412597656 952.894348144531 964.587585449219 978.4326171875 965.292297363281 964.761169433594 962.058715820312 965.845581054688 977.062438964844 974.335388183594 977.446228027344 984.373657226562 986.086853027344 987.716735839844 978.406982421875 982.040771484375 989.145751953125 985.674926757812 985.773559570312 992.333251953125 989.276550292969 999.074401855469 992.880981445312 980.176330566406 971.799987792969 967.2275390625 972.591796875 974.992553710938 957.537170410156 961.587097167969 965.671264648438 968.990844726562 966.221618652344 971.018188476562 972.004455566406 981.446472167969 984.062194824219 981.457092285156 983.46875 984.410400390625 990.78955078125 979.45703125 990.733032226562 983.712951660156 979.532897949219 985.652648925781 982.648559570312 982.914611816406 982.982666015625 981.323852539062 982.727478027344 988.506958007812 986.142333984375 975.289733886719 976.293273925781 985.076904296875 978.596069335938 983.3701171875 984.836853027344 986.717956542969 992.2724609375 989.04248046875 988.833312988281 989.101989746094 988.333801269531 992.566345214844 999.065307617188 1000.99798583984 1006.44964599609 1001.5390625 1001.73864746094 1006.236328125 1012.69396972656 1021.86993408203 1020.79449462891 1015.01275634766 1014.77947998047 1016.36187744141 1019.67602539062 1021.50531005859 1023.62768554688 1028.21740722656 1035.29235839844 1032.92944335938 1033.76623535156 1043.04516601562 1049.115234375 1042.99108886719 1026.47802734375 1027.81140136719 1035.36962890625 1023.87152099609 1020.447265625 1010.05993652344 1005.15362548828 1008.79632568359 1008.21716308594 1016.21508789062 1026.71459960938 1031.40673828125 1037.9228515625 1046.49877929688 1030.75415039062 1036.36413574219 1026.10693359375 1022.10766601562 1018.64764404297 1020.08978271484 1006.78631591797 1001.31390380859 1003.13244628906 1007.01513671875 1014.05413818359 1013.27801513672 1012.01385498047
949.860778808594 941.401000976562 938.42919921875 943.502563476562 948.05517578125 936.824157714844 931.560180664062 933.197143554688 932.369445800781 933.951232910156 945.845703125 956.580993652344 959.744262695312 950.324096679688 951.688171386719 960.681884765625 965.795104980469 963.963562011719 968.397644042969 971.269409179688 967.874389648438 957.973449707031 959.367004394531 955.36181640625 955.938171386719 952.877807617188 956.326354980469 965.139831542969 962.037353515625 967.343139648438 965.338928222656 966.961547851562 961.505554199219 965.439697265625 960.1435546875 962.868957519531 955.234924316406 971.990600585938 980.998352050781 971.818237304688 972.731018066406 970.23876953125 975.614440917969 979.664611816406 982.098083496094 987.783874511719 992.494140625 988.883850097656 987.797058105469 980.139831542969 992.454956054688 992.098510742188 982.0390625 988.771362304688 992.539001464844 995.622314453125 1000.54321289062 987.019836425781 975.224731445312 966.281188964844 968.208801269531 968.941345214844 973.534729003906 964.691345214844 964.994201660156 975.597778320312 973.674560546875 972.09814453125 974.999755859375 974.155700683594 977.536560058594 966.863586425781 975.414001464844 988.91748046875 992.890808105469 984.957702636719 989.147094726562 983.631286621094 979.219543457031 972.425659179688 977.595825195312 983.531921386719 986.346862792969 990.128356933594 987.340515136719 987.025146484375 974.467468261719 982.265991210938 975.78564453125 972.443786621094 972.431274414062 976.164733886719 986.654846191406 990.278259277344 992.493347167969 995.344665527344 988.202941894531 987.636169433594 991.335876464844 986.725280761719 993.9013671875 1003.91320800781 998.092529296875 1010.46661376953 1007.34259033203 999.667602539062 1009.21252441406 1015.41253662109 1017.09930419922 1021.79174804688 1014.80523681641 1020.078125 1020.67785644531 1030.84240722656 1031.9921875 1036.15979003906 1034.02990722656 1039.99182128906 1043.01708984375 1041.11413574219 1045.92858886719 1048.40771484375 1046.10888671875 1035.74230957031 1034.83093261719 1025.91076660156 1029.48828125 1017.0732421875 1010.21868896484 1010.14343261719 1010.83746337891 1010.55310058594 1007.38159179688 1015.69683837891 1033.58068847656 1038.75378417969 1041.05700683594 1044.78002929688 1033.63024902344 1028.48205566406 1025.02014160156 1018.38433837891 1017.79675292969 1018.21520996094 1008.39306640625 1007.81158447266 1003.76312255859 1005.091796875 1000.80822753906 1001.22973632812
944.935424804688 938.642395019531 934.959045410156 936.993896484375 944.513977050781 942.475952148438 944.110046386719 935.926452636719 939.731079101562 937.966064453125 942.163391113281 951.356567382812 952.077575683594 954.423889160156 956.636962890625 961.979064941406 960.377563476562 965.688049316406 971.151611328125 976.342346191406 965.861633300781 968.485046386719 961.901977539062 962.054016113281 964.5673828125 955.757019042969 963.031982421875 970.597290039062 973.8740234375 963.524291992188 965.405639648438 968.99267578125 967.622436523438 968.567687988281 961.613830566406 967.408142089844 968.84326171875 969.338195800781 976.014770507812 967.682800292969 970.439758300781 973.384521484375 976.734069824219 980.967468261719 989.222045898438 986.88330078125 987.91162109375 984.362670898438 990.079040527344 988.337646484375 992.759460449219 986.871887207031 991.0341796875 992.264404296875 990.414001464844 993.985595703125 997.505615234375 985.6826171875 973.798095703125 968.196899414062 963.548156738281 967.574890136719 973.258361816406 972.015014648438 969.752319335938 971.192626953125 970.928466796875 977.084289550781 979.611938476562 977.716369628906 979.148620605469 968.998779296875 977.045288085938 983.680969238281 993.29248046875 995.351379394531 993.361938476562 991.342712402344 980.370056152344 982.918212890625 982.502319335938 981.798461914062 989.444519042969 984.002685546875 991.015563964844 991.008483886719 985.316223144531 989.718811035156 983.45947265625 983.037109375 970.344909667969 981.341613769531 986.730651855469 993.660095214844 985.367858886719 990.59326171875 991.874938964844 984.044189453125 988.358642578125 994.358764648438 995.920471191406 998.588256835938 1000.68371582031 1003.29522705078 995.381225585938 1000.04565429688 1011.83843994141 1017.43841552734 1015.15344238281 1016.37445068359 1013.45953369141 1024.80859375 1023.38464355469 1032.4599609375 1025.66711425781 1034.63586425781 1035.85900878906 1033.42431640625 1037.41589355469 1044.75646972656 1046.79907226562 1048.06298828125 1047.63806152344 1039.95043945312 1038.21594238281 1023.49194335938 1028.83435058594 1014.77252197266 1015.71319580078 1009.5380859375 1011.31243896484 1011.64636230469 1011.21643066406 1017.22210693359 1023.96997070312 1029.91967773438 1034.91259765625 1034.423828125 1030.61328125 1024.83728027344 1019.98645019531 1016.89239501953 1017.92602539062 1012.16705322266 1008.89331054688 1001.70007324219 996.652954101562 988.87158203125 991.859619140625 986.099853515625
943.818115234375 936.495239257812 929.634765625 933.644592285156 940.137817382812 937.168579101562 941.391174316406 942.302185058594 939.218017578125 942.578063964844 946.994201660156 953.181213378906 963.5634765625 970.170349121094 964.19287109375 967.566162109375 961.544921875 967.593566894531 974.962341308594 974.101440429688 971.376647949219 968.7841796875 970.649047851562 963.312316894531 960.2490234375 965.090454101562 964.114990234375 971.621765136719 979.516662597656 968.203796386719 969.189147949219 978.885192871094 977.239624023438 968.747131347656 967.297485351562 973.037414550781 968.136535644531 980.777954101562 972.827575683594 973.678100585938 975.745666503906 973.440185546875 977.461181640625 981.833923339844 990.879272460938 992.282775878906 997.353576660156 990.288513183594 993.20458984375 986.814270019531 981.234497070312 980.966125488281 981.470581054688 989.182495117188 990.723083496094 995.703308105469 982.779602050781 974.362915039062 972.779052734375 969.486999511719 964.101196289062 967.02685546875 969.955627441406 966.170715332031 962.020263671875 967.704406738281 971.689392089844 982.10986328125 986.823791503906 989.741760253906 995.404235839844 985.973571777344 976.645568847656 990.44189453125 988.791931152344 994.810424804688 991.812927246094 992.100341796875 983.280639648438 982.270202636719 982.196228027344 981.260437011719 983.291931152344 991.482299804688 991.033081054688 989.643615722656 989.459045410156 993.409423828125 991.234069824219 982.030456542969 988.203247070312 987.001159667969 995.462646484375 993.848205566406 982.977355957031 992.296142578125 988.570739746094 993.141906738281 993.823303222656 993.346069335938 999.215270996094 1000.53460693359 1005.61022949219 1001.06768798828 992.708374023438 997.291564941406 1015.94171142578 1019.71691894531 1020.00592041016 1012.59814453125 1005.71301269531 1016.40484619141 1028.70129394531 1028.68664550781 1033.07312011719 1025.41223144531 1033.9892578125 1042.83422851562 1031.02099609375 1044.40270996094 1039.84729003906 1030.94372558594 1038.20251464844 1032.63415527344 1029.27355957031 1021.48602294922 1019.43646240234 1008.84588623047 999.896240234375 1010.35589599609 1006.73248291016 1009.43597412109 1014.49584960938 1014.09100341797 1015.11022949219 1018.28308105469 1021.01153564453 1029.55541992188 1020.05743408203 1019.38232421875 1021.33416748047 1020.68133544922 1007.53594970703 1009.09039306641 1000.29162597656 1005.48809814453 999.587463378906 997.501403808594 994.606323242188 984.130493164062
935.849182128906 937.812255859375 933.802429199219 933.030029296875 939.706970214844 936.656372070312 940.814880371094 933.622985839844 932.588989257812 944.255981445312 947.09375 952.553100585938 969.0849609375 970.440246582031 971.627868652344 968.921081542969 967.949584960938 963.314208984375 972.891967773438 973.49365234375 971.840637207031 965.44140625 968.197021484375 969.923767089844 968.869567871094 968.958190917969 969.854736328125 976.370422363281 976.32666015625 973.257446289062 969.772705078125 978.693908691406 973.099060058594 979.232360839844 976.420532226562 978.34521484375 978.826782226562 979.072998046875 979.876342773438 979.991394042969 977.890014648438 983.580261230469 985.424926757812 986.268737792969 998.728393554688 998.026428222656 1000.96661376953 995.985656738281 997.932434082031 986.616516113281 986.027526855469 975.285766601562 979.622680664062 978.288757324219 981.510009765625 979.921630859375 967.740295410156 972.105651855469 978.381896972656 978.056640625 979.889038085938 974.633544921875 966.200439453125 960.812133789062 965.698608398438 971.202270507812 977.057495117188 982.525390625 985.434326171875 987.436889648438 993.70166015625 987.886840820312 989.333862304688 992.185546875 994.004211425781 989.028930664062 995.399169921875 990.931945800781 986.228820800781 987.751342773438 990.450317382812 987.150085449219 982.484008789062 988.38037109375 989.961608886719 997.560791015625 989.679260253906 986.316162109375 993.721069335938 993.207641601562 984.789367675781 991.705078125 991.961364746094 992.293334960938 989.015991210938 994.416076660156 992.333740234375 997.043579101562 997.537475585938 995.548217773438 996.530395507812 1002.18615722656 1003.78167724609 1001.83978271484 999.202575683594 1001.66369628906 1010.47009277344 1016.85882568359 1016.36871337891 1018.48809814453 1013.64813232422 1022.68255615234 1025.49401855469 1032.4482421875 1026.96325683594 1029.14001464844 1025.16271972656 1026.1728515625 1032.95336914062 1033.60583496094 1029.05932617188 1025.40454101562 1024.26977539062 1025.26831054688 1029.2880859375 1027.70727539062 1026.49450683594 1017.70159912109 1005.11071777344 1003.85223388672 1006.70770263672 1004.05419921875 1010.01196289062 1011.60223388672 1014.43017578125 1019.39447021484 1020.05181884766 1014.38922119141 1019.09973144531 1012.47180175781 1013.95886230469 1002.29370117188 999.186645507812 996.919189453125 1001.81256103516 1001.01544189453 997.469909667969 999.593505859375 991.204040527344 984.346313476562
940.47607421875 934.2373046875 939.306701660156 933.292785644531 928.501525878906 929.954650878906 936.091064453125 931.442138671875 936.477600097656 951.917053222656 950.316345214844 959.231262207031 966.561767578125 970.3408203125 973.458129882812 980.690673828125 979.231506347656 982.468933105469 982.010925292969 969.340942382812 978.013977050781 965.166748046875 971.698120117188 973.287109375 976.647705078125 975.988891601562 974.955993652344 981.935424804688 969.31103515625 964.272644042969 977.710571289062 977.486694335938 973.449157714844 975.626525878906 976.882446289062 985.202270507812 981.128356933594 979.832763671875 978.4443359375 987.82568359375 990.696350097656 994.700866699219 999.387023925781 1002.68829345703 1004.421875 1001.57415771484 1007.67510986328 1000.43115234375 989.9970703125 988.836120605469 987.582458496094 976.414245605469 971.104797363281 973.408874511719 971.120849609375 971.655456542969 969.4248046875 974.007019042969 987.217834472656 979.412170410156 977.019836425781 972.523132324219 957.635131835938 967.950134277344 964.168518066406 967.916320800781 969.36669921875 975.993896484375 973.62158203125 987.496643066406 983.787963867188 982.845581054688 981.3720703125 985.862060546875 991.319702148438 993.526245117188 986.754455566406 990.328491210938 983.072265625 986.090087890625 985.114929199219 989.691467285156 982.447570800781 987.5927734375 999.044494628906 990.969543457031 988.720764160156 983.330688476562 989.049438476562 990.236389160156 989.3759765625 983.405151367188 983.891967773438 984.660461425781 988.234436035156 994.693420410156 997.107543945312 996.017150878906 997.570068359375 998.826110839844 992.984130859375 985.748779296875 995.739990234375 997.9794921875 1000.82543945312 1007.88043212891 1009.65509033203 1018.10968017578 1018.82989501953 1017.32727050781 1022.87811279297 1019.15600585938 1028.43395996094 1023.7109375 1025.0791015625 1030.41198730469 1024.46728515625 1019.30865478516 1023.85772705078 1022.59613037109 1013.25860595703 1022.91387939453 1028.16040039062 1032.98010253906 1032.73522949219 1017.7578125 1022.05578613281 1021.72222900391 1005.79077148438 998.109497070312 1000.72894287109 1007.63702392578 1004.32098388672 1007.66192626953 1007.79064941406 1021.91552734375 1017.84851074219 1009.60968017578 1006.65740966797 1014.09948730469 997.59375 991.335754394531 991.663696289062 993.416015625 994.299865722656 990.364074707031 998.416381835938 992.148620605469 993.988403320312 997.167541503906
946.166625976562 944.178466796875 934.231506347656 931.70068359375 921.543701171875 929.180847167969 924.779296875 923.264709472656 934.816772460938 949.009155273438 954.269897460938 959.816650390625 962.429382324219 972.76806640625 972.684448242188 981.683471679688 991.801513671875 992.705627441406 985.770080566406 978.597595214844 981.206237792969 973.5595703125 978.667907714844 973.584228515625 971.628662109375 982.799499511719 981.134643554688 978.096923828125 970.092163085938 977.448181152344 976.903747558594 975.907592773438 969.522827148438 977.734802246094 988.382507324219 987.976501464844 995.658203125 994.023498535156 992.254516601562 995.541076660156 1001.59057617188 1005.55297851562 1005.33117675781 1012.53765869141 1010.43890380859 1014.40447998047 1008.69213867188 1007.56311035156 994.883850097656 989.556518554688 983.612976074219 983.901733398438 975.073852539062 967.518798828125 967.134033203125 964.901000976562 969.279357910156 974.644775390625 989.563598632812 990.846313476562 981.114685058594 978.160278320312 969.58154296875 972.623352050781 969.236633300781 968.340576171875 963.385070800781 974.327209472656 974.16650390625 983.883972167969 977.240112304688 976.521240234375 989.738403320312 984.754577636719 988.822448730469 987.452758789062 986.415466308594 985.057434082031 995.610717773438 990.536804199219 983.2333984375 989.372619628906 984.453918457031 991.086303710938 998.243957519531 990.252746582031 984.429809570312 999.081237792969 987.849609375 984.88427734375 985.627502441406 985.400024414062 984.036315917969 989.245422363281 995.858215332031 998.2763671875 998.236755371094 1000.42077636719 986.243530273438 992.78662109375 997.8408203125 994.997802734375 999.794799804688 1004.65307617188 1012.86315917969 1014.73669433594 1021.31896972656 1018.53137207031 1022.62292480469 1029.12194824219 1020.46405029297 1024.4111328125 1031.15454101562 1031.82556152344 1031.60046386719 1020.60699462891 1019.95880126953 1012.85833740234 1015.60412597656 1013.53375244141 1017.45330810547 1020.82525634766 1022.71881103516 1025.00903320312 1025.0107421875 1017.75415039062 1021.28582763672 1017.02777099609 1008.65997314453 1002.40771484375 1006.74816894531 1004.06854248047 1010.69873046875 1010.72961425781 1008.41229248047 1010.28619384766 1004.25183105469 997.951171875 1006.71295166016 999.896118164062 996.911437988281 992.711364746094 990.827941894531 987.701049804688 995.462585449219 982.788330078125 988.641723632812 1000.96600341797 1008.12512207031 1006.96380615234
950.171508789062 939.839660644531 937.018737792969 935.252319335938 935.354309082031 927.007263183594 920.572204589844 917.540649414062 935.92333984375 943.392883300781 956.086853027344 967.8505859375 972.767395019531 972.694030761719 965.648193359375 983.688659667969 986.708312988281 983.723266601562 985.563781738281 983.701293945312 975.526000976562 984.688354492188 986.825805664062 988.701416015625 984.343383789062 988.242736816406 986.361938476562 983.853637695312 981.080200195312 985.367736816406 976.657958984375 977.114562988281 978.820068359375 981.90283203125 983.489929199219 994.441467285156 1010.87756347656 1010.58874511719 1004.36584472656 1006.15887451172 1002.46783447266 1008.25384521484 1014.28070068359 1015.88763427734 1005.87396240234 1012.01239013672 1007.07281494141 1007.67846679688 998.765441894531 996.447021484375 979.508544921875 975.698974609375 973.712646484375 959.692993164062 962.481079101562 970.005187988281 971.736694335938 980.627319335938 980.276306152344 983.43701171875 980.616821289062 974.553894042969 976.826904296875 968.488098144531 975.019836425781 974.422119140625 965.796020507812 965.142578125 967.897155761719 982.7294921875 974.225036621094 978.166015625 994.835998535156 991.153686523438 991.541870117188 993.304565429688 992.409423828125 990.370544433594 1000.58154296875 994.745361328125 985.415832519531 988.622436523438 990.871520996094 996.090698242188 1001.32830810547 1003.31011962891 1001.69415283203 998.129943847656 993.591064453125 991.517456054688 996.50830078125 992.901184082031 992.322204589844 991.359375 1002.98187255859 997.245239257812 1005.14483642578 1001.41778564453 996.187316894531 993.378295898438 998.578735351562 993.768920898438 1005.68994140625 1010.24932861328 1014.14178466797 1021.89617919922 1025.89978027344 1015.70837402344 1016.00646972656 1024.02136230469 1027.80822753906 1030.32043457031 1030.75573730469 1039.59582519531 1027.87048339844 1027.18627929688 1024.29174804688 1010.369140625 1003.52563476562 1009.37341308594 1009.11047363281 1017.62713623047 1023.00164794922 1011.16796875 1025.16223144531 1017.92468261719 1011.79241943359 1002.24401855469 1003.94024658203 997.1162109375 999.663818359375 1003.30950927734 999.424194335938 1006.87030029297 1010.28790283203 1013.47875976562 1007.54699707031 992.924133300781 1004.31097412109 998.04638671875 996.501525878906 991.416687011719 989.856811523438 993.20166015625 988.4091796875 984.742370605469 992.054138183594 994.281372070312 995.051208496094 1008.54809570312
938.926025390625 940.906311035156 937.456359863281 939.85498046875 933.404052734375 922.504516601562 928.063110351562 935.371704101562 934.241271972656 946.051818847656 953.40283203125 964.809814453125 980.216186523438 972.604919433594 973.668395996094 972.080383300781 981.111083984375 976.127746582031 984.323059082031 979.372497558594 975.640319824219 990.112060546875 991.601684570312 993.092651367188 985.539428710938 993.221252441406 990.435485839844 984.35400390625 985.713500976562 993.867004394531 986.654418945312 981.103210449219 981.791198730469 981.954162597656 986.943969726562 1002.32281494141 1006.53387451172 1010.72265625 1001.64636230469 1005.0458984375 1007.48553466797 1012.81231689453 1012.90264892578 1010.18518066406 1020.30364990234 1021.42352294922 1018.47943115234 1018.66455078125 1009.85443115234 992.596618652344 983.676635742188 975.161376953125 965.131774902344 973.081787109375 965.789245605469 967.2705078125 975.664855957031 980.904052734375 981.489868164062 975.897094726562 978.216247558594 981.125915527344 976.031066894531 979.116027832031 974.759643554688 961.645812988281 965.239074707031 969.938049316406 972.642150878906 973.059875488281 972.716613769531 985.919860839844 993.4208984375 992.13037109375 991.0673828125 988.609313964844 993.164367675781 990.372253417969 998.276489257812 994.848999023438 997.910339355469 1001.37335205078 998.292236328125 1002.49926757812 1009.26470947266 1006.22125244141 1008.21575927734 1000.96258544922 1002.17883300781 1000.84216308594 995.350891113281 991.295471191406 988.956848144531 995.962829589844 994.104370117188 992.175109863281 996.907287597656 996.539672851562 1001.57055664062 1005.44635009766 1005.50305175781 1006.72259521484 1009.31372070312 1014.90002441406 1015.75787353516 1019.43603515625 1022.97418212891 1019.75372314453 1024.720703125 1023.85455322266 1030.01989746094 1036.88464355469 1032.43322753906 1033.46984863281 1034.69458007812 1024.22631835938 1025.25427246094 1013.91662597656 1004.16644287109 1004.64758300781 1008.39013671875 1015.0458984375 1020.11145019531 1013.21649169922 1013.30413818359 1018.96942138672 1008.05584716797 1008.81500244141 1004.04364013672 1005.2353515625 1001.03002929688 1003.80450439453 1003.61315917969 1000.39489746094 1002.5439453125 1005.77087402344 992.3564453125 992.322509765625 993.497192382812 997.299926757812 996.480529785156 990.138671875 994.114318847656 1002.84741210938 994.44677734375 996.244812011719 985.054992675781 980.518127441406 994.642211914062 1000.24383544922
932.611206054688 937.431762695312 937.990844726562 935.846984863281 931.478088378906 929.649475097656 932.435607910156 941.947998046875 941.3857421875 950.925476074219 952.521057128906 967.24267578125 974.011291503906 971.668334960938 973.280822753906 975.222229003906 977.242797851562 976.145690917969 976.777587890625 986.468566894531 978.921997070312 987.054992675781 991.971435546875 996.325439453125 991.959350585938 989.302062988281 985.19482421875 992.427490234375 984.478576660156 985.882080078125 984.236877441406 983.25927734375 980.010070800781 987.325805664062 989.299255371094 997.355163574219 1007.09710693359 1006.361328125 1008.70642089844 1009.07391357422 1005.74926757812 1013.91168212891 1005.88812255859 1003.33422851562 1013.04364013672 1016.33740234375 1010.18054199219 1015.31774902344 1008.47918701172 991.567077636719 977.602661132812 976.685913085938 972.977905273438 981.630187988281 981.756042480469 984.014831542969 983.016235351562 987.099060058594 980.918579101562 988.505920410156 987.324035644531 982.445678710938 984.957763671875 984.543762207031 980.294067382812 975.852294921875 970.8212890625 970.800048828125 970.088134765625 972.595764160156 972.248229980469 976.276000976562 986.929016113281 998.699890136719 990.770080566406 979.840087890625 992.07568359375 990.468872070312 1001.58093261719 1005.13275146484 1003.52716064453 1005.69860839844 1008.29559326172 1008.22485351562 1009.99688720703 1006.47546386719 1003.28491210938 1002.52514648438 1002.17889404297 996.239379882812 987.810546875 987.004638671875 988.358825683594 988.659362792969 987.010681152344 988.601379394531 1000.3388671875 992.309936523438 1000.49444580078 1004.38177490234 1005.02667236328 1013.78942871094 1013.27642822266 1011.37744140625 1012.23181152344 1018.15539550781 1020.69006347656 1022.6611328125 1033.01953125 1029.08801269531 1031.55187988281 1034.67321777344 1034.0224609375 1027.80126953125 1029.93591308594 1023.37786865234 1035.5791015625 1028.27282714844 1014.751953125 1008.54766845703 1009.62347412109 1008.2080078125 1018.46038818359 1017.02484130859 1003.63519287109 1012.88458251953 1017.13830566406 1005.12933349609 998.556823730469 999.021850585938 1000.91223144531 1006.30853271484 1002.27886962891 1003.08032226562 1010.73101806641 1013.06243896484 1002.0419921875 991.582641601562 994.40087890625 990.965515136719 997.218627929688 996.189392089844 998.93896484375 1001.31134033203 991.130920410156 990.478271484375 983.745239257812 989.436645507812 993.714050292969 1004.40789794922
941.840881347656 930.96630859375 929.356140136719 937.978576660156 935.31689453125 938.554443359375 936.255676269531 950.194885253906 953.4892578125 956.221801757812 960.662902832031 961.455993652344 966.632446289062 970.833374023438 970.713684082031 965.716125488281 971.969543457031 969.402526855469 971.50048828125 975.340515136719 974.68505859375 981.981872558594 985.888122558594 991.950439453125 994.710388183594 1000.82733154297 996.473937988281 983.84521484375 977.353149414062 987.862121582031 981.533569335938 980.368286132812 976.643371582031 984.284973144531 993.032531738281 997.020935058594 1009.318359375 1004.50439453125 1002.91705322266 1004.22259521484 997.799011230469 1000.69506835938 998.383361816406 1009.39270019531 1014.9482421875 1009.65625 1014.64154052734 1007.8720703125 1004.75640869141 1001.98962402344 978.983825683594 982.292236328125 982.490051269531 997.602111816406 994.938781738281 985.361145019531 984.754638671875 982.141479492188 978.224548339844 987.84765625 984.100891113281 982.605712890625 982.427124023438 974.391174316406 979.193664550781 981.802307128906 971.235473632812 969.543273925781 971.771606445312 967.252319335938 980.709289550781 988.186096191406 987.584655761719 987.178405761719 990.479675292969 987.14990234375 992.785278320312 995.225524902344 1004.24291992188 998.853942871094 1009.07733154297 1006.59497070312 1007.13848876953 1013.55541992188 1005.98016357422 1003.74304199219 1007.56634521484 999.489013671875 998.069763183594 989.067626953125 982.07275390625 986.022705078125 988.749816894531 990.457946777344 992.7841796875 986.580444335938 992.834228515625 997.841247558594 1002.39874267578 1009.02746582031 1005.16418457031 1009.31805419922 1015.19183349609 1001.85296630859 1003.95550537109 1010.22576904297 1027.13818359375 1024.01477050781 1026.95056152344 1023.65295410156 1027.6044921875 1033.08764648438 1034.99792480469 1033.44580078125 1031.08178710938 1033.36633300781 1031.45959472656 1026.13903808594 1018.90350341797 1014.81842041016 1016.28790283203 1014.56182861328 1011.02288818359 1008.40942382812 1003.87561035156 998.2734375 1011.78302001953 1003.86260986328 1005.19482421875 1001.66473388672 1002.50885009766 1010.27056884766 1005.18322753906 1006.32934570312 1015.95306396484 1013.72412109375 1009.41369628906 990.218200683594 988.005249023438 988.389770507812 992.045227050781 995.516479492188 994.648376464844 988.864196777344 985.799194335938 988.078186035156 986.996154785156 992.619262695312 993.214904785156 994.189697265625
949.01953125 940.574829101562 942.970397949219 939.704711914062 943.169067382812 937.638122558594 941.414367675781 955.77880859375 954.514709472656 964.998474121094 963.52978515625 975.733154296875 966.196960449219 976.703918457031 968.150329589844 968.388549804688 972.795593261719 974.061279296875 960.162475585938 966.109680175781 982.341735839844 982.364868164062 983.821228027344 993.646301269531 993.860168457031 989.846801757812 982.467346191406 976.94091796875 973.118835449219 982.60888671875 979.809020996094 970.80322265625 970.607238769531 974.642028808594 979.897705078125 998.474060058594 997.223388671875 997.317138671875 991.467651367188 992.522033691406 996.089904785156 993.671813964844 996.205871582031 1007.32147216797 1008.53851318359 1005.75335693359 1013.70190429688 1014.19891357422 1005.48577880859 997.407836914062 985.236572265625 997.20166015625 999.320373535156 1004.1396484375 1002.61853027344 984.11376953125 982.114562988281 980.296081542969 986.393432617188 983.489318847656 985.058654785156 985.422302246094 982.861450195312 975.137878417969 972.9775390625 970.557189941406 968.171936035156 966.084289550781 975.011169433594 973.580505371094 970.9580078125 984.16552734375 990.109558105469 994.918762207031 991.500122070312 983.430847167969 990.95166015625 991.906127929688 1001.21319580078 1000.26788330078 1003.90130615234 1000.96557617188 1009.36102294922 1013.85424804688 1010.62322998047 1006.74536132812 1008.57360839844 1000.66546630859 994.195373535156 990.475036621094 986.748840332031 998.312805175781 991.411315917969 989.993530273438 983.672241210938 993.43896484375 997.034118652344 1005.05389404297 1002.25842285156 1002.40319824219 1009.55328369141 1007.18872070312 1014.06945800781 1020.25262451172 1018.56005859375 1016.63592529297 1020.89392089844 1024.20642089844 1029.193359375 1028.05554199219 1030.58605957031 1026.03491210938 1036.62744140625 1034.52233886719 1038.72204589844 1037.15209960938 1033.43957519531 1024.52331542969 1017.87768554688 1015.63439941406 1017.96710205078 1013.50897216797 1009.38806152344 1011.31848144531 998.544128417969 999.52978515625 1005.96997070312 1005.74127197266 1008.79254150391 1001.87261962891 1002.38549804688 998.111511230469 998.174682617188 1007.11596679688 1011.10162353516 1003.64630126953 1001.84649658203 993.875244140625 988.972900390625 987.538208007812 990.490051269531 988.501525878906 981.274230957031 985.704956054688 978.906860351562 983.946533203125 981.556335449219 991.709777832031 994.066650390625 995.455261230469
