NCOLS 150
NROWS 38
XLLCORNER 7394249
YLLCORNER 4842899
CELLSIZE 30
NODATA_VALUE -9999
948.909484863281 956.139831542969 961.411193847656 973.208923339844 975.586364746094 970.584228515625 976.652709960938 976.213195800781 970.729858398438 972.336486816406 975.098022460938 974.781555175781 978.989318847656 975.611999511719 969.993774414062 980.259399414062 974.999877929688 980.89990234375 979.961608886719 978.39697265625 984.498657226562 979.982849121094 991.500122070312 990.438537597656 986.032470703125 978.790466308594 968.797729492188 975.439147949219 984.064086914062 985.833679199219 997.558349609375 989.314697265625 994.17822265625 994.400939941406 986.306274414062 994.313354492188 995.555419921875 989.432189941406 983.655639648438 979.02978515625 972.662719726562 980.84033203125 977.206176757812 980.508117675781 986.105651855469 991.082824707031 988.014404296875 989.758544921875 993.272155761719 992.953369140625 987.257934570312 978.835693359375 976.865112304688 969.631408691406 977.146118164062 977.648071289062 982.926574707031 989.185974121094 988.019897460938 984.201904296875 988.723083496094 990.056335449219 992.060302734375 994.141845703125 990.129699707031 998.654846191406 1006.17553710938 999.358947753906 1000.73309326172 997.750549316406 996.265258789062 991.384216308594 995.111633300781 995.931884765625 990.192626953125 991.872253417969 983.57275390625 980.819152832031 981.264892578125 983.340515136719 979.785278320312 990.895568847656 989.804016113281 992.333557128906 997.515014648438 1005.55932617188 1003.10247802734 998.302734375 1004.76037597656 1009.73248291016 1003.73596191406 998.625793457031 999.905090332031 999.030822753906 1003.08880615234 1000.25207519531 1000.13146972656 1009.38494873047 998.085266113281 999.530090332031 999.564331054688 999.855224609375 1000.56207275391 997.426574707031 1000.09204101562 1010.28839111328 998.157104492188 987.925720214844 984.294860839844 973.21630859375 969.035400390625 964.5673828125 958.105651855469 961.955322265625 957.18603515625 952.711853027344 963.997192382812 973.677368164062 978.475830078125 984.154541015625 983.286010742188 999.921508789062 1008.23138427734 1010.01440429688 1010.21447753906 1019.14282226562 1025.67687988281 1024.38427734375 1023.54479980469 1026.384765625 1025.07482910156 1021.14093017578 1026.23107910156 1022.89660644531 1021.53186035156 1026.96801757812 1033.68688964844 1039.51501464844 1045.09484863281 1045.40417480469 1058.49755859375 1075.88818359375 1082.57690429688 1084.01599121094 1097.83581542969 1096.59814453125 1093.61987304688 1092.46423339844 1095.34582519531 1108.99694824219
954.896423339844 957.951721191406 965.165161132812 969.935546875 968.5703125 974.628051757812 973.011352539062 973.403503417969 974.982604980469 978.787170410156 976.075622558594 978.9248046875 975.950500488281 969.364135742188 965.695617675781 979.884460449219 980.873657226562 972.217590332031 980.41552734375 978.377868652344 982.934020996094 983.509338378906 987.97119140625 984.932861328125 981.674865722656 979.616149902344 971.9345703125 982.128173828125 980.338439941406 983.426696777344 991.729797363281 989.801574707031 992.281921386719 987.69580078125 989.498291015625 998.044738769531 990.070190429688 986.680114746094 985.325256347656 978.483520507812 980.143127441406 978.784423828125 980.653625488281 989.567260742188 994.566284179688 992.815734863281 985.236328125 990.414855957031 987.476806640625 984.961975097656 991.194213867188 972.673034667969 968.229736328125 967.864440917969 974.2900390625 973.216613769531 977.349548339844 983.421875 984.924560546875 985.662353515625 992.492004394531 987.678100585938 990.016357421875 984.09326171875 988.290405273438 1000.31414794922 1002.0244140625 997.670288085938 999.97314453125 995.570190429688 998.481506347656 999.684875488281 1000.38696289062 1007.14862060547 991.410949707031 990.825744628906 985.467956542969 979.241271972656 978.557739257812 978.552124023438 986.455688476562 983.746459960938 993.840270996094 1000.11303710938 1008.87591552734 1007.70434570312 1004.28167724609 1002.29357910156 1000.56817626953 1006.68176269531 1001.44409179688 1008.54754638672 1001.92669677734 1000.36224365234 999.84326171875 1006.13427734375 1010.51678466797 1018.44647216797 1003.77844238281 1003.00329589844 1003.71856689453 1000.88848876953 1002.81091308594 995.682922363281 993.898193359375 999.536743164062 999.261779785156 997.435974121094 986.095092773438 990.641906738281 981.014892578125 974.021667480469 972.085571289062 967.47705078125 966.091430664062 972.835388183594 978.498168945312 972.701049804688 973.872985839844 985.022888183594 989.144470214844 1001.6396484375 1005.87329101562 1003.77227783203 1017.24847412109 1021.99249267578 1023.48742675781 1024.92590332031 1018.72192382812 1015.908203125 1021.25268554688 1015.98767089844 1020.84948730469 1014.93432617188 1020.98297119141 1024.22192382812 1020.85217285156 1034.8154296875 1036.44348144531 1045.22082519531 1064.98120117188 1075.49255371094 1087.61669921875 1095.07800292969 1103.10681152344 1100.32946777344 1100.42993164062 1097.59680175781 1107.40637207031 1110.83483886719
957.191833496094 960.024719238281 965.206909179688 972.36328125 970.096557617188 969.596862792969 982.121948242188 977.008117675781 980.626586914062 976.916320800781 977.694763183594 968.215637207031 973.278076171875 966.813903808594 964.141906738281 975.901794433594 970.341186523438 972.875 980.248596191406 982.65087890625 982.500366210938 987.279113769531 983.228149414062 975.428039550781 974.433166503906 981.879028320312 979.693664550781 990.2890625 969.356994628906 977.662963867188 979.357849121094 987.821533203125 986.592102050781 991.66943359375 985.288024902344 991.874877929688 986.324279785156 992.01416015625 984.460510253906 980.662536621094 974.240600585938 981.609924316406 984.855895996094 990.787780761719 991.723327636719 989.863037109375 988.127502441406 990.488037109375 981.705200195312 980.001525878906 981.850280761719 986.115051269531 975.815856933594 968.524169921875 966.166809082031 974.971374511719 983.169006347656 986.2119140625 979.693298339844 982.001831054688 980.903869628906 990.072875976562 988.636413574219 984.395202636719 989.267456054688 996.792541503906 990.408935546875 990.730651855469 998.875305175781 1001.74060058594 998.88037109375 994.478515625 999.613342285156 997.653991699219 991.915344238281 979.217163085938 990.619018554688 981.016845703125 983.397216796875 990.880310058594 987.266662597656 990.747497558594 1000.63366699219 1009.10601806641 1008.16540527344 1006.03564453125 1012.23358154297 1006.99243164062 997.022094726562 1000.32995605469 1003.62768554688 1003.517578125 1000.82495117188 998.687072753906 995.358764648438 1003.49151611328 1004.42132568359 1011.06945800781 1008.92144775391 1000.708984375 1007.49090576172 1008.99841308594 1004.52301025391 996.417602539062 997.463928222656 1002.04376220703 995.797912597656 989.960388183594 988.7021484375 991.550231933594 984.631469726562 980.579162597656 976.857788085938 976.743774414062 973.080993652344 979.101379394531 991.358520507812 981.688842773438 980.222351074219 987.932006835938 997.154418945312 998.951538085938 1005.40264892578 1000.64904785156 1008.53796386719 1015.15435791016 1016.43225097656 1013.13073730469 1013.83258056641 1011.21569824219 1013.24780273438 1007.37554931641 1011.83728027344 1016.41107177734 1020.40283203125 1016.61895751953 1025.81286621094 1031.52844238281 1049.06896972656 1063.32751464844 1069.07189941406 1073.31750488281 1089.60571289062 1092.25561523438 1103.48620605469 1099.81860351562 1109.58679199219 1105.73266601562 1113.96813964844 1116.59753417969
953.324401855469 964.75830078125 964.180847167969 964.635620117188 966.559265136719 965.671081542969 980.5283203125 976.766662597656 975.143798828125 970.097717285156 969.838195800781 969.721374511719 974.952697753906 975.191772460938 966.746643066406 969.143920898438 974.04736328125 981.481628417969 980.68798828125 979.893249511719 977.509643554688 981.396545410156 983.213500976562 986.389343261719 974.650695800781 980.825561523438 981.774536132812 982.1904296875 971.009704589844 968.604248046875 972.389709472656 979.253845214844 978.008422851562 988.518798828125 983.573608398438 986.147033691406 985.670654296875 983.593322753906 987.014526367188 975.337158203125 976.334289550781 983.823120117188 983.677307128906 989.21044921875 983.995910644531 982.823913574219 976.506713867188 979.565124511719 979.711303710938 981.965881347656 978.024108886719 970.991943359375 974.001342773438 971.540832519531 971.439208984375 980.198303222656 979.952453613281 983.071594238281 974.554748535156 972.817199707031 974.034057617188 977.96142578125 977.383605957031 975.452392578125 982.502563476562 983.199645996094 982.422912597656 984.092041015625 982.394348144531 986.927917480469 993.685607910156 990.640808105469 996.539611816406 995.423522949219 993.916625976562 985.957214355469 989.490783691406 985.967407226562 991.663635253906 995.462219238281 992.772033691406 999.68994140625 1000.58404541016 1000.90563964844 1002.21228027344 1002.33538818359 1006.41650390625 1001.44641113281 994.008605957031 1002.60827636719 1006.59783935547 993.231689453125 997.658752441406 1000.22192382812 996.182189941406 995.532653808594 1007.01977539062 1005.64624023438 1007.42193603516 1002.09649658203 1001.96514892578 1000.40484619141 995.054809570312 1000.73474121094 998.359069824219 995.042236328125 987.295104980469 992.380249023438 991.402038574219 996.831604003906 988.098022460938 992.622924804688 983.701538085938 981.535705566406 981.08154296875 991.180480957031 988.296447753906 986.223327636719 984.520812988281 987.350708007812 995.142578125 994.447570800781 1002.63122558594 995.779235839844 1005.42926025391 1009.21789550781 1013.78863525391 1016.14611816406 1005.48260498047 1004.20935058594 1011.42816162109 1016.00146484375 1010.41827392578 1015.80426025391 1018.00567626953 1026.02966308594 1028.02600097656 1038.30249023438 1051.98522949219 1066.24267578125 1079.59094238281 1082.19262695312 1095.04028320312 1096.35681152344 1096.17651367188 1102.61889648438 1107.68798828125 1112.87158203125 1115.96984863281 1116.08483886719
954.551391601562 972.682922363281 959.701232910156 962.730895996094 966.675537109375 970.697875976562 968.187561035156 974.376525878906 975.31640625 967.534851074219 964.681945800781 972.150207519531 967.463989257812 967.147155761719 973.4248046875 970.932312011719 977.597534179688 978.88037109375 974.385131835938 971.747009277344 976.935791015625 983.948486328125 978.160522460938 976.001770019531 976.564270019531 973.396362304688 973.96923828125 973.314208984375 974.938171386719 971.845581054688 975.987060546875 972.970092773438 980.559753417969 973.739501953125 974.65234375 981.293334960938 981.875305175781 979.638793945312 981.936950683594 966.425964355469 966.108642578125 972.188171386719 986.286804199219 982.57666015625 983.295776367188 986.143737792969 980.612243652344 979.398193359375 972.101440429688 968.795104980469 972.429443359375 970.979125976562 969.979370117188 975.050415039062 974.457946777344 971.64697265625 966.442504882812 976.557373046875 969.5283203125 963.849426269531 974.277221679688 975.574035644531 966.803588867188 961.713928222656 972.549377441406 973.764465332031 968.596923828125 969.461120605469 970.660827636719 974.599426269531 984.541137695312 983.412780761719 984.776916503906 982.128723144531 991.757629394531 1003.89263916016 978.910827636719 987.020935058594 986.922912597656 988.008972167969 993.767028808594 1002.75164794922 1002.36761474609 1004.97967529297 996.905212402344 1011.56127929688 1005.91955566406 995.571533203125 1001.15295410156 1006.18872070312 1006.78833007812 1003.65893554688 1001.80383300781 1002.66931152344 1004.77124023438 994.560546875 998.656005859375 1002.42309570312 999.036071777344 991.813659667969 1002.91082763672 995.410095214844 992.224670410156 995.118713378906 992.668640136719 986.431823730469 984.041259765625 986.350036621094 998.934020996094 986.578918457031 986.060607910156 991.313720703125 988.004699707031 994.670532226562 998.470275878906 997.577758789062 995.439636230469 990.474182128906 991.915649414062 988.968200683594 991.069885253906 1003.04852294922 996.351623535156 1008.22973632812 1010.23846435547 1013.19268798828 1023.37933349609 1019.76623535156 1003.50146484375 1011.86370849609 1010.80743408203 1012.99200439453 1019.49487304688 1026.34558105469 1019.31066894531 1027.24279785156 1033.22607421875 1043.70056152344 1047.72094726562 1063.10229492188 1075.93334960938 1082.1298828125 1091.94372558594 1108.36401367188 1116.30236816406 1115.28540039062 1114.00231933594 1118.19091796875 1119.30322265625 1121.44860839844
965.039916992188 962.403198242188 964.243286132812 968.087524414062 959.900329589844 962.366149902344 967.995544433594 963.408264160156 964.911682128906 960.704406738281 958.259948730469 969.803527832031 962.298034667969 970.011596679688 976.968566894531 979.526062011719 972.127014160156 982.377624511719 974.352661132812 973.010131835938 973.934387207031 978.983703613281 976.465026855469 980.117980957031 973.881958007812 969.478332519531 962.454345703125 972.306091308594 969.201843261719 969.969421386719 964.651062011719 974.36376953125 969.030212402344 967.159545898438 970.672424316406 968.094909667969 969.5986328125 979.973327636719 976.42333984375 970.320129394531 969.632446289062 968.968505859375 978.268859863281 981.664367675781 983.270629882812 978.945373535156 977.857543945312 969.615173339844 975.574768066406 972.0478515625 969.883361816406 974.349365234375 972.069702148438 969.436157226562 974.481018066406 976.310791015625 971.208618164062 971.771179199219 968.1708984375 966.718017578125 967.97265625 966.511840820312 961.112365722656 971.742370605469 968.397399902344 967.691711425781 968.431640625 963.100952148438 966.697143554688 976.579040527344 975.313232421875 978.711730957031 972.820739746094 980.351989746094 990.956359863281 988.433349609375 978.349792480469 990.162048339844 985.476257324219 981.411804199219 987.297546386719 998.694030761719 1012.54614257812 1011.01788330078 1005.25219726562 1006.33551025391 999.592651367188 995.836853027344 992.588623046875 999.791015625 1006.66510009766 1000.71380615234 1009.80999755859 1010.40258789062 1002.20953369141 998.290222167969 992.546813964844 1000.99951171875 991.265014648438 987.539428710938 990.800048828125 990.443115234375 987.14794921875 990.342590332031 986.483276367188 980.791931152344 979.760375976562 991.227294921875 991.810668945312 993.472106933594 985.065368652344 994.769165039062 996.334106445312 1001.31103515625 1002.66442871094 990.222412109375 998.319641113281 991.96337890625 997.2705078125 1004.03076171875 1000.51391601562 1006.84393310547 1006.93902587891 1007.94506835938 1008.39416503906 1009.70880126953 1008.54156494141 1010.39984130859 1017.29125976562 1019.17749023438 1008.84057617188 1021.00390625 1016.60729980469 1018.3876953125 1027.01379394531 1027.06665039062 1036.36120605469 1049.4365234375 1052.15295410156 1070.00256347656 1078.00634765625 1085.40625 1099.91076660156 1108.18762207031 1117.34045410156 1117.93249511719 1121.22680664062 1128.11083984375 1136.90881347656 1130.07312011719
957.025573730469 958.68017578125 965.127685546875 967.879150390625 970.200866699219 968.455078125 967.063110351562 959.341735839844 960.3623046875 960.231994628906 956.914794921875 963.358581542969 966.764282226562 970.221435546875 976.216247558594 981.539489746094 973.196594238281 975.498901367188 974.896362304688 981.068603515625 978.443115234375 977.275207519531 975.138427734375 990.065856933594 973.306579589844 970.231140136719 963.93896484375 971.091674804688 975.8486328125 974.000061035156 972.705932617188 967.885009765625 965.932983398438 978.592651367188 981.208801269531 980.159484863281 979.141357421875 980.889709472656 973.557067871094 977.937927246094 981.874328613281 977.186401367188 985.570739746094 980.724914550781 975.748596191406 978.448059082031 979.025146484375 976.273559570312 968.54931640625 961.1611328125 970.160278320312 966.28271484375 970.897216796875 970.374450683594 973.827392578125 972.915161132812 973.702514648438 975.522338867188 973.260131835938 968.398193359375 968.772399902344 968.636352539062 970.195068359375 969.061279296875 966.365112304688 977.011962890625 967.339172363281 972.35986328125 972.674377441406 972.66845703125 977.331176757812 973.71630859375 975.99560546875 977.469116210938 976.469360351562 984.005798339844 978.705627441406 979.625 981.555358886719 979.072265625 981.871154785156 980.437316894531 999.262451171875 1006.76721191406 997.533142089844 992.992858886719 1001.75421142578 992.138732910156 989.735290527344 994.424987792969 1004.81561279297 1005.26904296875 1011.62145996094 1002.34173583984 996.80419921875 991.201904296875 992.385375976562 991.597045898438 997.538879394531 985.473510742188 984.43359375 991.6044921875 990.561828613281 979.771423339844 985.696350097656 980.459533691406 988.393188476562 992.440307617188 998.604797363281 989.262878417969 985.012817382812 985.807189941406 991.035461425781 999.558349609375 1010.03594970703 1001.580078125 1001.07208251953 993.19091796875 1002.35345458984 992.972045898438 1000.703125 1004.60455322266 998.968017578125 1006.04772949219 1001.35095214844 998.115600585938 1002.82647705078 1012.37036132812 1023.73614501953 1024.12683105469 1025.53869628906 1022.09661865234 1021.62390136719 1019.53979492188 1020.49468994141 1030.40612792969 1044.51501464844 1057.44592285156 1064.92712402344 1074.08227539062 1085.23889160156 1091.34619140625 1093.04052734375 1100.81018066406 1116.08728027344 1116.375 1124.00256347656 1133.56201171875 1138.75036621094 1141.77722167969
959.280090332031 954.515869140625 949.637573242188 965.526184082031 971.869567871094 963.591430664062 962.126586914062 957.20751953125 956.807312011719 961.35107421875 956.143249511719 954.918884277344 963.17724609375 969.976257324219 974.453735351562 977.529968261719 974.067810058594 976.997436523438 977.1396484375 979.3408203125 976.712097167969 985.081115722656 986.6806640625 980.334106445312 981.231201171875 979.286682128906 981.048522949219 971.04443359375 971.178466796875 972.699829101562 975.362854003906 980.160705566406 974.766967773438 978.613342285156 982.777160644531 979.6181640625 986.775695800781 981.586242675781 976.43408203125 981.5751953125 978.076721191406 981.66455078125 989.600280761719 983.732543945312 983.015075683594 977.424072265625 975.337219238281 970.100646972656 968.509155273438 967.817138671875 971.409240722656 960.189636230469 961.496520996094 973.253540039062 969.969970703125 965.92578125 963.3759765625 975.018310546875 974.669311523438 962.440368652344 972.170959472656 972.687133789062 975.239624023438 976.589477539062 973.675598144531 976.178955078125 973.204650878906 978.871948242188 974.799072265625 976.062561035156 972.964416503906 972.921569824219 976.712341308594 985.370849609375 984.080993652344 980.830749511719 981.13232421875 986.166625976562 985.045471191406 985.869567871094 988.19189453125 986.045959472656 986.346923828125 998.128479003906 999.302490234375 994.130615234375 993.848205566406 997.425231933594 989.278564453125 992.705993652344 1001.56475830078 997.995666503906 1004.23699951172 999.585205078125 993.830261230469 983.305786132812 988.759460449219 993.50244140625 996.158020019531 992.214233398438 987.047180175781 990.716857910156 987.0234375 979.129760742188 980.771850585938 980.826782226562 991.19580078125 990.862426757812 992.252868652344 990.882385253906 994.8505859375 991.382446289062 997.043579101562 1006.48315429688 1010.62103271484 996.556579589844 993.911987304688 986.504638671875 988.552612304688 989.781555175781 991.281005859375 997.78369140625 1000.01019287109 1004.95574951172 1004.03070068359 1002.42663574219 1001.21826171875 1012.81463623047 1018.46533203125 1028.57055664062 1030.02844238281 1022.40789794922 1023.00341796875 1030.19287109375 1030.3818359375 1037.75524902344 1045.46142578125 1050.79431152344 1067.58032226562 1072.98168945312 1083.283203125 1101.37939453125 1103.79333496094 1106.78637695312 1119.4951171875 1123.91076660156 1132.60595703125 1133.77600097656 1145.52648925781 1153.10314941406
958.625671386719 962.449462890625 957.267028808594 965.903991699219 967.741394042969 963.951538085938 952.256774902344 960.777160644531 958.091857910156 960.608276367188 966.720581054688 960.997192382812 965.801940917969 971.220275878906 976.938659667969 968.035522460938 972.005615234375 977.91552734375 982.909118652344 984.036743164062 975.143676757812 980.886291503906 982.084716796875 980.861145019531 978.720153808594 978.099914550781 977.267822265625 974.341247558594 967.565673828125 976.744140625 980.661193847656 979.570190429688 980.505493164062 975.379760742188 984.353637695312 981.770385742188 992.330627441406 991.621154785156 977.962036132812 972.315246582031 977.225036621094 971.289428710938 975.432373046875 981.163024902344 988.71533203125 984.684020996094 976.903869628906 966.169189453125 968.036254882812 968.009033203125 967.753662109375 964.088806152344 950.769287109375 968.332641601562 968.575500488281 966.092346191406 965.703002929688 961.995971679688 959.180358886719 964.009033203125 968.359497070312 974.451171875 968.246826171875 968.766662597656 975.268188476562 973.161926269531 973.999206542969 977.133605957031 981.944152832031 980.631652832031 970.410339355469 969.486633300781 970.246520996094 979.526000976562 980.266845703125 980.3701171875 980.876708984375 982.343994140625 985.27587890625 979.458129882812 984.896850585938 988.919372558594 996.330810546875 991.422546386719 993.1865234375 984.465881347656 984.06494140625 985.288513183594 984.227661132812 985.896301269531 994.277099609375 995.963500976562 998.333251953125 992.894897460938 990.486267089844 994.5556640625 988.379028320312 993.122985839844 993.037780761719 1000.04351806641 981.207092285156 986.456909179688 977.170715332031 981.360229492188 974.311767578125 981.203857421875 987.747436523438 994.831787109375 999.043395996094 980.327331542969 983.586547851562 995.360412597656 998.399597167969 1001.30169677734 1005.13391113281 994.478393554688 992.472717285156 994.971862792969 991.200012207031 1001.00598144531 994.868774414062 994.657897949219 992.862487792969 995.023620605469 1003.98468017578 1008.71203613281 1009.87133789062 1010.45202636719 1020.43841552734 1021.15496826172 1029.91809082031 1028.953125 1034.40686035156 1036.11364746094 1045.62182617188 1044.1787109375 1051.9443359375 1053.25219726562 1065.27514648438 1076.19702148438 1087.25183105469 1097.81982421875 1110.18420410156 1122.48461914062 1115.71875 1119.64929199219 1132.16345214844 1148.75793457031 1150.43212890625 1162.61291503906
955.441101074219 960.739013671875 950.553894042969 953.304870605469 967.209655761719 959.28369140625 964.716003417969 966.024536132812 962.990966796875 957.384399414062 968.111328125 970.314514160156 974.697631835938 970.43359375 976.646240234375 970.353454589844 971.602905273438 982.089477539062 984.725708007812 983.911376953125 980.345764160156 979.00634765625 980.5341796875 972.917785644531 971.237365722656 977.283142089844 975.142211914062 963.354125976562 968.507751464844 975.460876464844 977.19970703125 984.566467285156 984.313049316406 978.100463867188 982.887939453125 981.9150390625 984.534484863281 979.923828125 981.562805175781 973.511291503906 972.70703125 972.977661132812 970.971313476562 974.711120605469 976.937194824219 978.235046386719 973.331115722656 976.357299804688 965.7275390625 975.328125 965.97998046875 959.793640136719 954.429321289062 962.672912597656 958.398498535156 974.883972167969 963.467834472656 962.227111816406 967.7197265625 961.623779296875 967.484924316406 966.395202636719 969.158142089844 972.587646484375 978.958984375 972.059997558594 970.40576171875 978.713500976562 978.023803710938 970.473266601562 970.605407714844 968.539978027344 955.964233398438 966.536071777344 971.729248046875 976.113037109375 974.672180175781 970.387268066406 979.047729492188 972.672119140625 974.128051757812 982.825134277344 997.634887695312 991.385375976562 986.957275390625 985.493041992188 983.265380859375 986.992126464844 985.95458984375 989.456237792969 992.260803222656 993.3935546875 995.331176757812 987.326843261719 988.72900390625 991.129150390625 987.951171875 996.890808105469 1001.37518310547 996.42236328125 984.399597167969 983.96435546875 976.195861816406 974.848937988281 979.548828125 987.067504882812 979.834045410156 987.155883789062 992.009216308594 985.402099609375 974.051330566406 987.669860839844 996.944274902344 994.738586425781 998.980407714844 994.43115234375 987.778930664062 996.468444824219 998.710693359375 1000.12213134766 994.02587890625 995.075988769531 1002.60314941406 1000.33099365234 1010.03442382812 1012.02893066406 1015.48223876953 1021.37268066406 1022.86340332031 1026.14587402344 1031.52697753906 1036.90100097656 1042.74841308594 1043.95202636719 1039.86401367188 1053.88110351562 1061.37023925781 1057.64770507812 1064.84265136719 1075.83544921875 1091.11291503906 1111.40478515625 1118.63598632812 1131.72985839844 1121.42932128906 1129.05554199219 1139.31433105469 1150.42919921875 1155.62915039062 1162.01867675781
954.892761230469 947.711547851562 946.094482421875 952.597412109375 948.942565917969 955.623229980469 963.128784179688 973.484313964844 966.924377441406 960.374206542969 966.443481445312 970.920349121094 971.745300292969 970.054138183594 970.946960449219 975.115112304688 974.246643066406 983.707702636719 974.960327148438 975.1767578125 974.746459960938 974.455932617188 967.610412597656 970.269287109375 972.058776855469 972.600219726562 971.192016601562 963.621276855469 961.805480957031 970.849426269531 980.349914550781 980.471862792969 987.157531738281 973.192932128906 976.648986816406 982.429138183594 979.871032714844 976.264953613281 979.67431640625 977.489135742188 973.424499511719 972.770446777344 967.157836914062 976.209167480469 980.03125 971.55322265625 973.22900390625 973.967346191406 964.131958007812 968.828674316406 965.81005859375 962.99951171875 963.614807128906 965.7412109375 964.835510253906 973.395385742188 970.773620605469 970.414733886719 969.166442871094 964.849487304688 973.678955078125 974.209106445312 968.996459960938 972.480163574219 974.862915039062 977.263732910156 974.610473632812 958.612365722656 968.257263183594 976.505981445312 970.369018554688 967.220886230469 969.416320800781 972.927062988281 976.1533203125 965.428405761719 970.837097167969 973.226135253906 964.805114746094 974.018676757812 970.808898925781 983.258361816406 992.122009277344 997.450500488281 996.905090332031 989.824279785156 988.519592285156 995.929260253906 986.745056152344 977.453186035156 983.66552734375 985.514953613281 991.631408691406 990.0927734375 984.820190429688 992.309875488281 988.834350585938 990.8251953125 999.115783691406 993.941284179688 987.726379394531 983.262145996094 983.250793457031 983.730102539062 981.826843261719 985.162658691406 985.280517578125 993.9365234375 986.863220214844 981.754699707031 987.18505859375 992.39990234375 994.534301757812 997.478576660156 992.181823730469 994.361389160156 989.252624511719 995.35009765625 993.367126464844 999.449462890625 990.383728027344 993.044799804688 997.160583496094 993.795532226562 1001.06945800781 1013.12573242188 1014.41149902344 1018.68505859375 1030.01208496094 1030.63806152344 1038.06982421875 1035.84875488281 1046.2822265625 1046.70593261719 1036.89233398438 1057.09045410156 1059.28491210938 1063.51843261719 1069.28271484375 1081.552734375 1097.70422363281 1110.85485839844 1129.68444824219 1126.79370117188 1133.13354492188 1134.81884765625 1145.4462890625 1149.81884765625 1156.40283203125 1162.466796875
940.83935546875 947.805358886719 944.158264160156 951.08349609375 957.254638671875 953.812194824219 962.884338378906 960.629577636719 965.9453125 966.974731445312 972.433898925781 969.973999023438 962.445068359375 968.748474121094 981.638366699219 976.395141601562 985.044982910156 984.668151855469 979.635559082031 980.709350585938 972.294555664062 964.223083496094 965.903869628906 961.219604492188 969.137817382812 969.187683105469 964.181884765625 962.728149414062 962.629211425781 969.940368652344 979.714172363281 987.810302734375 988.13623046875 986.736511230469 982.677612304688 974.787414550781 967.414978027344 969.474792480469 970.365783691406 977.200927734375 982.352294921875 972.993469238281 969.019653320312 973.80126953125 978.965454101562 970.512268066406 974.102355957031 973.544799804688 964.001342773438 967.481750488281 978.559448242188 974.529846191406 969.835083007812 968.84765625 973.083923339844 970.291809082031 971.02880859375 971.616027832031 974.317810058594 974.484985351562 978.845581054688 985.435180664062 980.51416015625 978.926452636719 981.250305175781 986.881896972656 973.766662597656 965.283996582031 964.117797851562 962.110595703125 965.986694335938 962.383178710938 971.149353027344 974.429809570312 968.535400390625 958.322448730469 967.841857910156 966.126098632812 976.617797851562 971.933532714844 973.302307128906 978.961547851562 988.019653320312 995.338806152344 992.88330078125 987.192321777344 988.797180175781 984.930114746094 972.820190429688 976.542114257812 982.793701171875 984.00634765625 987.754760742188 997.667602539062 992.79248046875 980.203002929688 984.545349121094 989.346496582031 1003.84997558594 991.790893554688 992.582092285156 988.965515136719 990.206970214844 978.185180664062 984.982971191406 979.988098144531 984.820068359375 986.435852050781 982.523986816406 975.840698242188 982.450073242188 989.521301269531 986.420288085938 992.169128417969 987.187194824219 994.846923828125 984.53466796875 982.401611328125 988.090942382812 994.294921875 989.109619140625 991.398315429688 981.459411621094 996.074584960938 1000.73602294922 1015.09771728516 1024.87890625 1031.62145996094 1032.91125488281 1036.54370117188 1047.44213867188 1049.1591796875 1055.3349609375 1049.67346191406 1051.75012207031 1056.4482421875 1066.39721679688 1063.2353515625 1077.41772460938 1092.59094238281 1105.560546875 1119.46997070312 1126.30419921875 1136.32397460938 1143.52478027344 1141.66979980469 1145.32409667969 1150.49035644531 1158.88403320312 1172.95043945312
947.468811035156 947.895324707031 949.095031738281 948.840087890625 954.497436523438 953.0263671875 953.386840820312 958.330383300781 963.509338378906 963.490173339844 964.054748535156 961.3701171875 964.754577636719 971.606323242188 983.248901367188 979.709899902344 980.9990234375 981.039306640625 975.83837890625 976.605041503906 973.294982910156 970.210388183594 967.511779785156 964.904968261719 968.719970703125 972.133117675781 964.18359375 966.675048828125 966.187133789062 966.015258789062 973.272155761719 983.296752929688 985.55517578125 981.907897949219 981.702270507812 968.140930175781 962.170532226562 962.255615234375 968.552368164062 977.791076660156 969.132019042969 975.05859375 970.452941894531 966.206848144531 971.211730957031 974.335876464844 973.352233886719 978.598510742188 968.946044921875 974.842041015625 972.307678222656 962.863342285156 964.469665527344 969.14501953125 971.030639648438 975.846252441406 971.78125 967.930541992188 972.876281738281 970.122619628906 973.158020019531 983.419006347656 972.214965820312 970.116455078125 975.992309570312 978.283081054688 974.886108398438 963.488708496094 965.997131347656 968.116271972656 965.337646484375 963.307861328125 967.306762695312 973.267761230469 967.145263671875 967.947509765625 963.753112792969 968.850830078125 975.619445800781 977.973083496094 983.019714355469 979.393676757812 979.202758789062 979.916015625 976.568664550781 979.216064453125 986.342956542969 988.621520996094 977.1640625 976.541625976562 976.410583496094 985.612243652344 987.937805175781 987.901062011719 985.674133300781 985.183044433594 989.580932617188 983.849487304688 997.105041503906 998.620971679688 998.095458984375 989.176879882812 987.735961914062 980.038757324219 981.225402832031 980.940612792969 990.236145019531 988.607849121094 989.436401367188 982.060546875 982.040161132812 978.2685546875 987.246215820312 984.974304199219 986.577758789062 992.299987792969 989.694641113281 985.085998535156 994.689453125 995.408142089844 1001.06097412109 997.607849121094 999.755554199219 1010.7041015625 1009.91644287109 1021.60015869141 1032.44677734375 1031.44226074219 1039.66479492188 1048.515625 1056.88745117188 1059.71459960938 1059.21960449219 1057.44079589844 1058.947265625 1060.35534667969 1069.26196289062 1072.84924316406 1090.3984375 1094.59106445312 1109.21350097656 1118.78723144531 1128.98278808594 1130.21423339844 1139.529296875 1155.61828613281 1155.796875 1154.34448242188 1161.634765625 1164.70581054688
943.132873535156 948.9072265625 951.2978515625 952.882202148438 955.60498046875 954.677307128906 966.520874023438 962.752319335938 963.420166015625 971.766784667969 967.127014160156 959.996337890625 958.218688964844 971.575256347656 981.427917480469 976.594848632812 976.271728515625 973.304138183594 968.281005859375 974.409057617188 975.752624511719 967.370361328125 968.382934570312 965.74755859375 968.060729980469 967.071838378906 965.876770019531 978.117980957031 975.647094726562 974.246826171875 976.947082519531 976.01171875 974.731811523438 975.25439453125 974.037048339844 967.756286621094 965.636169433594 964.571350097656 967.722412109375 970.657470703125 978.577209472656 974.559692382812 960.844055175781 956.375427246094 960.701843261719 964.862426757812 964.2734375 970.932373046875 971.546875 968.571594238281 968.212707519531 965.983154296875 968.638916015625 965.429321289062 972.294189453125 973.699829101562 976.785217285156 973.61376953125 966.211730957031 979.626647949219 976.873413085938 981.702270507812 975.248718261719 976.354064941406 974.268371582031 975.741516113281 977.67431640625 976.4755859375 969.947204589844 961.508483886719 961.362854003906 960.2568359375 956.790283203125 967.532775878906 978.163024902344 983.85986328125 973.192810058594 973.916137695312 970.025146484375 975.82861328125 989.462646484375 980.806091308594 971.788330078125 973.179260253906 970.47412109375 981.504699707031 980.2109375 981.631286621094 973.913452148438 970.703491210938 967.127136230469 987.435363769531 986.407653808594 991.080078125 984.148193359375 984.712341308594 990.856994628906 988.853698730469 990.738464355469 991.052429199219 993.684387207031 988.9033203125 994.2177734375 990.091430664062 987.58056640625 986.541748046875 984.854064941406 988.33642578125 992.394470214844 986.187316894531 986.576354980469 991.923889160156 993.66455078125 993.882263183594 992.709350585938 993.728210449219 998.12109375 997.671203613281 994.652404785156 997.512573242188 1002.75921630859 1007.90985107422 1008.67156982422 1011.08740234375 1018.92987060547 1024.25207519531 1033.87072753906 1039.05712890625 1045.70153808594 1048.08752441406 1055.59448242188 1065.68994140625 1063.96228027344 1070.84387207031 1067.67785644531 1067.04345703125 1077.96496582031 1081.89331054688 1093.60705566406 1092.64208984375 1108.31079101562 1116.23034667969 1118.55029296875 1130.67895507812 1139.42944335938 1157.37121582031 1169.03161621094 1171.1162109375 1163.36462402344 1168.83312988281
938.57470703125 945.489929199219 952.475524902344 960.502258300781 963.211547851562 957.611083984375 964.072082519531 963.604919433594 959.403869628906 972.049377441406 975.144226074219 964.844543457031 969.649963378906 971.190856933594 975.451599121094 974.033386230469 974.736206054688 970.220031738281 965.151062011719 968.972778320312 973.201477050781 974.504089355469 967.634338378906 957.569213867188 964.533508300781 971.909423828125 975.687438964844 974.531799316406 980.906005859375 975.386474609375 981.582885742188 976.782775878906 974.683288574219 966.209594726562 963.521545410156 972.880249023438 966.944946289062 957.697021484375 965.399047851562 969.220886230469 970.026672363281 966.455993652344 951.282958984375 956.825927734375 954.297302246094 968.879577636719 964.488830566406 959.834106445312 961.569946289062 959.556457519531 971.1474609375 969.922241210938 972.495483398438 969.379699707031 963.98486328125 964.830139160156 978.476745605469 970.102355957031 968.318908691406 965.397705078125 967.128601074219 965.278747558594 974.217895507812 970.746215820312 972.133178710938 972.442443847656 965.091125488281 969.957580566406 969.236999511719 966.151245117188 964.140808105469 958.62841796875 962.953796386719 969.831298828125 980.508361816406 979.933288574219 972.133239746094 971.49169921875 970.06494140625 970.515563964844 971.452209472656 972.372314453125 965.296325683594 965.75341796875 966.349914550781 971.870422363281 971.178955078125 974.167541503906 965.010925292969 966.353515625 971.14208984375 980.834167480469 988.036254882812 983.334411621094 981.000732421875 982.855712890625 983.267211914062 987.581787109375 988.131103515625 986.6484375 987.419006347656 984.846252441406 993.908752441406 994.5703125 991.601318359375 984.495910644531 984.897155761719 984.761962890625 989.181335449219 995.101440429688 995.536682128906 1006.00769042969 1002.61212158203 1002.50427246094 1007.29913330078 1004.81024169922 1010.22088623047 1011.82452392578 1005.77789306641 1011.13903808594 1002.18103027344 1010.86138916016 1007.49981689453 1010.63897705078 1020.84344482422 1025.9296875 1028.54138183594 1039.29943847656 1035.927734375 1049.0595703125 1053.19519042969 1060.93688964844 1062.45080566406 1065.71154785156 1073.72314453125 1076.88842773438 1075.90490722656 1085.97082519531 1095.23852539062 1098.45288085938 1114.31958007812 1123.35852050781 1130.11071777344 1127.39172363281 1137.73657226562 1150.60424804688 1155.69506835938 1169.18054199219 1162.71789550781 1165.96643066406
940.434875488281 946.497924804688 947.7021484375 957.721862792969 952.768737792969 964.700500488281 964.589721679688 966.231872558594 970.401062011719 974.562927246094 973.8994140625 970.110229492188 963.57763671875 975.394653320312 968.21142578125 974.656860351562 971.091613769531 969.488525390625 967.42724609375 968.003723144531 965.184692382812 972.10888671875 968.284240722656 960.739135742188 965.1328125 976.703125 971.094116210938 964.200866699219 975.607849121094 964.944458007812 973.903869628906 978.87646484375 973.1494140625 968.065368652344 965.892028808594 968.136413574219 958.845397949219 959.616271972656 971.312805175781 963.643737792969 964.811889648438 963.108337402344 958.358581542969 957.155090332031 962.294494628906 961.511047363281 958.941040039062 958.856506347656 968.233276367188 978.546325683594 978.782104492188 971.315551757812 974.184753417969 974.086181640625 964.221496582031 960.114501953125 964.935119628906 967.130004882812 972.537292480469 969.581481933594 965.69580078125 961.243835449219 968.959289550781 973.874328613281 973.938171386719 969.49560546875 961.585754394531 963.89697265625 959.552490234375 964.373229980469 956.147033691406 963.221374511719 968.240844726562 975.533935546875 977.614135742188 973.300415039062 970.336669921875 969.633911132812 968.066650390625 962.2509765625 968.679077148438 967.081726074219 971.219604492188 967.3271484375 957.806884765625 967.238342285156 972.113525390625 965.290649414062 967.7919921875 972.275146484375 981.364685058594 975.217895507812 970.550842285156 984.832946777344 975.405151367188 979.165100097656 984.249389648438 986.197875976562 989.521911621094 978.942016601562 978.728393554688 989.601379394531 993.238952636719 990.696716308594 988.234191894531 990.655700683594 997.286499023438 1000.48797607422 992.2041015625 994.189880371094 1000.99334716797 992.0966796875 1002.57208251953 1009.43316650391 1002.82550048828 1006.28021240234 1003.22930908203 1006.72381591797 1007.79919433594 1010.69152832031 1010.18566894531 1015.70452880859 1022.71759033203 1018.66375732422 1026.37316894531 1029.90490722656 1036.24816894531 1039.09191894531 1047.5703125 1053.68395996094 1054.19372558594 1054.60986328125 1058.92834472656 1070.30078125 1069.23388671875 1074.64196777344 1068.76281738281 1092.03381347656 1097.31506347656 1106.74243164062 1112.1689453125 1116.20849609375 1126.66186523438 1138.93505859375 1135.18725585938 1146.73657226562 1157.22021484375 1153.22998046875 1160.83117675781 1159.69848632812
948.739440917969 949.987731933594 952.759704589844 957.579406738281 962.97998046875 968.365356445312 967.294921875 972.268676757812 972.533508300781 972.267639160156 972.480895996094 968.306457519531 970.639038085938 977.872619628906 976.274658203125 974.619567871094 973.014953613281 973.319396972656 977.164978027344 977.101379394531 966.655578613281 974.46826171875 973.075134277344 972.534790039062 965.392333984375 966.883544921875 964.275085449219 970.321044921875 971.870971679688 970.923583984375 973.357421875 975.341247558594 974.64013671875 971.798522949219 960.151062011719 960.80224609375 958.191162109375 949.9228515625 962.319885253906 957.7119140625 969.657287597656 967.002563476562 960.893859863281 959.630126953125 959.178894042969 952.107849121094 956.946472167969 958.948059082031 967.784423828125 971.777770996094 974.662231445312 975.446716308594 972.006164550781 960.921936035156 970.931457519531 967.370727539062 965.932189941406 973.534240722656 972.260131835938 962.675476074219 963.678833007812 955.23193359375 963.183044433594 978.107360839844 972.557434082031 972.618408203125 960.259460449219 958.8720703125 959.500671386719 962.296630859375 959.114807128906 966.020751953125 964.339477539062 981.645690917969 981.913635253906 970.384338378906 964.308898925781 970.758483886719 969.103393554688 967.678833007812 971.802734375 968.9951171875 971.270751953125 968.567626953125 972.029479980469 971.244201660156 971.408264160156 976.871154785156 971.085876464844 972.949829101562 976.061096191406 963.030883789062 976.686645507812 976.871459960938 985.235046386719 984.201477050781 978.652709960938 979.275939941406 978.249694824219 975.307739257812 979.116027832031 984.936889648438 990.854187011719 986.006652832031 990.850219726562 986.181274414062 992.651245117188 993.892822265625 989.000183105469 1001.90344238281 998.447021484375 995.29833984375 1001.08258056641 1016.21307373047 1013.13250732422 1005.44854736328 1002.37145996094 1001.63238525391 1004.30230712891 1009.81213378906 1014.2314453125 1017.67578125 1028.39074707031 1024.05944824219 1026.33142089844 1031.89379882812 1036.01342773438 1044.78308105469 1053.9140625 1056.1015625 1054.24487304688 1051.78918457031 1052.55737304688 1064.80480957031 1078.46069335938 1081.65368652344 1082.39978027344 1083.4052734375 1096.78515625 1099.615234375 1110.31762695312 1112.72448730469 1124.28173828125 1131.2509765625 1128.79602050781 1133.55187988281 1146.22082519531 1153.59741210938 1160.95153808594 1156.9404296875
945.682800292969 952.551879882812 949.409118652344 962.442565917969 966.270751953125 970.665893554688 967.230407714844 972.462280273438 966.342041015625 970.658935546875 971.421447753906 969.408935546875 976.06005859375 982.965087890625 978.447875976562 974.855041503906 973.246765136719 974.013977050781 982.102478027344 973.85888671875 971.586608886719 967.565856933594 972.538940429688 974.117614746094 962.574829101562 955.620483398438 963.388122558594 970.91845703125 972.822692871094 967.728637695312 972.447570800781 977.489074707031 980.397888183594 974.585388183594 965.861938476562 957.634216308594 952.260131835938 956.965270996094 959.765686035156 961.736999511719 963.946411132812 959.213806152344 963.036804199219 954.768493652344 952.59375 950.91748046875 961.442077636719 958.618469238281 965.767822265625 966.248718261719 968.540588378906 965.068298339844 969.279418945312 962.362976074219 960.208129882812 962.812622070312 967.549133300781 971.960266113281 974.353088378906 966.005310058594 962.114624023438 966.620849609375 968.647094726562 975.677490234375 978.820068359375 973.829467773438 967.834289550781 960.71728515625 959.232666015625 953.33837890625 960.39599609375 970.899780273438 968.219848632812 978.318481445312 978.194946289062 968.083435058594 964.081298828125 971.185913085938 962.848754882812 964.925598144531 970.775451660156 965.057189941406 971.671508789062 964.171691894531 974.99560546875 979.101318359375 972.202697753906 974.699523925781 972.494506835938 973.338073730469 972.475952148438 967.225891113281 970.774230957031 977.687927246094 975.4521484375 980.690551757812 985.044067382812 978.651550292969 976.488647460938 980.633972167969 981.38134765625 978.687255859375 988.637512207031 979.917053222656 988.690734863281 991.216735839844 983.5869140625 987.573852539062 1001.28942871094 996.574340820312 995.431030273438 995.323486328125 998.922485351562 1005.92022705078 1011.84020996094 1000.24194335938 997.776489257812 997.580200195312 999.12548828125 1005.66253662109 1012.94506835938 1020.02661132812 1023.37933349609 1026.19372558594 1024.53942871094 1026.48547363281 1029.69396972656 1036.91552734375 1052.48864746094 1049.14099121094 1053.94812011719 1040.60327148438 1045.888671875 1061.5859375 1064.30187988281 1074.44458007812 1078.15063476562 1078.90234375 1098.62805175781 1096.61755371094 1108.09094238281 1115.45654296875 1115.91442871094 1126.58410644531 1128.64343261719 1125.42565917969 1134.90966796875 1146.60107421875 1162.72546386719 1159.02038574219
954.167236328125 944.348693847656 951.27685546875 964.700500488281 964.902160644531 965.94140625 971.727844238281 977.360412597656 964.119079589844 967.285766601562 968.985046386719 971.5 980.179382324219 983.212585449219 985.363464355469 975.698547363281 970.706237792969 968.076110839844 969.52099609375 966.416259765625 963.615600585938 975.106384277344 974.162475585938 970.580993652344 962.039733886719 960.242553710938 956.97216796875 960.259216308594 965.146301269531 972.854309082031 975.716003417969 979.817565917969 973.873107910156 972.435852050781 966.19482421875 956.512939453125 950.457092285156 958.10107421875 954.026489257812 952.954711914062 961.402770996094 957.658874511719 968.502746582031 964.766052246094 956.568359375 953.28125 960.356567382812 964.380920410156 964.726257324219 960.417053222656 963.533508300781 963.380920410156 963.342224121094 955.982238769531 957.624145507812 955.160400390625 959.987609863281 963.039489746094 972.241088867188 966.224670410156 955.354675292969 954.198974609375 958.957336425781 963.615295410156 978.591613769531 970.253234863281 964.07666015625 965.189208984375 957.357177734375 962.753173828125 966.395690917969 968.931396484375 971.055603027344 972.912780761719 973.306762695312 968.176818847656 966.72509765625 963.416198730469 959.061645507812 962.042297363281 963.773010253906 972.072387695312 974.736206054688 974.952026367188 975.830871582031 975.538208007812 967.074157714844 972.68896484375 973.254333496094 970.443969726562 966.223999023438 965.161743164062 974.019470214844 972.396179199219 976.351501464844 975.672119140625 975.503540039062 970.684265136719 982.698059082031 983.044128417969 980.289123535156 980.619567871094 978.477722167969 981.137512207031 977.193115234375 974.363586425781 978.835388183594 988.060363769531 989.751953125 995.470153808594 986.30029296875 993.707580566406 997.324523925781 1008.74890136719 1010.26898193359 1005.92913818359 1000.95550537109 999.407470703125 996.27734375 1004.91674804688 1016.51550292969 1023.58715820312 1021.42736816406 1020.90673828125 1028.48022460938 1023.19061279297 1024.59301757812 1039.57641601562 1050.13977050781 1053.28149414062 1052.15734863281 1050.82495117188 1055.83239746094 1062.50622558594 1070.529296875 1068.56433105469 1081.21887207031 1085.33337402344 1092.79162597656 1102.392578125 1101.51049804688 1108.00720214844 1117.94616699219 1119.83728027344 1127.33679199219 1126.24475097656 1137.01379394531 1141.79309082031 1148.74694824219 1153.45983886719
953.7705078125 948.53564453125 956.834716796875 959.193298339844 968.033447265625 962.894287109375 971.944396972656 968.451721191406 976.538940429688 971.321350097656 974.712280273438 970.77001953125 971.669921875 982.353332519531 973.470153808594 968.185424804688 965.931640625 958.489562988281 965.034484863281 964.715698242188 968.697326660156 978.743347167969 970.128662109375 966.620422363281 962.41015625 960.3544921875 953.744750976562 963.05615234375 965.671142578125 970.350463867188 971.512817382812 982.308166503906 978.9599609375 970.666748046875 961.619323730469 955.163818359375 961.244018554688 963.927429199219 954.134521484375 959.753479003906 958.452026367188 962.513122558594 961.982360839844 964.431091308594 959.121704101562 966.5673828125 960.861694335938 962.008483886719 966.252380371094 964.951599121094 967.594055175781 963.128112792969 957.895812988281 960.391906738281 964.677734375 956.016723632812 955.333557128906 957.072021484375 959.12353515625 955.553955078125 960.071350097656 961.64208984375 959.938293457031 973.301940917969 973.663879394531 974.758666992188 971.054260253906 958.872985839844 958.533752441406 954.57080078125 964.723266601562 966.614501953125 974.470581054688 969.865356445312 967.408813476562 963.927856445312 966.562316894531 969.196716308594 966.874938964844 962.607849121094 956.678527832031 973.531127929688 970.697143554688 969.167846679688 973.686828613281 968.803039550781 958.049133300781 967.372192382812 965.680541992188 968.536071777344 969.010009765625 970.111389160156 972.140991210938 976.770568847656 978.893127441406 974.741271972656 977.145141601562 979.043090820312 976.640686035156 977.224487304688 984.607482910156 987.278686523438 979.0380859375 975.200744628906 978.090698242188 982.268005371094 982.44091796875 986.062438964844 978.888977050781 985.66845703125 988.469848632812 994.018249511719 1006.05407714844 1008.95245361328 1017.01403808594 1016.70178222656 1002.24780273438 1002.08093261719 1003.14898681641 1007.59002685547 1014.00213623047 1024.84436035156 1027.63513183594 1030.55700683594 1029.26892089844 1019.84600830078 1033.93286132812 1039.02600097656 1048.755859375 1053.25048828125 1053.39831542969 1051.01489257812 1059.63146972656 1059.31433105469 1064.70080566406 1066.83374023438 1081.65600585938 1085.73327636719 1096.20080566406 1103.30615234375 1106.55554199219 1109.11181640625 1124.18579101562 1120.27404785156 1125.39416503906 1122.78295898438 1131.30163574219 1141.96374511719 1140.69396972656 1140.80737304688
955.646057128906 961.622375488281 964.837158203125 970.979125976562 966.662536621094 970.913696289062 970.236267089844 972.605590820312 978.789184570312 976.61083984375 968.785522460938 963.781066894531 970.792846679688 983.908020019531 977.371826171875 965.158081054688 966.572692871094 968.0087890625 965.242248535156 973.282775878906 965.737182617188 971.551879882812 970.605224609375 969.441528320312 963.60400390625 951.678466796875 959.648254394531 972.423828125 965.823059082031 969.666564941406 969.563232421875 976.638000488281 970.327209472656 963.523620605469 968.264526367188 961.029418945312 966.602416992188 954.373962402344 960.328002929688 955.234252929688 953.894958496094 959.006103515625 961.326477050781 960.261169433594 958.771301269531 956.442810058594 957.660949707031 961.109741210938 959.941833496094 962.181518554688 965.61962890625 967.427612304688 958.353088378906 954.136840820312 958.46728515625 951.676208496094 957.65673828125 958.753723144531 954.020141601562 960.644165039062 962.277770996094 960.364501953125 958.864196777344 961.300231933594 967.679992675781 965.772644042969 960.613037109375 963.032958984375 958.361633300781 960.94677734375 962.76708984375 961.93896484375 963.544128417969 963.558410644531 962.871887207031 967.934265136719 976.474975585938 976.727172851562 965.697326660156 972.513122558594 968.160400390625 968.231689453125 962.482299804688 959.743347167969 967.460632324219 970.839050292969 963.748474121094 965.604431152344 970.784606933594 967.833251953125 970.184509277344 979.259765625 971.981628417969 973.877807617188 979.541748046875 976.082397460938 968.541381835938 974.350158691406 978.310546875 975.255615234375 983.278686523438 978.158996582031 974.734008789062 968.164916992188 983.923034667969 974.996276855469 973.668640136719 975.560302734375 982.831848144531 987.436767578125 985.090148925781 994.38037109375 1001.67028808594 1007.04071044922 1004.55255126953 1004.08648681641 1004.99383544922 1003.01867675781 1006.93792724609 1007.55828857422 1017.04162597656 1019.41333007812 1027.1943359375 1030.38220214844 1034.66235351562 1029.83251953125 1032.51647949219 1032.64331054688 1039.37121582031 1053.01281738281 1052.89611816406 1051.39733886719 1063.82678222656 1070.93469238281 1067.47399902344 1071.82531738281 1082.86499023438 1088.216796875 1095.84802246094 1091.2880859375 1101.01684570312 1111.6171875 1113.71801757812 1099.82922363281 1114.19189453125 1113.24816894531 1120.75622558594 1125.56298828125 1134.06066894531 1133.35876464844
970.937194824219 972.253540039062 971.964599609375 980.998657226562 983.546997070312 971.848205566406 972.265258789062 976.757263183594 977.785705566406 980.13134765625 972.560729980469 971.309753417969 974.760620117188 976.367004394531 976.673278808594 966.526977539062 962.015258789062 971.714172363281 972.27490234375 969.698486328125 975.628540039062 970.482177734375 969.577392578125 971.113464355469 957.16796875 957.837036132812 966.248474121094 969.373413085938 969.238464355469 966.286865234375 972.33251953125 971.353515625 961.508117675781 970.053894042969 968.646789550781 959.208679199219 962.464904785156 958.335266113281 953.089538574219 950.433532714844 953.603698730469 959.011047363281 956.273803710938 967.018127441406 967.989990234375 957.494384765625 958.423828125 960.024597167969 963.417907714844 962.537048339844 971.523498535156 967.410949707031 961.358459472656 954.352416992188 956.472717285156 949.968444824219 960.145751953125 959.842895507812 966.461120605469 964.1708984375 960.186218261719 955.460144042969 955.65576171875 952.565551757812 964.625671386719 968.811157226562 955.69287109375 956.158020019531 964.789001464844 961.794189453125 970.241577148438 966.690124511719 969.973571777344 970.92041015625 963.235168457031 955.850769042969 959.229309082031 959.495910644531 964.562377929688 972.078918457031 970.296813964844 965.7900390625 962.490966796875 958.886840820312 957.915588378906 964.815185546875 961.130432128906 970.433532714844 967.248291015625 976.660461425781 973.933166503906 974.180053710938 968.511596679688 971.650085449219 969.607604980469 972.120849609375 970.460754394531 966.623168945312 971.78271484375 968.874633789062 971.538818359375 971.616271972656 967.759582519531 976.290344238281 979.795043945312 979.282531738281 977.591186523438 975.516845703125 981.796203613281 988.654663085938 991.282470703125 993.020263671875 1004.47540283203 1006.158203125 998.672607421875 993.463806152344 1000.99914550781 1007.02160644531 1008.80206298828 1010.97198486328 1016.19415283203 1020.58197021484 1028.89538574219 1026.35717773438 1021.90911865234 1026.56762695312 1025.86755371094 1032.28723144531 1040.91149902344 1039.48352050781 1049.69775390625 1050.0830078125 1057.271484375 1063.65185546875 1071.39587402344 1075.8603515625 1082.25170898438 1090.9462890625 1093.75695800781 1091.25354003906 1080.67431640625 1086.94152832031 1098.07861328125 1095.97937011719 1102.16723632812 1106.03564453125 1105.05310058594 1112.3720703125 1114.79772949219 1115.46020507812
964.028198242188 974.823486328125 983.606506347656 980.445068359375 974.663024902344 975.193481445312 969.892272949219 980.502075195312 978.141357421875 969.404174804688 971.064392089844 974.052551269531 979.986022949219 966.419189453125 974.791748046875 975.096923828125 972.622375488281 970.218200683594 974.389282226562 975.473876953125 975.248229980469 972.479248046875 975.377868652344 963.469055175781 958.951843261719 963.249450683594 960.672973632812 965.193542480469 968.212890625 965.067504882812 967.118103027344 967.153076171875 959.9443359375 963.971862792969 971.143676757812 963.725219726562 957.405029296875 963.908386230469 958.869750976562 957.911315917969 958.03271484375 954.535461425781 951.810119628906 961.779235839844 964.943542480469 964.941589355469 959.654541015625 952.339050292969 960.352355957031 967.761108398438 970.223266601562 967.919616699219 959.514465332031 956.761840820312 961.009704589844 958.037414550781 957.105285644531 958.491394042969 959.296875 959.150817871094 958.670959472656 951.568481445312 955.8759765625 957.014343261719 958.711853027344 951.870178222656 955.275207519531 963.164855957031 960.769958496094 959.932556152344 962.929260253906 959.30078125 967.46435546875 968.374267578125 955.509643554688 951.57177734375 944.558166503906 954.217346191406 957.995788574219 959.921447753906 961.646179199219 961.322265625 960.589599609375 955.544006347656 958.743774414062 954.985229492188 961.427185058594 968.005126953125 965.688354492188 972.58642578125 970.652587890625 975.389465332031 975.682800292969 978.942810058594 973.270751953125 963.219909667969 970.3837890625 962.753662109375 969.042236328125 971.019287109375 975.080017089844 969.877563476562 972.212890625 980.595581054688 978.672302246094 978.230834960938 978.810913085938 970.335205078125 979.211853027344 987.935852050781 992.431335449219 997.424377441406 1006.13433837891 998.816650390625 989.733947753906 994.104370117188 1003.90478515625 1008.58837890625 1011.85998535156 1010.10693359375 1014.6787109375 1014.49053955078 1032.93774414062 1023.41589355469 1023.84008789062 1030.01965332031 1028.00244140625 1025.85192871094 1029.830078125 1032.71057128906 1036.66271972656 1049.53442382812 1059.56701660156 1071.3896484375 1077.97131347656 1080.32849121094 1081.52258300781 1094.02233886719 1091.86047363281 1087.70642089844 1088.47033691406 1073.57275390625 1086.61450195312 1083.93420410156 1094.66809082031 1086.67163085938 1095.07189941406 1101.13781738281 1108.51770019531 1098.13818359375
968.836975097656 977.562805175781 972.914367675781 979.921752929688 976.204956054688 961.43115234375 968.375427246094 972.896301269531 970.172973632812 966.22216796875 969.367431640625 970.071899414062 979.934143066406 970.755981445312 974.667114257812 978.482543945312 969.923889160156 972.771667480469 969.41064453125 971.181457519531 968.615783691406 974.225158691406 970.222106933594 962.993286132812 958.919128417969 959.066589355469 959.885070800781 963.2578125 961.560546875 960.732482910156 960.611389160156 955.252685546875 960.070922851562 962.958435058594 957.2666015625 961.014892578125 959.288330078125 960.192993164062 952.400634765625 953.858642578125 965.977416992188 958.810485839844 967.782348632812 955.895202636719 961.365966796875 949.285888671875 954.156860351562 953.85595703125 949.997436523438 958.068603515625 964.969055175781 950.273193359375 966.123962402344 956.019226074219 957.908264160156 948.395568847656 953.040161132812 969.639343261719 966.613342285156 959.731811523438 956.829040527344 951.287475585938 951.641052246094 950.137878417969 957.632873535156 950.466857910156 952.623474121094 955.088806152344 964.13623046875 966.148803710938 954.224975585938 952.7607421875 957.96826171875 954.931030273438 965.545593261719 958.20947265625 953.348693847656 948.236328125 957.182556152344 960.876159667969 960.690307617188 955.766784667969 961.475158691406 955.682678222656 961.668395996094 955.955871582031 953.791687011719 966.567199707031 966.069030761719 964.371276855469 977.318176269531 975.797241210938 970.143005371094 977.773986816406 967.706481933594 961.56689453125 967.364440917969 965.874633789062 976.28466796875 968.081848144531 973.023681640625 974.926147460938 975.718505859375 976.155395507812 973.773132324219 975.198669433594 973.339477539062 977.374755859375 977.512084960938 985.18310546875 992.555603027344 998.349548339844 994.292785644531 997.017395019531 982.415832519531 993.913269042969 1004.9375 1009.67755126953 1006.72808837891 1013.96380615234 1014.15032958984 1020.99725341797 1021.68365478516 1019.51556396484 1017.96423339844 1019.27850341797 1020.15386962891 1017.38903808594 1029.2900390625 1040.95788574219 1037.07507324219 1046.05114746094 1058.47863769531 1068.46667480469 1076.48474121094 1090.68090820312 1090.22412109375 1088.48095703125 1094.46862792969 1083.8740234375 1071.52746582031 1083.43579101562 1085.75439453125 1076.34411621094 1076.91528320312 1083.486328125 1094.14965820312 1094.88928222656 1096.23986816406 1093.36474609375
958.146850585938 968.577819824219 974.857788085938 976.819580078125 974.313842773438 974.455810546875 976.867065429688 967.099487304688 963.691589355469 963.069763183594 969.652954101562 977.303466796875 971.139831542969 976.478515625 976.082153320312 974.467590332031 974.049499511719 972.648376464844 965.744689941406 965.167785644531 975.651062011719 969.925170898438 963.508117675781 957.828308105469 956.656188964844 957.11181640625 959.772155761719 956.396179199219 962.719665527344 958.423217773438 961.20068359375 963.041381835938 960.31298828125 961.592651367188 959.362426757812 962.140930175781 956.796752929688 951.249572753906 955.508117675781 956.836364746094 960.767944335938 969.289733886719 970.6103515625 956.466369628906 953.011413574219 956.690063476562 955.481140136719 955.622680664062 961.217407226562 952.642639160156 949.54736328125 955.396423339844 954.958129882812 950.838989257812 947.962707519531 957.618103027344 966.375 959.381896972656 962.822143554688 960.75146484375 956.018798828125 956.387268066406 957.218322753906 951.609619140625 960.514587402344 958.861511230469 956.904907226562 953.565124511719 960.577880859375 960.692810058594 959.558532714844 948.797180175781 951.086059570312 959.542846679688 968.359985351562 961.952453613281 965.2314453125 951.438354492188 954.108703613281 959.620361328125 962.337097167969 960.664733886719 962.432861328125 960.602416992188 954.840515136719 965.908935546875 957.516540527344 963.810791015625 963.429138183594 962.403015136719 963.558471679688 969.43212890625 972.548278808594 974.392150878906 978.350952148438 969.823486328125 963.217102050781 966.890686035156 980.727783203125 973.465881347656 976.239135742188 973.21484375 979.782104492188 976.179443359375 975.406799316406 979.533325195312 979.663391113281 967.987426757812 981.314208984375 988.145568847656 997.223754882812 1000.32696533203 995.387756347656 984.792724609375 982.387329101562 989.832702636719 992.583923339844 1012.95172119141 1016.85681152344 1011.34576416016 1018.11865234375 1019.63800048828 1015.12048339844 1017.40289306641 1017.86273193359 1025.35412597656 1016.51123046875 1028.04907226562 1035.49792480469 1036.77954101562 1048.16076660156 1047.921875 1055.76000976562 1062.07263183594 1073.45349121094 1090.97595214844 1095.240234375 1097.53173828125 1089.30895996094 1075.29748535156 1077.32275390625 1074.85095214844 1070.15649414062 1068.82397460938 1068.38342285156 1075.623046875 1084.77954101562 1080.20336914062 1087.30603027344 1093.81237792969
971.243530273438 966.644165039062 974.008666992188 974.240783691406 976.820617675781 977.254821777344 974.582336425781 967.257019042969 962.574645996094 957.145141601562 971.622985839844 980.945129394531 977.886779785156 969.556945800781 971.888732910156 971.724243164062 971.105651855469 974.668151855469 968.027709960938 973.344909667969 973.986877441406 971.624572753906 966.602844238281 963.987915039062 957.0107421875 955.911376953125 950.114135742188 950.277648925781 947.064208984375 952.608093261719 953.920227050781 962.930419921875 958.288818359375 966.659545898438 960.521728515625 956.130859375 949.166259765625 955.447204589844 959.633605957031 955.174560546875 958.723571777344 963.962768554688 959.404968261719 958.796142578125 954.231018066406 960.75244140625 954.564819335938 959.054931640625 950.025146484375 947.928405761719 944.135498046875 952.187438964844 952.890991210938 944.090087890625 945.028076171875 952.842407226562 953.990844726562 962.954284667969 960.15283203125 956.987670898438 959.805603027344 954.972290039062 956.011596679688 953.451416015625 957.739624023438 960.893737792969 956.04833984375 949.726379394531 960.976135253906 970.134948730469 957.582214355469 951.957336425781 957.586181640625 961.715393066406 967.141967773438 966.140441894531 963.172973632812 961.791076660156 961.086303710938 957.151794433594 960.449829101562 961.304504394531 963.496215820312 959.782897949219 951.536682128906 955.796325683594 964.73974609375 950.735107421875 957.225402832031 957.414489746094 960.702758789062 962.55126953125 972.472290039062 982.823791503906 983.882446289062 978.293518066406 969.947509765625 968.9248046875 973.616516113281 977.153625488281 975.202453613281 966.448181152344 973.23779296875 981.5 981.247741699219 980.551147460938 980.761535644531 976.136352539062 983.647155761719 995.91455078125 990.43505859375 1001.47271728516 1000.84588623047 992.153747558594 982.498046875 992.921020507812 997.127746582031 1009.37286376953 1011.24694824219 1016.36846923828 1014.4794921875 1017.70971679688 1012.30383300781 1020.09185791016 1022.00451660156 1028.28332519531 1024.34313964844 1031.97180175781 1034.72875976562 1036.93090820312 1051.61877441406 1052.39733886719 1060.05773925781 1074.95043945312 1071.14001464844 1071.30322265625 1074.1787109375 1083.22546386719 1084.20593261719 1076.63220214844 1074.578125 1068.82312011719 1062.05969238281 1058.99914550781 1057.89904785156 1057.64379882812 1071.61511230469 1076.86047363281 1072.23229980469 1089.88195800781
972.122375488281 974.592651367188 977.099975585938 973.84619140625 972.364074707031 971.224304199219 978.208129882812 970.041564941406 964.312866210938 970.1416015625 975.252807617188 978.519775390625 974.881408691406 963.940734863281 967.129638671875 978.967224121094 979.575927734375 978.907287597656 975.229614257812 966.275634765625 967.571533203125 970.61376953125 962.985473632812 969.372436523438 961.1220703125 954.09619140625 940.936157226562 944.598083496094 945.154968261719 944.18212890625 953.518859863281 954.937377929688 955.2333984375 960.316467285156 961.363525390625 954.705078125 953.497924804688 957.031127929688 965.3037109375 955.792419433594 950.178649902344 948.109130859375 957.9287109375 960.1240234375 952.652465820312 959.454650878906 959.384460449219 963.192443847656 958.582092285156 942.806091308594 946.794799804688 950.56689453125 957.722595214844 944.461791992188 947.35693359375 954.394470214844 955.183288574219 958.138977050781 963.707275390625 959.60400390625 955.526977539062 960.306884765625 962.572692871094 959.53076171875 957.83837890625 951.326293945312 956.6357421875 964.693786621094 962.058898925781 965.099853515625 961.716491699219 956.73876953125 953.081481933594 965.8779296875 962.623718261719 964.085083007812 962.657287597656 961.723327636719 963.689270019531 961.410278320312 962.435668945312 964.157836914062 958.999145507812 948.557495117188 955.899230957031 960.212524414062 954.517395019531 957.482482910156 958.392822265625 953.596130371094 957.461791992188 956.469177246094 974.587036132812 969.794067382812 978.13232421875 977.261413574219 978.1328125 978.440124511719 988.257995605469 983.273864746094 975.612426757812 979.126098632812 978.770263671875 977.921264648438 977.88671875 971.509033203125 984.280334472656 995.434448242188 1000.68029785156 999.438598632812 999.84765625 997.121459960938 997.44921875 986.748901367188 990.852294921875 993.037841796875 994.388671875 998.154846191406 1009 1007.36224365234 1007.07269287109 1009.72302246094 1004.67730712891 1019.11029052734 1024.29931640625 1031.86108398438 1024.5322265625 1033.46826171875 1035.2158203125 1034.85766601562 1039.89758300781 1045.88891601562 1052.96337890625 1066.7841796875 1067.35229492188 1061.15002441406 1060.7158203125 1058.62951660156 1069.7021484375 1057.80749511719 1059.48059082031 1054.44384765625 1058.71557617188 1051.8017578125 1057.56579589844 1055.95495605469 1062.27111816406 1072.20336914062 1070.33923339844 1071.05859375
957.800476074219 964.768859863281 974.776000976562 976.572875976562 967.644714355469 970.767272949219 969.784484863281 969.192810058594 965.489196777344 964.640014648438 971.475952148438 965.421875 963.655639648438 968.811218261719 968.338928222656 974.67236328125 965.673095703125 971.034545898438 957.639892578125 961.696594238281 962.43408203125 960.892211914062 965.985473632812 964.043518066406 960.346618652344 956.966369628906 948.797607421875 943.378845214844 949.454162597656 946.975463867188 953.079406738281 957.724792480469 961.77685546875 961.006958007812 955.203979492188 958.398681640625 949.732238769531 948.30224609375 950.192504882812 957.911743164062 953.8916015625 945.274963378906 945.318298339844 952.81201171875 945.046752929688 956.780395507812 964.334716796875 962.373779296875 953.512878417969 949.38330078125 953.949340820312 957.753845214844 951.231018066406 948.900756835938 955.485534667969 949.119506835938 952.347473144531 955.867492675781 963.214477539062 959.885009765625 964.814697265625 964.914672851562 960.059265136719 955.902099609375 959.722351074219 961.73583984375 959.973876953125 960.813781738281 965.049011230469 967.163818359375 963.068115234375 954.643432617188 969.100708007812 964.472717285156 966.05224609375 953.486389160156 966.746337890625 964.115417480469 963.299133300781 960.416137695312 958.436950683594 974.610656738281 971.934265136719 965.66796875 971.955871582031 969.672302246094 965.329772949219 955.743408203125 960.765747070312 968.580993652344 959.871826171875 959.729614257812 971.211730957031 979.153747558594 975.506530761719 973.190612792969 976.216003417969 980.891845703125 987.223449707031 990.14501953125 985.07177734375 985.090270996094 978.131286621094 978.934875488281 975.058959960938 986.721313476562 986.435852050781 997.443786621094 997.449279785156 995.502380371094 997.183837890625 997.647705078125 998.200927734375 997.96630859375 991.402404785156 997.44921875 997.769653320312 1002.74548339844 1002.28363037109 999.943542480469 1006.04986572266 1004.55523681641 1001.64508056641 1008.66107177734 1017.36828613281 1022.57867431641 1018.27905273438 1021.26647949219 1016.88873291016 1026.63159179688 1034.73571777344 1039.45764160156 1056.59533691406 1058.06616210938 1060.13952636719 1058.23449707031 1048.69689941406 1037.09387207031 1062.31042480469 1058.26330566406 1047.48620605469 1049.23449707031 1050.53515625 1043.31909179688 1057.615234375 1056.69482421875 1055.25744628906 1059.16491699219 1064.41455078125 1059.49719238281
955.911499023438 963.935485839844 969.299621582031 976.268005371094 967.186340332031 971.49609375 972.593872070312 978.140441894531 974.506286621094 968.374572753906 952.300659179688 952.423828125 964.640747070312 961.6328125 970.21484375 967.41552734375 960.923950195312 961.895324707031 960.173278808594 950.252563476562 950.643493652344 947.183532714844 956.49072265625 956.481262207031 957.089111328125 940.923461914062 945.627807617188 936.921325683594 950.686584472656 953.034484863281 954.145263671875 952.285827636719 951.144165039062 949.303344726562 953.398803710938 953.255737304688 951.454650878906 946.196044921875 954.703796386719 953.51708984375 952.233154296875 950.960815429688 952.41162109375 948.751831054688 955.934448242188 956.554504394531 956.441101074219 957.015808105469 959.280883789062 952.369689941406 956.331909179688 956.962341308594 961.135559082031 961.009643554688 960.508239746094 962.407043457031 952.037658691406 949.445190429688 969.5009765625 963.383361816406 966.380493164062 964.960632324219 963.414489746094 971.0322265625 964.281188964844 965.434143066406 963.172485351562 961.053588867188 964.493530273438 971.918212890625 972.842834472656 975.596923828125 974.300964355469 965.447631835938 966.655090332031 958.05810546875 966.651123046875 960.64306640625 964.6240234375 955.701110839844 964.841979980469 968.062438964844 964.490356445312 969.426452636719 974.450500488281 974.765686035156 975.175720214844 958.80615234375 970.570373535156 981.132690429688 970.406860351562 964.605712890625 967.248168945312 968.074401855469 971.625671386719 974.715637207031 980.091247558594 984.262451171875 980.3408203125 985.330200195312 987.080749511719 987.844970703125 978.928527832031 977.722717285156 978.591552734375 978.7099609375 988.677124023438 993.5849609375 990.024475097656 987.776428222656 991.060119628906 1000.05743408203 999.850952148438 993.768981933594 994.942626953125 1001.80474853516 997.76806640625 999.117431640625 1009.98815917969 1004.04425048828 1002.03558349609 1002.97027587891 995.116760253906 1000.61450195312 1009.31896972656 1018.56561279297 1021.69122314453 1015.71984863281 1014.42266845703 1031.33166503906 1044.80749511719 1041.09497070312 1048.59594726562 1055.87438964844 1057.01525878906 1051.77307128906 1050.62915039062 1049.28662109375 1056.64221191406 1036.45239257812 1044.38525390625 1042.4462890625 1030.99340820312 1035.71691894531 1041.56958007812 1047.09973144531 1051.96215820312 1046.90075683594 1056.447265625 1058.49096679688
953.429443359375 968.287658691406 968.436706542969 969.514526367188 965.752502441406 968.563598632812 971.967895507812 966.983642578125 965.736083984375 960.117309570312 955.973327636719 958.450012207031 953.26513671875 952.861145019531 958.7978515625 956.926818847656 955.905639648438 958.730712890625 957.128967285156 952.631530761719 946.704040527344 946.635803222656 945.797485351562 944.948364257812 941.920837402344 938.287658691406 943.29931640625 941.363525390625 952.666442871094 952.07763671875 954.047119140625 949.965515136719 945.617858886719 948.572509765625 948.635864257812 950.92041015625 957.618774414062 959.235534667969 960.567077636719 952.919311523438 939.322631835938 945.715637207031 947.303955078125 953.601196289062 953.096130371094 953.125854492188 956.099731445312 959.473510742188 962.789123535156 954.605529785156 962.640869140625 959.61279296875 966.594116210938 960.489318847656 953.354919433594 960.188781738281 962.500305175781 962.69580078125 971.252380371094 966.688903808594 965.211486816406 958.126953125 954.807189941406 964.509826660156 971.864685058594 966.484802246094 959.720703125 966.298645019531 966.920593261719 971.753051757812 970.346557617188 958.941528320312 968.579650878906 969.120849609375 968.1494140625 967.729553222656 973.517822265625 970.616943359375 962.200378417969 955.74365234375 960.394348144531 964.664733886719 968.561950683594 968.562316894531 975.546142578125 970.352416992188 976.788818359375 971.93115234375 970.012145996094 980.703674316406 966.309265136719 961.39208984375 964.887573242188 967.306335449219 973.328125 971.529968261719 972.3857421875 977.580383300781 975.543518066406 981.21240234375 980.764587402344 983.177856445312 986.827941894531 980.848327636719 979.541320800781 988.119079589844 987.659240722656 992.899597167969 1000.95465087891 987.982727050781 991.479675292969 995.173522949219 1003.81719970703 1006.82763671875 1003.90222167969 1007.36883544922 999.857482910156 1002.43395996094 1006.86877441406 1003.54125976562 1006.52270507812 999.969665527344 1001.17370605469 1008.53802490234 1019.69055175781 1018.16937255859 1011.15765380859 1017.2802734375 1011.77642822266 1024.32287597656 1035.54467773438 1029.8251953125 1032.32861328125 1043.44555664062 1045.63818359375 1039.212890625 1043.31140136719 1042.34716796875 1044.39477539062 1039.47033691406 1037.12951660156 1041.02038574219 1028.17663574219 1023.00152587891 1044.29235839844 1043.82568359375 1050.37463378906 1039.69995117188 1050.6318359375 1045.34582519531
950.758850097656 965.41015625 959.753967285156 963.691101074219 968.751342773438 969.276733398438 974.704284667969 971.512634277344 959.970153808594 961.425109863281 958.671142578125 952.195251464844 950.948303222656 949.151062011719 950.290710449219 953.828063964844 947.606567382812 955.408203125 955.524230957031 956.052856445312 951.169738769531 941.614562988281 945.994750976562 949.467468261719 942.297180175781 938.794067382812 942.57470703125 949.177062988281 946.697631835938 948.269470214844 956.055969238281 950.861633300781 952.060485839844 949.483703613281 948.939147949219 958.626708984375 950.739807128906 964.884094238281 966.3583984375 958.384765625 944.681091308594 944.508422851562 946.368591308594 953.542114257812 950.486938476562 957.197265625 960.433837890625 955.236206054688 959.356567382812 960.055114746094 959.685546875 964.365051269531 965.283874511719 963.015319824219 963.848693847656 965.875610351562 958.862854003906 965.358520507812 979.021667480469 969.911682128906 962.859558105469 966.198669433594 960.769470214844 965.359985351562 969.202331542969 969.975158691406 963.766418457031 963.66455078125 965.464599609375 969.720153808594 970.806823730469 965.712585449219 957.504760742188 965.419555664062 967.155822753906 969.186279296875 966.350402832031 972.300231933594 971.505798339844 961.339782714844 961.262390136719 976.933044433594 978.741149902344 969.449279785156 973.657043457031 973.539978027344 976.132629394531 979.537292480469 972.935363769531 969.874694824219 971.700439453125 960.352233886719 965.918518066406 970.974487304688 976.458557128906 973.79833984375 972.074035644531 969.804382324219 971.582153320312 983.574462890625 986.023620605469 984.021911621094 978.754455566406 980.9609375 984.886169433594 994.514587402344 992.040771484375 993.880737304688 997.443725585938 994.207580566406 990.846435546875 998.013122558594 1003.45239257812 1001.97692871094 992.924865722656 990.078979492188 995.795959472656 994.993957519531 999.040222167969 1004.99774169922 1010.0712890625 1009.66888427734 1014.25366210938 1013.68609619141 1020.93243408203 1015.97833251953 1018.89691162109 1013.47894287109 1017.95715332031 1022.80352783203 1030.73034667969 1034.34020996094 1030.03601074219 1035.0166015625 1026.31774902344 1032.92895507812 1034.00952148438 1044.72631835938 1031.98718261719 1042.44592285156 1044.1123046875 1029.41137695312 1025.50744628906 1028.71789550781 1031.62109375 1037.98706054688 1041.73986816406 1043.46337890625 1040.38623046875 1036.69702148438
959.53076171875 956.927734375 963.756286621094 958.298950195312 961.860656738281 966.578125 969.983459472656 967.257629394531 960.0771484375 959.358459472656 962.818298339844 952.136962890625 944.545288085938 942.426452636719 940.183898925781 946.779846191406 943.316833496094 946.633361816406 951.1494140625 947.206726074219 947.413757324219 942.489196777344 948.321044921875 942.183776855469 942.704772949219 945.711303710938 951.809143066406 948.571838378906 951.244812011719 952.583984375 947.726379394531 956.84033203125 956.658325195312 954.882934570312 952.255859375 954.464538574219 947.954223632812 950.317565917969 962.808288574219 951.588256835938 951.124206542969 953.778625488281 956.560607910156 952.352416992188 951.150939941406 954.302856445312 961.065246582031 957.862609863281 953.551879882812 967.926208496094 968.837890625 969.650207519531 972.479919433594 976.684387207031 970.070129394531 958.786987304688 969.189208984375 972.114868164062 972.874450683594 970.766052246094 971.494750976562 964.039855957031 966.567260742188 959.05908203125 963.520935058594 961.451049804688 964.873596191406 967.513854980469 967.590698242188 971.344787597656 975.576904296875 974.23046875 968.513122558594 967.824645996094 972.750183105469 970.331481933594 969.430358886719 970.634399414062 972.640258789062 970.915893554688 973.747619628906 977.987243652344 971.465209960938 970.184448242188 974.224182128906 972.828735351562 975.446350097656 982.922180175781 985.350402832031 979.693664550781 962.369445800781 959.660888671875 962.28662109375 974.563110351562 976.764343261719 982.847961425781 970.768615722656 973.128967285156 969.048583984375 976.440551757812 976.884460449219 977.670837402344 978.39306640625 984.338623046875 990.902526855469 995.039001464844 1001.35400390625 1002.64331054688 996.153930664062 997.90234375 989.815246582031 994.63134765625 992.178283691406 1000.21923828125 992.070129394531 997.504760742188 994.736511230469 1000.25732421875 1008.80316162109 1014.45007324219 1017.76666259766 1022.80871582031 1013.69940185547 1018.59979248047 1019.98693847656 1018.30206298828 1019.64416503906 1014.81988525391 1016.36175537109 1018.17059326172 1016.73596191406 1026.27282714844 1028.54113769531 1022.36407470703 1015.06359863281 1020.38055419922 1025.54650878906 1028.23742675781 1027.43481445312 1042.29113769531 1042.99328613281 1028.9013671875 1024.58227539062 1025.7822265625 1029.54052734375 1036.89208984375 1035.59143066406 1032.12243652344 1029.91003417969 1018.17291259766
959.715209960938 957.757690429688 953.185668945312 957.170959472656 959.548583984375 965.10595703125 969.7763671875 959.741149902344 953.740295410156 948.835876464844 952.399291992188 946.942993164062 949.995361328125 951.69873046875 947.649291992188 949.259948730469 945.091674804688 950.826721191406 949.181030273438 950.535888671875 941.773681640625 949.705139160156 956.021301269531 942.6162109375 939.385925292969 946.057922363281 943.490783691406 942.448608398438 946.401184082031 950.084106445312 958.096435546875 958.192260742188 956.221130371094 954.272033691406 941.648864746094 954.102416992188 947.919860839844 953.390747070312 955.063293457031 951.730590820312 957.923706054688 951.703186035156 957.164001464844 963.388610839844 956.316162109375 956.979370117188 964.617065429688 968.256286621094 972.300415039062 965.871887207031 974.060180664062 976.227111816406 975.332946777344 975.916687011719 966.908874511719 958.145874023438 964.400024414062 967.851745605469 968.40771484375 967.78369140625 972.835754394531 965.845825195312 963.521118164062 965.162109375 964.589599609375 961.188720703125 968.287170410156 969.327209472656 974.948974609375 971.856689453125 976.936096191406 983.302001953125 975.554016113281 975.177490234375 973.217590332031 972.30615234375 966.55029296875 964.705017089844 964.186706542969 975.137451171875 976.980712890625 973.826110839844 977.519287109375 980.32080078125 982.346435546875 968.318664550781 976.039428710938 979.42919921875 976.813415527344 971.712036132812 973.615905761719 965.237548828125 965.286193847656 973.200256347656 986.038330078125 983.200988769531 984.1103515625 973.127990722656 978.75830078125 976.189636230469 977.025695800781 981.337158203125 983.7001953125 990.205017089844 989.366271972656 999.223815917969 999.122253417969 998.734619140625 994.474609375 999.540222167969 999.351989746094 994.200622558594 997.689147949219 1002.19512939453 1003.72216796875 1000.81115722656 1002.36584472656 1012.01483154297 1019.76123046875 1016.11846923828 1022.41766357422 1017.82385253906 1020.82843017578 1024.54174804688 1017.16271972656 1017.87780761719 1013.67846679688 1017.29144287109 1016.38635253906 1013.98919677734 1015.37219238281 1012.5908203125 1018.02069091797 1014.15704345703 1019.07556152344 1010.5888671875 1016.78247070312 1024.21643066406 1030.65246582031 1041.62939453125 1040.53125 1032.7861328125 1029.10021972656 1027.03576660156 1024.57666015625 1027.40893554688 1020.50653076172 1019.36199951172 1016.49499511719 1010.07232666016
954.758117675781 953.490783691406 954.953186035156 956.596008300781 953.287536621094 952.924865722656 963.415649414062 956.654968261719 946.112670898438 957.1328125 950.822326660156 947.001037597656 937.150695800781 950.348205566406 947.708435058594 937.848815917969 942.829162597656 947.38330078125 946.685546875 948.15087890625 945.445373535156 954.012878417969 953.874633789062 946.587768554688 946.674987792969 947.202758789062 949.24462890625 945.549987792969 946.376953125 952.596374511719 951.570068359375 948.086791992188 952.710388183594 945.230407714844 945.994812011719 943.586853027344 947.000915527344 951.606018066406 958.35546875 963.305236816406 963.640808105469 957.822326660156 961.01708984375 958.738037109375 961.389038085938 965.107055664062 968.2705078125 966.091003417969 972.513916015625 978.427185058594 974.522766113281 979.649719238281 979.770446777344 973.080993652344 962.907958984375 957.80908203125 958.651550292969 968.775756835938 974.121887207031 968.962341308594 965.389404296875 964.734924316406 956.481506347656 961.736145019531 966.552062988281 960.150573730469 974.362609863281 970.248352050781 968.443725585938 972.683044433594 974.177734375 981.285034179688 970.634643554688 980.893188476562 971.805969238281 973.418823242188 970.874206542969 963.500610351562 966.944885253906 968.781127929688 979.274475097656 982.343017578125 978.753662109375 981.102905273438 981.42041015625 979.384094238281 982.18212890625 978.652282714844 983.529968261719 977.541748046875 971.410400390625 973.297912597656 966.050048828125 972.375366210938 970.720764160156 979.091918945312 984.359741210938 981.581726074219 982.129516601562 980.673706054688 981.234497070312 990.589294433594 990.646118164062 996.494201660156 994.547180175781 1000.43640136719 997.5986328125 1004.89270019531 1000.45593261719 998.717651367188 992.463684082031 996.687805175781 991.317687988281 1007.44738769531 1005.56732177734 1007.16290283203 1013.90826416016 1027.40148925781 1028.23950195312 1020.53625488281 1022.99407958984 1023.03625488281 1020.14117431641 1022.12268066406 1011.56683349609 1013.65081787109 1009.8701171875 1017.21270751953 1013.11169433594 1021.37225341797 1018.59942626953 1013.92517089844 1011.13647460938 1009.17266845703 1014.93908691406 1013.73236083984 1009.80310058594 1019.96466064453 1027.15087890625 1035.74157714844 1035.38220214844 1035.162109375 1037.0439453125 1026.3046875 1023.54345703125 1017.63122558594 1010.87841796875 1015.89556884766 1011.08343505859 1005.28045654297
948.872985839844 949.596252441406 953.108825683594 965.328247070312 947.048767089844 949.576416015625 951.48828125 947.717102050781 947.621154785156 955.528625488281 950.4501953125 942.629089355469 947.598266601562 939.605346679688 937.250427246094 932.040893554688 941.860412597656 947.261169433594 948.453002929688 946.394897460938 940.301513671875 951.079895019531 952.987548828125 956.39892578125 947.896362304688 949.562255859375 951.036743164062 950.620788574219 955.801025390625 957.261779785156 954.840942382812 964.822937011719 959.253967285156 951.014953613281 954.912170410156 946.674255371094 955.43115234375 954.657775878906 966.440246582031 969.794738769531 962.845886230469 963.623718261719 961.800048828125 963.821472167969 976.661804199219 972.829895019531 966.785766601562 979.262756347656 975.19970703125 979.9365234375 975.996337890625 973.521057128906 975.184448242188 973.044067382812 966.681701660156 962.614624023438 966.089416503906 972.606018066406 971.480346679688 973.40625 969.962951660156 957.653259277344 957.198059082031 961.274719238281 961.564147949219 956.797058105469 969.750915527344 971.820983886719 968.5947265625 970.79296875 975.838012695312 971.819641113281 973.569580078125 973.634094238281 976.851379394531 975.457336425781 974.790344238281 971.434020996094 971.740295410156 972.171020507812 973.855651855469 984.06494140625 984.286804199219 977.701843261719 977.840637207031 981.387023925781 974.011108398438 976.957275390625 975.578369140625 980.104187011719 971.070739746094 969.55322265625 970.866333007812 967.027526855469 976.716857910156 982.684020996094 991.686584472656 986.005249023438 987.886596679688 991.963806152344 995.123107910156 1001.90679931641 994.085632324219 997.003173828125 998.448303222656 1003.82141113281 999.838928222656 997.084777832031 992.152893066406 994.977111816406 992.001220703125 998.77685546875 996.951171875 1009.86309814453 1018.20245361328 1021.29339599609 1027.88879394531 1033.47338867188 1031.49523925781 1034.23596191406 1028.13562011719 1031.70910644531 1021.15576171875 1018.05053710938 1008.39868164062 1018.80047607422 1022.97961425781 1012.47723388672 1012.34002685547 1011.34533691406 1008.34985351562 1006.97760009766 1002.27264404297 1001.50451660156 1003.97698974609 1011.33953857422 1007.61639404297 1019.59857177734 1034.89819335938 1035.111328125 1028.10107421875 1027.23095703125 1030.45971679688 1019.82214355469 1017.29724121094 1012.85968017578 1011.92523193359 1012.09973144531 1011.39172363281 1005.74700927734
951.769836425781 959.529052734375 959.671142578125 961.329772949219 955.342895507812 949.674926757812 950.208923339844 946.337524414062 946.299743652344 942.183410644531 937.381103515625 948.408447265625 947.077453613281 945.115539550781 936.605895996094 935.695190429688 937.622741699219 939.511291503906 950.412902832031 946.00830078125 951.263671875 962.744750976562 957.171936035156 959.289794921875 957.78466796875 946.127502441406 947.485961914062 955.097106933594 956.479309082031 963.168151855469 966.359497070312 951.233276367188 958.450744628906 958.358703613281 949.239013671875 946.802124023438 958.966491699219 957.160583496094 959.782836914062 970.164306640625 968.438232421875 964.023803710938 961.86328125 979.448425292969 977.796997070312 974.21875 975.678100585938 974.122741699219 974.0478515625 976.301086425781 975.181457519531 976.06396484375 973.558532714844 967.001098632812 964.311218261719 967.825805664062 970.506103515625 974.722473144531 968.570190429688 970.810302734375 975.06640625 960.893127441406 950.600952148438 961.778259277344 959.909240722656 965.200317382812 967.029357910156 977.063781738281 970.06005859375 974.9619140625 968.697631835938 968.694396972656 974.634704589844 979.542846679688 986.566467285156 982.569396972656 980.736572265625 976.785400390625 972.592163085938 966.384460449219 974.484680175781 975.146057128906 980.774719238281 975.895629882812 984.757385253906 981.557861328125 975.13916015625 979.62158203125 975.841735839844 969.738220214844 975.725341796875 972.383605957031 971.277282714844 973.222045898438 980.560546875 978.331237792969 993.303100585938 987.257568359375 991.672912597656 990.510559082031 992.336364746094 997.344055175781 999.229553222656 996.767395019531 993.523864746094 995.639709472656 994.716735839844 998.501647949219 993.437316894531 999.0244140625 994.708923339844 1005.93463134766 1007.8173828125 1014.58746337891 1018.69708251953 1024.72692871094 1026.70861816406 1041.67297363281 1040.36987304688 1035.67321777344 1037.54162597656 1031.2529296875 1019.79711914062 1014.12445068359 1010.36755371094 1018.68878173828 1027.30004882812 1023.37353515625 1007.51544189453 1013.12854003906 1007.07507324219 1004.32794189453 1006.44006347656 994.011413574219 1003.40002441406 1009.21185302734 1003.43054199219 1009.80065917969 1023.42175292969 1020.81384277344 1022.50622558594 1013.64697265625 1018.69561767578 1012.35485839844 1008.00219726562 1003.70281982422 1005.9755859375 1007.08819580078 1010.49371337891 999.994018554688
957.696838378906 962.313415527344 966.280639648438 967.321411132812 951.127746582031 941.306030273438 945.296142578125 943.349853515625 938.736572265625 936.597351074219 937.709045410156 941.001586914062 942.206298828125 939.214965820312 943.738586425781 943.5810546875 943.450439453125 943.990051269531 955.785461425781 960.596618652344 956.746643066406 954.234924316406 952.935424804688 949.860595703125 952.437744140625 952.455932617188 951.866577148438 955.488891601562 956.964538574219 952.657592773438 956.76806640625 955.479736328125 957.093994140625 952.730407714844 950.822021484375 953.318786621094 954.885803222656 961.536376953125 961.919921875 969.860900878906 975.085693359375 963.346801757812 966.7490234375 976.417419433594 972.6220703125 971.280639648438 977.721252441406 978.401550292969 977.021667480469 986.960083007812 980.484619140625 976.890808105469 979.815063476562 969.910705566406 967.313720703125 973.778015136719 982.166931152344 978.10498046875 972.672729492188 974.188110351562 963.704528808594 960.116943359375 954.539733886719 958.515014648438 967.357849121094 971.811706542969 970.898315429688 973.411682128906 972.841125488281 962.842407226562 971.419128417969 973.314086914062 976.819091796875 982.096130371094 986.431091308594 980.751220703125 982.498107910156 974.554321289062 974.218078613281 972.075744628906 979.455505371094 977.838928222656 969.796447753906 978.498779296875 980.655151367188 977.567138671875 978.72705078125 982.728698730469 983.71923828125 985.17724609375 975.15478515625 972.190490722656 975.207153320312 980.182250976562 989.493041992188 990.526977539062 992.624145507812 998.334777832031 988.896423339844 992.3857421875 993.020629882812 990.900451660156 994.260986328125 997.27587890625 994.185424804688 992.4453125 999.249084472656 1002.47973632812 1001.08325195312 991.986938476562 1006.97973632812 1004.99279785156 1009.03845214844 1011.92700195312 1013.30700683594 1024.11779785156 1030.50866699219 1040.54064941406 1046.68542480469 1041.79992675781 1040.55749511719 1039.70935058594 1029.91174316406 1022.45764160156 1016.26849365234 1021.40686035156 1021.65020751953 1022.671875 1015.25219726562 1007.55493164062 1011.61370849609 999.721618652344 1003.58190917969 1002.51721191406 999.163940429688 1011.31958007812 1006.33892822266 1011.70520019531 1016.62188720703 1019.85571289062 1020.32934570312 1015.56964111328 1007.56311035156 1008.96374511719 1005.89703369141 1004.73193359375 1009.42517089844 1008.12109375 1009.19848632812 1009.53515625
958.686401367188 957.772888183594 960.525024414062 952.535034179688 946.394409179688 944.705749511719 935.622131347656 936.495544433594 939.484924316406 936.825561523438 937.847900390625 942.905944824219 944.290710449219 945.851013183594 944.073547363281 946.906433105469 949.681579589844 949.16845703125 952.193969726562 968.414855957031 963.098815917969 954.557556152344 952.234069824219 958.55029296875 966.909301757812 963.118896484375 956.513671875 966.58837890625 955.400634765625 953.131103515625 945.991760253906 948.307250976562 955.529174804688 952.211303710938 952.801574707031 958.145080566406 956.242980957031 966.244689941406 964.480590820312 966.203674316406 969.745239257812 967.802612304688 963.43603515625 969.125 972.921508789062 973.133483886719 977.923767089844 981.005187988281 995.633178710938 988.032775878906 983.613464355469 983.920227050781 979.522521972656 973.572387695312 980.537170410156 985.973999023438 991.218383789062 985.733520507812 975.011169433594 975.294250488281 975.975830078125 966.731811523438 965.156555175781 958.362548828125 963.646667480469 971.055480957031 972.055114746094 967.900024414062 970.046081542969 952.714294433594 962.535034179688 972.355529785156 983.938415527344 980.099182128906 980.877014160156 982.001831054688 975.781188964844 981.070068359375 976.688049316406 973.608032226562 982.860717773438 973.273010253906 975.568969726562 972.360046386719 988.55517578125 985.659362792969 979.40869140625 990.107177734375 980.189392089844 987.974670410156 978.121643066406 974.220031738281 987.2119140625 991.057312011719 988.421081542969 996.223388671875 1001.54107666016 989.680419921875 993.124450683594 995.56884765625 1000.39074707031 991.252075195312 994.6962890625 996.277282714844 997.142272949219 993.549987792969 1009.62670898438 1007.69372558594 1005.74163818359 1002.23602294922 999.367309570312 1003.82464599609 1017.00982666016 1015.83905029297 1022.45697021484 1034.33874511719 1038.90454101562 1045.85864257812 1042.82263183594 1047.642578125 1044.12292480469 1033.02514648438 1034.93054199219 1021.41418457031 1024.05529785156 1024.2685546875 1027.54223632812 1020.14245605469 1013.6083984375 1009.19818115234 1016.72912597656 1011.60382080078 1006.27697753906 997.092712402344 1000.63549804688 1013.95587158203 1021.66973876953 1019.90435791016 1011.71234130859 1013.45587158203 1013.88043212891 1015.74786376953 1006.32373046875 1011.18585205078 1000.91015625 1010.50628662109 1008.513671875 999.002319335938 1010.70281982422 1000.23638916016
