NCOLS 150
NROWS 37
XLLCORNER 7394249
YLLCORNER 4842509
CELLSIZE 30
NODATA_VALUE -9999
939.898986816406 945.667846679688 945.564575195312 946.9814453125 952.970825195312 958.291931152344 968.583618164062 967.579040527344 966.854675292969 968.752624511719 972.32177734375 971.774536132812 971.220764160156 978.414672851562 979.684326171875 970.345336914062 975.567260742188 973.267578125 978.412841796875 984.078125 981.29638671875 976.703186035156 967.9423828125 963.912170410156 961.578552246094 966.945678710938 968.014404296875 972.678466796875 970.489501953125 983.5771484375 977.598205566406 976.248962402344 971.84033203125 968.501647949219 966.380615234375 967.935913085938 968.7353515625 956.418029785156 960.4833984375 964.480773925781 965.353820800781 963.309875488281 963.308837890625 958.892272949219 960.25732421875 956.951904296875 959.704528808594 960.891418457031 965.434448242188 964.720458984375 967.604370117188 965.67919921875 963.594909667969 967.311950683594 968.178527832031 963.054321289062 964.899353027344 968.777709960938 971.230895996094 977.583679199219 975.85693359375 968.368041992188 970.661499023438 970.157775878906 973.773071289062 975.335632324219 964.92138671875 965.275085449219 960.196411132812 963.509826660156 962.450622558594 963.759521484375 960.425476074219 960.145263671875 964.522888183594 967.773254394531 973.966003417969 972.936462402344 974.274719238281 972.812561035156 967.787780761719 970.420532226562 967.319641113281 975.793395996094 977.727661132812 979.747436523438 975.136901855469 972.140930175781 968.430541992188 968.938110351562 975.07470703125 979.80419921875 975.341491699219 985.089477539062 989.698425292969 986.209838867188 982.522033691406 975.342651367188 983.635437011719 982.616577148438 981.164428710938 988.505249023438 984.201110839844 987.237915039062 987.286010742188 990.120056152344 999.886169433594 995.404724121094 995.970642089844 999.415893554688 996.405212402344 998.033203125 1000.017578125 997.880249023438 993.817016601562 997.893493652344 1009.77868652344 1016.67114257812 1016.77362060547 1013.65014648438 1022.76696777344 1029.720703125 1016.17803955078 1024.73706054688 1028.62280273438 1034.35363769531 1037.94055175781 1041.02917480469 1037.18359375 1039.82824707031 1051.06335449219 1065.27124023438 1060.4169921875 1070.96997070312 1073.87634277344 1080.26806640625 1079.38012695312 1078.46044921875 1095.97265625 1103.21887207031 1107.21704101562 1117.04931640625 1133.74475097656 1138.34777832031 1148.41333007812 1157.55554199219 1165.74462890625 1156.79272460938 1159.72497558594 1158.310546875
934.511535644531 944.940856933594 939.30908203125 950.134094238281 955.079711914062 960.482055664062 960.607360839844 961.266845703125 968.422241210938 967.403076171875 972.900939941406 972.684631347656 972.651611328125 970.546203613281 974.021850585938 974.818786621094 978.908569335938 971.639770507812 974.300659179688 970.595275878906 968.311889648438 975.565612792969 975.517211914062 967.852783203125 965.4541015625 974.43896484375 974.7705078125 982.084289550781 978.520690917969 987.126586914062 978.90966796875 979.537231445312 969.00537109375 972.462219238281 977.781005859375 970.764099121094 969.920776367188 967.766906738281 960.71728515625 967.966674804688 966.350158691406 965.994873046875 965.613830566406 966.746154785156 962.852661132812 967.637939453125 967.817810058594 962.847473144531 969.409118652344 968.608581542969 970.299499511719 970.272033691406 971.804260253906 972.061401367188 968.373291015625 965.411560058594 965.144470214844 971.809448242188 968.385986328125 977.502563476562 971.624816894531 970.247619628906 972.240417480469 963.87744140625 968.899353027344 977.516662597656 971.576232910156 964.45361328125 963.191772460938 957.065368652344 959.966186523438 962.567077636719 963.244384765625 962.244506835938 964.305236816406 970.092468261719 970.067443847656 970.869445800781 966.052490234375 967.305236816406 968.473266601562 970.200622558594 963.081115722656 969.064453125 971.570007324219 975.932800292969 968.355163574219 970.487487792969 971.92724609375 965.967712402344 967.797119140625 975.509155273438 975.644775390625 982.214477539062 980.519592285156 986.942626953125 980.572448730469 974.314880371094 976.40478515625 984.637268066406 988.023742675781 983.962829589844 986.681274414062 986.531005859375 995.858520507812 994.1875 995.317443847656 992.922912597656 994.259033203125 993.565734863281 994.255187988281 1007.44342041016 1002.50482177734 995.801147460938 995.311340332031 1008.85339355469 1004.44842529297 1011.29827880859 1012.19091796875 1014.41015625 1017.38287353516 1018.29370117188 1023.62426757812 1017.34924316406 1028.97387695312 1044.36108398438 1040.75891113281 1033.724609375 1034.68371582031 1042.79797363281 1043.94787597656 1058.51782226562 1062.41296386719 1070.64123535156 1070.87561035156 1073.02697753906 1068.89270019531 1077.00073242188 1090.19165039062 1099.5009765625 1100.39343261719 1116.21105957031 1127.99670410156 1134.09423828125 1144.04968261719 1151.4453125 1155.64953613281 1152.69018554688 1151.45910644531 1150.97619628906
941.443420410156 946.065368652344 939.905517578125 947.493225097656 949.060241699219 958.631896972656 960.67236328125 965.351318359375 969.237121582031 967.692565917969 974.214721679688 970.509643554688 972.763610839844 965.909606933594 971.467346191406 967.570922851562 976.053588867188 976.809509277344 980.822570800781 978.821655273438 976.480773925781 971.685974121094 979.919677734375 969.846862792969 966.845092773438 968.849670410156 967.931091308594 978.878051757812 969.458435058594 977.530090332031 975.634338378906 972.113464355469 963.849060058594 961.858947753906 961.977233886719 966.618347167969 965.307861328125 960.739013671875 959.823486328125 967.782531738281 964.388488769531 970.912414550781 958.466918945312 955.259887695312 960.540893554688 974.850524902344 979.420043945312 982.579162597656 970.599914550781 970.892517089844 966.145812988281 976.8251953125 976.410827636719 968.326904296875 961.47021484375 959.477416992188 966.314025878906 960.577941894531 969.42578125 975.13818359375 973.076049804688 966.717346191406 970.453308105469 957.7548828125 956.887573242188 971.552978515625 961.733520507812 958.168518066406 959.283508300781 962.113220214844 962.382446289062 962.456176757812 963.972900390625 958.25244140625 963.6669921875 967.1005859375 966.949340820312 970.572448730469 961.180053710938 965.091552734375 963.4697265625 975.191589355469 966.831176757812 966.583618164062 976.060485839844 978.690551757812 971.596130371094 971.144165039062 971.406799316406 978.678771972656 974.545349121094 967.069885253906 967.07470703125 981.830810546875 975.313537597656 984.191589355469 986.168640136719 977.359558105469 967.122314453125 971.053771972656 972.893310546875 968.03125 980.935424804688 988.353942871094 994.394165039062 996.433227539062 996.45458984375 991.809936523438 980.590454101562 986.05029296875 1002.33081054688 1004.40771484375 999.427001953125 1001.23077392578 998.987854003906 1009.34893798828 1011.93695068359 1013.43212890625 1021.44201660156 1020.62786865234 1020.53723144531 1020.8828125 1024.72912597656 1025.08715820312 1032.78454589844 1034.46447753906 1035.87744140625 1028.83142089844 1036.55163574219 1044.13781738281 1047.71154785156 1058.7607421875 1068.60131835938 1066.56506347656 1066.01416015625 1075.71337890625 1082.25805664062 1084.2841796875 1091.69177246094 1095.89599609375 1103.10107421875 1114.7373046875 1121.81652832031 1125.73376464844 1137.87939453125 1145.41247558594 1139.30236816406 1141.01806640625 1145.25915527344 1137.68737792969
952.963500976562 958.012329101562 953.413452148438 956.047668457031 955.219116210938 962.610229492188 954.887145996094 970.979675292969 968.327880859375 969.787841796875 969.989562988281 974.91064453125 967.232604980469 972.132080078125 964.259094238281 971.217468261719 978.821838378906 979.781982421875 973.33349609375 979.607788085938 982.476806640625 977.644165039062 969.535705566406 967.351867675781 975.060852050781 960.990905761719 961.765014648438 970.5244140625 969.794677734375 978.565490722656 964.721008300781 970.021667480469 963.160583496094 969.121032714844 972.375671386719 965.233337402344 967.649780273438 962.975952148438 963.263061523438 964.157470703125 960.754455566406 968.046081542969 957.3388671875 956.599609375 959.572692871094 967.651489257812 972.007751464844 980.044189453125 974.836364746094 966.575134277344 970.832580566406 979.928100585938 972.184753417969 972.879455566406 963.228332519531 963.54541015625 961.652770996094 963.190368652344 962.138061523438 959.755676269531 962.154602050781 967.641235351562 966.463684082031 959.349365234375 962.18701171875 967.982971191406 961.057250976562 959.966796875 951.154907226562 952.35693359375 967.069702148438 970.320556640625 958.566833496094 958.263488769531 961.585693359375 964.296081542969 965.619506835938 971.015441894531 967.688415527344 966.615600585938 974.320251464844 976.260681152344 973.506469726562 976.447387695312 982.059143066406 976.288940429688 969.461669921875 979.764221191406 979.100708007812 979.302978515625 971.668518066406 972.045837402344 969.927917480469 978.065734863281 973.478271484375 980.387817382812 984.2421875 978.939880371094 973.020324707031 969.795837402344 970.641418457031 974.550964355469 975.853393554688 983.679138183594 987.954528808594 994.264526367188 991.867431640625 993.886962890625 991.3466796875 990.870178222656 995.572326660156 999.238891601562 1000.41009521484 996.500915527344 1001.27960205078 1007.63671875 1011.12866210938 1012.71984863281 1013.92132568359 1022.28240966797 1027.25122070312 1018.75451660156 1013.64935302734 1019.208984375 1034.14685058594 1034.75427246094 1031.2998046875 1032.92199707031 1037.63671875 1032.72595214844 1042.62878417969 1053.34411621094 1064.55444335938 1067.59973144531 1066.14587402344 1080.81091308594 1082.62060546875 1091.39929199219 1092.17248535156 1099.71569824219 1106.71850585938 1106.60339355469 1122.68896484375 1125.8974609375 1127.30529785156 1134.12329101562 1128.38891601562 1129.69274902344 1139.34631347656 1135.97229003906
965.673828125 960.268432617188 960.957153320312 965.692443847656 969.484619140625 962.410705566406 959.998291015625 969.353210449219 974.601745605469 970.726135253906 966.37353515625 967.497253417969 964.825073242188 964.570983886719 977.846252441406 983.978210449219 981.746520996094 971.475646972656 971.962646484375 982.998413085938 980.509765625 979.199401855469 968.002868652344 964.576110839844 971.608703613281 961.868774414062 958.761047363281 961.616638183594 958.667114257812 968.947998046875 972.65771484375 970.686401367188 973.024169921875 961.1015625 972.2578125 975.649291992188 964.247619628906 963.669738769531 968.057312011719 957.00341796875 957.944274902344 950.96484375 951.146606445312 952.180603027344 953.860778808594 964.527282714844 970.782592773438 978.581359863281 977.212646484375 971.742553710938 975.204406738281 973.4990234375 970.720642089844 979.007690429688 973.067260742188 970.565856933594 968.399536132812 961.405395507812 955.892944335938 953.082153320312 964.891906738281 958.250061035156 959.203369140625 963.62744140625 959.936584472656 963.05126953125 953.349365234375 950.925109863281 950.180358886719 960.353149414062 963.479125976562 969.716064453125 965.184326171875 969.588134765625 965.806579589844 966.895263671875 965.54296875 969.2509765625 978.680297851562 972.084655761719 972.033752441406 973.067993164062 979.499267578125 975.454406738281 977.142883300781 970.840759277344 971.644287109375 966.4404296875 972.04736328125 965.823608398438 967.749755859375 971.980773925781 972.923400878906 975.401916503906 976.593200683594 975.585754394531 979.767395019531 976.783081054688 973.733215332031 978.312805175781 969.526794433594 978.95849609375 980.016235351562 981.893798828125 990.039611816406 990.744689941406 988.697570800781 986.086303710938 1000.92883300781 990.976745605469 986.069519042969 996.892333984375 998.395446777344 995.564453125 1006.82336425781 1002.1123046875 1006.71746826172 999.91162109375 1011.70593261719 1022.39733886719 1016.55456542969 1012.98626708984 1021.61767578125 1018.93383789062 1027.44165039062 1034.66748046875 1029.18493652344 1027.01110839844 1033.70617675781 1037.07189941406 1041.89294433594 1045.53405761719 1062.02880859375 1071.26062011719 1087.29187011719 1087.09558105469 1094.30578613281 1098.61364746094 1098.40124511719 1103.26379394531 1099.95434570312 1106.25317382812 1119.60668945312 1122.67736816406 1123.59155273438 1128.60266113281 1121.52258300781 1125.806640625 1128.38757324219 1127.9716796875
975.25634765625 966.468811035156 966.920471191406 961.174255371094 968.463073730469 968.382873535156 967.554016113281 968.588256835938 975.76171875 973.916564941406 976.548156738281 972.231872558594 965.384704589844 966.411193847656 981.8681640625 984.641723632812 980.418090820312 979.208557128906 967.536743164062 972.815734863281 974.353515625 969.111328125 963.865966796875 961.679504394531 967.378723144531 959.218383789062 963.900756835938 956.766418457031 963.622863769531 959.444396972656 974.653381347656 975.189880371094 966.287353515625 961.5205078125 960.276489257812 969.279113769531 965.813659667969 965.122436523438 964.1611328125 959.9013671875 952.158508300781 955.91943359375 964.761657714844 953.740173339844 957.048645019531 968.101257324219 975.668151855469 977.465209960938 976.984619140625 973.725158691406 971.124084472656 967.274475097656 969.972717285156 979.094116210938 969.515930175781 967.178833007812 969.031616210938 967.939208984375 957.056335449219 959.382629394531 961.10693359375 960.400756835938 954.195922851562 964.507141113281 961.336303710938 954.416015625 950.951171875 950.887023925781 962.676208496094 960.064758300781 963.693969726562 960.55322265625 968.569885253906 966.699584960938 965.303405761719 960.320739746094 965.780700683594 966.060913085938 965.876953125 970.268005371094 972.550048828125 965.739135742188 970.756896972656 968.678955078125 973.066467285156 971.480895996094 979.493041992188 966.357788085938 963.155090332031 963.974243164062 970.887451171875 969.143188476562 966.022827148438 973.503051757812 977.388122558594 977.316833496094 975.821350097656 976.383911132812 974.508544921875 974.729370117188 965.139526367188 966.259582519531 976.191284179688 975.785705566406 985.68798828125 996.655822753906 983.498840332031 997.525512695312 995.312744140625 997.971618652344 985.019470214844 983.838317871094 997.225158691406 1005.49090576172 1011.06146240234 1002.80261230469 1001.99731445312 1001.84875488281 1011.21112060547 1013.56829833984 1019.22692871094 1015.33972167969 1020.03210449219 1026.80334472656 1033.04919433594 1030.1259765625 1031.05053710938 1025.26477050781 1033.93188476562 1036.77697753906 1043.95031738281 1046.59533691406 1059.93151855469 1073.54833984375 1078.75476074219 1087.31298828125 1090.97497558594 1090.85339355469 1093.20458984375 1094.33227539062 1104.13159179688 1106.54931640625 1109.53186035156 1112.39721679688 1121.97155761719 1122.44836425781 1127.11279296875 1127.75988769531 1132.00024414062 1119.27856445312
975.618957519531 975.925964355469 974.141784667969 968.930786132812 964.720336914062 969.5439453125 965.803894042969 973.038635253906 975.599243164062 975.778686523438 981.90966796875 974.774047851562 976.125854492188 974.466796875 974.751220703125 976.185607910156 977.667419433594 978.726928710938 973.372985839844 967.952331542969 968.106994628906 965.671569824219 970.079528808594 960.561645507812 963.156005859375 962.556701660156 964.799987792969 956.559753417969 960.973205566406 968.118347167969 968.375671386719 970.083190917969 964.36474609375 966.027648925781 965.642028808594 964.716613769531 969.341918945312 967.128662109375 963.019592285156 959.696960449219 961.549377441406 962.332824707031 967.320068359375 959.148498535156 961.951171875 975.101501464844 975.763000488281 971.269287109375 977.663757324219 974.383117675781 975.536560058594 970.852661132812 969.52294921875 968.324951171875 965.396240234375 968.609619140625 964.767517089844 966.663635253906 965.787109375 958.343444824219 962.520080566406 959.398254394531 955.830139160156 957.464660644531 959.188110351562 959.193054199219 951.751403808594 956.630615234375 955.142028808594 966.2734375 962.305297851562 965.585754394531 966.864929199219 963.340515136719 961.651550292969 962.16162109375 967.318237304688 965.918640136719 968.678833007812 973.218505859375 968.729187011719 972.322265625 977.233093261719 973.4736328125 976.181518554688 979.771850585938 981.349914550781 966.071228027344 962.288818359375 970.984558105469 965.390930175781 964.673889160156 980.11328125 977.379455566406 974.090515136719 977.18896484375 979.688293457031 971.533996582031 973.450744628906 975.520385742188 975.005493164062 971.639526367188 974.459899902344 981.22705078125 973.326293945312 979.037414550781 975.068603515625 988.240112304688 994.233581542969 996.608032226562 992.919189453125 990.320373535156 987.171081542969 998.109924316406 999.963500976562 997.92138671875 1002.55786132812 1004.28546142578 1012.64807128906 1003.943359375 1014.64001464844 1010.75848388672 1023.56335449219 1027.40661621094 1030.41235351562 1025.44897460938 1026.66931152344 1026.35974121094 1024.48742675781 1038.79663085938 1042.21166992188 1047.42822265625 1057.66223144531 1061.72143554688 1079.65234375 1085.27355957031 1090.02758789062 1091.94396972656 1086.255859375 1093.63623046875 1099.47387695312 1108.08715820312 1111.17358398438 1109.70520019531 1117.50866699219 1116.81237792969 1122.35192871094 1126.48120117188 1120.41564941406 1116.70837402344
977.701843261719 982.69482421875 977.889282226562 976.015441894531 970.768859863281 967.024291992188 969.626403808594 979.659606933594 976.759338378906 976.576721191406 979.507690429688 978.362731933594 982.887268066406 975.707763671875 979.487731933594 971.0390625 966.075012207031 976.239929199219 976.713684082031 967.070251464844 959.728210449219 965.572448730469 965.69677734375 964.727478027344 967.362976074219 956.738403320312 962.117248535156 967.560729980469 960.876220703125 959.213012695312 960.206237792969 963.230834960938 962.829040527344 961.14794921875 967.539916992188 956.95947265625 960.936706542969 966.345642089844 959.146850585938 963.951354980469 967.326293945312 973.28466796875 969.362915039062 967.258056640625 974.995483398438 969.346740722656 960.441955566406 965.495849609375 973.636657714844 968.978820800781 976.184448242188 972.672119140625 965.111694335938 962.261047363281 958.288696289062 954.94482421875 962.838439941406 958.9951171875 957.831848144531 965.587829589844 966.471984863281 957.679565429688 956.621887207031 961.812805175781 955.932006835938 956.530334472656 957.087951660156 959.905090332031 959.487670898438 970.158142089844 968.172973632812 961.068359375 957.053588867188 963.813110351562 953.705444335938 963.642395019531 969.660949707031 964.407531738281 964.345336914062 966.339904785156 965.25537109375 975.720397949219 977.947143554688 966.502197265625 966.131286621094 972.845947265625 970.842224121094 973.246765136719 973.224426269531 978.425231933594 969.420532226562 967.178955078125 979.665283203125 981.102905273438 969.986450195312 971.983581542969 970.960815429688 967.339599609375 975.480834960938 970.525695800781 972.628601074219 974.027160644531 977.695495605469 981.569519042969 973.577758789062 973.355590820312 976.221374511719 979.833923339844 988.36181640625 993.888366699219 996.871643066406 996.360290527344 983.389221191406 988.455810546875 996.425659179688 995.469421386719 1001.45275878906 1002.33972167969 1013.16381835938 1013.02014160156 1009.39392089844 1013.51110839844 1018.95001220703 1022.11444091797 1026.931640625 1027.91088867188 1020.09301757812 1022.90270996094 1032.48095703125 1040.10546875 1039.0859375 1046.83117675781 1056.9091796875 1069.34057617188 1072.87524414062 1087.43823242188 1089.37548828125 1083.92041015625 1088.34729003906 1094.103515625 1103.87280273438 1093.99377441406 1097.8359375 1105.29333496094 1110.78601074219 1113.67687988281 1107.62915039062 1117.15588378906 1114.99914550781 1108.53002929688
969.537658691406 983.923156738281 988.045959472656 972.530212402344 972.239501953125 966.398559570312 977.262756347656 983.063781738281 986.178771972656 982.017883300781 984.274780273438 980.280334472656 978.8994140625 976.9091796875 973.1904296875 971.016296386719 966.057922363281 965.553344726562 963.283447265625 960.286926269531 960.077514648438 964.988586425781 964.322204589844 964.470153808594 961.676025390625 962.739196777344 957.272766113281 963.381774902344 959.708190917969 963.6787109375 969.985900878906 963.373291015625 955.917053222656 954.801330566406 964.638427734375 964.378356933594 963.948120117188 954.026062011719 956.167419433594 962.335083007812 973.595336914062 980.35302734375 970.015808105469 971.663208007812 970.956237792969 958.528015136719 948.552368164062 955.151489257812 970.739624023438 970.467163085938 973.92919921875 965.924011230469 964.113952636719 959.926147460938 952.078369140625 950.615051269531 954.871398925781 956.950927734375 953.862121582031 955.458068847656 960.10791015625 948.951110839844 949.496398925781 963.084045410156 957.71630859375 957.117248535156 962.260437011719 952.75244140625 960.805297851562 965.318786621094 959.025329589844 962.85400390625 965.153015136719 963.295593261719 958.66162109375 957.270324707031 960.529357910156 958.79931640625 957.234191894531 958.347778320312 965.414367675781 977.766418457031 970.602416992188 958.646789550781 968.669921875 977.115478515625 973.593811035156 963.826416015625 967.31982421875 972.18408203125 972.762023925781 976.619567871094 969.922790527344 964.688354492188 970.339599609375 972.743896484375 967.290710449219 968.927062988281 969.629821777344 971.244323730469 976.409912109375 972.189270019531 980.298889160156 978.674255371094 971.4384765625 970.181884765625 974.332763671875 979.897399902344 987.422668457031 985.752380371094 987.057861328125 991.330017089844 994.428100585938 982.747802734375 992.903381347656 993.274047851562 994.588134765625 1001.51501464844 1002.59210205078 1013.63006591797 1015.21630859375 1023.83862304688 1016.05706787109 1026.98229980469 1028.01293945312 1028.10656738281 1023.03881835938 1031.05065917969 1032.77331542969 1036.34216308594 1044.02966308594 1049.45166015625 1067.57958984375 1075.24694824219 1079.81201171875 1083.38146972656 1093.30871582031 1090.33874511719 1086.55798339844 1085.86828613281 1086.79907226562 1094.8408203125 1090.83703613281 1091.78552246094 1096.45349121094 1105.05187988281 1105.09545898438 1107.82763671875 1103.01049804688 1096.8193359375
971.513793945312 977.163269042969 983.954956054688 975.522155761719 975.057678222656 972.347351074219 975.06689453125 981.103576660156 975.148864746094 967.094299316406 976.813415527344 974.880249023438 972.20947265625 970.193359375 974.355346679688 971.818176269531 962.703491210938 971.626953125 966.882263183594 958.797668457031 970.484130859375 971.313232421875 966.733337402344 962.484497070312 962.110717773438 953.100463867188 952.521118164062 955.21923828125 953.421936035156 963.182006835938 969.031494140625 957.75048828125 949.2900390625 953.753112792969 954.943298339844 963.974487304688 959.554016113281 953.757751464844 956.879150390625 959.174499511719 971.189147949219 970.048461914062 965.482238769531 966.018005371094 962.938232421875 949.963745117188 953.036560058594 957.966247558594 961.861450195312 965.805236816406 962.885009765625 953.27587890625 946.9580078125 951.127014160156 952.683227539062 946.411071777344 942.139892578125 943.93017578125 943.943298339844 950.95654296875 959.389282226562 954.829650878906 953.753112792969 953.769897460938 956.649841308594 951.243286132812 967.337280273438 957.940368652344 951.969787597656 962.099182128906 970.359313964844 961.108764648438 954.379028320312 966.002807617188 959.893493652344 953.983825683594 950.788208007812 945.3095703125 951.500427246094 963.116271972656 958.756408691406 966.442504882812 960.4970703125 967.715698242188 970.895812988281 968.615966796875 975.035278320312 970.405517578125 972.611450195312 969.783020019531 967.348815917969 963.164123535156 969.384948730469 970.090026855469 973.820373535156 975.785827636719 973.235961914062 968.109558105469 968.6376953125 978.974975585938 979.059631347656 976.496643066406 980.215087890625 969.046203613281 973.8125 971.8154296875 968.9912109375 970.490356445312 979.373413085938 976.377380371094 981.0947265625 985.687255859375 992.500793457031 990.898193359375 985.976806640625 989.971496582031 994.455871582031 998.750244140625 1004.13543701172 1015.52447509766 1021.66448974609 1021.80718994141 1022.67767333984 1017.59564208984 1021.78784179688 1030.71826171875 1026.7841796875 1034.88623046875 1034.4951171875 1032.04443359375 1036.88940429688 1045.78149414062 1061.51708984375 1063.68481445312 1073.18798828125 1087.35180664062 1090.56762695312 1089.60546875 1074.89404296875 1071.41772460938 1074.9248046875 1073.81213378906 1076.10607910156 1078.14282226562 1094.11218261719 1094.29162597656 1097.20629882812 1105.42895507812 1101.46264648438 1093.3154296875
968.587463378906 973.689514160156 983.158447265625 975.041198730469 972.801940917969 968.114135742188 963.643005371094 975.121826171875 970.102172851562 959.766906738281 965.441040039062 968.562805175781 963.083740234375 963.458984375 964.259582519531 966.241943359375 963.060974121094 968.426635742188 968.67236328125 975.169677734375 973.410522460938 962.900939941406 957.133422851562 962.464416503906 957.955932617188 951.72705078125 949.111511230469 956.655456542969 964.19091796875 966.464477539062 967.153564453125 955.210205078125 956.691589355469 955.581176757812 962.290100097656 970.686889648438 960.045104980469 954.737121582031 957.655944824219 965.417846679688 973.017578125 967.667785644531 967.980102539062 963.933837890625 954.26025390625 951.6904296875 959.724365234375 953.582885742188 958.723937988281 959.747802734375 953.72265625 946.2236328125 945.019348144531 957.123840332031 950.437438964844 949.517761230469 947.614807128906 946.950744628906 950.745666503906 953.557739257812 956.923217773438 953.167602539062 955.924560546875 952.685119628906 955.192810058594 957.516479492188 957.015197753906 948.663391113281 954.919616699219 954.655639648438 970.175659179688 960.083374023438 951.372985839844 962.717651367188 963.530334472656 957.344055175781 964.678894042969 958.000671386719 957.403259277344 959.534912109375 963.772155761719 971.726623535156 961.422058105469 960.567504882812 964.7119140625 960.411315917969 969.927673339844 968.665710449219 965.320129394531 969.345642089844 965.830200195312 965.607299804688 970.090454101562 965.440734863281 974.576599121094 982.505798339844 988.266052246094 972.960388183594 967.612548828125 988.688110351562 985.226806640625 978.802124023438 979.91796875 979.086547851562 978.722351074219 981.633239746094 976.461303710938 973.448913574219 977.225280761719 981.30126953125 982.959716796875 989.980224609375 985.497924804688 989.259521484375 986.649597167969 987.879821777344 993.112731933594 988.119750976562 994.969116210938 1008.14721679688 1014.54168701172 1015.8203125 1024.56298828125 1016.33947753906 1014.27490234375 1017.3427734375 1018.40350341797 1027.27673339844 1043.8017578125 1033.63061523438 1046.80590820312 1054.54235839844 1053.86218261719 1062.84216308594 1078.24060058594 1090.57446289062 1081.36755371094 1079.94250488281 1078.42993164062 1073.0048828125 1059.42529296875 1058.0458984375 1073.18115234375 1068.03881835938 1080.10571289062 1088.6669921875 1089.12487792969 1096.44714355469 1085.14660644531 1077.58190917969
973.625732421875 973.50341796875 973.947692871094 970.121154785156 972.952758789062 968.980102539062 970.771484375 976.621520996094 975.310668945312 965.352294921875 968.306579589844 955.870239257812 953.439147949219 963.315002441406 968.516906738281 967.613159179688 966.490844726562 969.4619140625 962.18896484375 970.612060546875 966.310485839844 957.234313964844 953.072692871094 959.711486816406 955.446655273438 951.85888671875 948.784606933594 952.900390625 966.879455566406 976.922790527344 971.271484375 966.807556152344 957.781799316406 950.574829101562 955.036437988281 963.4443359375 963.761596679688 958.988891601562 963.065246582031 963.545593261719 969.453308105469 964.038757324219 958.583618164062 949.877685546875 961.521240234375 955.071228027344 957.718627929688 957.575317382812 959.995849609375 955.791198730469 954.389892578125 947.884826660156 945.547241210938 957.396606445312 948.598754882812 950.250793457031 953.096374511719 952.920837402344 941.632446289062 954.016967773438 952.010314941406 955.952026367188 962.472412109375 961.165954589844 959.128723144531 962.760986328125 960.777954101562 951.20751953125 958.182739257812 954.551635742188 958.266967773438 953.686584472656 952.86376953125 961.880554199219 964.333618164062 960.799438476562 961.499389648438 956.282897949219 964.307006835938 960.677612304688 968.470764160156 964.690185546875 962.483825683594 957.284912109375 959.230041503906 963.885314941406 966.662475585938 966.996826171875 966.476013183594 966.496826171875 964.669494628906 965.475341796875 970.957336425781 976.974792480469 972.554138183594 977.435424804688 984.449340820312 986.744506835938 984.344604492188 987.592224121094 989.857055664062 976.684753417969 991.697631835938 989.5517578125 982.429748535156 984.505310058594 981.199890136719 981.249633789062 975.711120605469 984.001708984375 984.352416992188 989.057983398438 988.014770507812 989.742492675781 994.1845703125 993.468322753906 999.623107910156 994.963439941406 998.874267578125 997.999816894531 1004.7119140625 1016.83648681641 1013.95123291016 1023.23791503906 1019.63220214844 1020.47210693359 1017.52282714844 1024.01647949219 1033.41369628906 1034.88977050781 1048.13977050781 1045.43151855469 1048.64318847656 1064.32873535156 1075.78527832031 1081.50390625 1075.62219238281 1074.69299316406 1069.07531738281 1062.40588378906 1050.98010253906 1050.81494140625 1053.57482910156 1059.56811523438 1067.56188964844 1066.99877929688 1071.44470214844 1072.58325195312 1069.88098144531 1071.04760742188
962.386169433594 964.676574707031 970.739868164062 964.954162597656 967.473693847656 977.323608398438 970.029541015625 969.061340332031 972.993530273438 966.754516601562 966.094787597656 960.018859863281 954.530883789062 956.864807128906 959.115478515625 963.886474609375 971.763305664062 969.200256347656 960.205932617188 956.25830078125 948.642761230469 955.102416992188 953.009216308594 952.367370605469 959.17333984375 957.944091796875 948.521057128906 957.380676269531 961.300354003906 964.941711425781 969.012390136719 951.975219726562 949.718688964844 953.482421875 947.396362304688 952.383361816406 959.004211425781 951.0244140625 955.866271972656 957.927978515625 962.879516601562 967.387634277344 951.189025878906 946.475280761719 950.398681640625 951.302124023438 953.3486328125 953.116516113281 954.923706054688 956.76708984375 959.704956054688 954.664794921875 947.610046386719 961.454895019531 956.368713378906 951.867492675781 963.775573730469 962.415771484375 953.601684570312 961.25634765625 959.215148925781 955.034240722656 954.092224121094 958.021667480469 958.969665527344 962.192443847656 961.748229980469 958.795471191406 959.935241699219 958.528076171875 953.624328613281 960.485046386719 962.576599121094 967.637756347656 973.489562988281 965.539916992188 965.146240234375 957.204711914062 961.570678710938 963.286987304688 967.065063476562 965.239440917969 961.174194335938 960.264831542969 951.687438964844 961.119812011719 960.170166015625 967.572204589844 969.994384765625 970.556518554688 965.39404296875 969.216125488281 976.394226074219 977.970275878906 976.305969238281 977.869140625 978.31787109375 981.904357910156 974.692810058594 988.574096679688 990.54443359375 980.075927734375 986.584045410156 982.229309082031 980.910034179688 979.567016601562 983.418090820312 975.97021484375 988.545043945312 988.653747558594 990.594604492188 995.709716796875 989.562316894531 992.194091796875 996.469177246094 999.359130859375 1004.07940673828 999.823120117188 1000.12719726562 1002.57635498047 1000.26257324219 1008.45477294922 1020.63098144531 1016.78936767578 1013.48352050781 1016.16644287109 1011.67803955078 1019.19055175781 1033.06677246094 1031.04748535156 1040.41162109375 1050.81921386719 1050.6689453125 1058.96166992188 1060.38940429688 1063.74731445312 1060.64404296875 1074.1083984375 1061.64123535156 1060.11730957031 1055.0166015625 1043.92761230469 1042.353515625 1054.81945800781 1054.96728515625 1059.70056152344 1059.95654296875 1056.30786132812 1068.5634765625 1062.99597167969
962.623352050781 966.060974121094 964.470581054688 964.907043457031 966.034545898438 965.266052246094 970.049682617188 963.750244140625 965.359191894531 964.770812988281 967.494689941406 960.699768066406 954.4873046875 964.194152832031 962.722290039062 963.003601074219 967.349426269531 962.71484375 956.997924804688 943.946044921875 948.908569335938 949.678283691406 955.39794921875 951.577819824219 951.258911132812 958.811157226562 948.783996582031 949.177795410156 953.009521484375 959.118591308594 955.228698730469 950.361511230469 952.479736328125 953.573852539062 950.74755859375 946.292358398438 949.123657226562 958.400573730469 951.5341796875 953.015502929688 953.586669921875 960.02880859375 952.627502441406 946.2705078125 951.8310546875 940.54443359375 945.378051757812 950.816162109375 956.449401855469 962.861511230469 955.850524902344 953.967041015625 951.771484375 950.473205566406 952.546936035156 953.956604003906 966.522277832031 962.041809082031 962.37646484375 961.550231933594 968.912658691406 960.022094726562 958.927795410156 954.077697753906 955.863098144531 956.800109863281 958.194885253906 959.101257324219 962.835876464844 963.332580566406 965.450012207031 964.466735839844 959.166687011719 962.414489746094 966.63916015625 959.568969726562 968.30908203125 970.415832519531 973.883728027344 971.163146972656 974.169189453125 967.936706542969 959.26806640625 970.216918945312 960.852600097656 954.403625488281 962.989440917969 967.675659179688 968.021789550781 972.195739746094 969.597961425781 966.437683105469 976.449768066406 973.898071289062 981.200805664062 973.806091308594 973.034729003906 972.825012207031 974.825439453125 979.366149902344 990.129089355469 985.6552734375 988.890014648438 988.005432128906 981.34814453125 977.258972167969 978.660095214844 975.08740234375 986.778137207031 997.359252929688 1000.11346435547 996.2734375 997.194580078125 1002.01348876953 1001.91876220703 1007.61779785156 1002.29821777344 1002.1123046875 997.628173828125 999.329406738281 1004.49829101562 1002.72821044922 1009.18920898438 1016.39385986328 1022.12097167969 1013.13677978516 1017.05444335938 1022.54022216797 1029.29113769531 1034.55187988281 1040.07263183594 1046.40356445312 1046.74108886719 1050.28466796875 1053.11511230469 1059.25122070312 1056.47375488281 1060.7841796875 1055.58227539062 1059.76416015625 1052.9814453125 1044.07202148438 1042.35913085938 1049.82666015625 1054.5673828125 1049.63500976562 1060.01013183594 1055.22680664062 1060.40234375 1060.53540039062
962.705810546875 959.929260253906 959.945861816406 956.910339355469 961.138305664062 966.36474609375 972.935302734375 968.626159667969 964.193908691406 963.729370117188 960.293640136719 954.393310546875 951.96923828125 962.837829589844 960.147827148438 956.483764648438 951.630432128906 949.8486328125 953.1416015625 946.84423828125 948.428894042969 944.818786621094 945.860107421875 948.256225585938 942.61962890625 952.945922851562 946.108215332031 939.566162109375 952.215881347656 953.90234375 940.911010742188 945.241455078125 950.349975585938 949.705322265625 951.036315917969 947.03173828125 953.646362304688 953.656677246094 950.619201660156 953.444946289062 955.185607910156 952.607666015625 948.580810546875 949.744140625 950.912414550781 941.665954589844 949.294616699219 955.799682617188 959.314697265625 959.313720703125 958.504699707031 952.375854492188 954.426330566406 960.750671386719 960.259521484375 960.948791503906 959.231140136719 956.96923828125 953.710266113281 961.084411621094 963.278869628906 960.6708984375 954.790405273438 953.663513183594 949.844421386719 949.796325683594 958.350830078125 959.100463867188 963.562133789062 960.599487304688 962.775085449219 962.718139648438 975.508728027344 966.128356933594 968.716369628906 969.201904296875 963.607788085938 968.812927246094 969.048583984375 974.450561523438 971.587158203125 967.784118652344 969.629699707031 968.194580078125 965.233215332031 964.497131347656 961.177368164062 969.403991699219 972.500183105469 978.966979980469 977.329895019531 971.678771972656 972.109924316406 979.677185058594 981.026306152344 980.647338867188 970.22119140625 974.572387695312 977.133666992188 983.096252441406 982.124206542969 983.488403320312 987.698608398438 989.179382324219 989.055053710938 981.29736328125 978.51220703125 978.179870605469 985.344665527344 997.824401855469 998.8017578125 1002.86462402344 1009.14349365234 1003.67236328125 1008.28698730469 1012.72155761719 1004.96966552734 998.184875488281 988.872802734375 992.350036621094 996.314025878906 1003.91815185547 1010.28735351562 1013.42974853516 1017.90435791016 1018.80029296875 1019.18157958984 1029.5126953125 1029.21459960938 1030.57458496094 1038.69079589844 1036.21765136719 1044.61206054688 1045.51147460938 1061.43249511719 1057.70593261719 1058.05419921875 1052.47717285156 1056.05895996094 1042.50512695312 1036.5068359375 1029.61840820312 1028.87585449219 1038.021484375 1038.30383300781 1040.25915527344 1049.08276367188 1050.35998535156 1052.57482910156 1055.68884277344
964.819763183594 966.342590332031 970.595947265625 964.64794921875 965.771728515625 965.969543457031 965.041381835938 964.935485839844 970.083557128906 954.612121582031 957.664489746094 953.83349609375 949.596923828125 951.056335449219 955.811889648438 961.564697265625 953.971435546875 946.765075683594 942.799255371094 947.758911132812 947.178161621094 947.932739257812 944.887878417969 952.637451171875 950.357238769531 953.462280273438 955.119689941406 951.676025390625 946.059692382812 959.441040039062 944.503112792969 951.106140136719 950.311950683594 952.463684082031 943.087463378906 945.673400878906 948.671142578125 956.763305664062 950.730163574219 962.758605957031 950.173767089844 947.633666992188 941.482299804688 950.353698730469 954.8994140625 953.812561035156 959.549865722656 964.22021484375 964.490356445312 955.623840332031 944.540283203125 954.543518066406 954.467651367188 953.973693847656 956.688049316406 952.231628417969 953.765441894531 954.668273925781 958.312255859375 964.08349609375 965.651611328125 963.012268066406 963.123901367188 954.279113769531 947.669128417969 947.212707519531 950.021728515625 953.615844726562 957.890441894531 959.2666015625 964.251525878906 969.548706054688 968.531127929688 968.755126953125 967.309753417969 961.931701660156 967.202880859375 967.745666503906 965.881713867188 982.988647460938 981.838684082031 971.510925292969 973.165161132812 972.084350585938 976.504699707031 969.520935058594 967.969543457031 969.902587890625 973.188598632812 969.763244628906 976.110290527344 976.78564453125 972.252502441406 972.127075195312 983.908813476562 976.76025390625 977.457214355469 976.19921875 975.587341308594 980.588684082031 968.258178710938 973.752014160156 975.1279296875 983.021423339844 981.488403320312 985.312316894531 985.814208984375 983.8310546875 990.43603515625 991.114440917969 1000.45129394531 1002.68719482422 1017.20520019531 1017.53759765625 1016.64404296875 1011.43676757812 1011.74719238281 999.853576660156 1001.52886962891 1011.19610595703 1009.81683349609 1007.42279052734 1011.66253662109 1012.09320068359 1013.46691894531 1020.8408203125 1021.35729980469 1024.88500976562 1033.49499511719 1030.37426757812 1038.3037109375 1046.28857421875 1051.88891601562 1046.20361328125 1050.18322753906 1051.15966796875 1053.24206542969 1057.07788085938 1048.77453613281 1043.15148925781 1032.9453125 1024.93237304688 1024.86071777344 1032.79138183594 1028.65795898438 1031.39025878906 1038.10571289062 1046.08618164062 1046.0283203125 1048.6748046875
965.184448242188 961.878540039062 956.919006347656 962.918701171875 971.296752929688 964.785034179688 973.80126953125 963.326599121094 963.261352539062 957.616149902344 962.9951171875 948.178955078125 959.09423828125 950.344482421875 955.848205566406 951.408874511719 952.772521972656 956.031860351562 948.052551269531 943.141296386719 950.160400390625 952.255493164062 948.483215332031 951.07958984375 950.504943847656 956.041625976562 952.32080078125 948.95751953125 945.723937988281 946.669250488281 948.36376953125 944.632934570312 949.366149902344 940.643188476562 956.241088867188 946.593627929688 954.418884277344 956.819152832031 957.109252929688 956.676330566406 948.203369140625 953.723205566406 947.310729980469 950.205688476562 952.009887695312 961.677185058594 958.282775878906 965.235778808594 962.066040039062 961.689636230469 954.497192382812 962.332458496094 945.39501953125 953.556335449219 957.845764160156 958.198303222656 955.991882324219 955.673095703125 959.864135742188 963.833740234375 967.20703125 967.567321777344 968.981872558594 961.095825195312 955.864501953125 951.875305175781 948.86962890625 954.580200195312 956.768249511719 962.178161621094 965.926879882812 966.444396972656 968.460388183594 975.078186035156 964.156555175781 963.277770996094 962.806274414062 975.426025390625 969.718505859375 982.472595214844 976.678649902344 977.004028320312 979.752746582031 966.17041015625 974.907836914062 971.189697265625 976.427368164062 979.846923828125 973.123718261719 968.083251953125 979.3935546875 991.3017578125 971.710327148438 970.634460449219 988.568115234375 990.640197753906 976.364379882812 975.409057617188 976.282409667969 979.664733886719 969.622741699219 973.770629882812 972.771118164062 972.946594238281 974.731201171875 986.981323242188 996.790893554688 987.72802734375 985.150085449219 999.769714355469 1015.86444091797 1021.98461914062 1029.51501464844 1032.18933105469 1024.25244140625 1014.00811767578 1018.1669921875 1011.02777099609 1003.23474121094 1009.96868896484 1012.12213134766 1012.7197265625 1010.04797363281 1009.76879882812 1017.48803710938 1026.02111816406 1033.13317871094 1037.20349121094 1040.37683105469 1040.33422851562 1045.53039550781 1046.17932128906 1048.0244140625 1045.95300292969 1043.58728027344 1044.09814453125 1044.16333007812 1043.25476074219 1043.4501953125 1039.15637207031 1033.74584960938 1024.32434082031 1030.49560546875 1026.04309082031 1036.04833984375 1033.70239257812 1036.41564941406 1034.53881835938 1030.24645996094 1033.88757324219
969.094482421875 958.160827636719 952.299926757812 955.0439453125 958.971618652344 962.257873535156 966.824462890625 964.81201171875 960.164428710938 961.506042480469 965.034729003906 960.987915039062 960.604064941406 957.34130859375 952.623291015625 949.7373046875 952.084716796875 951.4375 948.611877441406 952.411376953125 954.379150390625 946.633483886719 945.989562988281 953.443359375 948.51025390625 949.933471679688 956.113098144531 949.074890136719 938.494995117188 941.149291992188 946.884399414062 940.862243652344 947.552673339844 948.470764160156 950.793212890625 949.159301757812 951.648559570312 950.352905273438 960.879150390625 955.648559570312 956.264404296875 952.950622558594 954.936950683594 959.037414550781 966.943115234375 967.818542480469 962.671447753906 967.954711914062 968.913879394531 965.728393554688 961.083984375 956.449035644531 952.116027832031 951.859191894531 961.736938476562 954.895141601562 952.9443359375 960.741088867188 966.889831542969 965.437805175781 972.551574707031 968.42529296875 958.388977050781 962.027160644531 959.757873535156 948.002075195312 952.548950195312 957.466430664062 964.685729980469 963.579467773438 970.149169921875 973.838806152344 973.592468261719 969.302978515625 961.475402832031 969.186645507812 966.143981933594 972.209899902344 966.138549804688 974.901123046875 977.499328613281 980.400756835938 978.359436035156 975.225952148438 974.48681640625 973.282775878906 978.631164550781 981.393859863281 979.643798828125 969.789978027344 979.2666015625 981.139709472656 982.322387695312 976.84228515625 987.342102050781 982.115539550781 971.246704101562 974.217590332031 971.608764648438 976.730163574219 974.486145019531 971.807678222656 969.541381835938 983.649169921875 982.05224609375 984.536560058594 988.321533203125 989.868225097656 993.1875 1009.36889648438 1011.90417480469 1020.60699462891 1024.56689453125 1027.52209472656 1026.13525390625 1017.52752685547 1018.38128662109 1020.55255126953 1017.0556640625 1018.81988525391 1012.28399658203 1017.38122558594 1013.56909179688 1019.76831054688 1026.27819824219 1019.72198486328 1031.30297851562 1020.66906738281 1025.8896484375 1030.19677734375 1028.47509765625 1049.49914550781 1047.84643554688 1042.77331542969 1048.4453125 1046.03076171875 1038.4599609375 1035.82653808594 1032.34301757812 1033.9677734375 1035.14025878906 1034.84802246094 1026.35034179688 1023.88073730469 1024.00402832031 1030.64294433594 1036.71276855469 1032.92199707031 1025.7353515625 1025.43115234375
959.600219726562 953.547729492188 945.65625 963.950012207031 960.718627929688 963.9970703125 961.107177734375 961.557312011719 964.26611328125 955.805969238281 957.764465332031 949.424743652344 950.91455078125 944.745727539062 946.331237792969 953.237976074219 951.25146484375 945.139221191406 945.450378417969 953.255554199219 944.432067871094 945.779174804688 951.076110839844 951.412963867188 950.108947753906 956.91748046875 951.771057128906 945.191467285156 944.001770019531 936.215881347656 945.612915039062 945.3505859375 945.617858886719 951.205932617188 948.038879394531 947.109008789062 950.482849121094 952.2021484375 953.204895019531 953.343383789062 956.841125488281 954.089050292969 953.823852539062 959.66552734375 970.515319824219 965.360717773438 971.423706054688 974.261779785156 968.649963378906 967.736267089844 973.150695800781 962.345642089844 957.12353515625 956.860961914062 952.118896484375 957.571960449219 960.167785644531 960.694396972656 963.018676757812 961.849182128906 967.961730957031 966.802185058594 976.424377441406 975.132202148438 963.3173828125 961.789367675781 962.325866699219 962.956848144531 963.203857421875 968.456237792969 969.59912109375 978.714904785156 972.339660644531 968.654052734375 974.71728515625 969.520690917969 978.675354003906 976.420715332031 971.322326660156 977.366882324219 987.958129882812 980.201416015625 979.650695800781 986.200744628906 984.011047363281 983.660766601562 978.799865722656 980.336181640625 978.141235351562 975.748413085938 976.846008300781 976.819274902344 989.216247558594 979.81884765625 982.099914550781 979.655944824219 977.476196289062 970.704833984375 974.796325683594 975.691162109375 982.169860839844 972.833374023438 968.884582519531 976.6767578125 984.062805175781 989.85009765625 986.722290039062 992.111633300781 999.654479980469 1010.75665283203 1005.88305664062 1002.42700195312 1005.29388427734 1021.80297851562 1025.1015625 1015.14093017578 1016.12481689453 1025.26257324219 1025.37097167969 1012.72741699219 1021.02984619141 1022.89508056641 1022.35064697266 1008.17919921875 1019.09545898438 1023.05444335938 1014.57629394531 1014.2939453125 1016.05480957031 1019.22601318359 1024.517578125 1034.5927734375 1038.07373046875 1036.32507324219 1037.67529296875 1051.00891113281 1045.99682617188 1038.06188964844 1038.26696777344 1037.35949707031 1036.85314941406 1028.80004882812 1019.67590332031 1024.51928710938 1015.69677734375 1022.07104492188 1017.27886962891 1025.03479003906 1026.43518066406 1021.13885498047
950.9443359375 949.920593261719 945.211730957031 953.45751953125 956.256713867188 961.139343261719 957.807067871094 954.204956054688 951.075500488281 957.053833007812 940.403015136719 945.336608886719 946.781982421875 946.569152832031 941.359741210938 944.834594726562 943.572204589844 951.051940917969 949.373901367188 952.03271484375 949.773254394531 951.221984863281 959.796691894531 950.788879394531 952.589477539062 955.696411132812 949.441711425781 944.309692382812 940.575500488281 948.280822753906 946.370544433594 938.312744140625 942.447265625 950.018493652344 946.790588378906 939.699829101562 956.447021484375 955.643493652344 953.824157714844 959.150146484375 957.48583984375 961.682067871094 962.328491210938 964.406311035156 972.764953613281 964.498291015625 976.075012207031 985.162475585938 985.267272949219 980.034057617188 973.252380371094 967.057006835938 965.2626953125 971.705444335938 968.809936523438 964.441467285156 961.567138671875 962.856811523438 973.3486328125 971.488037109375 960.139099121094 970.701477050781 966.934387207031 974.716796875 962.089538574219 965.554565429688 963.334533691406 962.009155273438 962.578857421875 971.915222167969 969.91162109375 980.669189453125 975.377075195312 973.706604003906 980.739990234375 978.371765136719 982.94091796875 973.914306640625 974.967468261719 974.250732421875 985.206420898438 984.74462890625 986.161254882812 986.039367675781 989.045959472656 983.487243652344 986.152465820312 986.444580078125 972.439331054688 972.757385253906 971.5146484375 977.859252929688 981.383361816406 978.790954589844 984.073425292969 978.199401855469 976.423706054688 968.057739257812 973.448547363281 980.903564453125 976.575439453125 981.697021484375 974.36181640625 991.539001464844 984.552368164062 976.75634765625 988.371765136719 1005.40484619141 1011.08728027344 1010.10919189453 1007.931640625 1002.677734375 1008.94262695312 1017.96856689453 1015.08795166016 1014.66967773438 1024.51257324219 1031.291015625 1026.30786132812 1022.47875976562 1026.26513671875 1024.07214355469 1021.72381591797 1016.92810058594 1014.8837890625 1022.47552490234 1018.31011962891 1015.37835693359 1014.89312744141 1016.82794189453 1031.89599609375 1027.72485351562 1020.83520507812 1026.26013183594 1030.9658203125 1036.705078125 1045.01171875 1036.31640625 1036.99670410156 1036.57946777344 1022.9375 1015.41088867188 1016.73297119141 1022.18157958984 1016.18572998047 1012.09484863281 1023.10949707031 1021.30334472656 1022.04650878906 1023.96166992188
954.857849121094 952.415649414062 951.388122558594 943.813781738281 952.263610839844 956.817810058594 959.143249511719 950.494079589844 942.651245117188 952.103820800781 941.841796875 945.016235351562 949.6416015625 943.605529785156 935.979919433594 938.584899902344 941.885864257812 943.031005859375 942.998352050781 950.771179199219 951.738159179688 954.046142578125 959.211181640625 959.773376464844 965.489868164062 958.8291015625 954.839111328125 949.409484863281 948.0859375 945.9013671875 944.66455078125 942.165588378906 944.214782714844 948.516357421875 952.18994140625 950.365844726562 959.403076171875 964.083312988281 949.380187988281 954.319641113281 953.947937011719 956.737365722656 960.5869140625 960.435180664062 974.669250488281 968.441528320312 969.561767578125 982.067565917969 980.5009765625 979.415344238281 970.740234375 968.198913574219 974.716125488281 966.091003417969 970.188659667969 963.645080566406 958.550964355469 971.392517089844 977.520690917969 977.617858886719 975.305358886719 968.273498535156 971.117980957031 964.422912597656 963.434997558594 962.050109863281 961.14599609375 965.904418945312 970.145874023438 971.442565917969 974.690734863281 979.258483886719 974.963134765625 980.499450683594 978.585876464844 973.158752441406 980.759338378906 979.78759765625 971.164611816406 968.454345703125 977.420471191406 981.470397949219 984.405578613281 985.869262695312 980.184020996094 980.404052734375 978.373352050781 981.4375 975.698425292969 975.571716308594 970.42236328125 974.605224609375 983.913391113281 980.421630859375 980.872131347656 977.713012695312 979.345520019531 966.205200195312 971.920104980469 981.765563964844 976.928161621094 978.057800292969 973.0087890625 982.497314453125 982.561218261719 983.702575683594 992.971618652344 1009.58435058594 1014.66143798828 1012.51422119141 1018.85546875 1013.02557373047 1022.91998291016 1020.74279785156 1019.36743164062 1024.06066894531 1031.8125 1035.45007324219 1030.65661621094 1033.93286132812 1032.232421875 1026.84265136719 1024.37219238281 1018.65380859375 1019.76623535156 1024.22680664062 1022.76586914062 1017.74224853516 1025.61547851562 1025.47375488281 1022.82202148438 1028.07629394531 1024.88806152344 1022.58941650391 1034.65344238281 1030.95422363281 1036.46337890625 1029.07849121094 1035.91223144531 1030.185546875 1016.56805419922 1014.31567382812 1013.9794921875 1020.53375244141 1017.63403320312 1018.30383300781 1018.56140136719 1010.17840576172 1011.45629882812 1018.12609863281
950.106872558594 949.6533203125 941.12548828125 943.199401855469 948.125061035156 952.275451660156 946.314453125 940.481140136719 943.569702148438 938.376098632812 943.838928222656 944.728393554688 943.097473144531 943.486328125 950.269165039062 946.948120117188 946.271484375 945.409240722656 950.436462402344 946.264953613281 957.768188476562 958.384399414062 956.706115722656 963.208923339844 958.916076660156 960.045837402344 957.857604980469 949.908752441406 945.488464355469 946.015380859375 939.878723144531 942.50537109375 943.395385742188 949.535888671875 951.684204101562 949.480773925781 958.117736816406 962.094665527344 963.523193359375 959.899536132812 959.905578613281 961.812622070312 959.693664550781 965.4912109375 969.753784179688 972.02783203125 981.228881835938 979.680053710938 982.822814941406 973.355651855469 974.951843261719 971.141296386719 970.674865722656 976.412414550781 971.153198242188 965.146179199219 964.898498535156 974.820617675781 973.771240234375 974.991821289062 976.169860839844 976.276000976562 977.060974121094 974.488708496094 968.876525878906 963.199401855469 964.184265136719 969.170837402344 971.014404296875 974.260009765625 974.3076171875 973.124328613281 972.835510253906 979.457214355469 980.645690917969 986.743041992188 979.504638671875 979.527221679688 972.705688476562 968.841674804688 973.245788574219 969.122253417969 978.317749023438 983.663696289062 983.833679199219 975.148803710938 971.053527832031 980.156677246094 982.893432617188 975.444885253906 969.419799804688 971.122619628906 973.309631347656 983.686462402344 984.786987304688 984.4921875 977.622802734375 973.701843261719 972.769592285156 983.264465332031 984.857360839844 983.162170410156 982.057250976562 981.680603027344 984.831787109375 989.094177246094 997.782287597656 1009.43920898438 1018.92645263672 1018.54211425781 1020.08416748047 1023.46789550781 1029.34509277344 1029.35803222656 1024.7607421875 1026.18786621094 1032.22607421875 1042.76232910156 1047.07434082031 1041.68151855469 1035.64416503906 1029.68249511719 1029.21032714844 1026.73657226562 1024.080078125 1028.44689941406 1022.10406494141 1031.74230957031 1027.83850097656 1030.36682128906 1023.6630859375 1023.89050292969 1028.00244140625 1027.53674316406 1035.89831542969 1031.40100097656 1037.27612304688 1023.89923095703 1019.98175048828 1016.54833984375 1012.93377685547 1016.52435302734 1022.99725341797 1017.55743408203 1007.13385009766 1010.48040771484 1007.13763427734 1005.54663085938 1010.57507324219 1014.33825683594
952.308532714844 950.046142578125 954.532409667969 949.349243164062 947.201965332031 948.709838867188 943.449829101562 937.642211914062 938.503479003906 939.589782714844 940.010498046875 941.9287109375 936.524047851562 947.536926269531 944.867614746094 945.209228515625 944.800170898438 949.709777832031 950.000366210938 957.327941894531 956.710205078125 962.286560058594 958.213989257812 952.88525390625 953.094604492188 944.921264648438 958.131958007812 956.21435546875 948.347106933594 953.646911621094 951.915954589844 949.07470703125 953.838989257812 948.124877929688 957.653442382812 949.466064453125 954.302978515625 959.52099609375 966.805297851562 964.51708984375 968.037780761719 961.968078613281 961.943237304688 969.243469238281 966.924987792969 974.403930664062 982.380737304688 982.991271972656 982.391967773438 983.080139160156 982.033386230469 979.27099609375 972.408874511719 968.471252441406 971.713500976562 971.674560546875 981.207885742188 976.462219238281 970.781127929688 974.669067382812 968.913879394531 977.652709960938 977.821716308594 973.538269042969 981.204406738281 968.853881835938 968.606689453125 973.996398925781 974.643493652344 969.130554199219 975.167785644531 976.609680175781 979.635437011719 978.136596679688 981.690612792969 972.677368164062 975.298950195312 970.672180175781 971.005615234375 976.841979980469 962.047241210938 968.966918945312 974.405456542969 982.159851074219 991.295166015625 984.915466308594 977.7939453125 980.575439453125 976.718566894531 980.838623046875 974.802124023438 972.1611328125 977.048400878906 989.609375 985.880310058594 984.546875 989.155517578125 978.372619628906 976.652526855469 983.349914550781 988.970031738281 991.282104492188 1001.45556640625 991.981567382812 987.909057617188 989.723754882812 1003.31774902344 1015.41387939453 1018.09637451172 1020.17877197266 1032.84814453125 1022.37933349609 1024.73620605469 1028.61450195312 1032.04431152344 1035.41552734375 1035.89709472656 1039.517578125 1035.31237792969 1038.68371582031 1041.27331542969 1030.00769042969 1023.16564941406 1026.79931640625 1032.14001464844 1025.30407714844 1017.67926025391 1024.22509765625 1032.10876464844 1035.81311035156 1028.03076171875 1026.30346679688 1033.8447265625 1036.45617675781 1034.05139160156 1033.4853515625 1026.91455078125 1024.57336425781 1019.92724609375 1016.62066650391 1017.90350341797 1020.80053710938 1030.33032226562 1023.05700683594 1015.46832275391 1003.28991699219 999.876098632812 1003.98919677734 1003.84423828125 1009.88897705078
949.513366699219 953.70751953125 956.46923828125 947.076538085938 944.719360351562 938.774719238281 939.054260253906 942.160339355469 942.090759277344 935.638427734375 939.230285644531 944.429077148438 944.168762207031 946.740966796875 942.426513671875 948.323913574219 957.43359375 953.620056152344 952.837646484375 954.938781738281 962.061828613281 963.580688476562 963.715637207031 965.173217773438 960.899108886719 957.557861328125 954.796020507812 958.847900390625 957.200988769531 959.327941894531 957.29248046875 956.608947753906 954.604553222656 955.047912597656 959.214660644531 952.612976074219 953.516174316406 960.417846679688 962.649169921875 961.281982421875 972.370971679688 975.909484863281 965.7021484375 967.1220703125 981.75927734375 980.228271484375 985.946716308594 981.356323242188 987.368591308594 986.611389160156 986.70751953125 980.997009277344 979.518920898438 967.353454589844 975.07763671875 980.364379882812 972.190124511719 976.03076171875 966.228942871094 967.888793945312 968.537292480469 970.233215332031 967.631896972656 972.018859863281 979.921203613281 979.015441894531 971.607849121094 975.531066894531 978.324279785156 971.83154296875 973.618530273438 976.926696777344 984.788635253906 983.133483886719 980.880493164062 976.274353027344 983.098205566406 979.469116210938 977.440368652344 973.372741699219 970.690979003906 975.762756347656 976.512817382812 979.873779296875 985.445068359375 990.370910644531 984.40478515625 980.823791503906 974.008056640625 988.634216308594 978.711059570312 977.00537109375 982.880310058594 988.040771484375 990.202209472656 982.133178710938 981.914123535156 980.971984863281 979.868347167969 988.022399902344 989.274230957031 995.759216308594 997.857238769531 999.491149902344 994.780151367188 993.573486328125 1002.57196044922 1009.28173828125 1012.25646972656 1023.78784179688 1029.34143066406 1031.98156738281 1041.47912597656 1037.61462402344 1041.72265625 1044.70288085938 1041.3779296875 1037.62414550781 1039.29516601562 1042.62719726562 1045.23791503906 1042.26379394531 1044.24938964844 1031.31469726562 1029.8037109375 1026.52819824219 1025.87707519531 1027.62609863281 1043.67565917969 1030.73876953125 1029.80285644531 1028.24633789062 1035.27880859375 1033.63110351562 1036.09753417969 1025.61267089844 1021.3271484375 1017.14758300781 1018.61682128906 1009.22644042969 1010.79742431641 1018.29791259766 1017.35357666016 1018.10418701172 1010.0078125 1003.69927978516 999.635864257812 997.89306640625 999.882751464844 1005.35772705078
954.684143066406 946.218078613281 957.955810546875 949.903442382812 937.351318359375 939.459716796875 940.335327148438 937.191955566406 941.832763671875 937.633850097656 942.68994140625 951.560241699219 951.502380371094 946.736999511719 952.388122558594 961.908325195312 956.192504882812 950.058837890625 957.146301269531 964.66748046875 963.086120605469 957.798767089844 966.38037109375 957.976501464844 956.045288085938 958.263000488281 964.729064941406 964.461303710938 968.929443359375 958.567993164062 961.278564453125 965.335144042969 956.134765625 954.818359375 955.520263671875 950.770751953125 964.489440917969 965.522216796875 970.263305664062 966.982543945312 966.536193847656 976.8349609375 977.997314453125 963.482421875 975.377319335938 979.889465332031 991.885559082031 991.016906738281 1001.69488525391 991.65087890625 988.6484375 988.018676757812 978.369384765625 974.164001464844 977.474182128906 974.583129882812 983.274841308594 976.917724609375 967.3056640625 968.234130859375 978.2158203125 967.216064453125 954.031433105469 962.323669433594 975.915771484375 978.158447265625 977.98779296875 972.107666015625 978.649108886719 967.509582519531 977.574890136719 980.829162597656 981.137756347656 982.439025878906 979.505737304688 984.091552734375 981.413146972656 989.226379394531 986.011352539062 979.748779296875 971.931945800781 977.422912597656 977.06787109375 979.063720703125 981.662536621094 981.405883789062 980.834167480469 984.179809570312 976.549377441406 980.3798828125 985.103515625 985.151794433594 989.494934082031 973.975280761719 987.042297363281 983.328491210938 995.898071289062 996.60693359375 994.364624023438 1001.02081298828 1003.62103271484 999.3681640625 999.599731445312 999.493286132812 1009.35418701172 1007.96099853516 1011.14080810547 1019.97320556641 1015.05859375 1020.20837402344 1026.33728027344 1039.02758789062 1038.64270019531 1042.87219238281 1042.52917480469 1037.61743164062 1044.08740234375 1043.14477539062 1050.61950683594 1052.28405761719 1046.39343261719 1041.02600097656 1039.52990722656 1042.25073242188 1036.22424316406 1025.10424804688 1021.51165771484 1018.62017822266 1038.00024414062 1038.37768554688 1035.50537109375 1042.23107910156 1039.07958984375 1040.99255371094 1039.36865234375 1036.25561523438 1025.29602050781 1029.35473632812 1018.61193847656 1020.67132568359 1015.00994873047 1010.6728515625 1014.68865966797 1013.31329345703 1005.95367431641 1005.33471679688 1000.99725341797 996.21826171875 992.260681152344 1007.18176269531
952.1376953125 951.679931640625 951.511779785156 944.99755859375 945.5126953125 930.900146484375 938.510009765625 930.255676269531 943.203369140625 948.034790039062 955.953918457031 956.394348144531 953.16748046875 955.898742675781 968.596618652344 965.085144042969 968.083618164062 960.509765625 964.441040039062 970.218383789062 962.126342773438 964.713500976562 964.165832519531 965.323791503906 970.336608886719 969.340759277344 960.143676757812 963.992797851562 962.671325683594 972.482604980469 966.03955078125 967.904418945312 969.545471191406 964.103637695312 968.446838378906 959.83837890625 965.918395996094 972.847351074219 969.608764648438 971.648559570312 975.199645996094 977.830749511719 973.650390625 966.865417480469 972.305969238281 990.092224121094 998.233093261719 1002.64971923828 1002.82446289062 1005.09307861328 998.951232910156 994.052551269531 985.744445800781 981.332214355469 982.10009765625 986.312316894531 977.725891113281 976.225769042969 969.761596679688 972.834838867188 980.20849609375 967.720397949219 961.329040527344 961.915771484375 974.778747558594 979.512878417969 975.890747070312 974.563781738281 973.281005859375 976.3642578125 975.198425292969 982.218688964844 983.751708984375 983.338989257812 981.769714355469 982.909545898438 984.206848144531 981.926696777344 983.076904296875 974.886352539062 982.278442382812 975.411193847656 989.063293457031 987.753723144531 982.825744628906 986.948608398438 980.279724121094 984.511474609375 980.416137695312 980.535766601562 978.47705078125 987.035095214844 990.366516113281 983.423217773438 988.768188476562 986.317993164062 998.029846191406 995.345336914062 1005.58673095703 1009.52502441406 1005.97540283203 1005.03900146484 1002.90045166016 1004.68701171875 1011.25946044922 1006.34338378906 1025.97485351562 1023.62609863281 1017.52709960938 1019.45556640625 1029.43701171875 1029.69189453125 1034.20678710938 1031.70202636719 1036.349609375 1027.32653808594 1030.74768066406 1041.64807128906 1053.005859375 1047.70178222656 1046.16357421875 1037.09484863281 1038.33032226562 1044.82421875 1043.46337890625 1031.69677734375 1026.10070800781 1017.05548095703 1024.13793945312 1028.79296875 1031.19421386719 1042.36706542969 1040.33349609375 1046.70324707031 1045.35168457031 1039.83288574219 1034.34753417969 1031.06884765625 1020.83056640625 1022.79095458984 1017.00408935547 1008.67529296875 1004.49627685547 1008.50598144531 1003.50421142578 1000.36437988281 998.185974121094 986.4697265625 997.190185546875 1004.42163085938
946.644714355469 950.121704101562 947.989929199219 940.752990722656 936.026733398438 945.379089355469 939.945129394531 934.200073242188 939.575012207031 948.508911132812 955.887329101562 964.702270507812 965.849426269531 969.522277832031 973.807250976562 971.293762207031 977.166931152344 975.463989257812 977.328063964844 975.173034667969 969.717041015625 974.602478027344 970.823120117188 971.504089355469 971.190673828125 972.168029785156 968.67626953125 962.202514648438 966.076049804688 955.124145507812 958.403076171875 962.436157226562 968.83935546875 978.994201660156 967.654418945312 967.434387207031 970.5439453125 973.189758300781 977.141723632812 973.401428222656 984.706726074219 984.634338378906 977.585083007812 977.379577636719 986.177917480469 998.644653320312 998.741882324219 1008.41040039062 1009.98571777344 1014.66278076172 1002.51037597656 990.169189453125 984.814208984375 982.634704589844 979.36376953125 982.202819824219 979.607177734375 983.024291992188 976.043518066406 973.162231445312 984.879089355469 971.832946777344 962.074401855469 967.53466796875 970.306091308594 976.604370117188 975.5205078125 975.021911621094 972.929626464844 981.713806152344 976.23681640625 975.391723632812 983.145629882812 987.522827148438 983.261962890625 989.595153808594 984.481750488281 986.535339355469 988.206298828125 984.630126953125 983.089599609375 987.858520507812 982.909729003906 990.439025878906 994.716125488281 989.47265625 987.644287109375 983.992797851562 992.526062011719 988.674682617188 993.523132324219 985.723693847656 980.352661132812 990.931213378906 992.103454589844 992.423461914062 1001.40789794922 1011.62023925781 1010.99908447266 1006.58264160156 1000.46087646484 996.498840332031 1009.11663818359 1004.56506347656 1006.2998046875 1007.11999511719 1018.81201171875 1023.55163574219 1021.10473632812 1032.97570800781 1033.54748535156 1027.25085449219 1038.74682617188 1032.794921875 1031.97033691406 1028.34558105469 1034.23010253906 1039.31823730469 1039.97534179688 1044.66101074219 1039.93103027344 1031.58166503906 1035.34191894531 1039.89855957031 1033.45581054688 1031.50952148438 1026.75500488281 1016.41619873047 1017.12908935547 1012.86541748047 1024.62878417969 1031.56481933594 1047.10864257812 1037.32043457031 1039.66821289062 1040.84631347656 1029.55883789062 1027.4091796875 1016.99877929688 1018.22570800781 1018.12579345703 1003.97027587891 999.802551269531 995.893615722656 997.635375976562 1001.17834472656 992.748046875 989.8837890625 998.456237792969 992.045166015625
945.122131347656 947.684448242188 941.563537597656 934.982055664062 934.360290527344 941.648193359375 938.93408203125 944.32958984375 944.885192871094 949.743408203125 951.264953613281 959.529663085938 971.10595703125 974.869018554688 973.349853515625 979.987548828125 982.917297363281 981.899841308594 977.913879394531 979.787109375 983.432006835938 977.78369140625 971.0478515625 974.535766601562 974.931213378906 979.119323730469 972.100219726562 964.646179199219 957.072143554688 957.9658203125 969.973022460938 966.823974609375 963.032592773438 977.705139160156 975.496215820312 968.751892089844 972.228332519531 966.269775390625 974.510009765625 980.58837890625 984.818359375 992.326599121094 993.88916015625 987.466186523438 995.032653808594 999.95263671875 1001.49975585938 1014.96234130859 1024.35400390625 1018.69329833984 1013.12170410156 1003.54650878906 986.0107421875 980.257446289062 982.751220703125 987.439025878906 980.021667480469 976.271606445312 980.508605957031 979.623229980469 981.676086425781 975.611938476562 962.479614257812 965.609252929688 973.175964355469 979.29248046875 974.184509277344 981.49072265625 983.073608398438 983.311950683594 974.204650878906 981.354797363281 990.235107421875 994.434020996094 987.333923339844 992.750427246094 989.055114746094 985.47705078125 994.428894042969 988.812316894531 992.016540527344 976.080200195312 978.363098144531 991.140380859375 993.100952148438 990.630187988281 984.232788085938 983.351257324219 984.203979492188 981.943176269531 984.409057617188 987.756225585938 977.627136230469 983.885009765625 995.569396972656 1008.86761474609 1009.42022705078 1012.45367431641 1013.61291503906 1007.81286621094 1000.63092041016 1009.59069824219 1004.36120605469 1006.94567871094 1004.16625976562 1008.55340576172 1015.21960449219 1019.59716796875 1030.19738769531 1030.74731445312 1025.09582519531 1030.90173339844 1038.62707519531 1030.83532714844 1026.24755859375 1029.70544433594 1028.95263671875 1032.35290527344 1049.57141113281 1036.02087402344 1034.51281738281 1037.00317382812 1035.12646484375 1039.73474121094 1039.24963378906 1029.56665039062 1022.36407470703 1022.6396484375 1010.64025878906 1005.4248046875 1022.58947753906 1023.30523681641 1031.98303222656 1034.72143554688 1031.71447753906 1032.97973632812 1023.93115234375 1016.93048095703 1010.86877441406 1013.26843261719 1005.46472167969 998.72021484375 994.550415039062 998.278625488281 996.050598144531 991.917846679688 995.493530273438 990.084533691406 994.165344238281 994.992797851562
932.922485351562 932.983947753906 934.083190917969 934.152221679688 933.905578613281 935.669311523438 939.388793945312 938.466491699219 945.864074707031 951.090637207031 955.74072265625 960.017456054688 960.210144042969 967.895690917969 980.889038085938 993.800170898438 993.929565429688 988.449584960938 988.704956054688 985.588928222656 989.303283691406 985.419128417969 977.71044921875 977.368103027344 971.712646484375 973.896667480469 975.243591308594 965.039184570312 966.920532226562 964.702392578125 976.794250488281 974.134033203125 979.347534179688 985.63623046875 981.507995605469 979.282409667969 975.696716308594 971.675354003906 981.818664550781 990.259460449219 996.862548828125 1001.25988769531 999.092102050781 994.70703125 1000.87072753906 994.455993652344 1000.80041503906 1013.91546630859 1018.17395019531 1017.48754882812 1019.10192871094 1005.64807128906 997.026733398438 981.147399902344 985.323791503906 983.680419921875 977.583129882812 980.068908691406 981.192504882812 978.868957519531 974.540161132812 967.98828125 960.919189453125 961.426940917969 970.04931640625 983.843627929688 984.5791015625 985.36669921875 981.572143554688 984.439819335938 982.660339355469 977.942504882812 992.45361328125 993.828674316406 991.705261230469 997.105285644531 1004.84338378906 999.632873535156 988.958435058594 985.171691894531 990.678527832031 982.283996582031 983.848876953125 994.66162109375 992.404907226562 984.091491699219 984.35009765625 982.584777832031 973.922790527344 990.353393554688 987.788513183594 980.855712890625 984.981201171875 981.420288085938 981.008239746094 1000.62854003906 1006.21063232422 1015.3759765625 1013.14617919922 1000.60760498047 1005.14636230469 996.681213378906 999.384887695312 1004.36901855469 1006.15875244141 1009.859375 1023.87432861328 1021.27191162109 1026.98156738281 1023.73065185547 1023.71899414062 1026.95495605469 1030.82360839844 1040.96984863281 1028.42980957031 1022.54425048828 1018.09216308594 1017.68096923828 1038.33386230469 1031.57800292969 1034.76513671875 1033.41455078125 1031.11291503906 1027.33117675781 1027.76391601562 1025.61291503906 1010.91760253906 1014.25787353516 1004.93029785156 1006.55395507812 1015.02197265625 1014.765625 1024.83764648438 1024.78747558594 1030.27197265625 1014.30267333984 1023.81085205078 1019.47180175781 1006.39349365234 1003.63885498047 999.588317871094 989.822998046875 991.481079101562 1003.80108642578 989.381103515625 993.131774902344 983.926086425781 985.224182128906 996.381042480469 1001.03546142578
933.663879394531 931.800048828125 936.6435546875 927.81689453125 942.260131835938 938.923400878906 934.094055175781 938.29638671875 941.726501464844 953.257690429688 957.569885253906 966.614685058594 967.010620117188 973.165405273438 986.840393066406 990.910705566406 992.581298828125 994.809692382812 994.088623046875 993.611267089844 987.920593261719 992.478515625 983.713684082031 980.1005859375 971.060485839844 978.364562988281 983.450073242188 974.366027832031 979.6669921875 979.944274902344 980.055480957031 983.878967285156 990.573791503906 992.912170410156 983.789855957031 974.244201660156 973.648742675781 980.837707519531 984.964721679688 1002.42419433594 1007.88720703125 1009.72534179688 1005.13342285156 1001.07366943359 1000.20013427734 1000.87347412109 1003.13372802734 1018.16918945312 1016.42883300781 1011.23071289062 1007.09375 1005.83465576172 995.557922363281 976.882080078125 973.886779785156 972.051879882812 978.74072265625 981.452331542969 984.811096191406 988.688354492188 971.829040527344 969.382751464844 969.669311523438 961.447387695312 972.172729492188 983.767578125 972.444396972656 977.914245605469 981.971557617188 987.882141113281 981.976867675781 990.441040039062 990.583618164062 994.733520507812 991.559020996094 997.489379882812 1005.22515869141 1003.19012451172 996.019653320312 989.438781738281 990.009887695312 993.804382324219 991.265869140625 990.8046875 997.131408691406 986.693054199219 986.341064453125 991.125854492188 988.56591796875 986.3330078125 988.332824707031 988.538452148438 979.725219726562 979.3046875 972.7333984375 990.303588867188 999.384704589844 1009.44897460938 1015.71710205078 1007.99407958984 1005.04370117188 1002.68023681641 999.317565917969 1009.19287109375 1018.13006591797 1019.64337158203 1020.50677490234 1027.07055664062 1024.34948730469 1025.27270507812 1027.16674804688 1029.16479492188 1031.98840332031 1033.11108398438 1022.83331298828 1020.62701416016 1023.36492919922 1013.29949951172 1022.4345703125 1028.91723632812 1030.40380859375 1018.18756103516 1033.22229003906 1019.73162841797 1020.56744384766 1018.67028808594 1009.29272460938 1010.5380859375 1013.78491210938 1000.69451904297 1000.06555175781 1009.10656738281 1019.3564453125 1032.79968261719 1023.03875732422 1013.74298095703 1004.73443603516 1019.67474365234 1007.14892578125 992.951354980469 982.151489257812 986.825256347656 981.014831542969 995.597229003906 985.791625976562 988.241027832031 987.8310546875 993.2724609375 1002.35272216797 1003.62261962891
930.962951660156 932.174682617188 937.973937988281 936.191772460938 936.582397460938 939.758666992188 937.230651855469 941.536743164062 945.113525390625 950.379028320312 967.817504882812 960.677612304688 962.355102539062 972.162231445312 979.798828125 989.128784179688 991.2060546875 996.222106933594 996.136657714844 992.596435546875 992.324096679688 991.376586914062 992.1826171875 992.401794433594 982.279479980469 976.690673828125 980.679016113281 985.083984375 985.796936035156 982.05615234375 983.99072265625 987.927429199219 985.604858398438 982.874328613281 981.411071777344 978.402282714844 978.954040527344 985.258117675781 987.695617675781 995.420471191406 1000.62762451172 1005.11029052734 1001.31262207031 1002.22076416016 1009.88201904297 1013.22021484375 1011.34442138672 1019.21875 1014.26275634766 1012.43225097656 1006.70922851562 1010.35131835938 993.380554199219 982.793823242188 976.051940917969 972.861694335938 976.546752929688 976.919982910156 980.011840820312 986.5400390625 975.181640625 970.925476074219 965.207092285156 967.786437988281 975.803833007812 979.991943359375 975.93310546875 975.939147949219 984.019104003906 982.965576171875 984.201354980469 993.092956542969 997.376647949219 991.350769042969 995.599487304688 1001.68353271484 1014.62017822266 1011.60882568359 1009.15661621094 1003.65802001953 997.173217773438 1007.64886474609 995.771545410156 998.435913085938 1000.84588623047 996.569458007812 982.46533203125 985.129638671875 990.016845703125 982.768127441406 983.130187988281 991.932373046875 990.514282226562 985.298278808594 984.938293457031 992.638916015625 994.126281738281 1002.00653076172 1007.23486328125 1007.69952392578 1002.99096679688 991.821044921875 1000.96697998047 1013.26794433594 1015.74426269531 1014.78106689453 1019.74505615234 1028.74267578125 1023.47515869141 1031.49157714844 1025.08020019531 1028.6845703125 1028.61340332031 1030.45446777344 1024.01843261719 1019.96405029297 1026.30944824219 1016.08068847656 1018.16174316406 1016.71606445312 1017.10723876953 1016.12847900391 1028.04919433594 1023.97058105469 1017.17108154297 1017.30426025391 1013.58190917969 1011.78442382812 1012.31549072266 999.94677734375 997.061401367188 998.479858398438 1003.52593994141 1010.36755371094 1021.50714111328 1012.24725341797 1000.85162353516 998.051025390625 997.856323242188 989.951721191406 987.728942871094 985.481628417969 987.455627441406 987.721740722656 989.934326171875 989.951232910156 989.582397460938 985.201110839844 988.68994140625 992.396301269531
950.495910644531 955.703674316406 947.654602050781 934.292724609375 942.838989257812 933.536560058594 936.271301269531 937.391479492188 946.648559570312 952.63330078125 970.648315429688 975.660095214844 967.814514160156 973.199645996094 975.455261230469 984.614562988281 991.313232421875 997.26220703125 984.933959960938 990.923583984375 994.718933105469 997.862609863281 998.230407714844 994.3681640625 995.492004394531 987.315673828125 985.625549316406 975.068359375 981.165649414062 982.080261230469 991.520263671875 985.490295410156 982.615112304688 977.741088867188 972.119934082031 980.906860351562 989.147827148438 979.489379882812 984.993103027344 1002.85760498047 993.419006347656 1004.40423583984 997.680603027344 1008.16607666016 1010.68017578125 1014.81921386719 1024.439453125 1020.99200439453 1012.87225341797 1009.23510742188 1012.53948974609 1009.21496582031 1006.71820068359 988.015991210938 980.56005859375 969.312316894531 976.975646972656 981.751647949219 985.930297851562 982.254333496094 977.252807617188 977.408081054688 974.368103027344 976.257568359375 981.407897949219 985.365173339844 983.763916015625 978.24755859375 978.912231445312 980.681945800781 982.039916992188 994.971008300781 987.888610839844 992.736145019531 1004.72540283203 1002.92443847656 1013.08477783203 1021.52264404297 1013.724609375 1005.86108398438 1004.86352539062 1012.06512451172 1008.49108886719 1004.35009765625 994.03076171875 986.97314453125 987.315307617188 987.682250976562 988.669860839844 981.648376464844 985.628662109375 994.115661621094 988.589233398438 990.708618164062 989.065002441406 989.822509765625 995.884033203125 1009.37615966797 1012.15954589844 1003.79040527344 1005.99853515625 1008.32507324219 1010.24053955078 1008.21832275391 1011.56231689453 1015.28448486328 1014.76062011719 1021.77825927734 1020.52874755859 1028.76672363281 1024.26721191406 1021.76031494141 1022.98968505859 1022.61560058594 1031.89892578125 1024.51013183594 1015.21960449219 1017.28100585938 1022.53979492188 1012.45654296875 1012.41668701172 1019.115234375 1026.50158691406 1034.02600097656 1027.72814941406 1023.19067382812 1014.02044677734 1016.26513671875 1004.12976074219 1000.56176757812 995.623413085938 996.439025878906 1000.56048583984 1007.52978515625 1008.54205322266 1009.65179443359 1001.97985839844 996.024291992188 990.333923339844 990.881164550781 994.120849609375 988.379089355469 994.124389648438 990.354125976562 986.439392089844 995.160949707031 990.323486328125 981.530944824219 990.823608398438 985.858520507812
953.024108886719 951.750366210938 950.645812988281 938.439575195312 940.929748535156 935.387390136719 938.346496582031 935.089599609375 939.118530273438 957.472412109375 972.457702636719 969.993225097656 978.043640136719 977.64501953125 974.232788085938 977.372741699219 985.237182617188 986.662475585938 986.6396484375 996.182250976562 991.792358398438 993.973205566406 993.393005371094 996.860046386719 988.180603027344 991.275024414062 989.25341796875 986.158081054688 978.720458984375 987.384399414062 983.800964355469 978.471252441406 983.526794433594 979.048583984375 974.211547851562 989.363159179688 987.75732421875 992.055725097656 988.810180664062 1006.7412109375 1000.71392822266 1002.04486083984 1001.75640869141 1014.56134033203 1020.48913574219 1025.87683105469 1027.1552734375 1028.09313964844 1019.37268066406 1016.44006347656 1003.43579101562 1001.62030029297 999.337768554688 989.763427734375 971.374755859375 961.587280273438 970.829223632812 981.309204101562 980.263488769531 980.743103027344 980.892456054688 988.387634277344 982.06591796875 973.596130371094 977.207092285156 978.834533691406 980.696044921875 976.373657226562 972.043701171875 968.927001953125 983.572021484375 990.028137207031 988.114074707031 990.343444824219 1005.60986328125 1006.37023925781 1019.76452636719 1013.69592285156 1013.15093994141 1008.44549560547 1002.51416015625 1015.05731201172 1010.71435546875 1008.79602050781 987.155090332031 995.013854980469 992.403503417969 986.043151855469 990.082946777344 988.325866699219 985.147888183594 994.169555664062 990.66845703125 988.368103027344 988.025939941406 997.573120117188 997.748962402344 1006.75183105469 998.744750976562 996.601806640625 1001.36053466797 1009.18408203125 1016.49505615234 1009.69708251953 1014.19671630859 1012.658203125 1018.61663818359 1027.02575683594 1018.57800292969 1033.39099121094 1032.02136230469 1026.14184570312 1031.06018066406 1028.69482421875 1030.90185546875 1032.93591308594 1020.27740478516 1025.88305664062 1030.76123046875 1013.83331298828 1019.11840820312 1022.54016113281 1029.33117675781 1026.76904296875 1034.27416992188 1016.72290039062 1008.84503173828 1012.18780517578 1011.77600097656 1002.27374267578 998.096008300781 990.230041503906 1002.23107910156 1010.39404296875 1004.10723876953 1003.89556884766 1002.22296142578 1004.49749755859 1005.91949462891 998.78955078125 1004.72064208984 993.161437988281 992.74658203125 988.976745605469 992.376525878906 985.60205078125 981.052978515625 982.424377441406 984.47119140625 973.61669921875
942.923645019531 951.881103515625 943.920288085938 935.364685058594 933.941345214844 933.99560546875 935.274780273438 938.726989746094 939.671691894531 963.256713867188 962.125061035156 968.18359375 975.048828125 977.235229492188 972.985473632812 967.223449707031 971.738220214844 981.169494628906 987.781555175781 997.668701171875 999.477722167969 1001.44097900391 982.364135742188 985.339111328125 986.101440429688 992.21435546875 990.144897460938 989.1962890625 982.802185058594 979.53662109375 984.432739257812 985.266357421875 989.088256835938 981.280822753906 983.428894042969 985.798950195312 992.377563476562 992.485046386719 997.503356933594 995.64453125 993.818725585938 1000.88299560547 999.524169921875 1012.34625244141 1013.50555419922 1020.78497314453 1018.35559082031 1022.9619140625 1022.82244873047 1011.33068847656 1000.02178955078 989.724426269531 992.123901367188 991.203552246094 972.62109375 962.709838867188 973.901184082031 982.393249511719 975.702697753906 977.662536621094 982.917663574219 983.643127441406 977.456420898438 978.09375 978.606750488281 973.268920898438 973.498046875 964.395935058594 966.461853027344 968.713439941406 983.042724609375 985.811157226562 989.36279296875 990.425476074219 1000.25958251953 1010.99060058594 1011.72076416016 1009.36853027344 1001.95074462891 1007.076171875 1010.31213378906 1008.67517089844 1019.31951904297 1007.42724609375 1000.40197753906 997.194519042969 1004.24877929688 996.672058105469 993.678344726562 991.175720214844 998.076110839844 1003.26995849609 996.799499511719 991.313232421875 994.609130859375 996.955749511719 993.933532714844 1002.99829101562 1000.72271728516 995.853393554688 999.939147949219 1000.39764404297 1007.11224365234 1000.60961914062 1014.01397705078 1007.23291015625 1014.41430664062 1026.58679199219 1023.82720947266 1028.51684570312 1032.59167480469 1034.46203613281 1033.10083007812 1032.20886230469 1028.84411621094 1035.72448730469 1033.7841796875 1035.55908203125 1025.79809570312 1020.56372070312 1025.8203125 1024.50500488281 1023.70281982422 1025.52954101562 1019.61706542969 1016.162109375 1005.07385253906 1003.84326171875 1009.96105957031 1006.38677978516 1007.04797363281 1000.88452148438 999.111877441406 1005.55578613281 1005.11218261719 1002.91650390625 1004.06451416016 1001.50732421875 1004.42327880859 998.351135253906 996.25732421875 987.389099121094 986.555419921875 980.647827148438 980.22998046875 981.957580566406 976.803100585938 987.222412109375 982.7880859375 984.634704589844
939.822998046875 946.663391113281 945.21240234375 942.527526855469 938.412536621094 939.447204589844 933.719543457031 939.99658203125 947.708801269531 954.2265625 953.153381347656 958.45947265625 976.073913574219 972.204895019531 974.132934570312 970.589416503906 974.954345703125 982.489929199219 980.927917480469 980.899963378906 993.812377929688 992.465209960938 986.498229980469 987.276611328125 992.910461425781 992.58642578125 984.726013183594 988.718688964844 986.1220703125 978.070495605469 979.153991699219 976.068725585938 985.856567382812 980.197021484375 992.196044921875 986.944213867188 988.599731445312 986.503112792969 987.943237304688 981.948608398438 987.489807128906 994.102233886719 1001.68176269531 1015.07592773438 1013.16265869141 1018.68426513672 1020.71215820312 1019.25012207031 1021.34759521484 1010.83605957031 1008.27038574219 997.880249023438 996.939514160156 990.656433105469 986.915710449219 978.041015625 983.500915527344 982.508117675781 990.270751953125 985.337097167969 987.127075195312 987.073974609375 974.618103027344 973.977844238281 974.436645507812 977.489929199219 968.782348632812 969.170715332031 972.706237792969 978.529357910156 982.396240234375 985.427185058594 993.448669433594 995.94482421875 994.66796875 1005.75567626953 1007.91009521484 1007.12463378906 1009.16711425781 1007.37194824219 1010.61785888672 1013.52258300781 1008.51287841797 1005.64819335938 1002.58386230469 999.531799316406 1002.05926513672 1004.77600097656 997.713562011719 990.967102050781 992.281372070312 993.354064941406 994.027893066406 989.70751953125 994.596923828125 993.534973144531 991.103759765625 997.444580078125 994.066589355469 994.897766113281 992.331970214844 1001.84228515625 1004.07659912109 1009.35266113281 1003.32135009766 1004.16119384766 1015.02069091797 1017.73071289062 1028.46875 1029.17211914062 1030.85717773438 1037.18029785156 1035.77673339844 1033.14428710938 1034.96630859375 1043.03039550781 1042.23657226562 1029.27429199219 1024.34375 1026.42016601562 1030.46643066406 1022.66766357422 1016.14599609375 1019.50323486328 1010.08599853516 1005.84234619141 1001.93676757812 1001.17736816406 1008.44165039062 1005.38073730469 1004.44982910156 995.56640625 992.341247558594 991.433044433594 1001.20343017578 998.526123046875 1000.25946044922 996.143249511719 996.143859863281 999.220397949219 990.706726074219 987.897033691406 989.694030761719 978.462524414062 977.625122070312 980.592163085938 970.489379882812 987.677307128906 981.911926269531 986.079406738281
939.378234863281 941.333984375 945.003723144531 946.099548339844 937.886779785156 934.537109375 933.741149902344 945.086669921875 952.039184570312 960.173461914062 956.245971679688 955.992431640625 968.267028808594 969.251647949219 963.867919921875 965.014526367188 965.680541992188 971.779663085938 974.490600585938 983.773010253906 989.872253417969 989.56640625 990.200073242188 988.861755371094 995.177917480469 981.87109375 985.621459960938 983.05419921875 986.914367675781 976.228149414062 976.950134277344 970.391540527344 976.7822265625 981.048034667969 981.194396972656 985.2255859375 992.301635742188 989.044494628906 988.032653808594 978.034240722656 981.597412109375 995.59765625 996.781188964844 1005.87945556641 1009.11065673828 1002.77905273438 1029.1181640625 1024.39184570312 1011.69696044922 1014.2353515625 1014.20202636719 1011.31427001953 996.000183105469 985.591796875 985.288879394531 986.44580078125 977.378173828125 983.299255371094 988.81298828125 990.8115234375 983.948303222656 984.626708984375 974.846984863281 964.530883789062 975.032531738281 979.550842285156 975.551574707031 975.590576171875 978.718505859375 988.968627929688 983.567077636719 986.617736816406 990.974243164062 984.95849609375 988.47412109375 995.391418457031 994.614196777344 995.703186035156 996.70166015625 997.654663085938 1007.60858154297 1007.88879394531 1015.24371337891 1001.04852294922 1006.42596435547 1005.37103271484 999.016235351562 1010.29229736328 1007.15594482422 998.848083496094 998.684936523438 996.056030273438 996.31884765625 995.825378417969 996.306945800781 997.708312988281 997.403625488281 996.860778808594 994.477905273438 992.202331542969 993.775939941406 1000.60583496094 1005.59674072266 1014.74041748047 1013.54559326172 1019.64959716797 1020.13043212891 1019.02783203125 1019.24645996094 1030.333984375 1042.10192871094 1042.33068847656 1043.23522949219 1053.61950683594 1051.42663574219 1045.24731445312 1041.45288085938 1032.56274414062 1030.26770019531 1034.84753417969 1027.24340820312 1029.01647949219 1006.72894287109 1004.64801025391 1004.44293212891 998.267272949219 992.376708984375 994.265197753906 998.510864257812 995.715270996094 996.278747558594 991.125244140625 991.647338867188 995.0234375 1000.40222167969 996.177612304688 993.971130371094 992.263610839844 998.05078125 986.78662109375 990.177062988281 992.0673828125 979.959594726562 971.841125488281 973.581359863281 983.408325195312 973.882690429688 977.573486328125 982.24755859375 973.168701171875
933.760620117188 933.875915527344 939.366027832031 936.699768066406 931.194030761719 931.868041992188 935.96826171875 942.340148925781 959.188293457031 962.966491699219 961.343994140625 957.023986816406 964.358154296875 972.597595214844 955.386047363281 965.07958984375 954.912170410156 961.041076660156 976.188537597656 974.848388671875 976.253845214844 983.541259765625 976.3525390625 974.822692871094 984.264831542969 992.906372070312 990.052978515625 978.545471191406 972.395751953125 978.945373535156 970.91064453125 979.515319824219 984.108520507812 990.667175292969 987.101745605469 981.8798828125 989.415649414062 985.655090332031 1000.25750732422 985.589782714844 980.741271972656 982.981872558594 990.206420898438 997.852111816406 1002.20959472656 1012.3291015625 1020.84851074219 1025.05285644531 1025.21643066406 1013.77642822266 1016.49481201172 1007.75042724609 1007.34716796875 999.688232421875 995.783874511719 994.968505859375 993.657775878906 988.878967285156 988.451293945312 988.085388183594 983.191772460938 982.664916992188 985.203918457031 972.066345214844 976.444885253906 980.632385253906 982.22802734375 982.884948730469 983.746459960938 988.105529785156 990.694702148438 989.297485351562 984.453430175781 985.892517089844 989.242919921875 984.641540527344 984.140808105469 989.752319335938 993.125427246094 998.378356933594 1005.62701416016 1012.31866455078 1013.55474853516 1004.91918945312 1004.02355957031 1006.59497070312 995.856506347656 998.618041992188 1013.77368164062 998.687377929688 997.810180664062 996.551208496094 993.868103027344 990.662292480469 994.33544921875 996.972412109375 999.897155761719 998.552612304688 1006.23400878906 1006.42425537109 997.989929199219 1005.2685546875 1016.16882324219 1014.65423583984 1011.33447265625 1018.26116943359 1019.34796142578 1015.57489013672 1013.95764160156 1035.93762207031 1041.73547363281 1036.99499511719 1044.63488769531 1055.93713378906 1048.30871582031 1048.86340332031 1035.83032226562 1033.31848144531 1026.15490722656 1027.58911132812 1028.31945800781 1021.66247558594 1014.89489746094 993.216247558594 1003.33807373047 984.095703125 985.00341796875 983.211975097656 983.498596191406 990.836791992188 998.136535644531 991.228942871094 986.613220214844 991.012084960938 988.846435546875 992.382263183594 993.138488769531 993.216369628906 993.028198242188 993.0703125 984.024841308594 981.286315917969 969.149658203125 973.584289550781 966.419677734375 970.988037109375 972.189758300781 983.075622558594 982.312561035156 979.205139160156
