NCOLS 150
NROWS 37
XLLCORNER 7394249
YLLCORNER 4842569
CELLSIZE 30
NODATA_VALUE -9999
949.900390625 951.7412109375 947.789245605469 955.257751464844 948.575500488281 950.935180664062 956.277770996094 955.846923828125 970.567749023438 968.732849121094 962.811096191406 967.0732421875 975.90380859375 975.518676757812 981.410583496094 981.812377929688 983.343444824219 980.938781738281 984.467956542969 976.953735351562 969.258728027344 969.344299316406 971.616271972656 965.680725097656 963.636535644531 976.070373535156 982.996154785156 978.710083007812 979.094970703125 978.439331054688 979.16650390625 977.730834960938 984.585632324219 981.678955078125 974.242309570312 972.099792480469 973.972839355469 977.109130859375 968.332092285156 975.103820800781 975.150939941406 970.199768066406 965.272888183594 966.345581054688 968.061157226562 971.582214355469 973.229187011719 970.963500976562 975.569396972656 981.701293945312 970.29443359375 956.392517089844 958.63134765625 965.837707519531 970.246459960938 968.264709472656 974.309509277344 974.290832519531 978.536987304688 975.865173339844 980.643615722656 975.057067871094 975.129272460938 971.531799316406 974.968933105469 980.108093261719 972.676391601562 967.755798339844 968.115478515625 965.431091308594 972.09375 967.716918945312 968.216064453125 964.971557617188 969.755126953125 963.576904296875 970.482849121094 969.536254882812 973.792663574219 977.224609375 973.999816894531 966.699401855469 972.5791015625 980.381530761719 985.802307128906 984.057250976562 980.598937988281 985.592041015625 978.511352539062 978.598815917969 993.529052734375 989.080627441406 986.347778320312 982.070434570312 983.424926757812 979.161804199219 975.185119628906 969.355895996094 974.533081054688 978.582153320312 979.793701171875 981.362182617188 977.60498046875 985.992004394531 982.8271484375 980.815856933594 986.14599609375 990.028747558594 991.458251953125 990.763366699219 996.21826171875 991.407043457031 995.844421386719 1002.08435058594 1011.90325927734 1015.77685546875 1010.5927734375 1002.71435546875 1008.78308105469 995.422729492188 988.939270019531 1003.43347167969 996.417846679688 1005.55584716797 1003.23760986328 1022.88751220703 1027.69763183594 1031.82873535156 1040.74169921875 1040.85363769531 1037.62658691406 1041.07104492188 1043.34313964844 1049.69665527344 1052.51391601562 1058.59631347656 1065.66589355469 1085.12548828125 1082.54455566406 1090.49230957031 1103.75463867188 1103.73522949219 1109.61865234375 1129.00268554688 1143.24304199219 1154.59252929688 1163.26867675781 1167.66149902344 1166.20654296875 1165.45263671875
946.804870605469 945.361389160156 944.077453613281 953.856201171875 948.31298828125 948.556213378906 956.190307617188 959.017700195312 962.137145996094 967.019348144531 968.873962402344 964.855590820312 971.186096191406 977.368896484375 982.341613769531 978.881408691406 975.414245605469 977.190734863281 971.958862304688 966.002563476562 962.194152832031 965.528076171875 959.182800292969 961.745300292969 963.286437988281 971.233154296875 978.060791015625 967.568603515625 973.125793457031 974.220825195312 984.678833007812 978.690185546875 973.60986328125 971.236389160156 969.861206054688 969.943969726562 965.319763183594 970.5537109375 969.06982421875 972.2890625 969.959533691406 972.453735351562 964.96533203125 965.284851074219 972.335144042969 977.606994628906 979.358337402344 984.110046386719 979.206298828125 977.09912109375 968.681335449219 965.75244140625 960.682189941406 964.654174804688 974.029174804688 973.80712890625 974.372131347656 977.706420898438 981.592407226562 971.088195800781 977.359436035156 975.969543457031 984.316650390625 977.2607421875 981.343139648438 978.919860839844 973.904174804688 972.443237304688 968.347106933594 963.738220214844 966.712341308594 973.369140625 972.428833007812 968.691040039062 966.170043945312 965.721069335938 977.154846191406 968.221008300781 965.137268066406 968.50439453125 975.71630859375 978.349731445312 975.180786132812 976.354431152344 979.09765625 971.311645507812 980.729553222656 985.813415527344 975.515869140625 979.255493164062 987.760375976562 983.770080566406 983.027099609375 974.829345703125 967.1279296875 967.149475097656 968.476745605469 969.178161621094 974.503723144531 984.013549804688 981.669799804688 983.14794921875 970.264587402344 975.025024414062 981.584655761719 983.665710449219 988.959045410156 992.148132324219 1003.04602050781 1001.09197998047 996.28662109375 987.235290527344 994.431213378906 1008.19494628906 1004.29272460938 1005.74676513672 1006.01043701172 1005.90838623047 1010.61987304688 991.360473632812 992.90087890625 992.438903808594 997.713195800781 1002.66778564453 1006.05078125 1024.12438964844 1037.43017578125 1032.88830566406 1047.376953125 1045.39794921875 1046.00451660156 1051.93200683594 1057.94079589844 1063.4951171875 1067.41247558594 1065.05737304688 1071.4111328125 1084.90795898438 1096.91186523438 1094.97485351562 1101.28686523438 1101.59594726562 1114.70458984375 1138.17822265625 1146.06616210938 1150.86608886719 1170.34545898438 1177.58801269531 1172.16259765625 1168.01306152344
951.518615722656 950.645385742188 952.050842285156 951.74072265625 951.552612304688 951.636169433594 955.025207519531 961.816833496094 957.83740234375 966.541259765625 970.985717773438 970.360534667969 974.726928710938 978.040344238281 981.5810546875 980.599609375 978.208374023438 978.84423828125 973.761474609375 962.744262695312 961.20751953125 963.696166992188 955.635131835938 960.336669921875 966.145202636719 965.332214355469 973.381713867188 969.501281738281 971.182800292969 973.308288574219 974.0673828125 981.746215820312 980.723449707031 982.010314941406 969.694702148438 965.409301757812 962.318176269531 966.614440917969 981.920959472656 979.182495117188 967.904235839844 959.868225097656 962.380249023438 966.218505859375 970.591735839844 975.684631347656 972.424194335938 980.811218261719 974.96826171875 977.762268066406 979.619750976562 971.953430175781 971.012023925781 968.819702148438 972.610107421875 975.587585449219 974.708984375 975.280212402344 972.6259765625 968.006896972656 972.442810058594 972.856689453125 973.784851074219 964.410583496094 981.234985351562 980.072082519531 970.572814941406 972.351928710938 969.731323242188 966.652587890625 964.79052734375 965.543884277344 963.695678710938 962.970703125 971.709533691406 974.678588867188 969.637939453125 965.467468261719 958.364929199219 966.050720214844 972.939086914062 977.577026367188 978.787353515625 977.189270019531 978.158386230469 968.938720703125 977.933349609375 971.918273925781 972.234069824219 982.618225097656 983.667419433594 978.135864257812 972.221252441406 972.75732421875 970.359741210938 969.994567871094 970.989196777344 978.779907226562 971.286499023438 978.858459472656 971.126770019531 969.584350585938 970.771484375 976.192687988281 986.080444335938 985.035583496094 986.35888671875 993.162292480469 997.293029785156 1008.68377685547 997.662963867188 990.19482421875 988.368713378906 991.76611328125 990.387084960938 1003.17944335938 1010.59991455078 1011.34216308594 1004.29968261719 990.876708984375 1001.25280761719 1003.4521484375 999.674072265625 1005.32922363281 1014.62109375 1013.98797607422 1024.28186035156 1040.62780761719 1040.64013671875 1046.12854003906 1054.44360351562 1066.57604980469 1062.13269042969 1066.34887695312 1067.8564453125 1077.1279296875 1081.09240722656 1081.73962402344 1095.70068359375 1102.23657226562 1103.55834960938 1111.34289550781 1116.04760742188 1134.55297851562 1146.96752929688 1156.82922363281 1168.66052246094 1170.87573242188 1166.76416015625 1157.02014160156
951.168823242188 959.427185058594 962.666687011719 959.060852050781 960.070373535156 958.9306640625 960.083923339844 964.152221679688 955.164245605469 961.407958984375 964.228149414062 968.232482910156 982.551330566406 979.56982421875 986.785705566406 981.773071289062 979.637878417969 977.824279785156 971.876281738281 959.580871582031 963.831726074219 964.610595703125 956.90673828125 957.841674804688 960.984497070312 965.160095214844 964.916748046875 967.543884277344 966.490417480469 961.504333496094 971.319519042969 975.842102050781 984.949401855469 978.197692871094 964.997375488281 968.377502441406 973.818786621094 972.644958496094 971.207092285156 961.17236328125 970.309143066406 959.161499023438 965.867980957031 972.756286621094 962.511535644531 965.908996582031 970.87451171875 974.164916992188 975.4765625 984.502380371094 976.919006347656 969.562316894531 977.029052734375 968.968872070312 970.226318359375 977.015808105469 974.488708496094 975.63232421875 970.349609375 965.380126953125 971.589538574219 971.987487792969 972.455627441406 959.156494140625 972.389953613281 976.392395019531 973.38232421875 976.654846191406 969.662414550781 965.997192382812 968.569702148438 965.901916503906 958.584655761719 955.263916015625 963.373657226562 971.924194335938 975.052856445312 966.911743164062 965.834167480469 972.790771484375 970.141052246094 969.012512207031 975.230102539062 975.795166015625 970.029052734375 971.315734863281 972.107482910156 968.059509277344 969.898132324219 979.217224121094 974.645141601562 978.994750976562 978.848510742188 973.460571289062 973.449768066406 968.451293945312 968.886047363281 970.834838867188 977.208862304688 973.84814453125 976.648376464844 971.815979003906 968.9619140625 987.082702636719 992.733764648438 993.184753417969 989.700439453125 998.5380859375 997.866394042969 987.117126464844 990.174560546875 991.380859375 991.213317871094 988.7822265625 984.18994140625 998.11181640625 1006.68218994141 1010.17993164062 1011.10229492188 1007.06024169922 997.225769042969 1007.87030029297 1003.25903320312 1001.61761474609 1009.34552001953 1012.56030273438 1021.85052490234 1024.12976074219 1035.38830566406 1035.05041503906 1050.97033691406 1065.01586914062 1072.63842773438 1077.02966308594 1083.86352539062 1082.30493164062 1090.5078125 1090.11206054688 1087.80725097656 1103.65563964844 1112.0576171875 1117.95629882812 1112.54284667969 1128.919921875 1136.4619140625 1156.27355957031 1160.98596191406 1158.44873046875 1152.90234375 1147.40478515625
958.223022460938 954.285705566406 954.498657226562 956.404235839844 966.470397949219 963.412536621094 959.501098632812 968.732482910156 960.947021484375 963.671203613281 963.709106445312 966.437927246094 983.957763671875 980.641784667969 980.377319335938 978.387939453125 980.568115234375 982.351440429688 976.915222167969 969.04052734375 972.70947265625 963.061279296875 955.598693847656 954.06298828125 962.329040527344 969.716552734375 974.623352050781 968.474365234375 963.321044921875 968.295288085938 967.831237792969 967.479858398438 968.634643554688 979.747375488281 977.515319824219 965.132263183594 965.201904296875 961.48095703125 964.998291015625 967.073120117188 966.4912109375 965.612670898438 964.851318359375 960.3701171875 958.8125 965.759460449219 970.775024414062 965.427612304688 957.211730957031 971.024169921875 973.45556640625 971.298400878906 968.911010742188 963.037353515625 969.087768554688 974.377136230469 972.035217285156 962.642944335938 963.377380371094 964.920654296875 967.683837890625 973.772827148438 974.56787109375 959.217163085938 964.981323242188 976.235961914062 974.537841796875 976.545104980469 972.925048828125 962.952819824219 958.729248046875 952.349853515625 953.081237792969 959.887390136719 968.990051269531 971.328186035156 971.933837890625 968.099304199219 966.364440917969 975.202453613281 967.516662597656 967.653991699219 967.881591796875 970.548522949219 971.588562011719 964.0517578125 967.483764648438 965.364074707031 969.519226074219 967.760803222656 973.211853027344 977.756652832031 982.218017578125 979.909301757812 977.795837402344 977.674255371094 979.455444335938 976.314758300781 985.180480957031 974.812683105469 972.894165039062 984.114868164062 987.431518554688 993.129150390625 999.298156738281 994.550109863281 999.657470703125 996.688903808594 989.075622558594 993.560729980469 995.937133789062 994.011169433594 989.698486328125 989.069641113281 983.141052246094 991.052551269531 1011.56823730469 1015.41900634766 1010.42755126953 1004.65484619141 994.741088867188 1007.05963134766 1013.24810791016 1016.10284423828 1011.64196777344 1016.37841796875 1022.16864013672 1033.80773925781 1029.90319824219 1041.49243164062 1058.38525390625 1064.97265625 1074.77111816406 1079.283203125 1090.11499023438 1086.1357421875 1099.27514648438 1101.61584472656 1107.52331542969 1107.09716796875 1114.33544921875 1112.44250488281 1107.74096679688 1124.09777832031 1130.01770019531 1146.62451171875 1154.01953125 1140.70715332031 1138.56115722656 1131.54113769531
961.207946777344 950.511901855469 954.232360839844 960.264404296875 961.030456542969 959.076843261719 958.733642578125 967.34228515625 976.844665527344 963.992309570312 973.216430664062 964.157348632812 969.614807128906 973.813110351562 973.014526367188 969.129821777344 972.430358886719 973.802307128906 972.420043945312 962.334899902344 963.708923339844 958.105834960938 952.349975585938 957.421813964844 963.547485351562 965.813720703125 966.200622558594 961.6552734375 962.087768554688 959.341918945312 969.499450683594 969.489929199219 971.039001464844 983.042114257812 968.442504882812 964.323425292969 965.628601074219 966.577270507812 960.169982910156 962.116821289062 966.609191894531 964.207763671875 965.33154296875 959.537780761719 964.335876464844 968.026611328125 963.85107421875 966.367431640625 959.512939453125 966.094604492188 969.645935058594 973.671142578125 973.883605957031 969.644470214844 961.328308105469 966.50537109375 968.661804199219 953.319091796875 958.494812011719 960.445007324219 965.588989257812 968.012634277344 975.048522949219 969.595764160156 968.320617675781 981.828491210938 985.698303222656 974.722839355469 969.990112304688 956.492614746094 962.11572265625 963.969970703125 954.91748046875 962.413635253906 970.827026367188 967.686828613281 969.778747558594 963.383239746094 971.783081054688 969.217224121094 967.580322265625 968.901550292969 971.205871582031 965.497375488281 964.395751953125 973.947509765625 962.838134765625 967.572998046875 966.910339355469 977.650390625 978.4775390625 972.685668945312 976.935668945312 984.290588378906 980.063781738281 980.208679199219 979.602783203125 972.479125976562 970.250671386719 973.230590820312 978.585205078125 984.865051269531 993.98486328125 993.562744140625 998.256774902344 996.283630371094 989.019897460938 994.831787109375 986.971435546875 989.428344726562 997.044555664062 992.208251953125 997.104248046875 996.060302734375 994.581115722656 992.444519042969 1001.92828369141 1004.38647460938 1004.29284667969 1005.76251220703 997.463439941406 1000.13140869141 1014.66632080078 1023.79650878906 1017.05554199219 1014.26800537109 1020.01177978516 1025.28564453125 1033.10144042969 1044.51879882812 1048.46179199219 1059.24523925781 1074.13745117188 1074.99926757812 1094.14807128906 1094.01318359375 1096.42468261719 1095.78393554688 1097.36193847656 1100.88024902344 1101.94226074219 1104.95739746094 1104.67919921875 1109.7744140625 1124.65515136719 1125.77661132812 1130.75073242188 1122.03430175781 1124.15539550781 1117.93444824219
946.348388671875 945.855285644531 951.052429199219 956.724609375 961.978820800781 961.858947753906 963.373046875 968.505249023438 969.260620117188 969.040100097656 970.686889648438 963.36669921875 970.511474609375 977.142944335938 968.614013671875 972.810668945312 975.820129394531 970.697875976562 963.711853027344 963.220153808594 961.174865722656 954.31494140625 954.638427734375 959.483215332031 968.598510742188 962.184020996094 959.847412109375 953.339050292969 952.732543945312 966.175476074219 973.760498046875 980.109497070312 973.645690917969 972.522583007812 973.505187988281 962.30322265625 962.199829101562 964.878112792969 963.16943359375 961.939331054688 965.177429199219 967.63525390625 962.670776367188 965.275085449219 969.41943359375 968.696899414062 964.779602050781 968.3251953125 957.46044921875 966.1796875 965.968811035156 965.799743652344 967.904357910156 964.238464355469 961.77734375 967.658264160156 960.965026855469 953.557861328125 959.751892089844 960.265502929688 966.657287597656 958.323303222656 967.670471191406 965.780151367188 972.418579101562 978.346862792969 986.373229980469 976.687377929688 965.188415527344 955.428039550781 965.092712402344 963.798828125 960.751708984375 965.672058105469 967.883728027344 971.225036621094 970.0185546875 975.109741210938 977.471618652344 973.258422851562 969.146301269531 974.770385742188 974.160949707031 963.799133300781 969.927429199219 969.598022460938 969.415100097656 967.264282226562 967.975341796875 977.732666015625 976.193054199219 975.699035644531 973.104553222656 975.191467285156 979.688598632812 976.965881347656 982.108581542969 982.660949707031 975.045104980469 965.815002441406 980.741271972656 987.194152832031 989.058837890625 988.909423828125 997.185668945312 991.790466308594 988.929504394531 989.385131835938 988.958190917969 992.666442871094 991.852844238281 991.453308105469 992.536437988281 991.273620605469 1004.19049072266 994.025329589844 996.344970703125 996.429809570312 1008.21472167969 1010.06060791016 1006.96905517578 1020.79058837891 1018.69903564453 1014.75122070312 1010.08294677734 1016.32727050781 1019.177734375 1022.5751953125 1033.05651855469 1043.05322265625 1044.78747558594 1060.15612792969 1073.32104492188 1074.51623535156 1081.83264160156 1089.74682617188 1082.89965820312 1089.9052734375 1090.04602050781 1094.90612792969 1092.96459960938 1101.45202636719 1096.08605957031 1100.28112792969 1111.783203125 1105.701171875 1111.09899902344 1113.93627929688 1111.74450683594 1110.76318359375
950.270751953125 950.452819824219 953.247436523438 953.732177734375 958.759338378906 962.076110839844 966.106201171875 966.502075195312 976.052978515625 972.077331542969 977.045532226562 973.379943847656 974.947692871094 970.44921875 976.425964355469 971.5283203125 971.058715820312 973.973449707031 973.816040039062 965.146789550781 963.046081542969 961.107788085938 964.666870117188 953.273010253906 959.357727050781 959.519897460938 960.042724609375 960.620544433594 963.390014648438 967.802001953125 975.977844238281 975.665893554688 972.314819335938 968.464233398438 966.676147460938 959.347778320312 964.566772460938 961.914855957031 960.349182128906 952.886535644531 955.268371582031 963.032470703125 965.286254882812 959.666748046875 964.133422851562 964.243835449219 960.715698242188 956.356994628906 961.477111816406 955.815185546875 962.260192871094 966.006469726562 966.880493164062 964.771301269531 961.19970703125 959.033874511719 950.866821289062 956.6484375 958.761962890625 962.696411132812 955.452941894531 953.33544921875 955.593566894531 962.271423339844 980.260498046875 971.955078125 966.123046875 974.471923828125 973.660034179688 965.824401855469 955.84521484375 967.951354980469 969.792907714844 970.553833007812 973.465026855469 969.448486328125 963.884094238281 975.502319335938 986.471740722656 978.125366210938 971.518859863281 971.555297851562 967.250122070312 965.466491699219 973.800964355469 964.580017089844 965.053894042969 969.403625488281 975.197875976562 969.980163574219 975.098449707031 972.978210449219 970.779113769531 966.121520996094 974.742797851562 974.885192871094 980.290893554688 983.175903320312 976.999877929688 966.280212402344 970.935607910156 976.605163574219 982.795959472656 987.018493652344 988.347106933594 991.538940429688 984.310119628906 984.071960449219 988.709289550781 991.239685058594 995.45751953125 995.467346191406 991.252746582031 999.822021484375 1000.31219482422 999.899780273438 996.374206542969 1003.98583984375 1008.18530273438 1013.74322509766 1025.81958007812 1028.75915527344 1024.82409667969 1022.97399902344 1024.3701171875 1028.74841308594 1027.26452636719 1025.04541015625 1031.86706542969 1042.84204101562 1049.62097167969 1052.60766601562 1058.19311523438 1066.958984375 1078.96643066406 1093.31213378906 1082.005859375 1077.22204589844 1083.87451171875 1082.53820800781 1094.70983886719 1092.40502929688 1090.06066894531 1097.96203613281 1095.13427734375 1095.72937011719 1098.353515625 1099.60083007812 1098.91235351562 1108.23522949219
963.868286132812 951.881408691406 954.427856445312 963.763610839844 968.205627441406 975.416564941406 973.355590820312 965.256652832031 979.294860839844 979.590209960938 981.379638671875 971.961242675781 968.567626953125 980.44287109375 970.32080078125 976.825500488281 978.228698730469 974.857238769531 974.819458007812 964.903991699219 961.418273925781 958.116271972656 957.4677734375 956.590148925781 962.658752441406 961.795776367188 968.017700195312 972.31103515625 963.347717285156 974.091430664062 972.600952148438 967.020629882812 967.527648925781 975.888610839844 961.569702148438 961.062683105469 964.691711425781 959.755126953125 963.788940429688 957.5615234375 959.693725585938 962.917358398438 957.379699707031 963.773742675781 967.047058105469 948.410217285156 946.859252929688 951.796691894531 961.46337890625 959.455017089844 965.863952636719 956.096557617188 958.940307617188 962.512634277344 964.820373535156 953.993713378906 956.148315429688 947.23583984375 941.638610839844 956.7138671875 949.388366699219 960.20654296875 954.943176269531 956.991821289062 966.922790527344 969.312744140625 972.680969238281 967.253173828125 965.535766601562 953.718627929688 956.668884277344 964.775756835938 963.683654785156 962.799987792969 974.455078125 967.252990722656 960.577270507812 968.176879882812 969.541015625 958.457946777344 966.615173339844 970.0458984375 959.218322753906 968.161315917969 968.939453125 959.757080078125 951.470397949219 970.519165039062 969.470703125 969.797180175781 973.768310546875 974.206237792969 978.679504394531 981.18408203125 974.3583984375 972.768859863281 974.367736816406 971.444396972656 968.467529296875 969.441833496094 980.859313964844 973.923095703125 982.86474609375 979.053100585938 979.436767578125 975.275024414062 972.593505859375 976.772399902344 984.702758789062 988.898559570312 995.15869140625 992.738647460938 1004.20678710938 994.26904296875 989.285949707031 996.8525390625 999.340148925781 1003.06188964844 1010.09307861328 1013.43597412109 1022.92474365234 1024.55078125 1032.20861816406 1035.21765136719 1031.29663085938 1028.60571289062 1028.13757324219 1025.28479003906 1029.84020996094 1046.29479980469 1052.89318847656 1049.748046875 1062.33068847656 1066.23950195312 1076.56811523438 1087.44384765625 1077.99670410156 1078.8046875 1073.56323242188 1080.60791015625 1090.02368164062 1081.42407226562 1094.8349609375 1098.04296875 1090.26806640625 1092.78637695312 1098.15576171875 1095.34350585938 1086.68225097656 1092.45483398438
965.39599609375 960.954833984375 966.023315429688 969.757629394531 966.755432128906 969.484008789062 972.123901367188 979.235778808594 976.317321777344 974.873474121094 981.726989746094 978.486572265625 976.063659667969 979.986145019531 978.3525390625 978.682983398438 971.868347167969 974.073120117188 971.535461425781 965.320922851562 972.485656738281 965.858215332031 962.694458007812 951.140563964844 962.797973632812 954.936950683594 960.63525390625 970.700256347656 964.810852050781 966.077087402344 969.846374511719 959.969299316406 961.165222167969 970.716430664062 964.078002929688 964.980712890625 964.825256347656 957.558532714844 959.830200195312 957.393310546875 960.230895996094 963.478942871094 965.0166015625 960.571350097656 951.468200683594 945.083679199219 945.595886230469 953.854797363281 954.588439941406 955.620483398438 970.678527832031 965.900939941406 954.400024414062 954.390869140625 956.965698242188 958.315612792969 949.884460449219 940.05419921875 942.554077148438 951.846313476562 950.949645996094 953.808776855469 954.252319335938 954.019226074219 964.670349121094 965.401794433594 966.492309570312 964.286193847656 958.194091796875 953.65185546875 960.721496582031 962.432495117188 962.564758300781 960.524536132812 964.941711425781 961.786315917969 962.692199707031 952.868225097656 951.041564941406 963.805908203125 968.023193359375 958.888366699219 964.916137695312 965.201232910156 960.310302734375 955.634399414062 965.8037109375 956.269592285156 956.986877441406 967.423645019531 968.823791503906 972.648071289062 980.106994628906 969.681701660156 971.613952636719 968.015563964844 966.063537597656 970.22412109375 975.297668457031 968.281982421875 971.867553710938 984.814758300781 975.724548339844 972.357666015625 974.980773925781 969.389221191406 975.927673339844 976.893127441406 983.92822265625 989.984130859375 996.997436523438 992.570556640625 993.77001953125 991.512634277344 990.442077636719 999.824951171875 998.024780273438 1000.84143066406 1008.68383789062 1013.033203125 1018.28662109375 1024.25598144531 1030.74279785156 1032.92956542969 1033.28137207031 1036.94348144531 1028.81408691406 1024.31286621094 1029.19799804688 1044.86279296875 1050.60461425781 1060.77917480469 1065.50952148438 1072.14514160156 1078.27404785156 1093.90686035156 1087.23901367188 1077.87890625 1073.65881347656 1079.97155761719 1081.662109375 1079.29333496094 1087.15258789062 1093.45495605469 1088.55944824219 1086.66076660156 1097.74487304688 1083.63415527344 1079.13134765625 1082.77587890625
966.487670898438 958.552001953125 965.91357421875 965.310546875 973.831176757812 967.50390625 965.200988769531 972.940673828125 963.872497558594 966.617126464844 971.905517578125 979.397705078125 981.0126953125 974.016967773438 972.300720214844 972.278381347656 973.124084472656 968.99169921875 969.342712402344 971.280639648438 974.17236328125 967.461486816406 969.091125488281 962.272216796875 955.815124511719 951.457336425781 951.97314453125 962.000915527344 966.536010742188 970.895812988281 960.014221191406 961.565734863281 957.924865722656 963.473388671875 964.777893066406 972.475891113281 964.822631835938 960.575317382812 965.060241699219 951.612670898438 966.468139648438 965.721618652344 965.800537109375 958.11181640625 964.538024902344 956.168823242188 951.160278320312 951.741516113281 946.309143066406 955.389953613281 965.826843261719 965.250854492188 960.401794433594 959.218383789062 953.447509765625 946.65625 937.039916992188 951.863037109375 954.779357910156 957.508728027344 958.931640625 950.207702636719 950.0390625 952.322265625 958.580749511719 960.025939941406 965.782958984375 964.984130859375 948.296875 945.487670898438 959.67138671875 959.619323730469 963.386535644531 965.126037597656 957.654663085938 966.67529296875 959.378356933594 954.413696289062 947.801696777344 951.394653320312 961.193603515625 960.333068847656 969.117431640625 969.140075683594 962.3662109375 949.646911621094 962.259582519531 959.235412597656 956.069946289062 962.999328613281 972.816345214844 971.757873535156 973.900939941406 963.68408203125 966.474060058594 971.0537109375 969.722839355469 979.082885742188 976.6015625 976.457397460938 976.110412597656 978.512023925781 977.563232421875 980.161315917969 984.1337890625 970.280578613281 976.72998046875 976.572387695312 986.211669921875 991.439880371094 985.093688964844 987.726013183594 984.668762207031 992.781433105469 994.666625976562 985.482727050781 996.751831054688 999.953063964844 1002.75640869141 1004.85516357422 1007.99896240234 1016.17755126953 1025.0009765625 1029.04870605469 1033.26892089844 1037.65942382812 1036.58520507812 1029.31018066406 1034.17712402344 1046.546875 1054.31494140625 1061.44738769531 1068.78527832031 1080.72534179688 1084.1064453125 1091.67175292969 1095.07958984375 1084.14306640625 1081.30017089844 1075.6103515625 1080.3115234375 1075.65270996094 1084.59912109375 1080.2392578125 1094.75524902344 1083.76477050781 1081.58374023438 1084.07495117188 1081.50354003906 1083.8544921875
964.088256835938 968.278564453125 972.954040527344 972.612182617188 968.691467285156 971.713500976562 967.914489746094 971.209289550781 967.930114746094 966.285766601562 971.181701660156 974.484252929688 977.02001953125 973.446350097656 978.216918945312 975.166076660156 980.148132324219 969.338745117188 962.196838378906 965.630798339844 970.605163574219 968.009094238281 973.352233886719 964.560424804688 956.179626464844 951.625305175781 950.841491699219 956.393432617188 962.185729980469 963.459411621094 963.955932617188 963.4619140625 964.238037109375 958.447570800781 967.954711914062 967.2421875 966.055908203125 965.871765136719 967.151733398438 960.238891601562 966.332702636719 964.763732910156 956.387084960938 954.024353027344 964.792419433594 964.838134765625 953.251281738281 942.083557128906 950.389404296875 955.947143554688 959.223083496094 969.067138671875 962.461547851562 954.799743652344 945.881286621094 945.951782226562 953.898132324219 957.546508789062 952.212768554688 955.009887695312 946.542114257812 950.088684082031 948.125 953.11669921875 952.465637207031 956.646667480469 963.999206542969 967.250854492188 956.247863769531 950.005920410156 959.249938964844 956.782470703125 961.846557617188 966.833618164062 965.170288085938 965.4677734375 957.736145019531 958.471618652344 957.679443359375 957.799438476562 959.458557128906 968.667358398438 968.339599609375 963.320068359375 959.096496582031 960.338806152344 959.634582519531 964.553894042969 959.267517089844 964.599853515625 965.869445800781 961.231323242188 971.583740234375 964.178100585938 969.863403320312 976.429748535156 974.246887207031 974.981018066406 983.472778320312 971.46142578125 978.57861328125 979.752868652344 987.207153320312 995.0068359375 990.15478515625 966.078247070312 971.06298828125 983.366577148438 985.264465332031 988.845458984375 973.27978515625 980.666137695312 972.568054199219 990.870361328125 994.49365234375 994.277648925781 998.136108398438 1007.80804443359 1007.61303710938 998.540161132812 1011.07403564453 1025.42980957031 1032.56860351562 1032.15307617188 1027.09875488281 1040.91748046875 1035.09802246094 1037.82153320312 1041.40637207031 1042.85534667969 1052.68347167969 1068.35290527344 1069.9072265625 1071.69848632812 1081.01330566406 1092.10864257812 1090.95654296875 1088.3349609375 1083.46240234375 1079.88757324219 1080.4755859375 1074.54528808594 1076.87780761719 1074.31994628906 1075.72387695312 1073.03601074219 1076.25012207031 1078.28625488281 1083.44616699219 1079.80480957031
960.148559570312 966.421813964844 959.742309570312 965.521118164062 966.645629882812 963.458129882812 967.136413574219 978.167907714844 970.821350097656 972.583557128906 967.560546875 967.319152832031 975.039184570312 979.41455078125 982.592163085938 985.747924804688 986.435852050781 971.863891601562 965.485961914062 965.015747070312 968.1533203125 971.054870605469 975.9951171875 963.131042480469 952.666687011719 954.197814941406 959.280151367188 952.425842285156 962.017761230469 960.610961914062 959.045166015625 966.812377929688 967.193908691406 967.789672851562 954.935668945312 952.392517089844 963.295104980469 958.260864257812 958.3720703125 962.818725585938 964.018005371094 963.556335449219 965.479187011719 959.349914550781 960.648193359375 958.885803222656 956.258666992188 956.069030761719 953.404479980469 954.691162109375 953.692932128906 960.352905273438 951.932006835938 960.84375 958.908020019531 962.027221679688 960.536865234375 952.550109863281 949.393676757812 947.30224609375 951.38427734375 949.541198730469 942.975952148438 951.094970703125 954.949951171875 956.900146484375 959.705383300781 963.849426269531 963.880249023438 968.615295410156 958.990295410156 955.529907226562 957.374450683594 961.716186523438 963.9423828125 956.62548828125 954.318359375 962.529907226562 961.454956054688 961.855346679688 963.2744140625 970.329528808594 965.151428222656 963.300109863281 965.413513183594 968.669189453125 961.770812988281 969.387268066406 967.671325683594 971.554016113281 969.300170898438 967.129638671875 969.294860839844 968.487426757812 970.445922851562 970.654541015625 967.249877929688 978.250122070312 976.061462402344 982.081604003906 986.751831054688 994.8271484375 993.620971679688 993.217041015625 983.796264648438 982.945556640625 973.546875 979.340209960938 985.689086914062 986.828491210938 982.597412109375 976.818054199219 985.724060058594 988.019287109375 999.590087890625 993.9892578125 999.226257324219 1004.57641601562 998.076965332031 1012.38153076172 1011.1904296875 1026.41955566406 1018.64324951172 1029.42517089844 1029.90551757812 1026.19946289062 1031.5 1031.50952148438 1041.43481445312 1043.09265136719 1049.77270507812 1066.55944824219 1068.63537597656 1073.16638183594 1077.24279785156 1087.63525390625 1079.3515625 1085.45617675781 1080.94921875 1069.11657714844 1070.43029785156 1070.92895507812 1059.84228515625 1053.80541992188 1055.30786132812 1064.48876953125 1077.65515136719 1080.22631835938 1083.93249511719 1080.06066894531
961.556945800781 963.956665039062 963.658569335938 967.318054199219 974.619079589844 962.996276855469 963.727478027344 971.097473144531 969.866271972656 972.961181640625 968.266418457031 976.041076660156 977.051025390625 979.833984375 985.622009277344 983.730407714844 979.262573242188 971.887756347656 967.296691894531 971.259338378906 977.690979003906 984.325927734375 976.549621582031 968.692138671875 953.432495117188 943.441711425781 951.106689453125 950.296447753906 957.560974121094 958.910522460938 956.343811035156 960.605407714844 962.452026367188 965.089721679688 961.6962890625 957.709228515625 958.916137695312 961.593322753906 968.700561523438 971.496398925781 970.96728515625 962.183227539062 958.367004394531 956.733459472656 957.920715332031 956.070495605469 956.060791015625 951.040771484375 952.264221191406 952.948913574219 949.122802734375 950.613159179688 951.761901855469 954.744262695312 953.577819824219 957.7587890625 953.37158203125 947.286376953125 941.519226074219 948.280029296875 953.314331054688 949.594360351562 951.205871582031 948.748657226562 950.094970703125 960.9306640625 964.243469238281 965.5068359375 976.920288085938 968.009582519531 965.546875 960.192932128906 960.476501464844 962.08349609375 963.46337890625 963.677124023438 954.807495117188 955.606872558594 962.745422363281 963.18115234375 968.454406738281 960.709594726562 962.035705566406 957.405944824219 966.972106933594 962.188903808594 961.367309570312 965.155029296875 968.0947265625 970.401489257812 971.958862304688 972.562133789062 967.668151855469 970.411987304688 973.578552246094 978.548583984375 977.647338867188 985.9970703125 981.484558105469 978.545043945312 986.865234375 988.679382324219 988.012268066406 988.558044433594 986.890625 989.57958984375 985.727233886719 990.309387207031 987.616394042969 985.813354492188 986.306823730469 976.617065429688 983.669311523438 981.769592285156 985.240112304688 994.191650390625 998.609008789062 996.550598144531 996.492553710938 1010.95965576172 1007.51971435547 1008.46124267578 1010.33154296875 1019.56146240234 1022.00744628906 1014.70562744141 1025.00598144531 1027.24926757812 1041.33435058594 1043.33093261719 1050.64367675781 1059.50671386719 1068.36083984375 1071.45593261719 1079.82360839844 1085.40087890625 1096.19091796875 1084.51196289062 1081.80932617188 1079.77722167969 1071.58874511719 1064.66687011719 1062.42895507812 1056.59631347656 1051.37231445312 1059.44848632812 1076.49194335938 1073.14013671875 1074.16943359375 1075.54138183594
970.021179199219 973.097106933594 977.552978515625 981.572509765625 973.569580078125 970.658325195312 961.641723632812 964.394287109375 970.109741210938 967.986267089844 972.394714355469 971.855102539062 974.231750488281 971.384643554688 980.739196777344 978.306701660156 964.0771484375 967.235046386719 968.069030761719 977.583068847656 979.667724609375 971.784301757812 980.294311523438 968.470764160156 955.707946777344 945.492492675781 950.370971679688 943.840637207031 940.699096679688 950.451293945312 961.736206054688 956.725158691406 956.714416503906 962.7802734375 951.539916992188 951.440734863281 957.888000488281 957.030822753906 960.552795410156 961.028747558594 968.532409667969 954.28369140625 944.9853515625 945.358520507812 950.983703613281 958.828491210938 951.570251464844 956.06201171875 954.004089355469 955.867858886719 953.432006835938 954.1728515625 946.126220703125 946.45849609375 951.94775390625 959.131042480469 955.783630371094 951.041931152344 947.241149902344 954.166564941406 951.694030761719 956.244506835938 959.986572265625 958.457275390625 958.316528320312 959.906555175781 960.127380371094 971.290710449219 978.460571289062 972.353820800781 963.721984863281 966.818664550781 961.304504394531 966.001342773438 954.397644042969 957.532653808594 967.312805175781 960.529663085938 967.160949707031 962.42724609375 964.429016113281 963.362365722656 969.375854492188 964.534851074219 962.136779785156 963.373107910156 960.510192871094 962.978393554688 971.038635253906 970.824462890625 973.128784179688 963.804565429688 966.22998046875 964.245910644531 969.652038574219 978.567199707031 978.868408203125 983.678283691406 979.274658203125 983.483032226562 995.564392089844 982.44580078125 989.19775390625 986.253784179688 988.1640625 989.054077148438 987.863037109375 986.513488769531 988.980407714844 999.632629394531 988.030944824219 981.628479003906 988.715270996094 985.022094726562 984.065734863281 987.407592773438 986.118225097656 995.893188476562 997.086486816406 1008.29724121094 1011.58349609375 1003.07214355469 1005.70703125 1012.31195068359 1021.37139892578 1014.53472900391 1020.00762939453 1027.5546875 1027.35302734375 1045.90344238281 1051.45080566406 1060.72021484375 1066.77026367188 1075.98815917969 1083.326171875 1090.06494140625 1090.15393066406 1089.93200683594 1077.24731445312 1074.90075683594 1065.97583007812 1055.50524902344 1048.09912109375 1046.234375 1042.94836425781 1050.80041503906 1071.34436035156 1079.20031738281 1074.640625 1069.13952636719
968.642456054688 965.142150878906 970.079833984375 976.570739746094 974.959899902344 967.702392578125 973.072509765625 977.227905273438 967.661071777344 969.269104003906 959.934753417969 965.984191894531 955.727355957031 964.003112792969 968.482482910156 967.067749023438 964.980041503906 959.754699707031 968.070068359375 979.813171386719 973.78271484375 967.188720703125 969.150268554688 960.747375488281 960.786560058594 943.0908203125 938.438354492188 942.127197265625 946.466186523438 949.252746582031 956.774353027344 958.165649414062 955.398742675781 952.704162597656 947.606201171875 948.217224121094 953.790832519531 958.749084472656 959.928527832031 960.687316894531 950.228881835938 953.222412109375 944.751281738281 947.990295410156 949.379211425781 954.908508300781 957.0478515625 958.857971191406 946.926391601562 949.151062011719 948.189575195312 952.767395019531 952.032958984375 954.774108886719 952.733520507812 955.423583984375 952.069213867188 951.317016601562 958.854797363281 963.234252929688 964.255676269531 956.981323242188 965.581604003906 961.364440917969 955.511779785156 951.581481933594 960.617492675781 971.774780273438 974.760437011719 972.124145507812 963.292602539062 955.553161621094 960.134948730469 964.417175292969 954.204284667969 964.640197753906 970.922668457031 963.270141601562 962.660827636719 968.184448242188 964.83544921875 967.489379882812 965.441345214844 965.88037109375 960.461120605469 961.559753417969 961.901245117188 965.35400390625 969.132385253906 977.128601074219 971.106689453125 970.992370605469 972.136657714844 967.6826171875 959.949340820312 972.6376953125 971.074584960938 974.306091308594 978.828002929688 981.036437988281 983.487609863281 977.891052246094 975.665344238281 983.275329589844 994.869018554688 993.049438476562 998.859680175781 986.370971679688 990.039367675781 1000.73962402344 990.925964355469 986.453735351562 985.320373535156 979.169372558594 986.979370117188 986.902648925781 987.433959960938 991.144592285156 1002.39202880859 1003.35394287109 1006.39538574219 1003.09826660156 1003.80352783203 1011.20092773438 1020.82946777344 1018.95574951172 1013.83972167969 1024.95739746094 1026.98779296875 1040.90405273438 1054.99572753906 1058.34301757812 1073.56433105469 1062.8466796875 1068.87377929688 1083.82690429688 1086.50561523438 1083.48193359375 1075.9775390625 1065.39831542969 1057.31042480469 1048.48278808594 1039.36999511719 1040.03051757812 1037.20703125 1041.95654296875 1052.35339355469 1064.78454589844 1069.82775878906 1054.1962890625
969.218017578125 970.232666015625 969.242614746094 969.683410644531 973.080627441406 970.412719726562 972.061340332031 979.923278808594 973.051818847656 971.037292480469 963.375915527344 956.406982421875 957.315185546875 969.870300292969 951.905456542969 952.540588378906 959.78466796875 959.043640136719 967.952697753906 974.104064941406 962.459045410156 953.297302246094 963.912963867188 962.132751464844 965.636962890625 955.153686523438 944.065124511719 954.447570800781 949.016418457031 949.275939941406 960.8876953125 950.997375488281 953.721557617188 958.705993652344 950.872497558594 948.228515625 949.123718261719 957.272399902344 961.516296386719 959.145629882812 946.917358398438 948.666687011719 949.12451171875 943.694030761719 946.177734375 952.771606445312 951.06982421875 957.967102050781 953.469299316406 949.297424316406 958.334838867188 951.387451171875 952.556640625 961.777893066406 956.869445800781 954.614013671875 948.871337890625 954.660522460938 962.156311035156 959.705993652344 959.854553222656 957.806396484375 960.823608398438 958.724914550781 952.604064941406 950.458251953125 957.41015625 960.931701660156 960.336669921875 966.154174804688 958.116821289062 962.4990234375 965.483520507812 965.367614746094 963.830383300781 970.949340820312 973.866821289062 971.75732421875 964.66943359375 963.64892578125 955.253662109375 963.439453125 969.591857910156 971.788208007812 967.765441894531 971.07373046875 963.665161132812 964.161010742188 976.603210449219 974.968933105469 970.118286132812 966.852233886719 963.116638183594 965.545043945312 968.030029296875 976.18994140625 974.292297363281 974.757141113281 975.564880371094 986.923156738281 986.207763671875 977.001525878906 983.346069335938 975.579895019531 984.642578125 992.819091796875 999.266235351562 994.12353515625 998.544555664062 1004.09765625 996.086059570312 987.347045898438 984.490661621094 989.811462402344 994.535034179688 992.650024414062 987.893188476562 991.274475097656 998.728149414062 1005.2041015625 1003.88226318359 1001.03045654297 1006.75244140625 1015.88549804688 1015.00366210938 1017.79809570312 1010.39752197266 1024.17858886719 1026.7275390625 1042.40673828125 1050.49133300781 1057.16540527344 1064.56713867188 1057.14538574219 1058.98571777344 1077.41516113281 1083.62780761719 1075.8193359375 1073.66625976562 1063.81066894531 1049.64501953125 1041.56201171875 1027.17395019531 1025.28979492188 1035.57067871094 1037.83874511719 1034.09252929688 1053.53076171875 1064.39453125 1052.51049804688
971.53271484375 969.647155761719 971.989135742188 978.089233398438 969.546264648438 971.679931640625 970.297546386719 977.445861816406 980.232116699219 976.2392578125 962.575561523438 955.782409667969 962.764465332031 969.573913574219 963.447387695312 950.556396484375 955.367980957031 955.169372558594 959.512023925781 965.018920898438 957.336364746094 956.609130859375 961.613647460938 957.490112304688 959.246520996094 959.208068847656 955.107177734375 952.537170410156 949.656555175781 952.774658203125 954.029418945312 957.205993652344 953.704223632812 957.451904296875 950.136291503906 945.309204101562 950.169555664062 948.785766601562 955.732055664062 950.988037109375 948.762634277344 953.928833007812 949.23583984375 956.673522949219 949.61474609375 960.547241210938 953.832397460938 968.568908691406 962.439514160156 963.110290527344 959.812377929688 963.68798828125 955.259033203125 961.111083984375 958.114685058594 956.589538574219 955.250366210938 961.455017089844 962.81640625 958.585571289062 956.375183105469 963.012573242188 954.085632324219 955.303100585938 949.644897460938 949.4892578125 952.719848632812 951.2880859375 957.839050292969 952.097412109375 964.931091308594 968.793884277344 970.076049804688 963.329528808594 968.485046386719 971.669494628906 975.649475097656 970.471496582031 967.022216796875 960.651550292969 960.70947265625 960.458984375 964.936096191406 971.009643554688 970.233032226562 969.822692871094 974.780456542969 973.858093261719 977.835388183594 976.486633300781 966.32421875 971.521606445312 973.063781738281 969.154663085938 973.869689941406 978.001342773438 976.668151855469 973.338562011719 979.408203125 976.102966308594 974.945129394531 982.703735351562 978.653686523438 978.307250976562 985.594665527344 990.820434570312 992.866394042969 995.006225585938 1004.05639648438 999.06298828125 998.635375976562 997.009887695312 995.071594238281 992.414611816406 987.172180175781 984.545715332031 992.577575683594 1003.52642822266 998.9658203125 992.412902832031 1003.70037841797 1001.43029785156 1012.57409667969 1019.68658447266 1018.68060302734 1015.32012939453 1009.14837646484 1016.2841796875 1020.54046630859 1034.30517578125 1041.38684082031 1052.52233886719 1051.5087890625 1056.22094726562 1062.25549316406 1063.65905761719 1075.53161621094 1074.38464355469 1071.953125 1059.21423339844 1043.34741210938 1036.66809082031 1035.65734863281 1027.82409667969 1031.6826171875 1029.91625976562 1029.48303222656 1038.40795898438 1047.50903320312 1044.06518554688
970.336486816406 973.024658203125 959.614807128906 969.934997558594 974.393798828125 972.504028320312 982.863647460938 979.059753417969 975.918518066406 966.168334960938 956.235717773438 962.568481445312 959.941467285156 952.543395996094 959.829467773438 952.505187988281 952.506408691406 959.435302734375 971.770324707031 970.088684082031 965.341369628906 947.648254394531 948.704895019531 955.06982421875 944.920776367188 948.19384765625 950.083862304688 945.514587402344 949.96044921875 955.341247558594 959.943054199219 954.473571777344 950.506591796875 949.220642089844 950.422668457031 948.498718261719 944.447998046875 943.175048828125 937.863098144531 946.211242675781 948.027954101562 957.479187011719 948.519714355469 951.953796386719 955.471801757812 957.713195800781 951.410278320312 957.563537597656 960.517150878906 963.686279296875 960.105346679688 966.283569335938 967.410095214844 971.938842773438 968.082763671875 962.142822265625 957.689208984375 961.106506347656 957.484436035156 962.220031738281 962.094421386719 957.829345703125 956.273010253906 955.117431640625 953.737182617188 957.789978027344 956.127258300781 949.798034667969 962.087463378906 964.6806640625 959.86376953125 967.920104980469 966.819152832031 966.334167480469 963.012756347656 967.658752441406 977.65185546875 969.372497558594 972.018493652344 966.828063964844 967.130859375 954.881958007812 961.04443359375 969.128112792969 972.586669921875 969.991088867188 970.6181640625 977.47216796875 982.166809082031 974.456726074219 974.023498535156 972.496520996094 973.655822753906 973.087829589844 976.271728515625 982.100463867188 985.31591796875 974.58642578125 980.254638671875 979.200134277344 988.749816894531 984.441101074219 979.251037597656 978.833251953125 979.601379394531 980.606323242188 993.263000488281 995.438171386719 994.496520996094 996.599670410156 994.83154296875 991.712585449219 994.622436523438 994.054626464844 996.314208984375 994.458312988281 1002.04626464844 1007.73400878906 1001.25817871094 1002.87707519531 1004.0859375 1009.43676757812 1022.17956542969 1019.28393554688 1018.77954101562 1016.13757324219 1011.33636474609 1019.5322265625 1018.88824462891 1019.16662597656 1032.16284179688 1043.94909667969 1050.69128417969 1051.93395996094 1053.07214355469 1059.76220703125 1063.13903808594 1063.50256347656 1058.43005371094 1051.77612304688 1036.89184570312 1023.11706542969 1029.734375 1036.03979492188 1030.15258789062 1032.21459960938 1029.88537597656 1031.59887695312 1030.15832519531 1029.01599121094
962.074096679688 970.849304199219 955.913696289062 962.364318847656 959.479797363281 972.878540039062 973.996459960938 966.637817382812 966.805297851562 964.224914550781 954.708679199219 960.11767578125 953.775146484375 961.902099609375 949.148010253906 947.411376953125 945.443359375 954.447448730469 961.046630859375 957.7802734375 951.840515136719 948.085693359375 955.059936523438 954.851318359375 949.963745117188 949.021606445312 947.151306152344 947.632934570312 948.360412597656 954.414733886719 958.60546875 950.139343261719 947.590576171875 944.735534667969 952.2744140625 942.398193359375 951.595886230469 942.214721679688 941.723510742188 943.054016113281 949.044067382812 945.946899414062 947.098266601562 948.927062988281 952.342407226562 957.862121582031 956.295837402344 956.898803710938 964.09228515625 964.696594238281 968.510986328125 966.517578125 966.644287109375 973.985046386719 974.517578125 963.76416015625 955.984375 955.54345703125 963.524963378906 964.762145996094 968.8447265625 957.8564453125 961.103149414062 966.667114257812 959.345031738281 961.932861328125 957.613525390625 960.291870117188 958.657836914062 972.156616210938 967.927612304688 962.980651855469 961.320922851562 969.839660644531 964.057922363281 971.164855957031 969.3916015625 973.519836425781 965.190734863281 965.453857421875 974.078002929688 972.217224121094 974.502075195312 973.05712890625 977.279846191406 976.459228515625 976.362548828125 982.256713867188 984.799011230469 981.825012207031 976.17919921875 970.357788085938 978.863952636719 971.517639160156 973.894287109375 971.977294921875 979.133056640625 980.7294921875 974.04443359375 984.173645019531 988.3408203125 987.631408691406 996.155395507812 982.563049316406 981.085815429688 988.591918945312 990.811706542969 989.163879394531 984.505554199219 998.982116699219 990.450256347656 988.009765625 989.087097167969 993.433410644531 1002.69689941406 1005.48669433594 1005.23638916016 1010.34869384766 1012.54071044922 1007.45526123047 1006.47741699219 1016.193359375 1022.17694091797 1021.42279052734 1019.24572753906 1012.01116943359 1020.96649169922 1028.822265625 1035.97888183594 1026.55383300781 1035.48681640625 1038.4296875 1043.88110351562 1057.48889160156 1055.0830078125 1050.69665527344 1050.72839355469 1061.39697265625 1054.89709472656 1050.44506835938 1035.26477050781 1028.18432617188 1026.31848144531 1032.79772949219 1028.15576171875 1033.07080078125 1031.36694335938 1032.08508300781 1028.86291503906 1025.60363769531
959.565063476562 957.333557128906 950.163208007812 962.034606933594 961.844360351562 966.158752441406 970.897277832031 960.931579589844 956.242248535156 967.620178222656 954.865356445312 955.974853515625 952.144104003906 945.648254394531 940.985473632812 940.233825683594 939.220886230469 955.953735351562 956.038269042969 945.878662109375 946.77197265625 943.318786621094 955.017272949219 946.710876464844 948.715454101562 941.748962402344 941.361938476562 944.846923828125 946.645874023438 944.01416015625 957.105834960938 941.971008300781 942.160949707031 947.97265625 952.875915527344 952.323364257812 953.020446777344 946.992309570312 944.688537597656 950.180419921875 951.166442871094 955.998046875 948.558166503906 955.430847167969 954.752014160156 955.598205566406 963.67529296875 961.615600585938 953.761413574219 954.954284667969 957.625610351562 966.251159667969 977.448852539062 977.367370605469 967.305725097656 957.269287109375 961.139770507812 958.314331054688 964.416442871094 959.587341308594 960.470703125 963.259216308594 960.500366210938 964.008178710938 965.483947753906 963.165649414062 965.283630371094 967.730834960938 960.710571289062 958.650939941406 965.381713867188 970.910583496094 963.394592285156 971.956420898438 969.680114746094 971.416687011719 963.073486328125 969.389465332031 966.168884277344 975.248229980469 969.868408203125 974.993041992188 977.259399414062 974.076416015625 966.823974609375 977.275817871094 971.160827636719 976.763671875 975.560607910156 977.819396972656 975.163024902344 971.790344238281 977.724182128906 975.572265625 980.297973632812 981.9130859375 970.978332519531 974.524780273438 990.556274414062 989.390502929688 989.510192871094 997.033813476562 998.048278808594 988.957275390625 988.176391601562 986.199645996094 990.847778320312 982.17626953125 984.448059082031 995.551513671875 999.2216796875 988.409912109375 993.267517089844 991.722900390625 1004.47302246094 1000.40301513672 1001.39361572266 1005.73657226562 1012.88555908203 1013.63641357422 1022.333984375 1016.86755371094 1018.28930664062 1013.96350097656 1015.73895263672 1019.18817138672 1016.33630371094 1025.02966308594 1033.97229003906 1030.63403320312 1033.09375 1036.23596191406 1041.54211425781 1045.66430664062 1046.35876464844 1039.43823242188 1044.17102050781 1042.69189453125 1036.83422851562 1038.43688964844 1036.16162109375 1029.29113769531 1018.06079101562 1027.82263183594 1024.14611816406 1030.77941894531 1030.30285644531 1028.15698242188 1007.90924072266 1014.71606445312
958.453674316406 953.144653320312 949.696472167969 954.7958984375 953.096923828125 960.400268554688 966.130004882812 961.239318847656 943.809204101562 954.498474121094 951.498168945312 952.630004882812 942.217163085938 940.240600585938 942.823669433594 945.953796386719 946.120300292969 941.194458007812 945.687194824219 945.216369628906 941.969787597656 949.419921875 952.109985351562 944.703979492188 946.549743652344 941.523193359375 941.668334960938 941.967712402344 947.445007324219 939.545593261719 946.401062011719 949.048156738281 944.509643554688 949.261596679688 952.829040527344 958.991088867188 947.539001464844 952.72900390625 958.750610351562 962.110717773438 962.92529296875 955.602355957031 952.652709960938 948.045776367188 945.306884765625 956.619384765625 960.308288574219 960.880615234375 950.818054199219 955.06640625 959.284912109375 953.051208496094 975.838012695312 966.349792480469 968.010864257812 962.699829101562 959.157470703125 959.334289550781 963.620300292969 965.376831054688 960.757202148438 959.245971679688 964.944580078125 968.149841308594 959.061096191406 959.076354980469 958.501708984375 968.707458496094 967.102905273438 970.084716796875 976.302551269531 974.121887207031 967.522216796875 964.763610839844 967.57470703125 963.28564453125 964.15869140625 978.112915039062 973.437744140625 969.729675292969 978.977661132812 974.805114746094 981.106079101562 976.013610839844 976.750061035156 971.762329101562 973.463134765625 966.751708984375 971.812133789062 977.843627929688 978.434020996094 975.00732421875 977.946899414062 973.673583984375 979.917419433594 987.529907226562 979.519348144531 981.382507324219 986.264892578125 996.388671875 994.925354003906 997.587768554688 997.383178710938 992.876342773438 990.835510253906 994.182373046875 991.60205078125 984.149658203125 984.324768066406 993.986450195312 1004.33380126953 1000.07495117188 997.202575683594 1006.47833251953 1007.00573730469 1005.66192626953 1009.3935546875 1018.05084228516 1015.92138671875 1013.662109375 1027.96850585938 1023.75061035156 1025.95654296875 1020.48681640625 1019.61212158203 1012.54815673828 1023.96478271484 1020.89532470703 1028.4609375 1027.14904785156 1029.2470703125 1036.25598144531 1036.1572265625 1036.10778808594 1032.29736328125 1039.4072265625 1040.28771972656 1038.32067871094 1039.94311523438 1035.01477050781 1037.50231933594 1030.79711914062 1020.92779541016 1023.49157714844 1025.17468261719 1017.00427246094 1024.07214355469 1017.22021484375 1005.17370605469 1002.13970947266
955.646057128906 955.322814941406 950.408752441406 952.351501464844 948.158264160156 956.337219238281 946.35791015625 949.890502929688 952.252563476562 956.059265136719 957.105163574219 952.405700683594 948.028137207031 945.423095703125 946.090209960938 944.908081054688 941.489807128906 954.696105957031 943.339538574219 937.414916992188 938.692321777344 946.397399902344 947.913757324219 953.484252929688 946.612426757812 935.952575683594 936.253234863281 943.336242675781 950.73828125 946.83349609375 956.614624023438 957.616088867188 947.609191894531 954.134338378906 951.52978515625 957.138122558594 953.579040527344 955.22900390625 962.034057617188 961.963134765625 964.619201660156 962.486755371094 966.281982421875 956.525695800781 957.160888671875 959.543151855469 960.856506347656 967.804321289062 961.855285644531 968.106567382812 960.254089355469 953.540954589844 965.617248535156 961.664794921875 961.338073730469 967.57275390625 960.932800292969 966.634399414062 978.188842773438 966.890502929688 968.518737792969 960.987426757812 958.491271972656 961.314697265625 963.751708984375 958.153564453125 964.901977539062 975.660400390625 975.144165039062 972.091857910156 973.048706054688 970.736938476562 972.889099121094 970.728393554688 971.503173828125 977.12841796875 976.189514160156 979.135986328125 978.0087890625 972.489074707031 977.79296875 977.29248046875 975.454467773438 981.764038085938 987.709411621094 980.032043457031 977.550170898438 974.876586914062 977.682312011719 977.534240722656 980.846374511719 981.559936523438 987.361206054688 973.935607910156 975.187072753906 978.352111816406 980.880310058594 988.7353515625 988.390319824219 991.020263671875 1000.93579101562 992.348937988281 982.624145507812 978.247619628906 987.269714355469 985.599243164062 982.478149414062 982.77490234375 989.307556152344 998.790588378906 1002.37817382812 998.749450683594 993.518737792969 1009.58557128906 1010.20257568359 1015.12042236328 1024.21301269531 1024.40380859375 1026.96752929688 1026.39270019531 1030.70886230469 1028.28405761719 1029.00122070312 1031.50646972656 1028.97998046875 1022.90521240234 1018.69342041016 1021.32965087891 1031.54431152344 1025.41760253906 1020.24237060547 1028.04528808594 1028.19372558594 1033.10815429688 1035.68286132812 1028.076171875 1029.29174804688 1032.6591796875 1035.88635253906 1033.93127441406 1031.01721191406 1034.94836425781 1031.74462890625 1026.61730957031 1021.27954101562 1010.85479736328 1009.15618896484 1003.73211669922 1009.70928955078 997.119873046875
957.348083496094 948.725280761719 945.141540527344 948.127136230469 952.066040039062 948.204833984375 944.083740234375 946.28125 948.732238769531 941.731994628906 944.848937988281 946.508972167969 947.932189941406 943.586059570312 944.219604492188 951.341003417969 954.020263671875 949.367309570312 946.521545410156 949.885559082031 955.493103027344 954.624145507812 951.020935058594 952.13037109375 952.003479003906 946.281005859375 946.929565429688 948.444641113281 954.647705078125 952.628967285156 960.394653320312 958.705078125 954.695007324219 954.1572265625 956.288818359375 961.089111328125 950.374084472656 955.902099609375 964.88818359375 958.511535644531 964.728149414062 961.27197265625 963.06640625 969.617553710938 959.6728515625 970.706787109375 970.994140625 983.677429199219 977.393676757812 971.10791015625 970.298950195312 958.185668945312 958.752136230469 968.417236328125 967.78662109375 968.895751953125 964.178649902344 968.786987304688 975.720092773438 958.341430664062 970.008422851562 966.138427734375 968.101135253906 967.741271972656 969.49658203125 964.5126953125 967.12060546875 968.733276367188 968.734497070312 978.943603515625 985.013671875 978.999816894531 976.881713867188 974.051391601562 976.006042480469 973.145935058594 976.747802734375 977.713073730469 973.722717285156 977.466003417969 976.25390625 970.01416015625 981.305419921875 985.8603515625 984.622192382812 983.296081542969 975.825561523438 975.5693359375 975.242492675781 986.991394042969 983.563720703125 992.155517578125 991.3984375 982.208251953125 970.995788574219 975.484497070312 981.959106445312 980.145812988281 985.785278320312 994.048400878906 994.689819335938 999.313293457031 987.826599121094 992.704284667969 989.5185546875 985.639831542969 983.10498046875 988.73486328125 999.991943359375 995.067810058594 999.242370605469 996.583862304688 997.80224609375 1012.92114257812 1017.64880371094 1027.33056640625 1030.49194335938 1031.42358398438 1036.91711425781 1035.13464355469 1037.27844238281 1038.82922363281 1034.35229492188 1037.45434570312 1035.0537109375 1027.44995117188 1029.162109375 1024.31469726562 1020.50384521484 1017.47662353516 1013.91955566406 1021.95465087891 1024.38903808594 1028.84765625 1026.88305664062 1021.50048828125 1030.83203125 1026.72290039062 1023.37170410156 1029.73718261719 1027.94934082031 1030.32934570312 1018.08746337891 1017.99597167969 1015.64453125 1013.42370605469 1004.58685302734 1007.97576904297 1008.85437011719 995.285217285156
951.493103027344 951.102294921875 948.720520019531 940.743041992188 941.283386230469 947.623352050781 942.37109375 950.268798828125 944.075378417969 945.226867675781 944.040344238281 945.222839355469 949.382873535156 950.426208496094 951.9951171875 959.021789550781 952.465148925781 954.350158691406 953.268615722656 959.057983398438 957.631652832031 961.308288574219 950.377258300781 959.535400390625 960.843200683594 958.574951171875 943.98828125 944.580871582031 950.399475097656 951.5390625 953.099914550781 952.716613769531 957.451782226562 952.524291992188 960.184997558594 955.013061523438 957 964.046752929688 968.356750488281 967.299926757812 964.391540527344 963.285705566406 967.807800292969 962.466430664062 967.641967773438 967.544677734375 982.97607421875 986.665832519531 984.849304199219 984.087890625 974.145263671875 968.379760742188 965.096435546875 964.116088867188 967.700378417969 969.082824707031 964.203491210938 964.545288085938 971.349304199219 961.40380859375 963.459350585938 971.044555664062 968.47998046875 965.393981933594 971.513122558594 981.845092773438 978.189453125 969.837951660156 974.092163085938 978.577026367188 988.391784667969 983.980407714844 981.309814453125 977.225646972656 990.001281738281 981.651794433594 991.031860351562 986.277465820312 983.620300292969 979.509399414062 979.068969726562 974.925476074219 974.5576171875 981.661560058594 988.182983398438 979.51953125 983.032104492188 976.29150390625 972.685668945312 982.329833984375 988.359741210938 996.010620117188 990.041748046875 987.751831054688 983.19775390625 985.031311035156 994.490783691406 992.5224609375 984.419372558594 989.652160644531 991.57275390625 1000.59130859375 991.314025878906 988.215637207031 989.180969238281 989.3427734375 996.276489257812 996.926330566406 1004.66314697266 1001.99761962891 1007.16693115234 1006.96783447266 1004.62384033203 1017.82952880859 1026.96362304688 1037.15197753906 1035.29602050781 1038.51733398438 1045.58081054688 1042.87646484375 1049.48486328125 1050.50708007812 1044.5439453125 1039.30395507812 1034.8896484375 1035.06359863281 1024.51342773438 1019.92395019531 1013.29113769531 1013.48870849609 1016.359375 1021.92321777344 1020.48760986328 1017.04608154297 1026.07873535156 1019.56982421875 1022.04278564453 1020.21533203125 1022.31439208984 1024.39721679688 1035.06591796875 1028.09973144531 1019.84118652344 1018.47631835938 1009.65203857422 1004.64111328125 1003.7265625 998.337097167969 993.142333984375 993.24169921875
943.916015625 947.142333984375 949.552307128906 948.129211425781 942.855895996094 941.339294433594 934.232238769531 942.196411132812 952.951049804688 950.764587402344 950.365173339844 951.305358886719 954.34375 960.94873046875 959.615173339844 958.965087890625 964.708740234375 956.285217285156 954.819519042969 964.501586914062 964.710510253906 965.212280273438 962.3173828125 958.450744628906 968.940673828125 960.441162109375 958.86865234375 955.311096191406 956.430847167969 952.348083496094 959.021667480469 958.194458007812 960.077697753906 956.248657226562 952.591369628906 956.331481933594 961.318481445312 972.136474609375 970.514892578125 965.190246582031 964.603637695312 968.1826171875 961.428955078125 962.216552734375 963.2353515625 970.40087890625 978.250061035156 993.197692871094 987.451782226562 974.692138671875 975.395446777344 974.100891113281 974.229736328125 969.790771484375 972.251647949219 981.597778320312 971.15869140625 968.027099609375 973.825500488281 973.038818359375 972.236206054688 974.960876464844 971.960388183594 969.680725097656 977.857543945312 976.6474609375 969.587524414062 978.76806640625 979.090942382812 979.646484375 981.477172851562 979.6044921875 975.742431640625 984.1962890625 983.889526367188 986.117370605469 984.617858886719 976.357299804688 980.087768554688 978.576293945312 978.232299804688 980.003967285156 980.27001953125 984.210754394531 984.302124023438 983.771484375 983.789916992188 979.424255371094 975.771423339844 984.793273925781 985.05126953125 993.570678710938 983.306579589844 985.141540527344 986.2529296875 986.116149902344 991.647705078125 994.195434570312 989.600708007812 986.869750976562 991.734252929688 990.630676269531 992.517700195312 988.094177246094 986.676940917969 989.560852050781 1004.05029296875 1003.04302978516 1013.00048828125 1012.35498046875 1010.02795410156 1013.18719482422 1012.23901367188 1019.99365234375 1019.18609619141 1027.88671875 1035.236328125 1035.16259765625 1035.95361328125 1046.05212402344 1053.12036132812 1049.67761230469 1049.65612792969 1035.30334472656 1034.78991699219 1030.02380371094 1025.75354003906 1017.23315429688 1017.51586914062 1014.15655517578 1020.04479980469 1017.025390625 1010.177734375 1019.84545898438 1020.58874511719 1014.80072021484 1010.30511474609 1005.05773925781 1011.01116943359 1022.46771240234 1026.236328125 1020.85247802734 1014.46728515625 1005.50201416016 1004.61187744141 1014.54193115234 1004.82897949219 1003.38012695312 991.6435546875 995.833068847656
952.144348144531 949.562561035156 954.806640625 953.321594238281 944.041198730469 944.030029296875 940.814208984375 942.337585449219 945.247924804688 943.631408691406 952.155029296875 949.58740234375 956.064331054688 961.222717285156 964.346984863281 963.877258300781 967.970581054688 963.919677734375 962.812561035156 963.695007324219 969.221130371094 966.763671875 968.053894042969 966.620239257812 974.24951171875 975.969604492188 967.455322265625 964.319091796875 957.161865234375 960.355590820312 958.385559082031 963.123229980469 968.197814941406 954.669128417969 945.512084960938 949.040893554688 957.478088378906 966.295654296875 970.710571289062 978.401245117188 973.300903320312 973.003356933594 964.703369140625 973.273193359375 976.147094726562 972.638305664062 980.078674316406 991.369140625 990.243713378906 988.431518554688 986.565246582031 991.213012695312 984.867797851562 979.068176269531 971.693664550781 972.565612792969 981.563354492188 977.17431640625 974.586181640625 977.871154785156 975.144226074219 983.280456542969 980.920227050781 973.613525390625 971.245971679688 974.504577636719 977.137512207031 978.322509765625 972.541137695312 974.176330566406 974.629638671875 985.33544921875 982.760925292969 980.314270019531 986.978454589844 991.250732421875 987.710327148438 985.142395019531 979.942687988281 978.192565917969 975.648376464844 978.138305664062 978.683898925781 986.64501953125 991.802673339844 983.544616699219 979.575256347656 976.338012695312 976.816284179688 979.216674804688 979.0869140625 975.365112304688 981.397644042969 986.540466308594 997.770324707031 993.038452148438 991.16748046875 995.648193359375 996.230224609375 989.964965820312 989.180725097656 994.956848144531 994.144775390625 995.930847167969 995.011352539062 998.820983886719 999.684509277344 1006.15789794922 1012.51556396484 1017.84735107422 1023.71783447266 1015.27362060547 1015.13598632812 1027.84777832031 1034.30627441406 1031.36572265625 1030.88623046875 1031.85046386719 1037.47497558594 1036.15209960938 1046.36047363281 1044.39123535156 1037.12414550781 1039.40869140625 1034.23486328125 1027.42260742188 1022.18676757812 1020.81970214844 1018.42919921875 1020.49719238281 1022.90161132812 1015.75115966797 1017.30426025391 1021.1025390625 1019.09027099609 1024.96484375 1017.91259765625 1001.00653076172 1009.37713623047 1021.30072021484 1020.14544677734 1005.20794677734 1000.44622802734 1002.8759765625 1008.72857666016 1010.89410400391 1001.55023193359 998.113342285156 988.752380371094 994.210998535156
949.879333496094 949.338928222656 946.694396972656 943.669860839844 944.635131835938 946.697082519531 946.179077148438 945.900634765625 946.961486816406 945.3857421875 955.775573730469 948.859313964844 956.13134765625 962.545654296875 958.341918945312 969.705261230469 971.381652832031 968.997802734375 971.755798339844 965.966491699219 973.698913574219 969.114807128906 967.970703125 965.735717773438 981.061706542969 979.958190917969 975.593139648438 967.567687988281 967.906860351562 962.757202148438 958.374633789062 960.917419433594 960.066467285156 948.234985351562 947.697265625 953.329467773438 964.467163085938 974.51318359375 974.754516601562 982.377319335938 977.507446289062 978.094970703125 977.832153320312 973.642822265625 979.429016113281 982.681518554688 996.157775878906 1004.91851806641 996.586669921875 997.122680664062 991.55712890625 991.530700683594 983.786193847656 981.164916992188 971.394104003906 974.343383789062 971.286743164062 987.766174316406 974.819763183594 978.897644042969 982.140258789062 979.637634277344 970.984924316406 974.718566894531 969.906860351562 966.131469726562 969.582763671875 978.648681640625 973.401550292969 972.764953613281 969.965209960938 978.692077636719 981.33984375 984.359497070312 989.560729980469 985.558471679688 986.826843261719 990.271484375 985.3017578125 989.30517578125 994.403564453125 991.388977050781 991.027526855469 987.500366210938 992.401000976562 986.980407714844 984.88232421875 979.439880371094 977.789855957031 971.295532226562 966.869018554688 970.734741210938 980.543029785156 989.579345703125 998.252319335938 1000.31182861328 1000.88293457031 997.704895019531 1001.90008544922 1000.45220947266 1004.67419433594 1004.47601318359 997.919372558594 1003.97863769531 1000.79455566406 998.110778808594 1001.30889892578 1005.80450439453 1013.49987792969 1015.75628662109 1028.26550292969 1021.49700927734 1024.794921875 1032.62438964844 1030.94396972656 1034.52551269531 1033.35424804688 1031.8125 1035.39428710938 1038.55749511719 1044.74389648438 1041.94787597656 1034.07373046875 1029.53930664062 1026.37158203125 1025.94348144531 1016.39099121094 1011.96453857422 1011.08111572266 1021.02740478516 1017.15167236328 1012.50146484375 1012.74108886719 1015.40509033203 1013.42993164062 1015.27185058594 1020.34747314453 1013.91949462891 1013.69958496094 1021.16748046875 1024.04724121094 1010.48913574219 1003.82159423828 1004.22839355469 1004.48919677734 1004.59796142578 1000.19549560547 1001.12750244141 996.217651367188 991.846923828125
952.587646484375 949.547119140625 939.484924316406 935.881164550781 941.807067871094 939.200378417969 944.345458984375 948.020385742188 950.401977539062 953.624267578125 964.064819335938 962.415405273438 965.385375976562 965.277893066406 965.919189453125 972.943542480469 971.342956542969 975.329345703125 975.238220214844 974.162292480469 977.0625 972.638793945312 970.305114746094 968.0185546875 973.401611328125 978.101379394531 978.274719238281 977.764099121094 974.300354003906 962.013854980469 964.770629882812 962.602722167969 961.140808105469 949.182250976562 952.177368164062 949.342407226562 969.82470703125 971.134643554688 978.462707519531 981.464904785156 975.02392578125 990.296142578125 985.600341796875 984.766418457031 990.044677734375 988.47705078125 990.100219726562 1007.62390136719 1006.23260498047 1007.71221923828 993.785949707031 992.177673339844 997.608520507812 985.651794433594 982.676147460938 970.497436523438 966.588317871094 977.893432617188 977.9931640625 991.172241210938 979.6748046875 976.650085449219 978.6943359375 972.407165527344 963.269287109375 956.701416015625 967.70361328125 981.2890625 981.644836425781 976.930236816406 979.063720703125 977.005310058594 983.033142089844 984.205505371094 981.241577148438 988.245727539062 987.467956542969 992.702880859375 995.314636230469 985.4951171875 990.578979492188 993.519287109375 993.346862792969 988.090515136719 993.638122558594 993.923889160156 982.576110839844 981.48046875 981.546508789062 972.468139648438 969.646484375 971.03857421875 976.743591308594 982.998596191406 993.97216796875 994.725769042969 997.84765625 1000.77307128906 1001.6474609375 1005.02996826172 1011.53973388672 1014.43402099609 1003.81066894531 1003.93566894531 1002.45104980469 1004.3828125 1015.24084472656 1012.30322265625 1013.46887207031 1015.34869384766 1021.04046630859 1017.13940429688 1021.70587158203 1026.39880371094 1025.4833984375 1034.04040527344 1035.76623535156 1033.68688964844 1034.35668945312 1039.1630859375 1033.49279785156 1032.73059082031 1038.58703613281 1036.11938476562 1032.4140625 1023.63024902344 1019.24066162109 1009.56433105469 1008.61920166016 1014.54241943359 1008.85766601562 1009.58721923828 1009.4228515625 1013.39349365234 998.33984375 1006.18609619141 1012.48583984375 1021.41656494141 1016.85638427734 1017.46655273438 1013.04791259766 1015.60302734375 1007.42907714844 1004.81372070312 998.078186035156 994.4375 998.532104492188 999.066223144531 992.747375488281 995.372924804688
952.799133300781 949.425903320312 945.88818359375 949.560485839844 939.572265625 928.679931640625 941.99658203125 941.277404785156 945.298400878906 957.494018554688 970.505432128906 961.886779785156 974.390991210938 973.158264160156 973.086181640625 976.346252441406 981.048706054688 976.777221679688 980.938354492188 989.059020996094 983.451599121094 973.629089355469 972.096069335938 975.310180664062 981.687377929688 978.489929199219 973.684020996094 974.054138183594 971.504211425781 964.585876464844 964.657348632812 968.583068847656 962.204711914062 961.352233886719 954.084350585938 950.892822265625 963.257690429688 972.588745117188 971.166564941406 976.793701171875 983.881958007812 991.697387695312 991.183227539062 987.8369140625 987.307922363281 990.193664550781 1000.35778808594 1001.34509277344 1015.46868896484 1015.53338623047 1005.63421630859 999.899108886719 993.500549316406 993.631652832031 983.474426269531 972.523315429688 974.894592285156 973.463806152344 979.920471191406 982.021850585938 978.597717285156 974.540710449219 967.76708984375 960.165466308594 969.475158691406 958.353881835938 970.024841308594 979.875122070312 985.317077636719 986.42041015625 986.168151855469 982.639587402344 978.146728515625 982.504760742188 981.960205078125 984.359436035156 994.369873046875 989.458862304688 986.579345703125 988.8154296875 993.522277832031 1001.88098144531 996.864196777344 993.635437011719 997.016967773438 999.732055664062 990.899719238281 985.837768554688 981.585632324219 971.946350097656 982.3681640625 974.523010253906 978.865295410156 978.993957519531 989.790771484375 993.923400878906 986.150207519531 999.459594726562 995.774841308594 993.692687988281 1000.18341064453 1013.56207275391 1011.45434570312 1014.26800537109 1013.10882568359 1015.87005615234 1012.25653076172 1017.37432861328 1019.47973632812 1015.54937744141 1017.22564697266 1014.68817138672 1019.74304199219 1031.29931640625 1022.26165771484 1027.0126953125 1030.52404785156 1041.33776855469 1033.5146484375 1032.38818359375 1021.97882080078 1017.6943359375 1029.36267089844 1020.90997314453 1021.916015625 1019.06121826172 1021.35241699219 1020.20281982422 1010.48498535156 1004.51770019531 1009.59100341797 1012.83624267578 1007.671875 1002.84631347656 1001.42944335938 1010.98083496094 1006.31378173828 1019.59704589844 1019.17443847656 1013.85345458984 1007.43414306641 1002.32757568359 1000.12115478516 991.308654785156 997.274719238281 999.05908203125 1002.03161621094 997.5322265625 990.440612792969 991.952819824219
951.092407226562 947.462036132812 948.9912109375 934.43994140625 935.103820800781 937.632568359375 947.096069335938 948.654357910156 951.435363769531 957.223327636719 970.635986328125 972.2646484375 969.057983398438 976.596801757812 978.577087402344 985.188598632812 981.971923828125 989.444030761719 992.772888183594 989.293640136719 983.108154296875 987.535888671875 990.046936035156 988.80322265625 994.713500976562 987.162719726562 979.29150390625 973.9609375 971.2998046875 962.403991699219 971.058654785156 966.503234863281 970.637145996094 958.271484375 961.007080078125 958.190185546875 959.358825683594 971.736511230469 969.820129394531 979.5517578125 984.892639160156 986.961486816406 984.970458984375 995.017456054688 998.788879394531 1005.99108886719 1008.65850830078 1006.05572509766 1012.69122314453 1001.97778320312 1007.96447753906 1001.32556152344 995.979736328125 997.080017089844 991.221618652344 979.400512695312 978.403564453125 983.095458984375 980.2431640625 981.281860351562 969.287658691406 970.10498046875 969.6484375 959.886901855469 960.9560546875 959.758972167969 967.415100097656 979.599853515625 983.243591308594 984.505432128906 988.886901855469 982.283508300781 988.3798828125 990.528991699219 984.311157226562 980.696716308594 987.906188964844 995.246520996094 992.940246582031 995.949951171875 991.642272949219 998.798217773438 1001.93603515625 998.356384277344 1007.51599121094 998.8095703125 993.802734375 989.653564453125 980.805419921875 983.6572265625 987.617065429688 983.096984863281 982.636779785156 978.007873535156 990.564270019531 989.671142578125 989.28271484375 997.494812011719 1001.58367919922 1001.66912841797 999.302368164062 1007.20416259766 1008.87066650391 1008.80780029297 1011.09716796875 1010.98651123047 1011.68255615234 1006.173828125 1008.64147949219 1012.25378417969 1014.52996826172 1012.79089355469 1023.49084472656 1031.87475585938 1023.90399169922 1022.78863525391 1027.76306152344 1026.67163085938 1030.31823730469 1015.50085449219 1018.62329101562 1016.53558349609 1019.44964599609 1018.70684814453 1018.52478027344 1023.55432128906 1018.02911376953 1011.70532226562 1009.38995361328 1012.07275390625 1003.65484619141 1000.39495849609 1003.56274414062 1006.89349365234 1005.97052001953 1009.2001953125 1015.78881835938 1020.40161132812 1014.96301269531 1005.97760009766 993.947509765625 996.765258789062 987.490234375 991.155700683594 995.305541992188 997.600830078125 995.619689941406 1000.87701416016 999.019104003906 989.373046875
946.526672363281 946.561279296875 938.862854003906 927.526916503906 934.087524414062 938.619506835938 945.359069824219 954.131103515625 954.916198730469 961.332763671875 965.760864257812 967.838256835938 971.005249023438 969.465637207031 983.611877441406 986.283752441406 982.131225585938 986.136962890625 986.9169921875 981.225646972656 988.724487304688 996.903076171875 995.454956054688 1000.93218994141 997.087463378906 993.399353027344 986.536804199219 974.758850097656 978.439697265625 976.897766113281 970.087036132812 961.065734863281 971.869384765625 972.381286621094 970.56396484375 968.739685058594 973.471008300781 971.005615234375 976.338134765625 977.559631347656 984.173706054688 989.569702148438 997.125854492188 997.182983398438 1003.96655273438 1005.54541015625 1014.94677734375 1010.47930908203 1012.28887939453 1004.224609375 1003.82922363281 1000.89001464844 999.049255371094 995.042358398438 987.154357910156 981.719848632812 983.685546875 984.302001953125 979.055786132812 970.167541503906 968.262329101562 981.793090820312 971.637329101562 973.043579101562 966.846984863281 957.376586914062 967.377868652344 972.780090332031 976.513854980469 986.859313964844 986.119995117188 985.386901855469 985.87060546875 987.954345703125 980.147399902344 986.142700195312 990.836975097656 996.308776855469 1003.8310546875 999.806457519531 999.103088378906 1001.71832275391 1008.89447021484 1006.96936035156 1001.47644042969 1001.06414794922 1000.41125488281 1000.10620117188 985.10302734375 985.344909667969 988.456298828125 984.201293945312 978.748962402344 986.143127441406 990.125793457031 991.718444824219 989.778503417969 997.483825683594 1008.16357421875 1004.10400390625 1008.65759277344 1006.22540283203 1011.56500244141 1015.17706298828 1009.87066650391 1009.56481933594 1008.92419433594 1010.24157714844 1018.05377197266 1019.74291992188 1016.63806152344 1029.69299316406 1032.83728027344 1028.2939453125 1016.21380615234 1015.88140869141 1025.64099121094 1023.36163330078 1017.1943359375 1015.66925048828 1015.56188964844 1014.58746337891 1017.619140625 1022.08544921875 1028.8798828125 1022.19830322266 1010.25531005859 1008.83630371094 1005.49621582031 1009.32733154297 1011.63739013672 1001.07788085938 1002.11260986328 1005.22821044922 1005.42028808594 1011.62194824219 1014.71563720703 1019.62103271484 1018.21838378906 1008.82550048828 992.828674316406 993.215148925781 983.4033203125 984.387390136719 992.64013671875 996.287292480469 995.899353027344 1000.61096191406 1009.05560302734 1001.88220214844
951.046997070312 939.346740722656 933.250610351562 923.042114257812 929.553894042969 935.8173828125 941.098388671875 948.14599609375 957.024230957031 958.555053710938 961.352294921875 966.557250976562 967.471313476562 977.782104492188 986.266845703125 984.832336425781 991.748291015625 985.879272460938 984.455200195312 991.856750488281 1003.98229980469 1001.18231201172 996.993347167969 999.666137695312 991.9306640625 988.504516601562 988.836242675781 980.942626953125 984.169067382812 985.567321777344 980.215148925781 974.7783203125 971.396911621094 977.947937011719 985.234741210938 977.094970703125 974.221740722656 967.447143554688 967.744506835938 969.226684570312 984.467651367188 996.312377929688 1006.88934326172 1010.41784667969 1007.51007080078 1017.58032226562 1019.29046630859 1015.39868164062 1010.90997314453 1003.71716308594 1002.53533935547 1000.73419189453 993.135314941406 987.280944824219 990.4287109375 990.721496582031 988.113037109375 975.986877441406 977.523620605469 976.884338378906 972.317565917969 975.72998046875 976.895141601562 978.246520996094 970.331298828125 959.016418457031 961.01416015625 972.361450195312 977.136657714844 985.171142578125 983.393005371094 988.734252929688 990.577514648438 992.229064941406 991.045715332031 990.54150390625 1001.59844970703 1004.8935546875 998.114074707031 1003.80017089844 1007.92535400391 1012.74499511719 1016.61468505859 1014.23907470703 1014.31256103516 1004.29626464844 1002.38555908203 1001.30291748047 991.043395996094 988.776184082031 983.633117675781 978.227416992188 987.160278320312 990.336059570312 994.539367675781 992.109313964844 990.349426269531 999.723022460938 1003.80773925781 998.899841308594 1005.03289794922 1009.21057128906 1014.10522460938 1016.96911621094 1010.43603515625 1009.37188720703 1010.82281494141 1012.06127929688 1015.80871582031 1017.14837646484 1022.66510009766 1020.29858398438 1025.19702148438 1016.78686523438 1017.47882080078 1014.20928955078 1019.04895019531 1014.61248779297 1017.66558837891 1019.83038330078 1016.00408935547 1018.48187255859 1021.14678955078 1023.66058349609 1022.05438232422 1015.81298828125 1014.60852050781 1010.14038085938 1005.2802734375 1008.60583496094 1014.69372558594 1000.53875732422 1006.53381347656 1002.88024902344 1005.05700683594 1011.9765625 1016.10205078125 1017.21557617188 1013.09368896484 1002.23040771484 996.574584960938 993.632690429688 989.681030273438 980.717102050781 988.130004882812 995.135375976562 992.181884765625 990.39453125 999.994384765625 988.42578125
950.160827636719 941.606201171875 937.36572265625 930.444702148438 934.227905273438 934.895446777344 940.237182617188 940.98388671875 947.584045410156 957.194763183594 965.182861328125 969.159729003906 977.46533203125 973.2412109375 985.374877929688 985.512023925781 981.161193847656 985.449951171875 990.275939941406 998.248352050781 1005.87536621094 999.332946777344 1000.61181640625 997.004150390625 1000.28839111328 987.992126464844 987.126281738281 982.656555175781 982.778259277344 984.696044921875 982.964599609375 984.6884765625 974.886352539062 989.823852539062 994.957946777344 987.591247558594 982.0517578125 977.808532714844 966.935729980469 970.591186523438 983.305419921875 989.4970703125 998.318359375 1014.00628662109 1010.38256835938 1019.76104736328 1032.37829589844 1022.30291748047 1002.04992675781 1004.63415527344 1008.7470703125 994.736389160156 1001.7314453125 989.359313964844 982.898620605469 991.471374511719 990.724243164062 981.031311035156 984.169189453125 987.716125488281 972.113342285156 981.198364257812 979.500244140625 980.845275878906 982.362243652344 967.817626953125 969.880187988281 969.746765136719 981.233215332031 978.898864746094 980.341430664062 987.831298828125 996.444152832031 997.394836425781 999.742797851562 1003.98577880859 1006.99169921875 997.421752929688 996.826354980469 1004.20227050781 1009.48937988281 1008.50720214844 1014.31408691406 1019.77679443359 1011.04699707031 998.539794921875 991.895141601562 1003.03350830078 999.803039550781 988.246032714844 992.959716796875 987.335815429688 986.946105957031 988.154541015625 990.564086914062 991.892150878906 998.492004394531 1003.75115966797 1008.47406005859 1003.00982666016 1005.54779052734 1011.22491455078 1012.74328613281 1016.04748535156 1014.927734375 1015.34338378906 1023.75860595703 1019.92437744141 1018.16314697266 1009.94952392578 1023.8427734375 1020.119140625 1023.94995117188 1019.23461914062 1022.20025634766 1026.98303222656 1025.99328613281 1015.36608886719 1022.36633300781 1019.63537597656 1022.41186523438 1011.62261962891 1015.52264404297 1023.89068603516 1018.40118408203 1012.1806640625 1013.75714111328 1010.71063232422 1006.16571044922 1004.82104492188 1004.15325927734 1002.72912597656 1014.95355224609 1008.47808837891 1001.87237548828 1009.28131103516 1005.02215576172 1013.5888671875 1017.48193359375 1010.36193847656 1002.39324951172 994.371276855469 988.013366699219 986.049621582031 990.165405273438 983.400756835938 973.850219726562 978.141662597656 979.610534667969 979.520874023438
946.296752929688 944.203857421875 939.010681152344 934.27294921875 932.433227539062 934.637817382812 942.681945800781 947.166198730469 955.42822265625 964.729614257812 966.927429199219 973.148864746094 976.376342773438 975.876892089844 973.744567871094 982.286499023438 984.203063964844 984.237548828125 987.995849609375 987.525085449219 1000.09729003906 1000.04724121094 1000.5673828125 995.238037109375 993.543273925781 991.596374511719 995.293823242188 985.912780761719 987.251708984375 977.802551269531 983.318664550781 979.323303222656 978.9462890625 980.408813476562 991.022399902344 997.227844238281 994.765258789062 988.593688964844 975.311706542969 984.785522460938 988.6376953125 990.4638671875 991.512573242188 1007.67468261719 1008.36785888672 1015.56195068359 1020.42315673828 1015.85540771484 1009.11151123047 1011.62878417969 1012.84381103516 1005.66094970703 1001.56140136719 993.962158203125 991.745361328125 988.741455078125 990.57958984375 979.541442871094 976.526062011719 986.53515625 972.345397949219 975.887329101562 973.975280761719 983.954650878906 981.554382324219 971.542724609375 968.24609375 971.854309082031 980.617614746094 980.349548339844 992.6748046875 988.491516113281 999.35595703125 1000.25823974609 997.852233886719 995.263732910156 1000.16821289062 1002.29907226562 996.812622070312 1006.00408935547 1016.20513916016 1015.248046875 1014.19195556641 1022.78540039062 1016.17260742188 998.93798828125 1000.04602050781 998.883666992188 999.842834472656 991.729064941406 990.072448730469 987.816467285156 990.009826660156 985.603942871094 992.656677246094 1000.68371582031 1011.80529785156 1000.26751708984 1004.84844970703 1007.45684814453 1003.73986816406 1002.09088134766 1009.60534667969 1013.14727783203 1009.05871582031 1006.30828857422 1015.806640625 1019.82232666016 1013.09771728516 1017.60015869141 1021.6494140625 1020.13763427734 1018.51904296875 1031.62963867188 1028.10314941406 1032.28088378906 1019.20928955078 1025.82629394531 1024.14001464844 1029.74877929688 1013.17663574219 1015.32434082031 1018.41528320312 1014.74114990234 1009.79425048828 1012.77191162109 1017.80822753906 1007.71221923828 1003.83337402344 1008.11260986328 1000.11859130859 1003.90991210938 1004.97668457031 1006.9296875 1005.22082519531 1011.30505371094 1011.06695556641 1013.49908447266 1015.34637451172 1007.84069824219 1004.14837646484 987.055114746094 979.27392578125 983.318481445312 986.831115722656 980.606994628906 981.094665527344 981.152465820312 979.46044921875 989.302734375
943.708801269531 944.714599609375 947.191040039062 937.989135742188 942.268005371094 932.756896972656 935.797912597656 948.961364746094 961.492126464844 962.895202636719 971.952941894531 972.817260742188 977.772338867188 979.856872558594 976.340942382812 983.566162109375 981.359008789062 983.713012695312 986.780578613281 985.154663085938 989.516296386719 999.409851074219 994.293823242188 992.741333007812 987.018615722656 988.334350585938 990.699462890625 990.173767089844 980.547424316406 981.85546875 984.296630859375 981.100646972656 979.943542480469 983.618896484375 989.122985839844 990.5302734375 997.752258300781 992.297546386719 991.910461425781 987.092956542969 985.582763671875 992.271911621094 998.106567382812 1004.24096679688 1015.18060302734 1012.58154296875 1014.13366699219 1011.06427001953 1006.57525634766 1000.90179443359 1001.25006103516 1005.49139404297 1002.43328857422 996.573059082031 996.182739257812 988.809692382812 991.171630859375 988.261962890625 981.89501953125 985.557067871094 983.51611328125 980.331176757812 975.465270996094 974.640869140625 977.848815917969 974.142700195312 965.027709960938 963.346069335938 973.181823730469 977.811706542969 980.048583984375 999.76611328125 994.332458496094 1000.49255371094 999.457580566406 1004.93530273438 998.410949707031 995.704833984375 996.6796875 1004.06726074219 1014.98846435547 1008.14813232422 1017.36181640625 1018.80969238281 1015.02471923828 1006.15252685547 998.335754394531 992.77294921875 994.604187011719 986.149780273438 987.96533203125 988.323852539062 986.6240234375 995.715148925781 995.199462890625 992.009460449219 998.81884765625 998.498229980469 1004.3115234375 998.173767089844 1005.53112792969 1008.93029785156 1006.92730712891 1004.35589599609 1004.76348876953 1005.40173339844 1013.74487304688 1020.58050537109 1014.26647949219 1029.27514648438 1032.87561035156 1023.85034179688 1022.97479248047 1032.29504394531 1031.58483886719 1039.12841796875 1032.95886230469 1034.31530761719 1025.173828125 1018.10516357422 1018.31488037109 1009.82141113281 1015.72222900391 1018.55474853516 1014.95355224609 1019.76519775391 1011.54040527344 1012.66516113281 1008.65203857422 1004.05407714844 1003.06237792969 1001.39489746094 1003.81884765625 999.7900390625 998.894165039062 1009.87921142578 1010.88623046875 1008.91571044922 1017.26831054688 1000.70886230469 992.4462890625 987.4384765625 981.743469238281 975.359130859375 979.709350585938 979.204956054688 978.965454101562 974.667053222656 979.881164550781 989.082702636719
947.047302246094 948.261047363281 941.436218261719 937.095275878906 939.927124023438 940.535888671875 949.101257324219 952.666748046875 962.569213867188 963.497314453125 969.357116699219 978.105224609375 976.755676269531 980.489868164062 984.120361328125 984.936218261719 979.278137207031 973.135070800781 980.071899414062 982.036437988281 982.978454589844 991.285278320312 980.053955078125 985.347961425781 985.301635742188 988.837097167969 994.111267089844 984.67333984375 985.262756347656 984.937866210938 975.815185546875 985.898681640625 983.933227539062 984.010375976562 986.434692382812 991.557800292969 997.186401367188 989.710388183594 993.908935546875 993.247009277344 989.282592773438 988.424133300781 998.132568359375 1008.43786621094 1013.82794189453 1010.38885498047 1005.57562255859 1005.00854492188 1005.419921875 1006.38165283203 999.102172851562 1000.76934814453 1003.33911132812 991.825561523438 998.070129394531 988.726928710938 989.715576171875 992.307067871094 981.20703125 981.500305175781 985.406188964844 979.802856445312 981.419372558594 973.745788574219 976.213317871094 969.099975585938 969.132202148438 972.464660644531 971.72998046875 975.7333984375 983.21875 989.411499023438 991.060729980469 991.850891113281 998.293518066406 1004.35516357422 997.928039550781 1001.3369140625 997.419555664062 1006.12121582031 1010.80242919922 1003.6220703125 1013.3828125 1007.13391113281 1009.93225097656 1005.33477783203 1000.00354003906 998.738891601562 999.597961425781 993.454162597656 984.285400390625 977.291809082031 986.965881347656 994.671142578125 990.600341796875 1004.40020751953 994.739929199219 991.876892089844 1002.85150146484 1004.67694091797 1005.39038085938 1006.70367431641 1006.83770751953 995.806762695312 1000.12524414062 1000.22082519531 1007.44226074219 1016.68310546875 1034.77160644531 1025.39770507812 1030.74560546875 1033.31762695312 1038.04858398438 1033.09692382812 1043.09912109375 1035.49182128906 1034.72180175781 1033.19274902344 1027.14343261719 1032.67785644531 1026.47180175781 1013.01336669922 1018.65411376953 1024.31042480469 1011.41864013672 1012.41204833984 1009.07629394531 1013.42779541016 1004.67224121094 998.307006835938 1001.58630371094 1003.03466796875 1001.33953857422 995.887268066406 999.489868164062 1001.57611083984 998.733337402344 997.819030761719 1010.96148681641 995.915344238281 989.890197753906 980.277404785156 981.839660644531 974.45068359375 979.509887695312 975.7666015625 973.405517578125 979.853820800781 982.767211914062 988.059143066406
