NCOLS 150
NROWS 37
XLLCORNER 7394249
YLLCORNER 4843709
CELLSIZE 30
NODATA_VALUE -9999
985.096069335938 986.591491699219 988.823913574219 987.088684082031 996.267944335938 989.447998046875 1002.77215576172 1012.29803466797 1008.52471923828 1003.04852294922 1009.34057617188 1003.66625976562 1003.99194335938 1001.55841064453 1012.0576171875 1012.98168945312 1009.12872314453 1012.81744384766 1028.84997558594 1029.88562011719 1035.62329101562 1032.71203613281 1028.69458007812 1026.28430175781 1018.20880126953 1016.61889648438 1018.22613525391 1020.89581298828 1027.33825683594 1015.47796630859 1021.40655517578 1024.00610351562 1025.51611328125 1016.84637451172 1019.81164550781 1010.27160644531 1021.72192382812 1020.25805664062 1015.67443847656 1015.47955322266 1017.23602294922 1018.99176025391 1019.96527099609 1019.75109863281 1026.28601074219 1024.6923828125 1011.79443359375 1007.99981689453 1005.56427001953 996.814147949219 991.671142578125 991.958251953125 984.623107910156 983.762329101562 968.491027832031 963.319152832031 976.359680175781 975.34814453125 979.354919433594 983.821105957031 972.763854980469 970.534301757812 969.103332519531 958.56103515625 952.193359375 947.541870117188 949.938537597656 965.87939453125 960.432922363281 959.013244628906 963.565551757812 971.951049804688 974.710632324219 963.196350097656 968.957702636719 975.193664550781 991.480773925781 1003.98248291016 1008.2939453125 1007.84057617188 1012.94158935547 1011.32586669922 1001.3466796875 980.889038085938 975.807312011719 973.100830078125 961.604125976562 954.002258300781 954.077514648438 941.288024902344 933.300354003906 926.934692382812 925.23876953125 928.441345214844 924.022827148438 919.312927246094 915.193481445312 904.357055664062 900.019287109375 892.923522949219 886.894958496094 893.776733398438 889.741943359375 878.4716796875 877.200561523438 880.265075683594 886.107177734375 897.650390625 901.679748535156 905.387878417969 890.107421875 888.416015625 889.537719726562 883.369201660156 887.779174804688 898.342834472656 900.182922363281 911.966796875 916.3955078125 927.914001464844 930.827514648438 930.733093261719 932.704711914062 931.9794921875 942.835571289062 947.933044433594 961.432373046875 959.63671875 968.330871582031 980.373107910156 991.546997070312 999.834350585938 1013.26293945312 1023.25439453125 1032.32153320312 1046.48913574219 1059.20739746094 1063.71716308594 1075.26354980469 1093.76489257812 1117.38598632812 1136.03686523438 1126.54223632812 1126.626953125 1134.751953125 1127.35034179688 1107.02416992188 1099.58935546875 1096.43920898438 1082.42785644531
987.544006347656 991.471252441406 985.582275390625 985.756164550781 982.998657226562 991.589599609375 1000.33770751953 1008.43640136719 1012.43414306641 1003.05187988281 1006.77886962891 1000.76568603516 1006.07421875 1002.56359863281 1005.84692382812 1011.67230224609 1014.83703613281 1014.02294921875 1018.17901611328 1022.14184570312 1023.93115234375 1029.28198242188 1024.34130859375 1022.35510253906 1015.36572265625 1017.34338378906 1013.28533935547 999.636840820312 1006.31396484375 1009.19512939453 1012.23431396484 1018.76641845703 1021.23376464844 1023.85571289062 1031.02734375 1022.47412109375 1021.82330322266 1024.40405273438 1027.64306640625 1020.41351318359 1011.33325195312 1012.34027099609 1024.26013183594 1028.44934082031 1023.97564697266 1013.87640380859 1011.52569580078 1006.80615234375 998.934875488281 998.463439941406 1001.65509033203 1000.41815185547 997.712951660156 998.544555664062 981.718872070312 980.496765136719 988.885070800781 991.415100097656 987.142211914062 992.078369140625 984.865661621094 974.615295410156 972.051696777344 971.198547363281 959.432861328125 961.487548828125 965.025634765625 970.351928710938 974.19580078125 971.331176757812 971.787536621094 980.249328613281 973.79296875 969.563781738281 973.504455566406 985.128540039062 995.571838378906 1013.37829589844 1012.40447998047 1014.10601806641 1013.07513427734 1014.57360839844 996.9814453125 981.1943359375 978.248107910156 969.67333984375 965.941162109375 949.046936035156 961.872192382812 950.316833496094 941.939758300781 937.174560546875 933.86767578125 923.576049804688 922.501159667969 912.119995117188 908.550903320312 897.687683105469 899.151916503906 899.968505859375 895.419006347656 886.605895996094 884.870178222656 881.622375488281 884.122009277344 890.480163574219 899.613708496094 898.351623535156 903.435852050781 896.611755371094 890.49755859375 884.669494628906 882.616760253906 884.46435546875 889.520324707031 902.3505859375 903.237854003906 907.446960449219 920.464233398438 930.330688476562 939.65869140625 938.018920898438 937.233947753906 939.790954589844 946.060852050781 948.249267578125 957.025451660156 958.982788085938 975.156677246094 982.962219238281 988.004821777344 993.73046875 1010.55871582031 1019.41156005859 1033.69348144531 1042.00524902344 1053.23059082031 1065.6669921875 1091.85510253906 1103.28625488281 1119.25451660156 1131.38513183594 1134.79992675781 1140.34484863281 1136.43835449219 1125.72045898438 1115.18896484375 1107.21606445312 1107.18701171875 1094.00402832031
993.972229003906 991.98486328125 981.363891601562 979.803100585938 984.795104980469 988.976379394531 999.860290527344 1009.34613037109 1022.25366210938 1012.47521972656 1004.44134521484 998.461303710938 1002.67199707031 1004.69586181641 1006.79064941406 1013.4931640625 1008.68988037109 1009.345703125 1013.71356201172 1020.07867431641 1016.52880859375 1020.04919433594 1025.54992675781 1029.44860839844 1021.85906982422 1012.86926269531 1004.16015625 1007.81799316406 1005.29650878906 1002.96209716797 1006.55389404297 1015.00750732422 1011.22509765625 1003.06274414062 1022.09918212891 1026.07116699219 1021.48315429688 1026.203125 1027.9033203125 1019.41796875 1018.80712890625 1020.25671386719 1028.5654296875 1018.83514404297 1014.18310546875 1011.15289306641 1016.34356689453 1007.53173828125 1004.19134521484 1000.60620117188 1008.73901367188 1009.0341796875 997.791320800781 999.019958496094 992.307434082031 992.569763183594 995.548095703125 998.615234375 996.265319824219 991.454345703125 987.679443359375 983.490356445312 972.0126953125 980.637390136719 974.981750488281 973.7060546875 979.723388671875 981.472045898438 983.028869628906 984.975158691406 981.985534667969 988.743713378906 984.147766113281 981.345153808594 975.015686035156 993.109008789062 1006.99310302734 1011.60571289062 1015.65167236328 1021.06695556641 1009.06134033203 1008.46374511719 997.359619140625 992.643920898438 983.4482421875 976.716247558594 969.392700195312 959.339172363281 952.745727539062 946.809204101562 940.794677734375 936.750915527344 934.505798339844 926.346435546875 917.009216308594 908.805053710938 911.908386230469 914.660461425781 906.592163085938 899.569641113281 899.989196777344 890.572570800781 879.304260253906 883.104309082031 891.040649414062 884.177551269531 899.358093261719 906.815368652344 905.109130859375 904.390014648438 899.626647949219 891.950805664062 899.856079101562 892.664733886719 896.686706542969 897.021301269531 911.720825195312 911.870849609375 920.742309570312 936.251953125 944.874328613281 948.715576171875 939.183166503906 944.011413574219 947.44482421875 954.771240234375 957.982788085938 965.988159179688 968.102478027344 981.720397949219 987.814392089844 995.379333496094 1004.45733642578 1028.3974609375 1038.58374023438 1051.64990234375 1054.96203613281 1082.03637695312 1086.66052246094 1096.43957519531 1114.83081054688 1127.5849609375 1139.54467773438 1136.154296875 1130.02978515625 1130.73120117188 1127.14013671875 1110.24658203125 1103.75 1099.50610351562
992.624206542969 977.881530761719 987.631774902344 984.522705078125 983.300109863281 982.039001464844 992.329528808594 1002.37957763672 1001.81732177734 1006.28869628906 999.313659667969 990.995300292969 996.921325683594 1005.23937988281 999.478637695312 1005.71411132812 1009.28552246094 1009.998046875 1004.04565429688 1013.03924560547 1016.41101074219 1006.98651123047 1017.26086425781 1018.05407714844 1018.34399414062 1014.40777587891 1006.82305908203 1001.37225341797 1007.75286865234 1009.44732666016 1008.83276367188 1008.94720458984 1012.40850830078 1010.9794921875 1022.29821777344 1026.83935546875 1026.623046875 1023.41778564453 1022.88128662109 1018.62298583984 1025.65112304688 1034.52136230469 1013.94177246094 1022.48931884766 1013.60699462891 1009.38726806641 1020.69879150391 1006.23449707031 1002.26348876953 1004.73608398438 1010.99267578125 1008.48083496094 1002.47027587891 995.754150390625 995.7333984375 988.845703125 990.422241210938 995.587829589844 993.839477539062 997.111511230469 992.191528320312 987.711181640625 986.628173828125 982.819213867188 989.076416015625 984.511352539062 993.063049316406 994.836120605469 991.546875 997.025329589844 984.545288085938 995.538757324219 995.926208496094 993.625366210938 993.014770507812 1003.31872558594 1013.708984375 1018.05108642578 1021.57928466797 1026.43505859375 1022.27581787109 1019.20050048828 1010.33435058594 1001.58068847656 986.67626953125 975.155334472656 969.370910644531 963.576538085938 957.585754394531 946.136047363281 940.264709472656 934.829711914062 936.562377929688 925.999450683594 917.740539550781 916.6767578125 921.279724121094 922.692199707031 910.120056152344 902.075744628906 907.656860351562 903.795166015625 892.093933105469 892.277587890625 900.157165527344 901.97509765625 907.319702148438 906.912475585938 912.886108398438 910.068359375 902.262268066406 898.574157714844 903.20556640625 906.4267578125 905.210754394531 916.212768554688 920.0322265625 921.9921875 919.949645996094 934.73291015625 940.058471679688 946.517700195312 946.008178710938 951.081420898438 950.953979492188 967.019836425781 971.798461914062 982.126281738281 973.380615234375 985.070556640625 1001.34454345703 1003.36444091797 1010.25085449219 1029.29455566406 1036.47521972656 1047.68811035156 1060.66064453125 1073.17224121094 1084.56079101562 1096.28820800781 1110.48840332031 1129.23791503906 1134.21606445312 1131.84338378906 1134.87084960938 1130.31286621094 1141.78747558594 1129.1005859375 1118.041015625 1113.73754882812
990.82861328125 984.254821777344 975.403991699219 981.127807617188 979.450866699219 987.159240722656 993.554565429688 999.929138183594 992.323303222656 996.221984863281 998.217712402344 984.526550292969 988.245971679688 991.386413574219 998.147521972656 1004.34259033203 1005.50036621094 997.352294921875 1003.14111328125 1009.70593261719 1004.7021484375 991.248718261719 1003.03619384766 1008.99200439453 1011.91955566406 1014.16931152344 1006.99926757812 1005.78460693359 1006.37152099609 1004.93981933594 1005.97015380859 1010.34210205078 1012.69439697266 1015.26165771484 1012.34704589844 1019.65771484375 1024.63586425781 1019.32397460938 1012.13055419922 1014.45715332031 1021.67883300781 1023.11340332031 1018.49774169922 1021.39703369141 1013.01385498047 1010.41296386719 1009.72265625 1009.10052490234 998.345397949219 1008.17047119141 1007.65612792969 1007.07745361328 1008.09545898438 997.5166015625 996.361083984375 991.265502929688 993.261047363281 995.816955566406 997.080627441406 999.164978027344 1002.79028320312 995.621032714844 998.024963378906 991.212219238281 992.377868652344 995.449401855469 999.608581542969 998.715209960938 984.786499023438 989.6640625 990.093688964844 1002.31030273438 997.654418945312 1000.90893554688 1011.78033447266 1007.8837890625 1017.00518798828 1022.775390625 1030.18798828125 1034.02880859375 1033.39758300781 1021.19689941406 1014.14630126953 1003.86663818359 1000.12072753906 981.609741210938 966.478881835938 954.459533691406 958.986083984375 941.249816894531 937.986694335938 940.395385742188 940.265625 933.910339355469 930.826904296875 928.226379394531 928.158142089844 929.335021972656 925.134826660156 919.750793457031 916.951965332031 911.499816894531 901.212524414062 897.795104980469 915.059143066406 918.423217773438 920.875244140625 920.46240234375 928.378967285156 917.483581542969 911.293518066406 905.346069335938 915.727172851562 920.428649902344 918.217529296875 917.743530273438 923.792114257812 916.854309082031 925.009887695312 930.76611328125 935.624389648438 945.312438964844 948.986633300781 952.563110351562 957.089965820312 973.705749511719 976.444213867188 988.684997558594 988.045104980469 992.472778320312 999.107360839844 1007.62805175781 1023.88385009766 1034.30358886719 1036.96142578125 1038.16723632812 1058.32092285156 1066.21411132812 1082.17517089844 1088.32080078125 1098.42236328125 1118.32263183594 1119.88977050781 1129.08874511719 1134.29809570312 1146.72875976562 1138.47497558594 1137.640625 1131.85461425781 1108.77233886719
992.614196777344 984.368103027344 987.930847167969 976.788330078125 985.670288085938 991.667114257812 987.701416015625 992.304138183594 987.364013671875 1004.74481201172 995.611022949219 986.561767578125 986.270141601562 991.523864746094 993.175903320312 1006.17779541016 1009.27087402344 998.773620605469 994.701293945312 996.991577148438 997.543273925781 995.516479492188 997.080444335938 1007.51916503906 1001.28204345703 999.688110351562 1003.93762207031 1003.55749511719 1003.34057617188 1003.61889648438 1005.32824707031 1021.77075195312 1019.67712402344 1012.14733886719 1020.01879882812 1022.88922119141 1024.86437988281 1022.3828125 1012.86462402344 1008.69311523438 1012.06085205078 1016.78350830078 1023.01873779297 1019.43041992188 1011.67327880859 1006.62231445312 1006.65612792969 1012.97814941406 1006.53308105469 1007.31597900391 1005.16369628906 1010.55963134766 1007.70935058594 1002.08923339844 998.977294921875 995.96240234375 999.661499023438 1000.44458007812 1004.66864013672 1005.24664306641 1010.68505859375 1004.58325195312 1002.45471191406 998.198852539062 1006.33203125 1001.95837402344 1005.02697753906 1003.33477783203 998.945556640625 997.223510742188 999.494018554688 1001.80938720703 1001.27105712891 1008.37963867188 1020.07427978516 1021.97113037109 1024.67248535156 1028.50610351562 1043.18005371094 1036.70104980469 1035.15490722656 1033.91809082031 1010.97589111328 1000.09948730469 999.369567871094 992.067626953125 965.437377929688 958.680908203125 948.478454589844 945.091735839844 939.185546875 944.217651367188 947.096313476562 942.048767089844 932.981384277344 933.83056640625 928.501953125 935.662780761719 937.137634277344 928.912414550781 929.485534667969 925.966979980469 922.107421875 916.716552734375 929.202880859375 921.177185058594 928.074768066406 937.861999511719 931.635803222656 920.423583984375 923.051452636719 925.074279785156 929.14892578125 926.826171875 925.495178222656 919.19287109375 922.598388671875 909.872741699219 913.278747558594 920.293029785156 934.315185546875 948.952575683594 947.255126953125 951.721801757812 963.913879394531 976.681823730469 986.966918945312 994.996887207031 995.469909667969 995.613220214844 996.129272460938 1011.22149658203 1032.359375 1032.25366210938 1043.15515136719 1040.44689941406 1055.80578613281 1059.12890625 1074.55334472656 1092.52880859375 1102.81518554688 1114.099609375 1119.52453613281 1125.55688476562 1136.24401855469 1139.51208496094 1146.94580078125 1144.17639160156 1129.80883789062 1118.1064453125
987.415893554688 992.8759765625 988.591552734375 981.007080078125 979.911437988281 986.932678222656 991.060363769531 983.900329589844 988.034606933594 980.995422363281 981.678344726562 982.374145507812 981.788513183594 990.66943359375 987.883850097656 998.970092773438 1002.74969482422 995.214660644531 989.771423339844 987.594787597656 988.239013671875 995.376831054688 991.286437988281 998.19189453125 995.929992675781 993.302307128906 997.213134765625 1006.02746582031 1009.787109375 1009.89093017578 1016.34985351562 1022.39520263672 1020.56188964844 1023.03497314453 1020.67913818359 1020.90856933594 1025.3515625 1027.05615234375 1019.31896972656 1021.97619628906 1023.97570800781 1023.14990234375 1030.83044433594 1030.318359375 1017.5625 1010.9609375 1002.89025878906 1010.83941650391 1013.02996826172 1012.83190917969 1014.09832763672 1014.47564697266 1013.94348144531 1014.62567138672 1005.63677978516 1002.27056884766 1007.46173095703 1007.59625244141 1016.12420654297 1009.58117675781 1013.16418457031 1014.26025390625 1011.52014160156 998.295104980469 1000.31811523438 1009.22760009766 1010.69354248047 1009.16473388672 1005.54541015625 998.476379394531 997.295837402344 997.675354003906 1003.93902587891 1021.08636474609 1023.14880371094 1035.64245605469 1032.04699707031 1038.85205078125 1030.35278320312 1031.91149902344 1039.68566894531 1031.60986328125 1015.08245849609 1003.72326660156 993.132873535156 992.754760742188 978.005004882812 965.376159667969 949.882873535156 942.577758789062 942.041076660156 940.704284667969 931.811279296875 933.676147460938 937.461975097656 935.94775390625 939.588806152344 946.281127929688 939.677551269531 938.737060546875 944.565002441406 937.085815429688 933.591735839844 926.07568359375 934.812377929688 935.555236816406 937.544555664062 948.42822265625 935.843627929688 931.37353515625 931.942932128906 934.329223632812 940.677978515625 936.377624511719 930.3095703125 920.737060546875 910.484130859375 910.861267089844 915.033874511719 924.294189453125 940.604248046875 949.148193359375 955.392883300781 958.680053710938 976.090759277344 978.419799804688 995.090759277344 1005.53771972656 1000.02282714844 1008.47821044922 1006.87286376953 1024.53637695312 1030.26037597656 1040.27319335938 1044.16394042969 1051.60168457031 1050.93994140625 1060.00927734375 1082.22387695312 1091.52185058594 1110.00390625 1112.75610351562 1117.46081542969 1121.67114257812 1130.36901855469 1134.80822753906 1131.80187988281 1137.51721191406 1128.71691894531 1116.28759765625
993.947692871094 988.680236816406 993.409606933594 990.268676757812 985.264099121094 991.169067382812 978.414794921875 979.009094238281 981.782043457031 981.495910644531 986.447021484375 988.405029296875 981.31982421875 985.434509277344 985.332702636719 983.651672363281 999.700378417969 996.497863769531 991.158264160156 989.768188476562 989.804870605469 991.385681152344 996.750854492188 987.096130371094 996.559692382812 989.393310546875 997.334838867188 1005.74560546875 1010.04742431641 1025.74438476562 1020.16711425781 1021.56652832031 1023.36657714844 1026.04357910156 1016.02185058594 1021.09045410156 1026.46252441406 1032.58996582031 1032.93395996094 1042.15222167969 1035.7314453125 1022.90399169922 1030.13037109375 1040.66284179688 1015.61822509766 1013.50750732422 1007.78247070312 1011.98187255859 1005.04321289062 1010.15490722656 1025.79504394531 1027.04345703125 1022.978515625 1020.64599609375 1008.30419921875 1001.63873291016 1007.31768798828 1012.01708984375 1018.85382080078 1010.5068359375 1014.87292480469 1011.50811767578 1007.03668212891 1010.35308837891 1003.85266113281 1012.32336425781 1014.11273193359 1014.57879638672 1013.75115966797 1008.65643310547 994.41552734375 999.646179199219 1005.38006591797 1010.87176513672 1023.03228759766 1026.2880859375 1031.54016113281 1033.36218261719 1028.814453125 1026.28527832031 1030.31115722656 1029.30297851562 1013.06567382812 1008.40972900391 1001.77777099609 996.032836914062 983.358642578125 969.165588378906 961.024658203125 946.265930175781 942.26220703125 933.635192871094 932.586303710938 930.260620117188 927.32080078125 927.459899902344 940.811767578125 949.789306640625 952.848266601562 952.887023925781 961.021057128906 954.543151855469 939.819885253906 942.624206542969 946.807556152344 954.507629394531 949.827209472656 953.487731933594 945.465759277344 939.307434082031 946.1787109375 940.2734375 939.211975097656 935.129760742188 922.100036621094 919.906677246094 914.691345214844 911.174987792969 913.5537109375 922.526184082031 936.164489746094 946.276672363281 959.3662109375 968.361877441406 974.441650390625 980.165344238281 1000.12713623047 1002.47802734375 1003.59442138672 1016.22381591797 1023.31768798828 1027.00756835938 1038.57104492188 1044.58874511719 1044.71276855469 1053.92321777344 1064.71911621094 1077.66381835938 1094.80615234375 1096.12255859375 1112.85473632812 1108.45703125 1117.06384277344 1114.32885742188 1117.2607421875 1123.013671875 1130.40051269531 1126.10705566406 1128.28527832031 1116.34240722656
984.239074707031 980.440734863281 990.262451171875 993.972717285156 983.351196289062 981.424865722656 987.647521972656 983.22607421875 988.006042480469 982.755676269531 982.680908203125 987.432739257812 985.754699707031 981.778198242188 972.991149902344 984.110534667969 989.793579101562 990.143981933594 995.730834960938 997.598022460938 993.805908203125 991.378234863281 994.794616699219 991.350830078125 1002.84387207031 1001.51141357422 996.523498535156 996.278137207031 1002.54046630859 1022.53741455078 1022.36376953125 1030.35595703125 1031.44799804688 1020.80346679688 1024.26440429688 1026.55126953125 1038.12805175781 1037.01977539062 1033.09802246094 1031.54431152344 1037.67761230469 1034.91369628906 1033.86193847656 1037.51135253906 1015.55706787109 1012.19616699219 1007.44219970703 1014.89984130859 1011.81866455078 1015.31774902344 1018.97174072266 1018.21765136719 1027.93908691406 1016.60888671875 1005.51116943359 1010.47521972656 1006.67767333984 1009.48065185547 1018.01715087891 1019.86901855469 1025.95690917969 1010.72650146484 1007.66400146484 1014.70111083984 1016.42266845703 1019.83062744141 1018.18341064453 1013.45025634766 1016.91632080078 999.505004882812 989.973083496094 1004.73883056641 1018.01544189453 1022.22863769531 1019.44140625 1024.17846679688 1018.33618164062 1019.74420166016 1031.25268554688 1038.5771484375 1032.81311035156 1033.17724609375 1022.67730712891 1013.05407714844 1011.95867919922 997.759704589844 983.72900390625 978.069030761719 965.800109863281 950.239074707031 943.686767578125 936.784729003906 931.9423828125 924.018493652344 930.943359375 932.150695800781 940.195068359375 943.357055664062 952.693542480469 957.560913085938 969.006042480469 968.649353027344 952.250610351562 947.235168457031 958.890258789062 961.72216796875 960.810791015625 955.325439453125 961.427124023438 968.00341796875 955.498229980469 946.014587402344 931.132446289062 924.698181152344 929.701354980469 919.683959960938 911.374755859375 904.007568359375 921.314880371094 918.631774902344 936.889892578125 954.115234375 969.568725585938 985.560913085938 976.745300292969 984.300109863281 998.502563476562 1001.63897705078 1017.67010498047 1029.15954589844 1029.56994628906 1048.76586914062 1046.46569824219 1058.12536621094 1059.08850097656 1071.20520019531 1079.02954101562 1082.96740722656 1095.19909667969 1102.31555175781 1107.90686035156 1104.76623535156 1100.42297363281 1115.24645996094 1117.81555175781 1127.0830078125 1129.74145507812 1122.51623535156 1123.45703125 1120.13745117188
987.735778808594 983.398010253906 987.85693359375 983.310424804688 980.505676269531 986.34130859375 981.804016113281 983.923400878906 986.699829101562 982.193054199219 978.340148925781 980.635681152344 982.966491699219 976.487670898438 976.801574707031 984.598449707031 983.281311035156 992.007995605469 988.458557128906 999.841979980469 998.137451171875 991.753356933594 994.600891113281 991.814270019531 993.206970214844 1002.58282470703 1001.52868652344 1003.08349609375 1018.3515625 1020.74847412109 1027.59069824219 1036.29333496094 1031.05920410156 1026.19799804688 1013.93695068359 1028.181640625 1028.51477050781 1034.10266113281 1035.25512695312 1038.97802734375 1027.37548828125 1031.81970214844 1036.29211425781 1030.8564453125 1023.33557128906 1016.53289794922 1022.00512695312 1021.95709228516 1032.45300292969 1031.44030761719 1016.48504638672 1025.54418945312 1016.02807617188 1006.85668945312 1012.42333984375 1010.44360351562 1016.03326416016 1015.75836181641 1017.94122314453 1031.61218261719 1023.97259521484 1013.27197265625 1013.93585205078 1026.59411621094 1016.68292236328 1016.91564941406 1019.08325195312 1017.26031494141 1009.79711914062 1006.00695800781 1007.55743408203 1011.32183837891 1020.26373291016 1020.47973632812 1020.87591552734 1017.98077392578 1020.64074707031 1018.28295898438 1027.07495117188 1035.98596191406 1030.68334960938 1029.29370117188 1019.08569335938 1013.53356933594 1011.02856445312 1005.06640625 991.125854492188 972.945251464844 967.3125 961.753234863281 945.029663085938 942.548156738281 944.21240234375 934.21533203125 933.792175292969 932.693420410156 939.30224609375 944.137756347656 956.809204101562 965.686767578125 975.979125976562 970.947082519531 957.791931152344 952.91943359375 963.578552246094 966.259094238281 964.711303710938 958.717834472656 973.147399902344 966.598388671875 968.716735839844 947.52734375 949.12353515625 929.428588867188 914.629028320312 913.050659179688 911.840942382812 913.647827148438 925.63134765625 929.457397460938 948.062194824219 960.310424804688 962.846008300781 978.293212890625 976.462280273438 986.595031738281 1000.56164550781 1005.06732177734 1014.95190429688 1029.67077636719 1036.06958007812 1051.90454101562 1057.06799316406 1058.26403808594 1061.70922851562 1072.26220703125 1068.45227050781 1075.95495605469 1086.57727050781 1100.21997070312 1107.81713867188 1101.56628417969 1108.02526855469 1105.92541503906 1112.28247070312 1118.68896484375 1117.05029296875 1117.787109375 1120.59692382812 1106.423828125
978.4560546875 978.00244140625 985.155395507812 977.854125976562 973.596862792969 978.893432617188 981.315185546875 983.2265625 988.276306152344 981.84033203125 986.008911132812 970.046020507812 977.26708984375 974.430419921875 978.279479980469 980.762878417969 980.252563476562 989.470764160156 985.198120117188 992.396789550781 978.355285644531 984.238891601562 990.054443359375 983.668579101562 993.653015136719 1002.69592285156 1003.07751464844 1006.88122558594 1014.83160400391 1022.11254882812 1019.50994873047 1026.86206054688 1034.79418945312 1036.85632324219 1032.30236816406 1031.46740722656 1026.92443847656 1028.82165527344 1035.67541503906 1040.61169433594 1038.77270507812 1041.0166015625 1036.4482421875 1031.49035644531 1022.58953857422 1022.44396972656 1017.21826171875 1025.021484375 1026.21948242188 1028.17895507812 1025.4384765625 1011.01898193359 1016.61633300781 1003.32348632812 1007.99908447266 1008.38092041016 1018.71905517578 1026.24072265625 1029.31140136719 1029.02001953125 1025.810546875 1016.90185546875 1022.31799316406 1026.06958007812 1022.47235107422 1025.28552246094 1020.50640869141 1015.33197021484 1016.55535888672 1012.35522460938 1018.90844726562 1014.50329589844 1016.92864990234 1023.62194824219 1013.89190673828 1006.87182617188 1017.24005126953 1020.90142822266 1027.4697265625 1027.98669433594 1025.08654785156 1034.29528808594 1030.15869140625 1025.90197753906 1019.02111816406 1009.87322998047 992.918334960938 968.988403320312 970.939819335938 961.941528320312 950.409912109375 950.94775390625 946.380981445312 943.213195800781 949.712524414062 946.313110351562 950.506469726562 948.464111328125 966.943664550781 975.213989257812 976.858642578125 971.864440917969 968.287841796875 967.143981933594 969.1376953125 968.9287109375 969.314392089844 961.843688964844 972.705749511719 979.031494140625 965.685180664062 962.282775878906 947.244812011719 937.025207519531 931.565246582031 923.33740234375 919.021850585938 925.964477539062 925.529541015625 939.0458984375 949.438903808594 955.157470703125 970.209411621094 981.347717285156 989.507019042969 999.306396484375 1008.88555908203 1013.06860351562 1018.76770019531 1036.45959472656 1051.95239257812 1051.73254394531 1055.87976074219 1059.4736328125 1066.23547363281 1065.66442871094 1069.62487792969 1070.53637695312 1073.72912597656 1091.12145996094 1095.62438964844 1104.61535644531 1111.03564453125 1106.27075195312 1110.90441894531 1122.11047363281 1120.05041503906 1114.09826660156 1107.30480957031 1098.00988769531
982.330993652344 974.5126953125 970.964660644531 963.482360839844 978.615539550781 982.190734863281 981.585327148438 991.858459472656 988.190673828125 979.465087890625 976.786193847656 967.309692382812 968.144897460938 974.454833984375 973.843017578125 974.837219238281 982.85498046875 985.433288574219 978.78564453125 977.028503417969 979.229614257812 979.763610839844 986.76806640625 983.986022949219 995.216796875 1003.65142822266 1009.54498291016 1012.61419677734 1012.10174560547 1016.20892333984 1018.66351318359 1022.48602294922 1025.23669433594 1036.32409667969 1028.78430175781 1027.8486328125 1023.81475830078 1026.76391601562 1034.51257324219 1036.89111328125 1041.84350585938 1037.78430175781 1038.28161621094 1032.80261230469 1032.27514648438 1024.37585449219 1013.92211914062 1010.03204345703 1018.41375732422 1024.22924804688 1017.99371337891 1016.34619140625 1007.55346679688 997.690979003906 1000.04998779297 1013.18090820312 1029.03930664062 1025.7421875 1021.98693847656 1026.88671875 1026.74450683594 1020.0380859375 1025.34643554688 1024.4697265625 1025.79418945312 1023.32611083984 1020.11328125 1022.44116210938 1020.24743652344 1025.19055175781 1018.41571044922 1011.14508056641 1011.61303710938 1016.79718017578 1004.35260009766 1005.99859619141 1011.88665771484 1020.78985595703 1022.44750976562 1022.51373291016 1028.4287109375 1031.51989746094 1032.45324707031 1025.00378417969 1012.24035644531 1009.15710449219 990.959045410156 982.545349121094 976.116088867188 970.123779296875 955.41748046875 962.726440429688 961.860168457031 950.494812011719 954.818603515625 954.4853515625 961.950012207031 963.852416992188 971.858093261719 978.822937011719 981.857849121094 972.541381835938 971.206481933594 974.472534179688 980.797729492188 976.176635742188 972.267395019531 963.264099121094 971.25390625 977.121826171875 967.795532226562 964.693908691406 953.707275390625 951.29931640625 933.37939453125 925.872680664062 924.355346679688 932.924621582031 923.600158691406 933.428527832031 946.809448242188 965.994750976562 975.674133300781 989.442565917969 1000.9365234375 1013.85229492188 1023.55883789062 1029.02014160156 1034.59997558594 1044.61804199219 1055.83361816406 1058.00085449219 1066.14685058594 1065.51062011719 1064.77185058594 1060.74670410156 1058.39831542969 1067.52685546875 1065.4501953125 1084.43493652344 1093.41455078125 1097.1357421875 1111.98608398438 1110.04577636719 1115.08654785156 1119.62341308594 1117.94921875 1113.19262695312 1106.69995117188 1105.41296386719
974.343872070312 979.260864257812 967.514892578125 968.830505371094 972.87890625 962.306030273438 975.347961425781 980.919677734375 972.374633789062 974.813781738281 970.17822265625 960.663513183594 969.442626953125 964.803649902344 971.794189453125 979.816833496094 975.24072265625 974.439819335938 974.730407714844 972 980.6787109375 967.720764160156 984.990478515625 986.072143554688 995.701782226562 1003.96704101562 1015.13641357422 1018.12756347656 1015.18627929688 1007.07025146484 1014.83331298828 1021.3251953125 1029.62353515625 1036.80603027344 1030.91687011719 1033.6357421875 1027.31188964844 1031.41662597656 1031.35388183594 1030.68774414062 1040.80004882812 1037.63366699219 1028.51452636719 1034.138671875 1027.99145507812 1022.06976318359 1008.04351806641 1011.52380371094 1005.05236816406 1008.78863525391 1011.55889892578 1006.56823730469 998.591552734375 994.934814453125 997.45703125 1005.73266601562 1013.94476318359 1019.39208984375 1029.60314941406 1021.86376953125 1018.64855957031 1026.5947265625 1031.94763183594 1032.56799316406 1030.42065429688 1028.91284179688 1023.52001953125 1026.52819824219 1026.83056640625 1026.77087402344 1029.56494140625 1025.57885742188 1017.60711669922 1014.03729248047 1005.47668457031 1004.09002685547 1008.91760253906 1014.13116455078 1015.38952636719 1018.69543457031 1020.04150390625 1025.92626953125 1027.01501464844 1027.00415039062 1012.81317138672 1005.76513671875 997.803039550781 986.655212402344 984.99365234375 977.001953125 968.356506347656 975.321960449219 971.075927734375 978.798400878906 974.000732421875 970.916259765625 964.115234375 970.153625488281 980.7158203125 980.154113769531 978.321166992188 978.757019042969 978.995178222656 985.378967285156 987.000793457031 987.224426269531 980.544738769531 968.420227050781 971.865478515625 966.196594238281 970.373413085938 968.170654296875 956.562866210938 945.51220703125 930.719482421875 925.3212890625 931.325805664062 934.969604492188 931.889038085938 942.314575195312 954.988830566406 966.629699707031 980.74951171875 1000.62139892578 1002.07061767578 1014.36260986328 1023.84252929688 1025.98498535156 1023.84661865234 1044.18713378906 1048.7021484375 1054.92553710938 1066.98364257812 1066.52270507812 1063.69934082031 1058.49389648438 1056.16296386719 1059.16882324219 1065.84106445312 1079.52465820312 1092.14624023438 1093.75085449219 1097.79968261719 1107.79809570312 1112.52770996094 1124.38903808594 1113.60620117188 1115.9150390625 1107.29333496094 1104.18176269531
962.25244140625 964.804992675781 960.979797363281 960.377868652344 958.607971191406 965.310791015625 976.40576171875 975.780700683594 975.987182617188 975.728515625 967.867919921875 956.257873535156 959.141662597656 960.698791503906 971.365783691406 973.311401367188 971.234497070312 966.468078613281 965.64892578125 964.300354003906 966.362121582031 973.85400390625 978.486755371094 986.274963378906 992.166259765625 1005.90521240234 1004.51641845703 1012.09503173828 1013.18487548828 1006.59197998047 1010.81207275391 1022.33325195312 1028.12744140625 1036.2001953125 1041.3349609375 1041.05810546875 1028.19616699219 1032.45178222656 1033.16467285156 1034.4833984375 1044.09558105469 1042.42626953125 1041.85595703125 1031.18896484375 1021.95959472656 1025.92163085938 1020.89086914062 1006.31048583984 1008.16571044922 1000.83758544922 1003.59173583984 997.607604980469 991.406921386719 995.860107421875 993.094177246094 1005.26202392578 1015.84283447266 1012.82855224609 1022.96826171875 1019.77508544922 1021.11779785156 1028.85131835938 1040.64282226562 1035.46496582031 1032.10180664062 1032.29626464844 1029.13110351562 1024.96179199219 1021.91064453125 1031.52294921875 1030.57849121094 1024.09265136719 1018.34167480469 1017.27911376953 1007.84088134766 1002.69140625 1004.80474853516 1007.56817626953 1010.81555175781 1016.27813720703 1015.59906005859 1017.94317626953 1037.31750488281 1028.29089355469 1016.61370849609 1009.13696289062 1002.20770263672 997.434753417969 989.628173828125 978.738891601562 976.7919921875 984.005981445312 982.733642578125 995.928405761719 990.247497558594 987.631713867188 980.951232910156 983.348205566406 988.080200195312 982.682556152344 987.459411621094 986.178588867188 979.5693359375 984.355102539062 984.2392578125 982.962524414062 969.585144042969 978.87548828125 971.768615722656 958.289489746094 960.727600097656 963.130065917969 955.536376953125 941.605529785156 933.917114257812 927.278564453125 926.709899902344 942.189453125 935.259460449219 940.431945800781 957.088073730469 968.774780273438 976.009460449219 989.762145996094 999.618041992188 1009.2529296875 1027.27587890625 1030.81091308594 1038.9912109375 1039.65551757812 1047.34790039062 1053.36279296875 1065.50561523438 1062.61511230469 1064.26733398438 1066.55249023438 1057.91577148438 1068.08740234375 1070.57946777344 1072.56298828125 1087.79223632812 1081.96081542969 1089.685546875 1099.40356445312 1109.96618652344 1116.31762695312 1097.79052734375 1100.38012695312 1102.17810058594 1100.42639160156
955.713806152344 953.975769042969 952.069458007812 957.483154296875 956.588806152344 963.625427246094 963.434753417969 962.649536132812 967.740173339844 968.288146972656 965.525512695312 953.213195800781 961.163879394531 955.826232910156 963.7666015625 963.856994628906 963.273803710938 962.370239257812 969.146850585938 963.001403808594 966.906799316406 974.341674804688 976.562255859375 980.294128417969 989.766174316406 1002.52709960938 1004.861328125 1010.75140380859 1010.27795410156 1004.45446777344 1017.04510498047 1021.32800292969 1028.2900390625 1033.90563964844 1040.6689453125 1043.42724609375 1031.21118164062 1046.96118164062 1042.23657226562 1038.89636230469 1040.06494140625 1039.33081054688 1023.93438720703 1022.26995849609 1022.94793701172 1026.87219238281 1020.0654296875 1016.56457519531 1008.21875 1006.0703125 1004.89221191406 1000.16937255859 993.046936035156 988.022583007812 988.583801269531 1002.41754150391 1008.94110107422 1016.24731445312 1024.93444824219 1013.90844726562 1018.9482421875 1028.283203125 1040.84729003906 1030.45654296875 1024.89709472656 1027.24206542969 1023.22741699219 1012.765625 1020.98779296875 1030.38879394531 1020.29412841797 1014.57971191406 1016.93151855469 1021.33941650391 1023.01635742188 1008.47375488281 999.272644042969 1004.01513671875 1009.55676269531 1016.833984375 1012.27252197266 1018.97998046875 1022.98229980469 1017.39874267578 1006.06872558594 1003.27337646484 1000.96331787109 994.6513671875 986.585021972656 995.013793945312 994.60205078125 994.890380859375 996.906311035156 1002.60260009766 1000.54235839844 998.673034667969 992.616088867188 986.619812011719 1000.95190429688 994.575256347656 988.404846191406 994.0634765625 982.548645019531 984.47509765625 992.343444824219 989.989013671875 986.319274902344 979.163146972656 966.62890625 958.908996582031 963.235290527344 958.787292480469 956.586547851562 941.75244140625 939.783386230469 931.527648925781 932.399719238281 941.196838378906 942.423889160156 947.039184570312 956.52001953125 975.10107421875 973.313110351562 983.754150390625 996.697265625 1009.94744873047 1017.53100585938 1026.85729980469 1037.62341308594 1042.83557128906 1044.49548339844 1052.3115234375 1055.06555175781 1064.56799316406 1055.994140625 1060.2080078125 1058.31262207031 1062.86328125 1071.83215332031 1074.65148925781 1081.37390136719 1080.17211914062 1090.64978027344 1102.11340332031 1116.380859375 1111.42602539062 1102.03186035156 1099.3134765625 1100.24450683594 1097.15258789062
957.646911621094 951.989929199219 956.417785644531 948.289001464844 951.77392578125 961.200561523438 960.138305664062 967.612915039062 960.063598632812 972.452453613281 960.087890625 951.748474121094 945.661071777344 949.852478027344 950.476928710938 957.336120605469 961.931213378906 948.720153808594 963.339050292969 966.408447265625 969.281799316406 975.355712890625 979.740234375 983.879272460938 984.012878417969 994.974792480469 995.091491699219 998.985656738281 1005.427734375 999.791931152344 1014.49194335938 1019.98876953125 1020.97436523438 1033.12377929688 1035.8798828125 1037.7509765625 1029.57580566406 1030.95141601562 1036.20666503906 1045.54565429688 1029.53491210938 1025.42260742188 1022.27880859375 1020.19079589844 1019.89825439453 1029.28491210938 1021.3271484375 1012.71099853516 999.345886230469 1003.73455810547 1001.61669921875 999.470031738281 991.829895019531 992.045471191406 984.3056640625 987.6474609375 1002.95947265625 1014.48687744141 1024.318359375 1023.83178710938 1022.49328613281 1031.552734375 1019.34393310547 1020.75952148438 1026.82409667969 1016.55548095703 1019.99249267578 1010.95904541016 1013.3037109375 1021.39392089844 1021.12274169922 1026.71179199219 1019.96875 1020.58276367188 1012.07647705078 1006.67651367188 1007.42987060547 1008.12908935547 1009.58483886719 1003.45703125 1008.60925292969 996.73779296875 1006.65985107422 1015.08111572266 1006.67431640625 1001.50964355469 1005.05584716797 996.083374023438 994.451354980469 997.960021972656 1003.00054931641 1005.14239501953 997.729858398438 1004.65063476562 1013.04870605469 1017.04309082031 1001.03778076172 999.650207519531 1003.67065429688 1001.84606933594 992.950744628906 998.544982910156 990.582763671875 986.212280273438 994.288024902344 989.872497558594 993.24951171875 986.702087402344 981.01416015625 965.755249023438 958.183654785156 957.385192871094 957.498657226562 949.462890625 936.639892578125 930.761535644531 945.759521484375 943.384033203125 940.683471679688 946.859497070312 964.260437011719 974.243469238281 983.757446289062 989.260803222656 1002.09136962891 1012.54077148438 1017.78918457031 1025.43701171875 1034.86962890625 1039.15588378906 1043.12475585938 1048.6494140625 1050.45458984375 1058.58776855469 1056.73864746094 1054.24609375 1050.91809082031 1054.5341796875 1061.78894042969 1074.02380371094 1069.95776367188 1083.79345703125 1083.39990234375 1097.40209960938 1105.70776367188 1103.36743164062 1107.85339355469 1101.89501953125 1107.2939453125 1106.50073242188
950.874450683594 945.786926269531 961.335632324219 951.634582519531 957.187744140625 960.369750976562 965.764770507812 961.514526367188 948.315856933594 958.448669433594 946.66943359375 953.157348632812 945.929809570312 949.437805175781 948.249877929688 950.736022949219 956.893798828125 965.827880859375 968.826110839844 974.390014648438 979.570617675781 977.635559082031 984.304321289062 993.871826171875 988.146667480469 991.623596191406 1005.09631347656 996.170593261719 991.156311035156 1001.53076171875 1007.98400878906 1009.65783691406 1008.794921875 1017.63293457031 1023.5986328125 1036.07983398438 1031.19946289062 1019.74719238281 1030.55444335938 1039.75744628906 1023.91241455078 1013.94085693359 1019.41821289062 1021.73846435547 1021.35272216797 1018.39715576172 1010.99969482422 1006.49267578125 995.51318359375 993.369506835938 994.606872558594 996.474365234375 1003.31085205078 997.109680175781 997.085205078125 984.769714355469 998.147338867188 1009.17535400391 1012.55108642578 1013.40850830078 1008.23138427734 1020.76977539062 1020.33489990234 1014.70068359375 1022.21081542969 1014.61010742188 1013.42913818359 1011.28607177734 1016.28973388672 1026.22631835938 1018.44372558594 1026.16088867188 1023.74237060547 1023.4619140625 1009.81616210938 1008.13189697266 1009.6142578125 1007.79833984375 1003.24536132812 1004.80419921875 1010.75848388672 1009.71704101562 998.720886230469 1006.66571044922 1011.82867431641 1005.50317382812 1001.263671875 1004.1845703125 1009.71215820312 1018.88488769531 1019.51831054688 1018.18872070312 1019.88391113281 1030.0966796875 1035.81506347656 1020.46453857422 1004.07830810547 1002.29223632812 1003.69476318359 1004.45867919922 1000.43334960938 999.129150390625 999.633239746094 994.522521972656 997.301086425781 998.60107421875 996.494323730469 990.502746582031 984.55126953125 975.345886230469 962.183715820312 967.979248046875 965.708312988281 947.692321777344 944.287902832031 940.51953125 958.389404296875 955.01416015625 952.085632324219 959.744018554688 966.158935546875 981.775390625 985.076171875 996.666137695312 1014.44671630859 1020.89477539062 1027.14306640625 1036.06689453125 1037.25219726562 1045.73376464844 1047.09826660156 1052.29162597656 1053.71313476562 1054.46508789062 1050.48095703125 1049.18029785156 1049.58837890625 1059.64343261719 1056.35559082031 1065.90393066406 1075.71032714844 1078.91174316406 1088.80773925781 1092.66027832031 1101.44909667969 1097.80053710938 1104.24011230469 1097.71398925781 1107.10363769531 1098.81579589844
955.592468261719 957.869934082031 953.260375976562 949.656494140625 949.929016113281 963.078308105469 961.990783691406 954.580322265625 946.475646972656 949.740905761719 949.387390136719 946.877197265625 948.268737792969 950.209106445312 960.502746582031 959.2109375 957.589416503906 966.01123046875 980.87255859375 973.570007324219 986.038269042969 997.592956542969 994.969848632812 986.746520996094 997.677917480469 998.877380371094 1002.82135009766 989.492736816406 989.194519042969 999.701293945312 1000.15771484375 1006.3037109375 1006.36975097656 999.390014648438 1003.83264160156 1023.02642822266 1020.73400878906 1017.30224609375 1023.31066894531 1024.58044433594 1022.01098632812 1011.50408935547 1012.99041748047 1011.64978027344 1015.39044189453 1010.75732421875 1003.00726318359 998.084106445312 995.495544433594 997.986328125 991.77734375 992.945983886719 999.584228515625 1002.92291259766 1002.67895507812 1005.80700683594 998.568054199219 1002.63159179688 1001.92944335938 1012.10046386719 1003.30480957031 1024.20556640625 1016.43548583984 1020.16619873047 1018.66235351562 1016.84606933594 1013.36053466797 1013.77935791016 1016.16943359375 1026.46643066406 1021.50952148438 1021.72521972656 1018.33251953125 1018.81500244141 1008.03570556641 1003.69665527344 1005.83569335938 1005.05102539062 1006.46282958984 1002.95343017578 1005.03918457031 1007.61193847656 1005.35003662109 1011.17309570312 1012.13323974609 1005.76708984375 1007.94543457031 1004.83483886719 1014.90740966797 1021.00811767578 1023.79357910156 1025.65283203125 1026.55700683594 1032.13134765625 1028.33374023438 1020.64813232422 1016.19921875 1013.20080566406 1002.349609375 1001.70855712891 1003.21618652344 1001.88885498047 1005.34356689453 992.920166015625 997.722229003906 998.645263671875 1006.82781982422 995.485229492188 993.024353027344 975.690124511719 970.414794921875 972.821044921875 961.834167480469 948.210876464844 947.407470703125 941.750122070312 953.481323242188 959.989807128906 963.669067382812 972.39990234375 974.9619140625 987.194519042969 998.242004394531 1001.28540039062 1011.40545654297 1026.51086425781 1029.0751953125 1035.59948730469 1042.74536132812 1044.88818359375 1050.36926269531 1048.06567382812 1053.33813476562 1050.69714355469 1055.19384765625 1047.20336914062 1049.50402832031 1055.69201660156 1053.80041503906 1059.14086914062 1073.75463867188 1079.86840820312 1082.01843261719 1085.513671875 1091.58666992188 1097.5927734375 1096.24890136719 1100.70739746094 1095.15747070312 1093.04125976562
952.152099609375 957.807373046875 943.65234375 947.22998046875 950.934875488281 959.903930664062 954.182861328125 948.95703125 950.488586425781 950.167114257812 948.936157226562 953.012817382812 958.060668945312 967.272399902344 962.8349609375 967.273986816406 958.358581542969 958.513488769531 966.901611328125 975.572204589844 987.352600097656 994.407165527344 995.973205566406 996.798889160156 1002.23150634766 1003.65673828125 994.8173828125 1003.29675292969 997.505920410156 997.474243164062 1000.67065429688 1002.61804199219 1004.91644287109 1001.07653808594 994.471069335938 1012.333984375 1010.33270263672 1017.99737548828 1014.54174804688 1017.14135742188 1017.67175292969 1010.06573486328 1009.03015136719 1014.97369384766 1006.08489990234 1012.50122070312 999.394836425781 1003.35461425781 994.1318359375 999.881042480469 1003.59918212891 1001.6962890625 996.065063476562 994.835510253906 995.855346679688 1000.26361083984 1002.27728271484 993.490539550781 1001.25756835938 1000.95672607422 1007.39367675781 1012.64916992188 1014.35772705078 1015.40594482422 1020.99780273438 1024.97973632812 1011.45812988281 1018.73193359375 1018.92999267578 1018.20550537109 1012.50958251953 1008.37609863281 1005.73284912109 1010.91351318359 1005.25537109375 1003.35479736328 1002.72296142578 1004.13891601562 1001.68896484375 1006.68518066406 1012.21978759766 1013.68798828125 1009.27905273438 1007.75158691406 1015.16290283203 1010.52716064453 1019.71575927734 1013.65936279297 1018.02764892578 1017.2626953125 1014.34600830078 1020.37902832031 1024.27172851562 1024.02978515625 1029.544921875 1031.50830078125 1022.32678222656 1024.34594726562 1008.48828125 998.187316894531 1008.6162109375 1002.5078125 1003.16729736328 1006.62121582031 1000.06805419922 1011.10675048828 1012.42919921875 1004.38323974609 994.778381347656 986.69482421875 975.699584960938 966.119995117188 956.08740234375 950.762023925781 950.18359375 944.453002929688 942.888732910156 958.238708496094 973.773193359375 987.286560058594 985.270324707031 992.132019042969 997.495361328125 1006.82098388672 1019.8193359375 1035.57189941406 1035.16186523438 1036.27478027344 1044.71606445312 1047.52770996094 1057.72521972656 1051.46337890625 1055.18640136719 1050.42443847656 1039.77453613281 1039.17736816406 1053.07214355469 1055.0185546875 1053.53515625 1053.33764648438 1059.67541503906 1063.65539550781 1075.23205566406 1079.99609375 1078.81762695312 1092.77661132812 1090.21203613281 1091.62890625 1092.435546875 1091.80480957031
949.042785644531 943.675598144531 952.933227539062 954.037719726562 956.795776367188 957.426513671875 962.989685058594 954.086303710938 950.122436523438 958.142517089844 960.979553222656 965.976013183594 962.625610351562 970.568908691406 963.195861816406 965.982421875 963.606689453125 966.427429199219 972.360900878906 971.192565917969 980.430908203125 987.524963378906 990.20068359375 997.602844238281 999.833068847656 993.809204101562 993.027282714844 1006.14440917969 1000.37310791016 995.562377929688 996.824829101562 997.355590820312 1003.33135986328 994.787658691406 1004.59851074219 999.731567382812 1002.32421875 1006.72009277344 1014.16473388672 1005.90319824219 1010.27850341797 1012.82354736328 1016.45471191406 1006.06188964844 1001.23742675781 1003.70458984375 999.873779296875 1002.58697509766 996.185119628906 995.4345703125 998.125366210938 994.513305664062 991.771362304688 995.483154296875 989.168823242188 990.63232421875 1004.4892578125 997.95703125 995.918212890625 997.289184570312 1009.13659667969 1007.57232666016 1013.99871826172 1023.64916992188 1029.59936523438 1020.03540039062 1016.35888671875 1010.95642089844 1020.57336425781 1019.84259033203 1010.72991943359 1013.35369873047 1007.42712402344 1005.21710205078 1014.19311523438 1009.25860595703 1009.48767089844 1009.73223876953 1017.55010986328 1016.46203613281 1011.23779296875 1001.64862060547 1001.84008789062 1006.28631591797 1013.65631103516 1018.43267822266 1011.12573242188 1000.56982421875 1010.92242431641 1016.61645507812 1014.40893554688 1021.55932617188 1022.64862060547 1027.01135253906 1024.17907714844 1027.86730957031 1037.10949707031 1033.81457519531 1023.22808837891 1010.37622070312 1010.19213867188 1003.81268310547 1008.60046386719 1004.65881347656 1008.05023193359 1014.318359375 1006.65759277344 1005.28192138672 1008.89245605469 997.873657226562 978.756958007812 969.271667480469 957.479187011719 952.816772460938 946.395141601562 947.046875 947.562561035156 962.205688476562 976.690673828125 997.811828613281 1005.24377441406 1006.39764404297 1008.43115234375 1021.06512451172 1022.96612548828 1029.54736328125 1032.03356933594 1042.51342773438 1040.83764648438 1060.11376953125 1046.47485351562 1045.55651855469 1038.89807128906 1039.17578125 1036.72253417969 1031.91662597656 1051.10473632812 1054.35900878906 1063.92810058594 1056.59948730469 1059.37805175781 1061.25280761719 1072.52734375 1073.60119628906 1071.88952636719 1083.19677734375 1086.49060058594 1089.04992675781 1082.34057617188 1085.82543945312
947.831237792969 955.164367675781 960.147766113281 951.174926757812 958.227783203125 957.921020507812 954.620971679688 959.261535644531 953.719421386719 959.54150390625 969.644470214844 960.03466796875 962.016662597656 959.356750488281 956.991333007812 964.8544921875 966.246826171875 971.504150390625 965.82666015625 978.77880859375 982.744689941406 992.004150390625 994.06982421875 991.924987792969 991.807922363281 995.469177246094 986.028930664062 991.966186523438 996.21923828125 991.637390136719 998.078125 994.617736816406 1009.10968017578 997.073486328125 999.009643554688 1000.65795898438 1001.69982910156 1003.22796630859 996.581787109375 1005.03698730469 1001.93005371094 1011.51568603516 1012.30596923828 1017.21539306641 1013.77648925781 1000.63391113281 990.936584472656 992.97900390625 997.418029785156 996.419006347656 989.566467285156 991.322937011719 985.674194335938 982.709899902344 989.333557128906 990.437255859375 997.066833496094 1002.82604980469 1001.04144287109 1005.89672851562 1003.10375976562 1007.92443847656 1007.57568359375 1021.4013671875 1031.34741210938 1025.35949707031 1007.96752929688 1004.90045166016 1014.26690673828 1011.03558349609 1012.09844970703 1018.42419433594 1013.42346191406 1004.15814208984 1012.37969970703 1008.83514404297 1005.18615722656 1014.95239257812 1007.58465576172 1008.96887207031 998.191528320312 1003.26574707031 1006.20092773438 1007.34387207031 1008.33795166016 1007.43487548828 1009.45526123047 1018.4560546875 1014.62548828125 1014.0732421875 1013.33679199219 1014.68859863281 1016.49847412109 1023.67980957031 1030.88647460938 1028.96411132812 1026.7548828125 1026.41723632812 1024.4208984375 1022.07769775391 1015.81744384766 1011.97735595703 1002.57891845703 1005.15600585938 1009.47442626953 1008.44610595703 1013.75439453125 999.741638183594 1002.05151367188 996.73291015625 981.67578125 970.71923828125 953.280700683594 947.231567382812 943.834777832031 953.388122558594 953.281066894531 964.844482421875 985.485534667969 990.712646484375 1008.00305175781 1017.57739257812 1023.59344482422 1028.68933105469 1024.86047363281 1032.20568847656 1036.49401855469 1042.21765136719 1047.66784667969 1054.02941894531 1054.00891113281 1051.62438964844 1049.32556152344 1033.88928222656 1033.43884277344 1032.92822265625 1043.81604003906 1057.09997558594 1056.78625488281 1067.408203125 1062.74353027344 1067.65222167969 1072.66125488281 1075.95227050781 1078.05419921875 1076.76965332031 1080.90625 1080.72534179688 1080.70092773438 1083.68041992188
950.644714355469 961.183532714844 962.323669433594 961.801635742188 954.916748046875 951.637023925781 968.257629394531 962.806518554688 956.4951171875 961.020202636719 971.207702636719 974.787414550781 975.397521972656 973.557250976562 973.299560546875 976.705139160156 972.89306640625 973.718994140625 981.007385253906 978.0302734375 977.62841796875 985.034240722656 983.782287597656 994.014587402344 993.193115234375 995.092590332031 994.546447753906 989.229614257812 988.422119140625 990.9658203125 995.628112792969 990.560241699219 997.38330078125 999.25390625 1000.26458740234 995.364990234375 1000.56384277344 1002.78112792969 1006.96606445312 1005.33489990234 1005.46844482422 1007.79187011719 1010.13293457031 1013.63708496094 1019.38165283203 1005.75854492188 993.263366699219 993.382263183594 998.075866699219 1003.05749511719 995.032531738281 994.828857421875 985.956726074219 986.384338378906 986.232177734375 991.615417480469 993.679382324219 1002.27136230469 999.081481933594 997.558044433594 1010.05603027344 1008.84307861328 1017.45812988281 1018.091796875 1015.61773681641 1011.86328125 1000.98718261719 998.599487304688 1003.54754638672 1013.54187011719 1015.63403320312 1007.58959960938 1012.83795166016 1005.54034423828 997.080627441406 997.31982421875 997.821716308594 996.626708984375 1005.76794433594 998.260986328125 990.354553222656 995.572570800781 995.451843261719 1000.34057617188 1003.83416748047 1003.42419433594 1005.64129638672 1025.71557617188 1020.60980224609 1011.93719482422 1018.31811523438 1023.64440917969 1021.95654296875 1023.79235839844 1038.21057128906 1028.59008789062 1024.60607910156 1015.94348144531 1015.09075927734 1011.4609375 1007.70727539062 1010.14031982422 998.2265625 1004.93206787109 1001.18743896484 1005.5966796875 1008.64849853516 1005.64141845703 998.296325683594 995.137512207031 981.892883300781 962.116271972656 954.405334472656 947.098815917969 948.641906738281 955.651550292969 959.387023925781 966.840637207031 979.809204101562 991.939575195312 1000.86016845703 1014.40570068359 1021.85382080078 1025.37780761719 1024.42248535156 1041.33715820312 1039.41613769531 1046.29821777344 1053.13110351562 1054.85827636719 1052.79650878906 1040.61694335938 1052.22631835938 1042.45666503906 1033.88305664062 1034.09997558594 1048.94763183594 1045.37670898438 1052.06530761719 1062.68359375 1063.88049316406 1069.37023925781 1072.46569824219 1070.349609375 1071.54479980469 1076.36767578125 1078.24194335938 1086.69812011719 1085.88854980469 1084.3046875
945.665222167969 950.850463867188 959.694763183594 952.6650390625 952.307373046875 953.276062011719 956.403442382812 962.121765136719 961.677612304688 961.417419433594 970.273132324219 968.393920898438 970.231018066406 974.844665527344 974.048095703125 976.195556640625 974.895324707031 981.523681640625 984.77880859375 979.190734863281 979.794006347656 989.94921875 990.515380859375 986.359069824219 983.434143066406 996.9072265625 982.821472167969 981.359924316406 989.099426269531 986.787475585938 986.129699707031 983.398864746094 993.056030273438 993.744384765625 1004.18646240234 993.03466796875 1001.17938232422 997.442687988281 1002.66149902344 1014.19610595703 1010.16003417969 1002.02154541016 1006.82568359375 1007.46594238281 1009.9267578125 1004.93688964844 993.80810546875 985.680480957031 992.934814453125 998.032958984375 995.941345214844 996.448913574219 988.480651855469 989.771362304688 993.077453613281 985.148681640625 987.302185058594 992.427795410156 992.694091796875 996.277709960938 1007.63244628906 1007.46661376953 1015.720703125 1012.91607666016 1010.55480957031 998.124633789062 994.686950683594 996.367858886719 1002.51031494141 1013.47381591797 1021.28619384766 1000.38665771484 1002.04693603516 1011.12030029297 997.831298828125 992.082580566406 990.469360351562 990.483825683594 1000.10833740234 1000.22100830078 997.353881835938 992.806579589844 993.521545410156 989.644836425781 996.636413574219 1003.93969726562 1012.50494384766 1014.13049316406 1015.74407958984 1016.89337158203 1018.8076171875 1016.46649169922 1021.89282226562 1022.15118408203 1020.107421875 1019.20355224609 1017.18731689453 1018.49029541016 1020.19708251953 1014.65124511719 1006.61474609375 1005.82177734375 1002.53369140625 1007.33557128906 1005.02954101562 1004.62615966797 998.605346679688 995.628601074219 986.536071777344 980.650634765625 973.786499023438 971.077270507812 955.761291503906 950.313354492188 955.796203613281 952.557678222656 957.13134765625 970.128723144531 980.367492675781 988.677795410156 1003.50213623047 1011.78759765625 1018.90338134766 1029.62109375 1025.39611816406 1037.791015625 1034.58410644531 1043.9375 1045.9091796875 1044.93688964844 1041.65844726562 1047.19848632812 1045.90185546875 1047.68041992188 1037.08251953125 1039.93615722656 1045.79284667969 1042.15173339844 1041.76318359375 1052.30236816406 1062.64233398438 1063.82263183594 1071.25598144531 1073.40991210938 1072.20166015625 1076.677734375 1077.73876953125 1088.70031738281 1092.15905761719 1089.76098632812
949.189758300781 947.378356933594 952.147277832031 950.786010742188 957.8388671875 964.471557617188 955.852783203125 963.511047363281 957.867431640625 963.878234863281 965.63525390625 966.946472167969 975.681091308594 977.246520996094 977.081970214844 973.567504882812 987.297546386719 987.730895996094 981.163452148438 993.410339355469 991.353820800781 997.624328613281 996.569641113281 987.56884765625 973.892150878906 987.788024902344 991.032958984375 981.408020019531 988.471069335938 981.792236328125 981.245971679688 988.163757324219 989.480773925781 1002.42700195312 995.800354003906 993.403930664062 995.656799316406 996.913635253906 997.692993164062 1003.07403564453 1000.33227539062 986.833557128906 995.614196777344 999.899291992188 999.657165527344 995.304748535156 994.116271972656 987.070922851562 991.827453613281 997.606018066406 997.340270996094 998.132446289062 990.032165527344 989.331359863281 993.016784667969 992.68212890625 987.501403808594 979.716247558594 982.335754394531 997.953430175781 999.912109375 998.955200195312 1003.40808105469 997.673278808594 987.506896972656 990.538452148438 999.222412109375 993.997924804688 1003.80102539062 1003.81317138672 1012.95904541016 1005.60968017578 1000.36401367188 994.847106933594 994.211669921875 991.263000488281 989.877990722656 990.598449707031 1004.99896240234 1000.50354003906 999.679138183594 991.057250976562 994.980529785156 997.265197753906 1002.60540771484 1006.71948242188 1012.87561035156 1009.44720458984 1013.66668701172 1018.97570800781 1017.27569580078 1018.37609863281 1018.29260253906 1021.20660400391 1023.44982910156 1014.38836669922 1018.46203613281 1020.10314941406 1009.83465576172 1011.64233398438 1005.38311767578 1005.65081787109 1007.62896728516 996.372497558594 1003.79766845703 1000.16076660156 1006.22515869141 991.521789550781 984.681091308594 971.687622070312 971.862915039062 963.411376953125 951.768188476562 948.618591308594 944.365051269531 945.844360351562 953.74072265625 966.399963378906 974.904174804688 996.63525390625 1000.80560302734 1013.13854980469 1018.71612548828 1014.6513671875 1018.02032470703 1031.84509277344 1039.47473144531 1034.58935546875 1030.94885253906 1029.34729003906 1033.73864746094 1036.78259277344 1042.67529296875 1036.20922851562 1040.60827636719 1035.59680175781 1038.90783691406 1045.96020507812 1039.28442382812 1047.3681640625 1068.22326660156 1069.73303222656 1069.76782226562 1071.677734375 1078.42224121094 1075.55700683594 1081.91320800781 1079.52087402344 1083.9619140625 1094.974609375
951.145874023438 947.836059570312 951.809448242188 962.788696289062 963.041748046875 961.282897949219 966.888427734375 966.234436035156 960.303894042969 964.818908691406 965.037109375 969.103515625 971.942687988281 981.346984863281 978.795288085938 979.238708496094 981.043395996094 981.917053222656 984.495422363281 1000.06481933594 997.7216796875 1003.01538085938 997.146179199219 991.251159667969 985.458557128906 987.618957519531 987.605102539062 984.228942871094 974.632263183594 980.753295898438 988.230651855469 983.855895996094 992.107238769531 998.947021484375 998.102172851562 995.736633300781 996.437927246094 993.29638671875 990.897705078125 989.948608398438 990.156921386719 991.484069824219 990.599243164062 996.504028320312 987.060119628906 988.01171875 984.955139160156 988.411499023438 996.900024414062 988.567016601562 991.557312011719 981.657897949219 981.057678222656 972.913757324219 982.8564453125 978.246643066406 975.252563476562 977.461303710938 981.718566894531 981.919677734375 990.193725585938 994.288391113281 1000.18371582031 996.180786132812 994.36328125 985.250793457031 998.588928222656 994.070434570312 996.976379394531 995.6484375 1007.03747558594 1004.87573242188 994.813842773438 986.385559082031 988.865905761719 985.340270996094 983.705383300781 988.033447265625 992.941955566406 992.542236328125 988.662048339844 992.848327636719 1007.28930664062 1005.67987060547 1006.32269287109 1016.76837158203 1005.05242919922 1009.63336181641 1017.41119384766 1014.23449707031 1010.15557861328 1012.45220947266 1011.69250488281 1019.88775634766 1025.38037109375 1022.30114746094 1019.47668457031 1015.44708251953 1006.37542724609 1001.00592041016 1000.76452636719 1004.69171142578 1004.26953125 1001.27264404297 1002.99322509766 1001.83197021484 1005.71405029297 996.929016113281 989.3984375 973.690124511719 965.492309570312 956.369689941406 940.853088378906 942.973388671875 940.017395019531 941.481994628906 946.540588378906 956.255615234375 977.01416015625 993.670654296875 1009.04541015625 1013.47052001953 1017.07153320312 1021.20330810547 1018.55560302734 1022.89813232422 1036.78479003906 1028.1337890625 1030.49340820312 1029.39929199219 1036.06640625 1042.3828125 1041.16857910156 1046.00048828125 1045.15246582031 1038.91784667969 1035.70568847656 1031.21508789062 1041.08447265625 1046.30004882812 1061.28125 1059.89916992188 1068.64233398438 1078.00927734375 1081.83862304688 1075.35693359375 1086.7587890625 1089.67761230469 1085.72717285156 1097.26818847656
951.125244140625 953.625183105469 953.137145996094 962.354309082031 968.208068847656 968.897705078125 968.198303222656 974.917663574219 967.691772460938 958.119689941406 964.580627441406 973.715698242188 979.415954589844 978.508850097656 976.757141113281 973.664794921875 972.578308105469 975.359619140625 973.791625976562 983.3037109375 991.253112792969 994.041198730469 987.632446289062 990.4365234375 989.075805664062 982.684509277344 984.280090332031 981.021240234375 973.654541015625 980.6640625 987.398620605469 982.622619628906 988.611999511719 988.937805175781 991.731506347656 999.433837890625 990.526611328125 989.651672363281 987.230712890625 989.798828125 987.114624023438 994.452331542969 994.599609375 999.265686035156 986.646911621094 980.766235351562 980.394714355469 989.774841308594 989.821716308594 981.261291503906 979.065185546875 973.298583984375 974.06103515625 972.526428222656 977.40625 974.899719238281 978.974975585938 977.839782714844 977.62646484375 978.747863769531 984.463134765625 994.588012695312 991.722351074219 989.538818359375 991.420349121094 987.732238769531 991.921142578125 994.122314453125 997.632385253906 1003.14129638672 1002.93743896484 1006.04180908203 988.015869140625 989.776550292969 984.967895507812 989.023498535156 984.471862792969 988.706848144531 993.514038085938 991.089172363281 992.864318847656 1003.17431640625 1011.86175537109 1014.23284912109 1008.05725097656 1010.96752929688 1008.25695800781 1013.81683349609 1019.61608886719 1014.08453369141 1002.85791015625 1017.15753173828 1019.61077880859 1025.56323242188 1026.96643066406 1025.36486816406 1013.28308105469 1010.81921386719 1008.31701660156 997.096130371094 992.907409667969 996.502807617188 998.606201171875 1005.15484619141 1005.85778808594 1004.62408447266 1000.03826904297 996.021240234375 992.524230957031 979.562194824219 970.341552734375 960.266662597656 942.874572753906 943.982421875 946.091369628906 944.841674804688 947.360778808594 965.014953613281 977.503479003906 991.18115234375 995.168579101562 1009.39337158203 1011.666015625 1023.27770996094 1026.45385742188 1025.58044433594 1027.34411621094 1032.06848144531 1032.84069824219 1029.40551757812 1033.60131835938 1037.24304199219 1042.56042480469 1033.08032226562 1033.26721191406 1031.99633789062 1021.51049804688 1025.98071289062 1035.24951171875 1042.63610839844 1052.97338867188 1057.17639160156 1065.17407226562 1087.08654785156 1082.26574707031 1089.97802734375 1086.95031738281 1087.17077636719 1086.78454589844 1092.76416015625
948.3916015625 955.710144042969 961.982543945312 960.342346191406 961.320922851562 976.494201660156 971.928039550781 974.206787109375 971.114990234375 967.511962890625 964.779602050781 971.013549804688 977.527526855469 984.739990234375 975.23583984375 969.763122558594 970.607116699219 975.613159179688 975.277221679688 980.314575195312 982.231079101562 983.244445800781 990.12451171875 992.327087402344 989.830871582031 985.568176269531 981.421936035156 979.219787597656 973.177856445312 986.745239257812 986.013122558594 989.999328613281 985.853820800781 990.202758789062 986.458984375 987.027526855469 988.467956542969 987.099304199219 988.744689941406 977.91650390625 983.036315917969 996.571411132812 989.453186035156 978.914184570312 989.2548828125 985.180603027344 985.552490234375 979.890319824219 982.203125 980.518798828125 979.339172363281 978.500610351562 979.027648925781 972.991394042969 969.965637207031 969.815673828125 978.287719726562 982.377502441406 973.055358886719 971.642578125 979.37939453125 986.487060546875 986.735290527344 989.072143554688 989.911010742188 991.828918457031 995.413818359375 995.492309570312 994.879089355469 989.352294921875 981.613220214844 989.439575195312 978.022888183594 992.429748535156 990.737976074219 979.229187011719 983.240539550781 982.914489746094 989.527221679688 992.478271484375 1000.37890625 1002.17376708984 1008.6083984375 1010.87567138672 1001.10095214844 1000.13177490234 1000.73486328125 1004.74145507812 1002.28259277344 1006.27984619141 1012.51666259766 1018.56860351562 1030.49169921875 1033.94555664062 1032.40698242188 1024.30480957031 1019.87426757812 1015.14440917969 1009.54437255859 1005.15026855469 1005.03350830078 1003.83209228516 999.478332519531 1009.21600341797 1007.81048583984 1005.38519287109 1002.17669677734 995.380249023438 993.6865234375 989.056457519531 966.116821289062 961.963928222656 951.433410644531 949.114685058594 949.297790527344 949.221984863281 958.044494628906 974.322998046875 979.992309570312 987.558288574219 993.102172851562 1002.20495605469 1009.61547851562 1016.208984375 1023.24139404297 1024.58386230469 1021.55352783203 1017.17309570312 1027.81030273438 1021.701171875 1026.24609375 1033.89770507812 1026.62280273438 1034.01696777344 1026.96704101562 1019.84753417969 1018.30993652344 1019.20562744141 1030.07727050781 1039.08312988281 1051.69482421875 1057.84606933594 1070.33166503906 1080.67651367188 1087.890625 1091.05334472656 1090.4296875 1092.05944824219 1092.10778808594 1093.61145019531
960.905639648438 960.208862304688 959.467102050781 964.814819335938 966.478637695312 972.681579589844 975.538879394531 975.283020019531 972.273681640625 970.836547851562 976.90966796875 975.905944824219 977.300720214844 975.848754882812 983.383239746094 972.995971679688 972.868041992188 976.285888671875 977.609252929688 972.203063964844 980.585327148438 983.175170898438 977.259826660156 981.156433105469 985.283325195312 978.881713867188 989.616394042969 986.920166015625 982.322509765625 980.800476074219 986.717712402344 987.069396972656 990.127136230469 979.440490722656 978.341186523438 985.916625976562 983.648010253906 980.571228027344 986.474792480469 984.118896484375 975.097412109375 986.04150390625 978.728515625 974.398498535156 982.355041503906 984.315185546875 988.769897460938 975.391174316406 977.280822753906 979.664611816406 984.184936523438 982.853698730469 975.695495605469 970.2470703125 968.781799316406 965.752563476562 973.519165039062 977.535400390625 975.045166015625 972.999206542969 976.534545898438 987.077453613281 984.514221191406 983.154541015625 985.512329101562 988.64453125 989.18896484375 988.023681640625 990.425109863281 986.654296875 983.05126953125 980.824096679688 981.528381347656 988.543518066406 982.978332519531 985.046447753906 985.315002441406 994.679626464844 994.798156738281 1004.02758789062 1001.50378417969 1009.20904541016 1014.72930908203 1011.34698486328 1006.77600097656 1002.11981201172 1002.85656738281 1001.52435302734 1006.5185546875 1005.8515625 1009.53833007812 1021.90960693359 1031.5009765625 1037.31555175781 1029.669921875 1023.53356933594 1021.41363525391 1013.32012939453 1005.41815185547 1008.00604248047 1005.06195068359 999.461791992188 1004.70709228516 1007.59515380859 1010.80706787109 1009.83288574219 1009.26452636719 1001.14959716797 996.793823242188 980.704833984375 970.209716796875 965.728149414062 959.643798828125 955.415283203125 962.671203613281 970.047668457031 977.981201171875 984.710205078125 983.410095214844 988.335998535156 990.205261230469 988.819763183594 1004.84790039062 1006.44830322266 1012.16467285156 1021.51556396484 1017.14385986328 1009.85241699219 1010.54107666016 1024.23754882812 1020.81115722656 1018.67346191406 1021.12896728516 1031.61999511719 1022.37017822266 1012.76226806641 1018.74969482422 1029.64428710938 1036.42932128906 1038.39758300781 1034.96801757812 1055.94274902344 1078.57763671875 1084.25903320312 1089.25939941406 1096.1748046875 1099.19909667969 1093.55187988281 1102.47509765625 1100.91577148438
955.1376953125 955.059387207031 962.142578125 962.183532714844 970.402465820312 974.419372558594 978.030578613281 972.160217285156 978.454650878906 974.845153808594 968.651794433594 972.482727050781 971.464538574219 977.076110839844 975.185546875 974.581726074219 972.667236328125 974.405883789062 979.114196777344 972.070190429688 964.365783691406 977.600219726562 970.601379394531 974.37890625 978.136535644531 984.941345214844 986.849792480469 980.988952636719 979.54150390625 986.27099609375 990.488891601562 982.021545410156 985.549133300781 993.406433105469 985.116088867188 984.908752441406 985.588134765625 976.574951171875 978.021789550781 978.199096679688 971.716125488281 972.454467773438 978.606872558594 981.095886230469 986.665283203125 984.037963867188 992.046997070312 978.463928222656 978.120178222656 981.993225097656 981.541320800781 982.539611816406 975.369750976562 976.421752929688 976.142150878906 964.64599609375 972.022277832031 978.616821289062 978.184997558594 980.289672851562 978.329223632812 986.493408203125 982.979614257812 980.895263671875 990.43505859375 994.306945800781 997.41455078125 993.735961914062 988.084899902344 985.547302246094 977.444274902344 987.642211914062 989.662719726562 988.953552246094 986.880676269531 989.475402832031 989.398376464844 998.043579101562 993.243896484375 991.74658203125 995.47998046875 1000.78491210938 1012.51611328125 1007.1552734375 1013.54895019531 994.615600585938 1008.10180664062 1007.91357421875 1004.85223388672 1007.87408447266 1011.00592041016 1016.39898681641 1027.13623046875 1030.52819824219 1029.20129394531 1016.75036621094 1014.83209228516 1006.16278076172 1007.9580078125 1005.55639648438 1003.20037841797 997.53857421875 996.80810546875 1001.51678466797 997.958435058594 996.346313476562 993.309814453125 990.127258300781 989.437561035156 982.338439941406 989.0087890625 979.211669921875 970.180969238281 975.376708984375 978.322448730469 985.139221191406 983.274475097656 976.443481445312 990.867980957031 989.372131347656 985.795715332031 987.03466796875 990.60400390625 1004.72534179688 1008.67230224609 1022.88128662109 1019.87622070312 1008.47338867188 1014.64703369141 1015.859375 1021.55834960938 1021.61981201172 1019.43695068359 1021.64562988281 1019.73284912109 1021.40124511719 1024.93212890625 1034.03002929688 1030.59802246094 1045.76940917969 1053.14990234375 1062.18969726562 1074.7109375 1084.91247558594 1097.04162597656 1092.20007324219 1098.42236328125 1093.13049316406 1103.36511230469 1105.84790039062
951.38525390625 949.328430175781 962.097534179688 961.282409667969 970.893310546875 967.335083007812 970.949401855469 969.210327148438 972.102172851562 971.190795898438 969.242797851562 960.256896972656 969.677551269531 964.036682128906 977.988159179688 969.822265625 970.745666503906 969.903869628906 978.724914550781 975.537170410156 977.347961425781 981.770812988281 982.142333984375 970.942687988281 970.918090820312 976.521484375 980.420776367188 977.723693847656 973.713562011719 979.863708496094 980.809020996094 982.946228027344 990.052734375 980.607604980469 978.093444824219 983.164123535156 981.087280273438 973.422485351562 973.319213867188 974.502380371094 975.355407714844 975.786315917969 984.36572265625 977.867370605469 982.467224121094 980.779296875 978.624267578125 982.672180175781 981.165344238281 966.307861328125 978.442993164062 967.9287109375 974.585388183594 980.239685058594 974.138671875 980.796020507812 979.7587890625 980.183959960938 979.511962890625 981.836791992188 985.812072753906 985.248291015625 988.023010253906 992.991577148438 991.885375976562 995.536682128906 1001.45922851562 1000.59619140625 1000.78057861328 987.693969726562 983.6259765625 982.871215820312 981.984130859375 987.243469238281 985.42138671875 990.132080078125 993.56787109375 988.25 987.746337890625 984.652954101562 985.844055175781 983.904052734375 993.397827148438 1002.71551513672 997.935241699219 999.799682617188 996.843383789062 1008.45379638672 1014.048828125 1011.71069335938 1010.92492675781 1019.55444335938 1022.17535400391 1031.47485351562 1018.88555908203 1018.38824462891 1005.81988525391 1001.44085693359 1003.24572753906 994.327514648438 994.821166992188 993.24365234375 997.352783203125 1002.91912841797 994.932922363281 984.982482910156 992.926696777344 991.695129394531 983.197509765625 982.2724609375 988.590515136719 984.485717773438 992.767456054688 992.105407714844 991.247314453125 980.011413574219 983.5224609375 982.425842285156 987.178161621094 985.89697265625 978.468200683594 970.88330078125 986.740478515625 997.306762695312 1004.28973388672 1016.61077880859 1017.32678222656 1017.78607177734 1014.14581298828 1018.39227294922 1016.10198974609 1008.41516113281 1008.78302001953 1012.45721435547 1023.12622070312 1021.18206787109 1028.77355957031 1032.06066894531 1032.93981933594 1045.84851074219 1054.82043457031 1059.18115234375 1067.88842773438 1077.759765625 1095.63537597656 1093.42553710938 1103.25463867188 1106.03735351562 1108.66101074219 1108.82385253906
950.690551757812 956.551818847656 960.596008300781 969.580444335938 963.461181640625 970.870788574219 976.31396484375 976.613037109375 968.106750488281 964.51708984375 964.182312011719 965.727783203125 966.76171875 964.15380859375 974.812194824219 974.331909179688 976.3896484375 969.186279296875 979.777465820312 989.709594726562 986.072448730469 984.143493652344 976.054992675781 971.514892578125 968.51220703125 975.721496582031 981.27392578125 966.818786621094 963.044372558594 970.980834960938 979.357177734375 974.350891113281 979.813903808594 974.188903808594 979.564697265625 976.044799804688 968.9833984375 972.773803710938 977.020446777344 978.303588867188 974.769226074219 976.652404785156 977.29052734375 974.593811035156 981.956604003906 986.769775390625 991.63525390625 988.862976074219 979.701171875 975.312072753906 971.259338378906 973.310546875 960.251525878906 972.844543457031 975.953674316406 975.490478515625 974.763610839844 979.433837890625 981.500793457031 986.915710449219 994.423828125 996.929626464844 989.60791015625 991.987976074219 984.572631835938 980.715270996094 995.296813964844 995.624450683594 992.746032714844 977.991638183594 982.685913085938 983.162475585938 980.193298339844 985.551513671875 984.879150390625 983.855285644531 984.490112304688 981.343627929688 980.783630371094 983.54443359375 986.174621582031 985.568298339844 991.979309082031 992.808959960938 994.240234375 995.078063964844 993.272583007812 996.95458984375 1005.03100585938 1004.07293701172 1016.62542724609 1016.67828369141 1016.31878662109 1011.04016113281 1009.60876464844 1006.21368408203 998.151306152344 997.570190429688 993.304870605469 993.855346679688 989.338195800781 994.821350097656 996.53271484375 997.599792480469 985.936706542969 983.486938476562 992.878723144531 989.810363769531 986.280578613281 983.217712402344 991.157775878906 996.482238769531 994.60302734375 994.139282226562 990.1142578125 993.588745117188 987.670471191406 991.318298339844 992.249938964844 983.99072265625 978.450866699219 973.105651855469 986.183471679688 984.852905273438 997.309631347656 1011.30364990234 1008.63122558594 1000.59918212891 1011.60382080078 1013.44934082031 1012.10894775391 1005.50085449219 1010.35046386719 1013.45434570312 1020.00726318359 1031.87573242188 1033.09533691406 1043.53039550781 1047.54614257812 1057.06335449219 1061.37561035156 1061.50280761719 1072.23059082031 1077.35681152344 1092.53881835938 1100.42822265625 1104.47412109375 1107.28930664062 1108.45715332031 1119.22924804688
948.217102050781 959.3642578125 973.435607910156 976.281433105469 973.599609375 974.883666992188 974.53515625 967.662292480469 962.429931640625 967.466430664062 962.788635253906 966.295166015625 973.303649902344 969.857666015625 969.2451171875 969.909118652344 976.017700195312 972.878601074219 980.926879882812 981.179626464844 978.517028808594 975.412536621094 978.437255859375 973.651550292969 968.614929199219 967.358337402344 969.085083007812 967.644775390625 969.713745117188 967.24853515625 967.620178222656 964.394348144531 974.128234863281 980.025146484375 980.018005371094 975.739318847656 975.717041015625 981.819519042969 975.700256347656 977.240600585938 975.869445800781 982.020141601562 979.491760253906 975.282165527344 971.224487304688 981.031311035156 983.258178710938 980.540893554688 978.083801269531 977.487182617188 982.120056152344 965.920776367188 973.077453613281 973.844360351562 977.138488769531 972.539489746094 968.021423339844 972.229248046875 986.360229492188 991.150207519531 988.154846191406 996.985595703125 992.250732421875 986.546936035156 985.946838378906 981.642578125 983.447998046875 982.982116699219 983.779052734375 975.102416992188 972.288208007812 968.465759277344 972.83251953125 975.712707519531 973.914306640625 976.412963867188 977.350769042969 983.588134765625 998.238891601562 987.089660644531 988.009216308594 988.710327148438 982.692993164062 990.300476074219 991.909851074219 987.637023925781 989.153930664062 987.643432617188 996.263427734375 1005.8662109375 1013.22320556641 1010.69470214844 1003.43017578125 1003.59698486328 1001.47784423828 1003.49694824219 998.550537109375 990.983520507812 994.053405761719 986.052551269531 980.501098632812 988.971984863281 994.341918945312 1000.80529785156 993.215515136719 990.78955078125 991.882751464844 991.880859375 986.995666503906 985.161987304688 993.167785644531 996.425964355469 994.480529785156 995.949829101562 1001.73345947266 990.011047363281 993.644592285156 993.613708496094 995.416870117188 986.134948730469 974.475708007812 977.928527832031 978.053833007812 992.277526855469 991.984130859375 993.381469726562 1002.88726806641 1000.41546630859 1000.50042724609 1011.75799560547 1004.99963378906 999.470092773438 1008.67919921875 1014.31127929688 1023.13903808594 1037.62194824219 1047.48559570312 1059.81701660156 1058.77758789062 1056.08056640625 1059.07958984375 1071.88232421875 1073.95251464844 1088.7353515625 1091.03271484375 1104.93347167969 1108.14099121094 1112.24694824219 1116.84924316406 1117.12622070312
953.451171875 960.750122070312 964.626892089844 973.437744140625 963.909362792969 968.5048828125 977.073791503906 972.885864257812 968.561828613281 970.392150878906 970.054382324219 979.051574707031 974.435974121094 973.247863769531 982.575927734375 978.750610351562 978.568481445312 975.096435546875 972.950988769531 982.802001953125 988.482055664062 984.527954101562 979.381042480469 978.078063964844 973.65869140625 964.755310058594 966.78955078125 968.515930175781 965.644409179688 964.947937011719 964.899963378906 973.49267578125 974.909729003906 974.256591796875 975.260437011719 978.296325683594 984.473205566406 989.905700683594 980.861938476562 976.809997558594 973.24755859375 969.053344726562 966.335021972656 968.260437011719 973.347106933594 982.869812011719 968.951049804688 980.77783203125 984.312072753906 977.59130859375 975.594787597656 969.845275878906 971.453247070312 967.3310546875 970.615051269531 968.327819824219 973.821899414062 979.18408203125 976.984924316406 981.578979492188 983.738037109375 987.875793457031 992.126281738281 992.137023925781 987.445678710938 983.427185058594 984.727355957031 983.637939453125 979.886901855469 964.250366210938 969.681457519531 968.631408691406 971.826416015625 964.743041992188 967.054016113281 982.597290039062 976.149291992188 994.881408691406 993.916076660156 993.041931152344 981.875732421875 986.496887207031 987.671936035156 988.851440429688 991.43994140625 996.839294433594 996.082458496094 990.024108886719 996.8818359375 1001.17626953125 1003.57458496094 1003.22406005859 993.505004882812 1009.92687988281 999.456115722656 995.727783203125 1001.10400390625 991.262817382812 992.363586425781 991.656372070312 986.32373046875 990.769348144531 989.910278320312 993.742309570312 994.410217285156 997.406860351562 995.180480957031 992.0078125 988.566955566406 994.277221679688 1000.42706298828 995.000061035156 999.432922363281 996.25146484375 997.87744140625 992.388305664062 999.870178222656 1006.51171875 1003.49407958984 994.137939453125 985.914794921875 985.342468261719 994.982482910156 990.102844238281 990.902893066406 994.1123046875 1003.45617675781 1007.61712646484 1009.88641357422 1021.47320556641 1010.35473632812 1006.14373779297 1020.00427246094 1027.46704101562 1034.01818847656 1036.08166503906 1049.38684082031 1056.80395507812 1063.52099609375 1066.06311035156 1076.07592773438 1081.99780273438 1088.19946289062 1092.04443359375 1094.55688476562 1100.142578125 1117.69543457031 1117.50134277344 1121.63781738281 1119.46691894531
953.167846679688 954.829345703125 956.594299316406 959.642822265625 973.4052734375 967.712341308594 969.769897460938 966.559631347656 959.975402832031 962.551391601562 966.500305175781 980.465087890625 981.201171875 983.13671875 981.258728027344 978.403381347656 972.229736328125 984.329467773438 979.697998046875 979.309509277344 988.431457519531 982.16552734375 972.031677246094 970.983825683594 971.133666992188 977.099487304688 978.412658691406 967.947631835938 961.188232421875 967.077880859375 968.710266113281 976.48681640625 984.269897460938 982.108520507812 978.824890136719 982.618774414062 988.371154785156 991.309387207031 979.494750976562 981.625671386719 980.022216796875 973.448852539062 961.628845214844 965.941528320312 971.689880371094 976.798034667969 970.130126953125 968.210083007812 968.406494140625 969.146850585938 971.252563476562 970.757080078125 968.65087890625 969.616821289062 978.302368164062 980.216125488281 970.1240234375 972.107604980469 977.441772460938 975.682739257812 980.753723144531 979.145446777344 974.804748535156 978.015563964844 976.231811523438 980.70166015625 984.517700195312 972.608581542969 972.74560546875 968.786376953125 973.882507324219 970.792358398438 976.335998535156 968.039611816406 966.257080078125 974.262451171875 981.3046875 986.612365722656 990.551208496094 984.192932128906 983.981140136719 985.751037597656 984.627990722656 981.782592773438 987.077453613281 991.217102050781 993.383056640625 991.100891113281 995.257507324219 993.307373046875 998.340698242188 994.111755371094 994.322998046875 1001.51281738281 997.911682128906 996.830383300781 991.267944335938 997.64599609375 997.372192382812 996.77197265625 994.611999511719 993.25927734375 997.182556152344 993.682800292969 989.130798339844 992.745727539062 999.105224609375 996.032592773438 993.159790039062 986.89453125 997.27685546875 994.457885742188 997.272766113281 998.21826171875 993.588806152344 997.431396484375 997.212341308594 1003.02575683594 1003.47100830078 988.923522949219 986.812744140625 990.708557128906 997.972778320312 994.097900390625 996.565368652344 1005.77752685547 1007.92474365234 1011.81256103516 1016.35418701172 1019.75299072266 1014.73718261719 1012.46948242188 1026.02844238281 1030.70495605469 1033.22216796875 1034.20581054688 1039.81018066406 1055.81188964844 1063.26171875 1070.79418945312 1076.53491210938 1080.63500976562 1095.64831542969 1103.68786621094 1103.36474609375 1116.11450195312 1119.14904785156 1118.41076660156 1125.26306152344 1126.435546875
944.93701171875 952.203369140625 952.622741699219 952.443786621094 968.808410644531 968.175842285156 967.4501953125 960.030334472656 962.94970703125 965.774291992188 969.647094726562 971.377990722656 973.327514648438 970.928100585938 972.893676757812 977.694885253906 981.235046386719 985.361694335938 983.665710449219 986.093811035156 985.200988769531 974.95751953125 974.122009277344 976.264526367188 970.776306152344 978.141662597656 982.156066894531 973.202758789062 969.41162109375 973.28857421875 978.096618652344 981.432983398438 980.509521484375 976.39794921875 979.961181640625 974.466491699219 979.290832519531 985.900024414062 974.726684570312 976.981750488281 978.893310546875 973.845703125 969.065368652344 973.805053710938 971.883850097656 969.713439941406 966.683166503906 970.577575683594 974.298828125 968.992309570312 971.411315917969 971.108703613281 968.683471679688 970.92578125 974.616821289062 974.649475097656 976.839050292969 977.023803710938 982.937194824219 982.089111328125 979.333923339844 971.769287109375 973.88916015625 982.223327636719 977.333557128906 977.388305664062 978.441833496094 971.904357910156 967.531616210938 969.040161132812 965.669128417969 974.072265625 967.408020019531 968.765930175781 961.276672363281 973.711242675781 985.043640136719 988.246887207031 992.243774414062 990.465270996094 976.146667480469 988.698791503906 984.586242675781 978.281188964844 980.372863769531 982.568176269531 980.20166015625 982.352905273438 987.251953125 989.110595703125 996.956420898438 993.713317871094 997.8359375 997.201171875 986.179748535156 989.169006347656 992.785522460938 1006.98931884766 996.839111328125 1008.91424560547 999.049499511719 993.783935546875 998.476379394531 991.174987792969 987.2763671875 989.976684570312 990.602478027344 998.115539550781 988.938537597656 985.997314453125 984.148681640625 990.57763671875 990.485107421875 995.347717285156 989.977478027344 991.981018066406 996.277893066406 999.302124023438 1001.22003173828 998.473266601562 1001.04907226562 992.193786621094 995.0927734375 995.600280761719 1003.48272705078 1007.14044189453 1007.666015625 1017.60614013672 1015.27648925781 1015.72308349609 1022.78784179688 1028.16381835938 1030.08483886719 1028.44653320312 1034.36767578125 1035.74169921875 1045.53332519531 1057.68762207031 1066.61779785156 1068.18981933594 1078.17199707031 1088.65478515625 1098.50769042969 1108.32727050781 1101.2998046875 1114.49768066406 1114.76428222656 1125.541015625 1133.7392578125 1133.27160644531
952.192260742188 952.949951171875 952.322875976562 948.446960449219 957.732788085938 967.5849609375 964.742614746094 959.179809570312 963.012084960938 961.344421386719 969.607971191406 975.317016601562 973.174377441406 980.447265625 974.310363769531 986.029968261719 985.690307617188 984.627014160156 983.015808105469 984.445739746094 992.639587402344 972.227783203125 973.213745117188 975.606079101562 981.436218261719 976.815612792969 977.582641601562 982.135681152344 980.024780273438 983.488952636719 983.008483886719 979.8798828125 985.837585449219 971.881591796875 972.428466796875 972.487426757812 977.187927246094 979.230834960938 972.995483398438 971.017578125 965.550354003906 972.301086425781 967.713928222656 962.438354492188 965.9296875 958.807739257812 958.592651367188 969.999450683594 973.552124023438 979.930908203125 969.4482421875 964.729125976562 972.931030273438 971.922241210938 975.420776367188 968.379028320312 974.197021484375 973.7294921875 979.878051757812 986.869018554688 980.1962890625 973.4814453125 971.067260742188 975.840209960938 975.127014160156 979.251892089844 976.765197753906 971.302429199219 961.900939941406 957.661682128906 964.561706542969 964.244018554688 966.726135253906 968.235290527344 958.758544921875 980.336059570312 990.499450683594 982.786315917969 989.716064453125 985.006591796875 981.172607421875 982.270629882812 985.269165039062 979.531799316406 983.918762207031 982.136535644531 985.882934570312 991.703552246094 987.790588378906 998.176452636719 995.212524414062 991.341186523438 990.975891113281 988.672790527344 985.763000488281 978.684814453125 996.870239257812 1003.10485839844 998.860473632812 998.843872070312 995.900390625 986.645812988281 989.755432128906 990.246276855469 984.114501953125 985.628540039062 991.540405273438 989.7255859375 982.103271484375 992.184143066406 981.75830078125 980.353454589844 983.827270507812 989.66943359375 986.473754882812 997.294921875 1003.76770019531 1006.95758056641 997.906982421875 999.039123535156 1001.29272460938 1001.25268554688 998.379943847656 1000.26953125 1006.71154785156 1007.37744140625 1012.79571533203 1019.35235595703 1018.32220458984 1016.99847412109 1026.501953125 1025.48937988281 1028.05126953125 1028.09008789062 1036.40686035156 1043.10192871094 1053.70739746094 1058.46264648438 1070.443359375 1071.27600097656 1086.66223144531 1096.38439941406 1107.87463378906 1111.99340820312 1118.43115234375 1122.26159667969 1130.93273925781 1134.859375 1144.00622558594 1141.84375
944.717895507812 948.773803710938 944.750793457031 946.780517578125 956.953002929688 959.857666015625 966.6064453125 971.091857910156 957.881713867188 953.341430664062 964.122802734375 966.706115722656 986.742614746094 985.966552734375 976.859558105469 974.273193359375 980.711547851562 976.280944824219 976.129333496094 979.298522949219 980.757019042969 976.226318359375 964.377746582031 970.530456542969 974.186279296875 970.422302246094 975.926513671875 976.586364746094 976.808776855469 978.378173828125 982.1044921875 976.994384765625 982.871459960938 968.232421875 963.895812988281 972.472045898438 976.112243652344 973.390563964844 976.852661132812 975.200012207031 981.665344238281 972.878723144531 970.075805664062 958.039978027344 963.02978515625 967.229675292969 967.502319335938 969.024963378906 963.560546875 969.125854492188 969.377502441406 967.122192382812 969.379760742188 965.137573242188 967.500854492188 968.222839355469 968.594604492188 977.163146972656 983.182067871094 984.281677246094 979.323608398438 980.595153808594 974.177001953125 972.331237792969 980.853393554688 975.864318847656 972.661315917969 973.782958984375 968.138061523438 960.113525390625 959.495422363281 963.737670898438 963.500183105469 964.071044921875 974.539489746094 968.697082519531 977.590209960938 977.978088378906 983.822265625 979.658996582031 971.387878417969 972.669128417969 970.178771972656 981.41162109375 985.679443359375 989.343872070312 989.439880371094 987.467468261719 984.875610351562 992.582763671875 992.585998535156 990.999633789062 984.922485351562 986.7060546875 981.168884277344 989.530517578125 1000.03845214844 1003.78057861328 997.37841796875 986.540344238281 980.553283691406 986.681945800781 980.057678222656 985.545043945312 985.43359375 981.585144042969 982.366271972656 982.785461425781 980.995300292969 986.066345214844 982.465576171875 983.023986816406 991.6259765625 983.423828125 983.809875488281 986.72802734375 1001.44689941406 1001.93017578125 996.52392578125 995.613159179688 996.239196777344 997.025329589844 995.775939941406 999.223999023438 1000.58764648438 1016.52465820312 1013.98229980469 1024.56994628906 1027.32751464844 1031.41442871094 1034.67712402344 1033.69250488281 1031.53869628906 1027.52490234375 1039.7900390625 1055.16101074219 1065.83544921875 1072.5224609375 1073.17749023438 1079.85314941406 1085.90393066406 1103.73999023438 1114.6806640625 1114.97241210938 1121.00122070312 1141.61511230469 1147.59399414062 1150.80603027344 1151.1982421875 1153.72509765625
