NCOLS 150
NROWS 37
XLLCORNER 7394249
YLLCORNER 4843859
CELLSIZE 30
NODATA_VALUE -9999
1016.84820556641 1015.38159179688 1008.46740722656 1008.56994628906 1008.97039794922 1008.78704833984 1002.3173828125 1009.79760742188 1011.06164550781 1014.34326171875 1006.16815185547 1013.65417480469 1026.39099121094 1015.80126953125 1006.92730712891 1008.51641845703 1008.65216064453 1016.38787841797 1023.04046630859 1027.17407226562 1028.80236816406 1044.44384765625 1028.30700683594 1017.09759521484 1021.21319580078 1025.88635253906 1021.98748779297 1024.08813476562 1028.16467285156 1030.9892578125 1025.69567871094 1028.22009277344 1029.27136230469 1029.26538085938 1021.90747070312 1013.91735839844 1017.10015869141 1026.82897949219 1021.21160888672 1016.97424316406 1012.3349609375 1000.68365478516 999.567504882812 986.243591308594 990.138854980469 989.164672851562 983.774047851562 998.74072265625 992.969909667969 980.833801269531 978.554931640625 968.600402832031 958.488098144531 969.996826171875 964.768005371094 960.134582519531 955.381225585938 946.737976074219 936.256042480469 930.496948242188 926.911865234375 919.223754882812 916.310791015625 918.451843261719 911.497741699219 901.491882324219 902.808288574219 909.271545410156 909.272277832031 917.136901855469 924.916076660156 934.489074707031 937.113952636719 934.323669433594 931.134521484375 945.296264648438 946.95849609375 951.050659179688 961.894653320312 959.109252929688 970.471069335938 962.7890625 959.432006835938 962.107177734375 952.205627441406 943.747131347656 938.287475585938 933.835571289062 936.873962402344 928.209594726562 919.666198730469 926.760314941406 923.709167480469 912.952392578125 903.612365722656 893.052551269531 899.278930664062 897.983093261719 894.617370605469 886.888549804688 877.724365234375 884.251281738281 886.17236328125 871.49462890625 865.121765136719 861.177673339844 861.929809570312 858.345397949219 858.320373535156 871.856262207031 878.368286132812 891.800964355469 899.790588378906 895.807373046875 895.766296386719 907.065612792969 907.2724609375 909.854858398438 912.803466796875 917.113586425781 927.917846679688 930.77685546875 934.051025390625 939.918701171875 940.701965332031 951.007507324219 963.768310546875 974.224426269531 983.8251953125 991.48193359375 995.514709472656 1005.11633300781 1024.15405273438 1031.81799316406 1041.23168945312 1054.07385253906 1062.58996582031 1064.30786132812 1069.72778320312 1073.21704101562 1074.29016113281 1074.11596679688 1077.75891113281 1074.9765625 1071.2021484375 1072.3642578125 1061.4521484375 1049.70788574219 1037.77014160156 1037.47619628906
1011.90167236328 1012.91986083984 1001.38970947266 1003.09039306641 1010.30743408203 1004.49780273438 1006.53582763672 1018.19311523438 1017.45001220703 1015.41619873047 1012.5869140625 1013.7607421875 1020.59729003906 1014.53704833984 1007.89312744141 1010.82574462891 1008.21612548828 1020.64367675781 1023.81652832031 1028.02087402344 1038.10192871094 1047.90222167969 1042.14929199219 1032.23852539062 1030.10412597656 1037.63623046875 1035.76098632812 1028.39233398438 1024.47106933594 1029.74877929688 1035.05834960938 1035.78259277344 1028.70190429688 1025.73181152344 1016.51898193359 1012.873046875 1026.07604980469 1034.67138671875 1026.62780761719 1017.28247070312 1013.47198486328 1010.06976318359 994.807373046875 1003.22912597656 1000.802734375 1001.01879882812 992.526672363281 996.826171875 990.833190917969 985.946411132812 976.313415527344 975.244079589844 970.572448730469 963.168884277344 964.891418457031 960.924377441406 956.695678710938 952.495483398438 948.026062011719 944.660522460938 928.385192871094 927.039489746094 922.722961425781 917.0625 917.191955566406 911.052673339844 906.813232421875 913.792175292969 924.099731445312 924.351806640625 935.219360351562 934.312377929688 936.076843261719 953.268859863281 942.99267578125 946.089111328125 955.70263671875 963.893859863281 960.271301269531 976.164916992188 974.912536621094 975.613952636719 979.573974609375 962.991943359375 964.795593261719 956.1533203125 954.832580566406 948.888916015625 940.303588867188 935.042602539062 934.244445800781 921.124938964844 921.444030761719 906.898681640625 900.282897949219 905.2470703125 893.562622070312 892.797912597656 879.812683105469 874.7353515625 876.473815917969 883.778686523438 875.298156738281 871.983642578125 862.85546875 869.723205566406 868.230590820312 862.963562011719 870.887939453125 871.260192871094 880.578552246094 882.211181640625 887.700012207031 890.55029296875 891.613891601562 903.39697265625 907.842895507812 907.0458984375 906.026000976562 916.759643554688 918.519592285156 934.887023925781 938.970520019531 935.714416503906 947.504272460938 952.337280273438 963.4111328125 973.770446777344 975.255310058594 988.275024414062 990.462951660156 994.436950683594 1013.92163085938 1039.87573242188 1036.857421875 1049.5966796875 1065.70788574219 1067.3046875 1071.6650390625 1081.16174316406 1083.71716308594 1083.53430175781 1087.29724121094 1091.14782714844 1084.56091308594 1081.73071289062 1066.42810058594 1053.82019042969 1044.12182617188 1032.99633789062
1003.59539794922 1004.27117919922 999.218200683594 1000.32977294922 998.300842285156 1002.41979980469 1007.87866210938 1010.36584472656 1012.16998291016 1008.07086181641 1011.86737060547 1016.94567871094 1010.86358642578 1002.86773681641 1004.61303710938 1005.2705078125 1018.18798828125 1019.66345214844 1035.89294433594 1039.32336425781 1033.12451171875 1042.42651367188 1040.10229492188 1036.80505371094 1040.46374511719 1031.65893554688 1023.32501220703 1018.40026855469 1017.85699462891 1024.06213378906 1028.2666015625 1029.44848632812 1021.09808349609 1014.0537109375 1017.36114501953 1018.37567138672 1020.34167480469 1033.08361816406 1024.08251953125 1033.96313476562 1029.38110351562 1010.29907226562 999.118713378906 1005.15026855469 1001.14147949219 1007.08709716797 996.609252929688 994.031677246094 987.010986328125 981.21240234375 989.914672851562 983.633178710938 976.705505371094 982.064147949219 972.807067871094 970.764099121094 961.028137207031 953.429321289062 951.417297363281 952.186645507812 934.026000976562 941.804992675781 930.658386230469 922.721740722656 920.665222167969 923.221862792969 925.423461914062 920.785034179688 925.579528808594 923.432373046875 930.46533203125 938.31982421875 948.072998046875 949.751708984375 954.910034179688 960.67041015625 967.727905273438 979.747314453125 981.481323242188 991.04931640625 987.065124511719 994.271240234375 986.809265136719 973.773132324219 970.117492675781 969.607116699219 962.304626464844 953.96826171875 953.22412109375 949.489440917969 937.623657226562 932.43603515625 924.522338867188 918.331970214844 904.888488769531 900.856567382812 900.677429199219 884.249145507812 879.036193847656 878.086669921875 882.359558105469 876.75439453125 874.270751953125 874.37060546875 875.68896484375 873.074340820312 871.559204101562 869.249938964844 864.26025390625 870.633239746094 880.924255371094 879.19189453125 882.382202148438 890.9599609375 887.229614257812 897.053649902344 911.071228027344 918.622924804688 920.554870605469 918.019287109375 921.365783691406 940.05712890625 942.374877929688 938.181701660156 947.798034667969 952.7392578125 955.615661621094 968.09814453125 966.549499511719 977.749816894531 987.105407714844 996.62646484375 1012.3857421875 1037.06591796875 1036.69030761719 1045.62353515625 1056.470703125 1073.0048828125 1077.68969726562 1089.3046875 1087.13305664062 1086.29357910156 1095.04577636719 1108.19409179688 1099.5126953125 1098.01831054688 1076.39123535156 1064.83276367188 1061.03955078125 1041.09143066406
1001.03179931641 999.32421875 996.201965332031 997.446411132812 999.182006835938 1003.22277832031 1004.86187744141 1013.41436767578 1007.06024169922 1007.57092285156 1010.15838623047 1018.99530029297 1006.02056884766 996.963928222656 1003.89581298828 1005.59381103516 1024.4775390625 1026.09216308594 1028.31811523438 1038.30163574219 1031.23425292969 1033.06481933594 1036.64526367188 1032.66149902344 1035.7021484375 1034.50378417969 1026.42944335938 1019.27398681641 1023.60418701172 1021.59020996094 1021.05767822266 1026.77502441406 1027.34802246094 1020.69586181641 1023.25640869141 1024.13952636719 1025.90417480469 1026.25170898438 1028.20239257812 1027.69445800781 1020.12451171875 1002.30340576172 997.028015136719 1005.67523193359 998.4775390625 1003.33587646484 997.739135742188 997.10498046875 991.92138671875 984.360107421875 996.631896972656 991.467834472656 992.884704589844 989.998779296875 990.366333007812 977.742431640625 965.262268066406 965.703674316406 963.849365234375 962.241821289062 957.727416992188 940.532653808594 933.5615234375 932.545776367188 934.1123046875 941.329406738281 939.724670410156 935.398742675781 925.190673828125 925.674621582031 926.639831542969 936.198181152344 948.308654785156 956.946166992188 965.444641113281 963.698425292969 977.331909179688 988.604919433594 996.409790039062 1009.55944824219 1008.84558105469 1003.19256591797 996.448120117188 982.7353515625 979.648010253906 966.995788574219 962.604736328125 956.268981933594 951.175170898438 946.526000976562 939.18310546875 934.06591796875 925.359619140625 923.996215820312 915.1455078125 900.207397460938 891.135681152344 890.80517578125 875.141418457031 877.646362304688 882.717163085938 882.589538574219 876.3056640625 873.280639648438 873.962219238281 876.985290527344 881.544372558594 878.647033691406 870.465209960938 872.671264648438 880.151611328125 874.685607910156 879.633178710938 890.200256347656 888.18017578125 891.541259765625 909.167419433594 910.834045410156 911.442321777344 917.085571289062 929.050720214844 940.600646972656 939.3134765625 946.773315429688 949.758544921875 951.812805175781 961.18994140625 974.177124023438 971.054504394531 988.216735839844 993.731018066406 996.58056640625 1013.94781494141 1042.91052246094 1042.41760253906 1045.61486816406 1062.29858398438 1070.63989257812 1079.66748046875 1092.32763671875 1094.68896484375 1099.40734863281 1101.91857910156 1103.0927734375 1118.56958007812 1107.03820800781 1086.36474609375 1087.72094726562 1070.76318359375 1056.02978515625
999.050903320312 1004.900390625 996.523559570312 996.359191894531 1002.51458740234 1000.91955566406 998.320434570312 1013.27087402344 1014.86102294922 1007.64874267578 1003.13732910156 1007.88745117188 1003.8125 997.2021484375 1005.78717041016 1007.5302734375 1017.56878662109 1022.93383789062 1038.91015625 1033.63134765625 1028.31164550781 1028.41784667969 1027.71337890625 1028.28491210938 1025.72131347656 1030.66357421875 1022.58935546875 1019.05389404297 1020.56121826172 1019.15478515625 1017.94592285156 1027.25598144531 1031.11340332031 1026.61682128906 1021.52099609375 1019.18280029297 1023.18188476562 1022.06286621094 1016.86334228516 1017.30639648438 1017.02117919922 1006.63208007812 1001.21380615234 1000.70861816406 1004.96881103516 1010.28210449219 996.595336914062 995.792053222656 991.703857421875 996.661376953125 993.867492675781 995.18603515625 993.218627929688 992.625305175781 982.093872070312 979.855041503906 966.562683105469 962.020263671875 966.064514160156 973.524536132812 967.923461914062 955.924682617188 947.380920410156 937.433349609375 935.962280273438 935.34716796875 939.263122558594 935.742492675781 936.36962890625 931.816833496094 939.943237304688 938.547485351562 946.491027832031 952.816101074219 968.55712890625 970.588928222656 978.785827636719 991.717712402344 1004.89831542969 1015.35974121094 1017.33386230469 1013.14825439453 1006.48907470703 993.152893066406 993.598266601562 979.377807617188 966.029602050781 951.790832519531 955.928100585938 948.172119140625 941.587890625 937.1025390625 923.948181152344 922.298889160156 915.495788574219 908.259826660156 897.333923339844 894.791809082031 886.022766113281 882.982543945312 883.845764160156 888.691833496094 880.120544433594 878.056091308594 870.182434082031 875.738220214844 879.50341796875 884.479431152344 878.284545898438 882.405334472656 876.607788085938 879.825805664062 879.382263183594 873.347412109375 878.781188964844 892.698974609375 902.820922851562 910.812133789062 909.743347167969 915.962951660156 920.703796386719 935.603454589844 941.0419921875 944.008972167969 953.251525878906 963.104309082031 970.19189453125 978.671447753906 972.616271972656 976.70556640625 988.273254394531 1003.22589111328 1013.08087158203 1030.97180175781 1040.60266113281 1044.53430175781 1060.18908691406 1074.52478027344 1081.37585449219 1098.75 1100.89013671875 1105.31909179688 1114.099609375 1109.29309082031 1119.48937988281 1116.36328125 1105.87719726562 1097.17138671875 1085.75903320312 1065.67211914062
994.355773925781 1001.27484130859 996.655578613281 1004.48455810547 1004.38952636719 992.28125 1000.34307861328 1005.80914306641 1015.51953125 1009.59484863281 1006.20520019531 1006.07843017578 1004.49487304688 1002.52117919922 1005.07531738281 1005.14459228516 1019.1865234375 1024.15014648438 1030.39965820312 1036.78540039062 1032.8310546875 1027.51525878906 1028.71398925781 1021.15307617188 1021.041015625 1020.26214599609 1017.07171630859 1007.99584960938 1014.36181640625 1011.58746337891 1021.01654052734 1028.68798828125 1029.43969726562 1024.59057617188 1018.14215087891 1017.52618408203 1015.24066162109 1014.03625488281 1008.99566650391 1011.26794433594 1006.85791015625 998.128540039062 994.416137695312 998.931640625 999.498107910156 1006.13720703125 1005.75006103516 991.487976074219 994.421875 985.8740234375 997.500183105469 996.657592773438 989.981140136719 994.934020996094 988.242065429688 974.406799316406 971.154602050781 974.988830566406 968.511047363281 978.603454589844 983.894348144531 970.806579589844 957.678283691406 952.574279785156 934.1943359375 944.981872558594 945.040283203125 942.767944335938 951.305603027344 946.416015625 948.874328613281 947.931335449219 952.739196777344 959.498107910156 975.715942382812 983.730834960938 993.344177246094 1000.79357910156 1010.07641601562 1008.94219970703 1018.21563720703 1013.44219970703 1011.95281982422 1002.72381591797 996.293640136719 979.390197753906 969.239196777344 962.369934082031 951.002319335938 937.908752441406 949.354431152344 939.612670898438 931.151489257812 926.788635253906 923.978210449219 907.113464355469 900.117126464844 891.249633789062 886.067077636719 886.120727539062 893.064636230469 890.660400390625 896.41845703125 882.394775390625 877.668273925781 870.992309570312 881.538513183594 896.583129882812 883.555053710938 881.417236328125 880.088439941406 874.738098144531 879.642333984375 872.503601074219 878.208190917969 890.876586914062 897.083435058594 907.797668457031 914.279541015625 914.674133300781 931.626831054688 933.433654785156 936.458374023438 945.864196777344 946.353515625 955.421325683594 964.427429199219 981.228881835938 982.159912109375 985.493957519531 997.126159667969 993.841430664062 1007.25469970703 1014.87322998047 1027.38452148438 1044.33740234375 1058.45629882812 1072.58764648438 1083.36108398438 1101.78344726562 1112.01623535156 1112.13159179688 1117.2275390625 1120.34338378906 1127.74328613281 1121.23291015625 1114.48852539062 1101.89538574219 1092.01416015625 1093.69812011719
996.240112304688 996.939270019531 999.123168945312 995.66357421875 998.447631835938 999.315307617188 1001.09436035156 1017.95922851562 1018.78173828125 1012.24737548828 1008.22595214844 1000.08160400391 996.860229492188 994.120910644531 997.3193359375 1007.54644775391 1020.32019042969 1021.00134277344 1028.52648925781 1026.84155273438 1025.09851074219 1025.08276367188 1029.35400390625 1021.38385009766 1012.19000244141 1003.61614990234 1005.44891357422 1008.80413818359 1007.77746582031 1008.24340820312 1013.68029785156 1018.38165283203 1019.33746337891 1019.35491943359 1020.00048828125 1019.47393798828 1011.53851318359 1003.29095458984 1006.3251953125 988.267944335938 984.088684082031 990.399597167969 993.647644042969 986.822448730469 994.460693359375 996.25634765625 1003.72790527344 990.543273925781 986.280151367188 991.802551269531 1002.98480224609 994.052490234375 1005.94781494141 1001.11901855469 994.001831054688 992.366882324219 985.781860351562 989.090209960938 984.650024414062 982.404052734375 991.164306640625 978.827087402344 969.836181640625 957.445861816406 952.6201171875 955.924011230469 948.966674804688 955.710998535156 967.078735351562 962.259155273438 958.7080078125 956.334167480469 962.422607421875 968.948181152344 972.746643066406 990.349243164062 1003.37066650391 1013.62371826172 1022.74859619141 1022.92510986328 1021.82550048828 1018.88488769531 1011.49536132812 1003.33483886719 995.472412109375 984.083923339844 963.122741699219 950.935485839844 941.944274902344 939.574096679688 944.152770996094 936.298217773438 932.688293457031 920.9287109375 918.15087890625 914.734985351562 903.079162597656 903.485107421875 892.23291015625 891.571105957031 897.966491699219 896.671813964844 894.292358398438 888.415649414062 886.998474121094 885.914428710938 888.246826171875 890.051696777344 893.62060546875 894.666259765625 879.086730957031 875.843811035156 872.096069335938 882.371704101562 880.258605957031 889.659973144531 893.009521484375 905.406982421875 909.58447265625 915.739196777344 931.975708007812 946.944396972656 940.0927734375 946.8212890625 946.775756835938 953.963500976562 967.316589355469 979.563903808594 979.179809570312 987.692749023438 987.510803222656 988.214721679688 1001.2626953125 1017.18542480469 1034.73742675781 1045.35229492188 1060.38732910156 1076.45678710938 1084.14453125 1095.54309082031 1109.30480957031 1122.36401367188 1128.86096191406 1142.94323730469 1140.07238769531 1128.79760742188 1122.01477050781 1111.25671386719 1108.08178710938 1099.08776855469
993.171020507812 995.239318847656 992.44287109375 998.30078125 1004.35498046875 1004.62866210938 1004.28680419922 1009.75500488281 1007.57598876953 1012.783203125 1010.66888427734 997.709106445312 995.233642578125 988.543579101562 988.428894042969 1003.28662109375 1015.00311279297 1019.16357421875 1018.98126220703 1015.04144287109 1017.68182373047 1020.53997802734 1016.82678222656 1015.88745117188 1005.84997558594 1005.00109863281 1004.74133300781 999.31005859375 999.009399414062 1002.04132080078 1007.6806640625 1013.76916503906 1014.42315673828 1013.69250488281 1015.62127685547 1008.93267822266 1012.70642089844 1012.23413085938 990.431457519531 990.933288574219 991.423828125 990.945678710938 992.389099121094 1000.27600097656 1007.57196044922 1005.80627441406 997.116638183594 992.124816894531 989.537048339844 993.816284179688 1003.28179931641 1008.71862792969 1003.76098632812 1002.35931396484 1007.76385498047 1002.96160888672 998.160827636719 1001.87628173828 994.635009765625 994.29638671875 984.329650878906 985.829833984375 981.604370117188 964.073364257812 960.608337402344 958.12158203125 968.459167480469 963.695678710938 964.94873046875 964.36328125 959.8740234375 966.980773925781 966.723449707031 970.507202148438 978.355895996094 990.845336914062 1013.64196777344 1016.42718505859 1028.10729980469 1027.29626464844 1024.53332519531 1020.89123535156 1012.1611328125 1006.54779052734 1001.25512695312 983.974670410156 973.234008789062 951.175048828125 938.688049316406 937.948303222656 941.210266113281 930.836608886719 929.864013671875 933.763366699219 928.609680175781 927.101196289062 916.692993164062 912.754272460938 898.888244628906 902.3720703125 903.564880371094 906.394226074219 904.494934082031 891.885131835938 892.463928222656 894.256286621094 896.251586914062 901.712829589844 898.8525390625 902.331115722656 887.435485839844 881.801940917969 875.682189941406 877.314331054688 888.890930175781 900.862609863281 901.954162597656 911.873840332031 914.287475585938 916.988342285156 925.610961914062 939.093688964844 953.93359375 946.372436523438 946.565185546875 960.316040039062 971.311218261719 975.318420410156 982.539489746094 981.739318847656 991.256774902344 993.418823242188 1007.54711914062 1009.56762695312 1033.34411621094 1042.41662597656 1052.0234375 1077.40319824219 1080.22155761719 1100.41467285156 1110.31604003906 1118.47692871094 1134.26477050781 1135.63256835938 1143.25598144531 1134.19519042969 1126.68005371094 1124.30627441406 1115.32971191406 1103.5771484375
990.489379882812 995.647644042969 994.455932617188 994.816162109375 1005.224609375 999.379028320312 996.246704101562 1001.06970214844 998.334777832031 1003.79681396484 1002.32299804688 996.193481445312 989.696533203125 993.418212890625 986.191711425781 995.253601074219 1006.96862792969 1006.52209472656 1014.11608886719 1014.15875244141 1014.80487060547 1018.85968017578 1013.27984619141 1008.65698242188 1006.89874267578 997.863647460938 995.490905761719 998.422546386719 999.443908691406 998.202941894531 1010.88928222656 1014.08526611328 1020.95361328125 1021.35717773438 1013.56518554688 1013.65844726562 1020.04125976562 1012.30651855469 1004.41827392578 992.428649902344 989.565246582031 1001.54138183594 1003.43572998047 1007.82171630859 1015.23645019531 1010.60815429688 1009.81903076172 1001.61401367188 1003.66912841797 1006.4091796875 1013.58264160156 1002.46850585938 1009.4326171875 1009.04235839844 1015.18920898438 1010.2724609375 1010.06964111328 1005.93133544922 1013.28967285156 1002.82653808594 999.565612792969 992.198059082031 976.485229492188 980.329345703125 969.735412597656 965.285217285156 965.952026367188 969.693603515625 970.929931640625 971.17529296875 970.506530761719 972.83349609375 973.528686523438 972.695556640625 978.431823730469 997.954895019531 1001.67425537109 1019.34045410156 1025.58801269531 1037.56176757812 1034.54895019531 1025.36511230469 1002.25842285156 1000.80865478516 996.217895507812 981.10986328125 967.383728027344 951.649047851562 940.869689941406 931.419799804688 931.961059570312 935.724792480469 944.191772460938 931.062927246094 931.075012207031 926.867126464844 925.675537109375 921.41259765625 915.150268554688 920.297790527344 913.92041015625 904.0830078125 904.562622070312 903.315612792969 897.692993164062 909.126098632812 907.655822753906 918.248352050781 912.534912109375 908.269897460938 894.628112792969 893.578430175781 889.694458007812 892.903381347656 898.7060546875 908.663391113281 908.415771484375 918.579223632812 909.770690917969 916.076904296875 928.471008300781 933.133605957031 942.057189941406 952.244262695312 950.295349121094 968.019165039062 971.723388671875 975.749267578125 991.332824707031 991.21630859375 993.979187011719 995.691345214844 997.865844726562 1019.64141845703 1035.38696289062 1047.67895507812 1057.50512695312 1063.61364746094 1073.38415527344 1086.80834960938 1107.72912597656 1123.19567871094 1126.35778808594 1129.07775878906 1132.30578613281 1130.3876953125 1133.09350585938 1129.82678222656 1122.548828125 1113.330078125
986.055236816406 987.278137207031 981.80224609375 992.823669433594 988.691040039062 989.985534667969 997.503112792969 994.764953613281 995.444519042969 997.695861816406 995.227355957031 994.972045898438 991.349914550781 993.432922363281 986.061645507812 986.049072265625 1001.36260986328 1002.24835205078 1007.68981933594 1008.01800537109 1001.77307128906 1004.11877441406 1009.48413085938 1001.83721923828 997.89599609375 995.495178222656 993.736694335938 1001.56713867188 1004.68481445312 1008.55853271484 1024.56030273438 1016.48590087891 1019.65563964844 1014.30877685547 1015.29449462891 1009.83551025391 1013.98937988281 1013.81384277344 1006.79132080078 1003.32122802734 997.510498046875 1004.02899169922 1010.50689697266 1014.89398193359 1013.67517089844 1007.03491210938 1005.0791015625 1005.337890625 1013.8095703125 1008.67956542969 1016.68426513672 1014.46606445312 1009.78570556641 1016.78851318359 1020.37457275391 1017.0087890625 1012.45935058594 1015.87286376953 1012.54852294922 1008.05456542969 1005.52105712891 995.401062011719 987.524108886719 982.141235351562 984.236755371094 979.440612792969 970.623901367188 968.8662109375 972.202331542969 964.356079101562 967.21826171875 979.02880859375 973.725708007812 971.20068359375 989.490051269531 1000.06927490234 1006.34814453125 1014.14678955078 1027.20849609375 1037.21520996094 1046.80859375 1023.73449707031 1012.33520507812 1000.58538818359 990.517944335938 978.575134277344 972.145690917969 956.012512207031 941.228149414062 940.699279785156 941.970764160156 943.760681152344 940.719665527344 935.347534179688 930.091064453125 926.1064453125 926.134033203125 925.716735839844 923.61962890625 925.26318359375 919.655700683594 906.859802246094 900.259887695312 907.568542480469 912.224304199219 914.083251953125 917.041931152344 928.777587890625 918.000427246094 923.862243652344 910.438903808594 906.907775878906 910.363220214844 910.968322753906 906.781677246094 908.466552734375 916.818115234375 917.861633300781 912.949768066406 920.720336914062 925.632263183594 937.595153808594 950.019226074219 956.018920898438 959.661560058594 964.7607421875 977.536743164062 983.087158203125 987.556335449219 988.973937988281 995.642211914062 997.37841796875 1009.92950439453 1023.8935546875 1031.59289550781 1039.6884765625 1053.50659179688 1071.40979003906 1077.87963867188 1088.07629394531 1096.46459960938 1106.60681152344 1128.783203125 1131.62121582031 1133.53271484375 1131.02770996094 1130.09191894531 1123.37963867188 1129.61987304688 1123.44494628906
988.747741699219 991.45703125 989.901611328125 982.980529785156 991.597290039062 989.181884765625 984.369689941406 988.275329589844 988.010559082031 989.028381347656 992.049865722656 995.720947265625 989.743469238281 994.803405761719 995.837951660156 999.196105957031 992.968505859375 993.87255859375 1005.05987548828 1005.30841064453 1004.13568115234 998.696350097656 995.302856445312 989.825561523438 988.759643554688 996.734130859375 998.108032226562 1001.84185791016 1000.53173828125 1007.69927978516 1014.85333251953 1013.86657714844 1018.87969970703 1019.53210449219 1019.47320556641 1018.95928955078 1022.14349365234 1024.93884277344 1013.90539550781 1006.79168701172 1008.72314453125 1007.81433105469 1006.29479980469 1016.52874755859 1013.17095947266 1013.34899902344 1008.19641113281 1004.83355712891 1015.65600585938 1009.46502685547 1013.88647460938 1013.05767822266 1008.36834716797 1015.67498779297 1021.53741455078 1013.83099365234 1019.59790039062 1020.97711181641 1013.89733886719 1009.39685058594 1003.69854736328 1000.51727294922 993.661376953125 985.564758300781 984.668701171875 977.309143066406 973.8876953125 968.3203125 962.440307617188 955.985656738281 972.257141113281 975.389343261719 982.243408203125 980.278198242188 991.425842285156 1004.12182617188 1011.69549560547 1019.07116699219 1030.91918945312 1039.98937988281 1039.96008300781 1031.06604003906 1014.60571289062 996.504943847656 986.650085449219 975.030944824219 972.73974609375 956.564147949219 946.223693847656 945.178527832031 939.238647460938 937.901123046875 944.241333007812 935.036376953125 948.857788085938 939.828918457031 933.908020019531 938.556396484375 934.348083496094 930.494262695312 919.875915527344 924.362670898438 922.066650390625 909.520812988281 908.9091796875 916.639038085938 929.250549316406 933.415100097656 934.040100097656 934.662841796875 922.046142578125 925.261657714844 935.43896484375 926.768676757812 916.635192871094 912.402709960938 918.880249023438 915.748046875 925.542907714844 921.370544433594 922.172180175781 942.272277832031 942.451904296875 961.124084472656 957.312072753906 968.288146972656 985.893127441406 986.631103515625 986.210632324219 994.58544921875 998.775390625 991.7236328125 1008.22680664062 1027.51733398438 1031.57702636719 1038.6650390625 1059.56567382812 1069.39819335938 1075.70556640625 1082.12976074219 1092.18542480469 1110.1669921875 1123.06262207031 1123.3408203125 1134.25756835938 1133.736328125 1127.54724121094 1116.03271484375 1119.3115234375 1119.26428222656
989.242553710938 987.100402832031 995.825988769531 990.181884765625 991.735168457031 982.845336914062 974.927978515625 980.429382324219 984.431823730469 989.189697265625 980.171203613281 987.212036132812 996.671020507812 989.342834472656 990.456420898438 995.500915527344 996.028564453125 1002.25860595703 1010.14654541016 1007.08715820312 1007.26300048828 1002.59362792969 995.167724609375 989.781616210938 989.262634277344 994.643432617188 998.031921386719 1008.15899658203 1008.09454345703 1015.87432861328 1011.11059570312 1019.33435058594 1015.38061523438 1020.25201416016 1028.03161621094 1019.84307861328 1023.716796875 1030.00427246094 1029.21411132812 1017.30944824219 1022.34326171875 1015.16351318359 1011.34814453125 1014.35455322266 1015.92724609375 1018.79797363281 1020.02093505859 1014.54376220703 1011.40930175781 1013.28643798828 1011.75659179688 1020.60327148438 1011.453125 1010.99810791016 1018.478515625 1009.14654541016 1010.19970703125 1015.8310546875 1017.9755859375 1016.82781982422 1004.63696289062 1002.18572998047 999.738525390625 999.192504882812 985.556213378906 997.015380859375 986.564453125 969.172424316406 967.084045410156 963.74072265625 975.715087890625 981.229553222656 988.278198242188 997.427978515625 1010.26550292969 1016.08660888672 1021.24450683594 1025.54736328125 1032.86938476562 1037.43688964844 1036.94140625 1029.97705078125 1010.78198242188 1006.50921630859 987.744079589844 977.0087890625 958.96484375 949.727905273438 949.732177734375 945.728271484375 939.167053222656 940.593200683594 943.498413085938 938.729736328125 953.385925292969 949.519470214844 949.970642089844 946.189147949219 949.601684570312 943.046081542969 937.4091796875 936.830444335938 943.649963378906 928.614868164062 919.8916015625 924.686584472656 942.745788574219 952.822021484375 948.370971679688 949.259033203125 931.782043457031 934.024108886719 931.152038574219 925.368896484375 911.692810058594 915.576843261719 907.533935546875 908.995300292969 911.565246582031 920.493041992188 921.990356445312 936.937255859375 946.850952148438 957.471618652344 975.622680664062 968.483093261719 975.520385742188 986.133239746094 987.039306640625 994.962951660156 998.380065917969 1008.11535644531 1011.82720947266 1022.64434814453 1032.60925292969 1038.7822265625 1054.8876953125 1066.75366210938 1075.73828125 1081.66467285156 1094.10400390625 1105.26062011719 1115.52844238281 1116.93103027344 1115.20971679688 1118.62878417969 1112.90502929688 1119.24243164062 1120.07604980469 1111.94958496094
999.569458007812 991.410827636719 997.885925292969 992.001220703125 991.079772949219 987.078735351562 978.702392578125 977.326904296875 985.816528320312 984.330688476562 977.274108886719 976.928771972656 978.224853515625 990.013488769531 985.547058105469 993.176513671875 997.792846679688 999.557373046875 1004.65057373047 1012.623046875 995.341857910156 996.1396484375 996.429809570312 994.360961914062 993.354919433594 989.552551269531 1011.11322021484 1014.79040527344 1012.44927978516 1018.78033447266 1016.16027832031 1021.80975341797 1018.83630371094 1021.86120605469 1027.33776855469 1021.09008789062 1026.41931152344 1037.19506835938 1033.50268554688 1031.22668457031 1036.03491210938 1028.61352539062 1028.62268066406 1028.39904785156 1024.23400878906 1020.83612060547 1022.18017578125 1018.87524414062 1009.73449707031 1004.69744873047 1009.68103027344 1011.20104980469 998.920532226562 1000.40289306641 1010.71435546875 1019.48449707031 1013.27111816406 1015.74188232422 1014.57147216797 1017.14593505859 1008.62866210938 1011.31500244141 1003.39569091797 1001.76690673828 997.04150390625 1012.1357421875 997.475402832031 989.753967285156 971.614929199219 970.170043945312 987.301330566406 985.976745605469 994.294128417969 1009.24548339844 1015.30389404297 1023.71527099609 1028.29724121094 1025.599609375 1035.86926269531 1042.85668945312 1034.31872558594 1026.2548828125 1009.63482666016 1001.93621826172 997.771667480469 977.789794921875 958.33837890625 955.617309570312 956.221374511719 953.7880859375 932.202758789062 939.071960449219 941.427734375 952.773498535156 949.075073242188 958.4921875 953.748046875 946.766174316406 947.589599609375 940.506774902344 938.675048828125 942.211059570312 946.902404785156 946.957946777344 941.070190429688 948.086669921875 950.025146484375 950.881408691406 952.8603515625 952.9609375 953.226135253906 940.511108398438 941.695251464844 938.962097167969 921.937133789062 923.971923828125 909.716552734375 907.484924316406 916.158813476562 925.7392578125 936.7841796875 942.879699707031 950.124328613281 956.642028808594 970.726440429688 975.686401367188 980.335754394531 984.55810546875 995.455749511719 993.874389648438 1005.07568359375 1003.43518066406 1010.90808105469 1020.5205078125 1023.71520996094 1042.73217773438 1050.85913085938 1066.1455078125 1071.60571289062 1091.26977539062 1097.23352050781 1099.23071289062 1110.43103027344 1108.4140625 1107.14660644531 1117.00280761719 1117.07360839844 1121.49865722656 1118.15502929688 1116.76782226562
987.842834472656 990.052856445312 999.511779785156 991.536437988281 990.371337890625 990.243591308594 984.679382324219 985.331909179688 974.776306152344 977.557189941406 978.823364257812 979.200134277344 988.863891601562 990.605041503906 997.436767578125 994.803833007812 994.3564453125 997.888122558594 998.589294433594 994.867370605469 994.680053710938 995.585632324219 998.468444824219 994.813720703125 996.923767089844 999.715270996094 1001.42211914062 1002.56848144531 1003.58221435547 1012.82751464844 1016.81732177734 1018.6201171875 1021.56469726562 1023.45928955078 1029.81140136719 1024.10620117188 1027.2421875 1034.61047363281 1037.77075195312 1041.36633300781 1040.94458007812 1038.75256347656 1030.0498046875 1022.40869140625 1023.58197021484 1022.99456787109 1026.45544433594 1024.31982421875 1012.10772705078 1003.21142578125 997.675842285156 999.164672851562 999.183776855469 1000.75909423828 1008.39910888672 1016.63208007812 1021.72082519531 1017.21173095703 1013.22625732422 1018.07989501953 1012.24182128906 1012.59326171875 1009.27056884766 1008.81860351562 1007.30017089844 1011.56512451172 1020.02746582031 1014.51556396484 1001.41290283203 991.941223144531 990.675354003906 990.942321777344 1005.73010253906 1009.01446533203 1022.93914794922 1027.21850585938 1035.28552246094 1032.78588867188 1029.04077148438 1026.48803710938 1034.0634765625 1030.57312011719 1022.54553222656 1012.77404785156 991.478210449219 981.1845703125 960.821655273438 955.091491699219 954.257568359375 944.0400390625 934.613708496094 942.183349609375 950.20361328125 955.093383789062 960.673217773438 959.281921386719 962.968383789062 955.794006347656 957.027465820312 953.3037109375 947.652709960938 947.983032226562 951.296875 957.798217773438 953.77783203125 952.181274414062 951.01611328125 958.997375488281 968.683227539062 969.940795898438 962.617736816406 953.6083984375 948.564880371094 936.153686523438 930.619140625 923.363586425781 911.83056640625 921.635803222656 925.524719238281 934.818359375 941.705444335938 949.181335449219 961.490661621094 967.388854980469 970.242370605469 982.402648925781 984.515869140625 991.040161132812 996.485412597656 998.481262207031 998.241271972656 1007.02917480469 1015.33813476562 1019.21868896484 1030.083984375 1042.45495605469 1051.84948730469 1061.55480957031 1072.06433105469 1082.98779296875 1093.68896484375 1096.5263671875 1106.16003417969 1110.32653808594 1114.2265625 1116.48596191406 1115.755859375 1118.33947753906 1118.35864257812 1114.18286132812
985.23779296875 985.978210449219 986.9033203125 989.074340820312 989.388610839844 987.50341796875 987.681762695312 985.786499023438 981.845947265625 966.738891601562 972.544738769531 975.898742675781 985.528198242188 991.81884765625 992.481506347656 995.539123535156 991.340759277344 987.685180664062 996.729309082031 988.86962890625 991.071411132812 996.182067871094 996.389343261719 996.446105957031 1005.88146972656 1008.84155273438 1005.98663330078 1014.82495117188 1009.18115234375 1022.20489501953 1021.08642578125 1027.17297363281 1033.36071777344 1034.18225097656 1033.63256835938 1026.57922363281 1039.59204101562 1039.515625 1037.29357910156 1038.59265136719 1037.40600585938 1035.49182128906 1028.42041015625 1033.06457519531 1028.04028320312 1026.64575195312 1025.80871582031 1017.96887207031 1014.11889648438 999.418884277344 1002.13806152344 998.096496582031 996.644104003906 997.294921875 1005.55041503906 1014.95568847656 1017.18273925781 1018.5986328125 1008.16467285156 1016.94866943359 1012.02703857422 1016.73913574219 1025.07666015625 1025.47668457031 1015.80102539062 1028.23083496094 1031.66076660156 1024.19946289062 1013.27569580078 1006.00860595703 1002.15173339844 998.604736328125 1007.94317626953 1008.04760742188 1011.88641357422 1022.87451171875 1028.70178222656 1024.81652832031 1027.83947753906 1026.90515136719 1034.36450195312 1036.57568359375 1029.35034179688 1020.51672363281 1000.55700683594 980.902954101562 968.452331542969 962.844177246094 963.646179199219 952.824890136719 941.05419921875 949.300109863281 952.227416992188 973.626831054688 970.509887695312 959.097351074219 965.169128417969 967.860046386719 968.590881347656 960.899963378906 962.393859863281 955.896423339844 958.658874511719 961.974670410156 964.971801757812 968.894287109375 966.622436523438 971.479614257812 976.852172851562 975.830383300781 962.249694824219 960.057067871094 947.846618652344 938.783081054688 936.817749023438 934.581359863281 920.972839355469 926.575988769531 928.941284179688 943.579650878906 954.972351074219 959.108581542969 963.191772460938 967.517272949219 973.448669433594 980.479431152344 995.113037109375 994.981872558594 1003.57342529297 1004.79620361328 1011.58630371094 1013.7802734375 1025.12939453125 1039.34912109375 1035.15881347656 1038.63562011719 1049.08605957031 1062.86413574219 1068.63342285156 1077.76293945312 1092.53759765625 1100.18273925781 1095.23706054688 1111.28625488281 1103.43969726562 1110.54821777344 1112.97033691406 1111.13586425781 1112.96850585938 1120.052734375
976.23974609375 980.513977050781 977.6005859375 977.734252929688 987.4345703125 985.433837890625 984.756408691406 985.803771972656 986.674621582031 972.207824707031 973.856689453125 968.417785644531 981.692138671875 981.330932617188 985.861206054688 990.044006347656 990.825500488281 985.335388183594 984.749450683594 986.625671386719 986.335083007812 986.460205078125 984.345153808594 997.279663085938 998.891052246094 1011.04266357422 1015.36218261719 1016.62219238281 1018.38079833984 1023.33819580078 1024.58605957031 1027.14086914062 1033.35668945312 1037.16223144531 1034.34240722656 1034.59216308594 1034.31579589844 1036.49621582031 1040.42810058594 1046.27709960938 1037.07202148438 1033.74438476562 1033.43310546875 1034.74951171875 1025.91223144531 1029.31530761719 1018.39392089844 1014.27807617188 1008.57763671875 1005.46783447266 992.975830078125 988.501281738281 1002.18627929688 1015.71435546875 1014.66918945312 1017.42913818359 1014.59436035156 1015.48583984375 1023.41778564453 1017.92858886719 1017.98828125 1019.36608886719 1023.67224121094 1031.68090820312 1024.72924804688 1026.85778808594 1029.81774902344 1036.80969238281 1020.81896972656 1012.84649658203 1008.68994140625 1008.29302978516 1009.72692871094 1001.63110351562 1008.94067382812 1017.04901123047 1030.76940917969 1025.92395019531 1030.70568847656 1036.11535644531 1035.04895019531 1039.75329589844 1037.12341308594 1023.55151367188 1006.19616699219 991.746765136719 978.635192871094 960.525024414062 966.218017578125 959.554565429688 964.678466796875 959.488464355469 976.249328613281 974.555480957031 982.026794433594 974.691528320312 984.5185546875 980.948791503906 969.238708496094 978.053649902344 971.245178222656 967.378112792969 966.730285644531 970.033142089844 978.943237304688 990.306640625 974.679077148438 977.492736816406 981.315246582031 980.10791015625 968.105895996094 962.82666015625 958.487976074219 946.551635742188 943.224182128906 934.337463378906 930.508605957031 930.898498535156 927.772644042969 947.993347167969 949.209289550781 959.66552734375 971.606567382812 975.20703125 982.102966308594 983.691772460938 983.364501953125 1000.56109619141 1008.32391357422 1011.11663818359 1021.35113525391 1029.3857421875 1035.46472167969 1048.16381835938 1053.60595703125 1049.42333984375 1042.43676757812 1047.08349609375 1059.91015625 1077.98132324219 1088.951171875 1093.65734863281 1097.46154785156 1099.39074707031 1099.69470214844 1102.57861328125 1100.30712890625 1109.68981933594 1111.99597167969 1114.01904296875
976.842651367188 978.375061035156 980.822265625 978.24072265625 976.593444824219 970.871887207031 980.326965332031 978.121398925781 983.207702636719 980.159912109375 970.532043457031 965.842895507812 968.205932617188 967.73046875 977.45361328125 979.642272949219 984.762634277344 985.531921386719 983.695678710938 977.294677734375 981.01025390625 985.245788574219 983.907775878906 987.739135742188 994.15087890625 999.478393554688 1009.08538818359 1010.80999755859 1013.01947021484 1008.47955322266 1016.68353271484 1025.22448730469 1028.03540039062 1035.2900390625 1024.30432128906 1023.81988525391 1019.55059814453 1031.41101074219 1033.28674316406 1036.92736816406 1038.400390625 1042.86865234375 1033.54748535156 1030.82922363281 1034.67822265625 1033.39575195312 1017.72540283203 1007.05694580078 1007.48199462891 1005.15209960938 999.285705566406 1003.37091064453 997.6611328125 1014.71472167969 1020.02423095703 1019.57012939453 1019.13745117188 1012.71105957031 1021.44299316406 1020.65661621094 1017.69787597656 1024.69165039062 1025.78686523438 1026.66247558594 1034.10803222656 1023.56030273438 1030.09387207031 1027.27880859375 1017.26403808594 1021.45434570312 1021.82012939453 1013.66998291016 1012.28112792969 1011.34344482422 1019.02886962891 1023.24322509766 1028.40283203125 1034.90637207031 1032.77844238281 1031.76940917969 1040.63732910156 1034.04577636719 1026.64233398438 1017.36340332031 1008.96368408203 1002.82904052734 979.761901855469 968.526123046875 967.812866210938 970.694396972656 969.412231445312 973.58935546875 987.291625976562 985.4375 977.890563964844 997.811889648438 982.006530761719 985.670104980469 987.387573242188 989.275268554688 991.497314453125 978.146118164062 978.327575683594 984.255187988281 988.831420898438 990.966918945312 979.824279785156 978.109802246094 982.984741210938 982.615173339844 970.236511230469 962.131652832031 955.571960449219 938.093994140625 934.84326171875 936.246154785156 940.754821777344 937.210021972656 938.155212402344 942.957275390625 956.984436035156 962.993469238281 969.574768066406 976.567565917969 985.112915039062 983.665222167969 987.794860839844 1002.36767578125 1005.36840820312 1018.25286865234 1029.79138183594 1030.474609375 1035.91064453125 1054.62243652344 1050.69201660156 1055.4599609375 1050.86450195312 1053.79382324219 1066.60083007812 1076.30700683594 1082.43176269531 1092.40246582031 1095.88024902344 1093.90576171875 1105.88110351562 1106.73767089844 1100.90368652344 1112.68566894531 1111.05297851562 1117.2353515625
972.370483398438 976.243347167969 979.607177734375 971.326293945312 965.391784667969 968.180541992188 975.723693847656 977.364807128906 972.688354492188 972.15283203125 973.003051757812 967.530334472656 964.3603515625 960.353210449219 968.349914550781 972.476013183594 972.41748046875 981.805725097656 977.667724609375 969.807434082031 970.735717773438 981.578125 983.378845214844 990.545715332031 991.733642578125 992.764953613281 1004.97973632812 1006.71374511719 1012.99304199219 1014.45153808594 1010.50561523438 1023.56951904297 1018.52294921875 1029.81555175781 1019.94079589844 1018.87713623047 1021.94952392578 1034.59985351562 1028.29724121094 1037.72021484375 1047.71936035156 1050.1865234375 1044.83874511719 1036.48876953125 1037.40759277344 1028.158203125 1013.05676269531 1007.82989501953 1005.02325439453 1001.20678710938 1002.92211914062 1003.29803466797 999.105041503906 1010.20135498047 1013.64196777344 1021.34729003906 1011.18951416016 1012.849609375 1009.6630859375 1009.84442138672 1017.44604492188 1021.36248779297 1020.95916748047 1026.65258789062 1030.28771972656 1027.62060546875 1016.88415527344 1021.22625732422 1026.95068359375 1028.15295410156 1027.98364257812 1021.67864990234 1024.80432128906 1020.97399902344 1012.24945068359 1023.03100585938 1028.85852050781 1041.63061523438 1032.39025878906 1038.72229003906 1040.73803710938 1031.56518554688 1022.87426757812 1016.45336914062 1010.01824951172 998.267456054688 993.572387695312 980.906188964844 974.462707519531 971.333251953125 974.3818359375 986.793701171875 991.64501953125 987.525634765625 984.529418945312 994.122741699219 994.332153320312 999.956298828125 997.729370117188 992.932678222656 988.687194824219 986.396301269531 988.68408203125 992.084533691406 995.870483398438 998.04345703125 990.038757324219 976.500122070312 977.950256347656 979.280334472656 972.892211914062 963.29541015625 943.783447265625 937.355712890625 935.345092773438 941.250427246094 931.869323730469 934.833862304688 938.564208984375 942.487731933594 955.565795898438 954.525756835938 972.434753417969 977.121459960938 990.068237304688 982.97119140625 996.477172851562 1007.15087890625 1014.65899658203 1024.90502929688 1025.92993164062 1040.619140625 1044.55834960938 1051.47302246094 1047.73510742188 1058.49743652344 1063.06079101562 1065.53198242188 1069.85668945312 1072.34484863281 1084.52673339844 1091.74963378906 1093.03173828125 1098.49853515625 1100.88220214844 1103.2451171875 1102.98217773438 1105.78625488281 1114.53967285156 1113.05993652344
969.451538085938 967.335327148438 970.235473632812 963.713317871094 961.662536621094 967.622375488281 970.63037109375 971.987243652344 963.920166015625 961.205200195312 962.490539550781 962.117309570312 960.7236328125 956.019592285156 961.508178710938 967.644104003906 981.347900390625 974.287475585938 968.261352539062 961.767822265625 970.488098144531 978.3935546875 980.273315429688 997.9130859375 993.32177734375 1005.59710693359 1001.95556640625 1004.04760742188 1004.04284667969 1013.9853515625 1017.98858642578 1019.48992919922 1022.43841552734 1014.18603515625 1021.33288574219 1012.16723632812 1014.83087158203 1028.15966796875 1028.76745605469 1035.32556152344 1037.73120117188 1047.54650878906 1038.89086914062 1034.02197265625 1021.67004394531 1014.83630371094 1009.14007568359 1013.02374267578 994.546630859375 997.744140625 1005.14813232422 1001.05603027344 1005.72796630859 1002.30133056641 1010.93939208984 1019.75463867188 1004.89733886719 1002.69604492188 1008.68298339844 1007.05535888672 1021.52166748047 1018.29772949219 1014.40869140625 1019.49243164062 1032.23413085938 1027.587890625 1028.54272460938 1026.45153808594 1034.23327636719 1035.31469726562 1031.90258789062 1026.23547363281 1024.97680664062 1020.91925048828 1017.10485839844 1025.90100097656 1038.85729980469 1041.83618164062 1036.9765625 1033.64245605469 1034.97387695312 1025.814453125 1025.13134765625 1018.26629638672 1008.31530761719 1007.04840087891 1004.61102294922 993.31298828125 990.906433105469 981.500061035156 983.679382324219 985.231567382812 991.635864257812 996.265991210938 997.318481445312 1003.54602050781 1012.32470703125 1006.89996337891 1001.75030517578 1002.0810546875 999.697509765625 999.755676269531 1003.91516113281 1003.21844482422 1014.89807128906 1013.88269042969 1006.19818115234 993.874938964844 985.227722167969 979.325866699219 974.698669433594 959.561401367188 946.828247070312 942.661193847656 933.782409667969 940.683044433594 931.94970703125 931.541198730469 937.730834960938 944.200622558594 949.350769042969 952.869262695312 970.668029785156 989.13037109375 991.912414550781 980.496032714844 997.799743652344 1017.97729492188 1026.37451171875 1024.16296386719 1036.46203613281 1052.47985839844 1054.50805664062 1053.58081054688 1057.5234375 1055.87622070312 1061.71044921875 1065.02355957031 1061.52453613281 1059.8046875 1067.22033691406 1081.24157714844 1093.1435546875 1105.18432617188 1097.44848632812 1101.80065917969 1107.28491210938 1114.71545410156 1108.51879882812 1116.77563476562
971.24365234375 969.885498046875 965.779541015625 964.665771484375 964.627197265625 960.129577636719 960.402893066406 951.191711425781 960.342651367188 956.795471191406 957.7021484375 966.418151855469 963.841796875 955.6591796875 952.06103515625 967.342163085938 972.448913574219 972.862854003906 976.62890625 964.639343261719 963.302124023438 969.485656738281 985.082214355469 998.828857421875 1000.33142089844 997.050903320312 999.201721191406 1005.55841064453 995.817626953125 1016.70983886719 1021.12292480469 1019.19244384766 1010.39141845703 1010.875 1011.70703125 1018.38732910156 1019.00170898438 1019.70843505859 1028.53259277344 1037.80859375 1035.43774414062 1033.90234375 1035.43469238281 1031.57592773438 1019.46899414062 1020.59680175781 1004.35632324219 1004.869140625 996.953735351562 1005.38793945312 1000.70385742188 997.493835449219 1005.45837402344 1000.23364257812 1009.13909912109 1010.80755615234 1006.63262939453 1007.11645507812 1022.86730957031 1014.76086425781 1019.17419433594 1019.67541503906 1014.73010253906 1017.19451904297 1027.08557128906 1029.49304199219 1024.01440429688 1023.14251708984 1037.60791015625 1036.75158691406 1034.0048828125 1030.45288085938 1021.05151367188 1023.0234375 1024.38623046875 1015.23229980469 1030.72106933594 1035.96118164062 1026.15368652344 1023.49865722656 1018.73321533203 1021.32043457031 1025.78833007812 1023.25567626953 1013.91613769531 1010.96948242188 1008.21124267578 1010.38177490234 1003.59448242188 987.392822265625 990.43115234375 987.8857421875 990.08935546875 993.647705078125 997.280883789062 1022.80847167969 1026.72265625 1019.07373046875 1010.69763183594 1008.87048339844 1008.36602783203 1006.17822265625 1010.16906738281 1003.66516113281 1006.11309814453 1005.05364990234 994.915649414062 987.907531738281 985.61767578125 976.073303222656 970.8310546875 963.419616699219 947.121215820312 937.040771484375 932.611938476562 936.94970703125 930.1015625 937.176452636719 941.629150390625 942.842163085938 952.507019042969 968.828735351562 980.675537109375 996.327758789062 988.059753417969 987.230285644531 1007.95776367188 1011.29260253906 1023.59838867188 1034.52075195312 1042.57666015625 1048.08386230469 1055.91687011719 1070.85852050781 1063.14562988281 1065.1875 1057.69287109375 1062.81481933594 1071.59973144531 1066.78332519531 1074.28747558594 1084.9462890625 1095.64782714844 1100.15283203125 1097.84143066406 1104.96606445312 1112.7724609375 1122.88879394531 1117.72253417969 1112.7509765625
965.949096679688 975.018676757812 964.122009277344 960.309204101562 961.558959960938 957.84814453125 959.829467773438 955.665893554688 954.778564453125 965.674255371094 965.498229980469 962.833068847656 963.969665527344 961.758239746094 957.005798339844 957.502624511719 969.007202148438 965.931396484375 967.459289550781 971.356567382812 971.239624023438 980.861694335938 986.898986816406 983.918334960938 994.834777832031 992.317199707031 989.923583984375 988.982727050781 998.801086425781 1011.51641845703 1026.21862792969 1030.74487304688 1012.76068115234 1014.48583984375 1010.59753417969 1013.47607421875 1019.33599853516 1021.38970947266 1017.34832763672 1026.29260253906 1036.61730957031 1035.94836425781 1030.19909667969 1025.38830566406 1021.93676757812 1023.13195800781 1009.12579345703 1008.2548828125 998.662048339844 1002.27502441406 1000.91912841797 998.963623046875 1002.44964599609 1004.61199951172 1009.81048583984 1016.77716064453 1013.85070800781 1011.27624511719 1023.71844482422 1013.89105224609 1008.93212890625 1012.68249511719 1017.80346679688 1019.92523193359 1027.66674804688 1033.73547363281 1022.01055908203 1025.91442871094 1023.67956542969 1027.9208984375 1017.88482666016 1030.14196777344 1018.32995605469 1012.50720214844 1013.09613037109 1012.75958251953 1017.99731445312 1027.77392578125 1026.92028808594 1024.67248535156 1018.30108642578 1013.20941162109 1018.40100097656 1016.53497314453 1014.06658935547 1011.01776123047 1014.611328125 1009.65307617188 1002.81823730469 999.926025390625 999.600769042969 996.179077148438 997.174743652344 1008.94116210938 1016.87963867188 1030.19909667969 1035.75769042969 1030.23168945312 1021.515625 1022.58612060547 1013.01794433594 1007.06066894531 1015.07824707031 1008.30090332031 1008.91912841797 1001.45037841797 996.732116699219 987.775268554688 982.986511230469 984.596740722656 964.863647460938 961.703002929688 954.503601074219 944.564086914062 943.574401855469 936.961303710938 931.765441894531 929.8935546875 933.014343261719 960.57373046875 972.600646972656 983.344909667969 1001.87982177734 1004.12609863281 1009.75354003906 1008.02972412109 1011.38488769531 1017.99395751953 1026.55529785156 1031.28039550781 1044.98095703125 1051.00500488281 1053.8779296875 1069.23999023438 1063.85388183594 1061.03283691406 1055.42822265625 1061.66186523438 1066.45727539062 1073.86499023438 1074.34045410156 1083.80517578125 1085.75036621094 1094.02978515625 1104.92578125 1107.99133300781 1112.68444824219 1114.41149902344 1122.72619628906 1116.7197265625
973.163818359375 976.172973632812 956.6591796875 958.791198730469 951.043823242188 947.073913574219 958.6611328125 953.382141113281 962.501647949219 956.127990722656 960.743896484375 958.885131835938 958.680969238281 959.473022460938 960.421691894531 964.8193359375 964.351257324219 971.668212890625 972.407531738281 980.975341796875 984.545532226562 984.318298339844 986.067443847656 987.385375976562 992.190856933594 991.447082519531 993.386413574219 987.217102050781 995.76953125 1006.77484130859 1019.25152587891 1020.24713134766 1009.08386230469 1013.87475585938 1011.01538085938 1019.35626220703 1014.21734619141 1016.54510498047 1022.25720214844 1022.75610351562 1033.1240234375 1035.18090820312 1033.06103515625 1031.73779296875 1019.14544677734 1021.57214355469 1008.66918945312 1011.75799560547 1002.82122802734 999.842834472656 997.103820800781 998.885192871094 999.929504394531 1009.86749267578 1004.35180664062 1007.57562255859 1018.63360595703 1011.18536376953 1020.59698486328 1014.53314208984 1017.74853515625 1010.17358398438 1012.99163818359 1018.73132324219 1020.55493164062 1021.94946289062 1022.09106445312 1024.9716796875 1022.72259521484 1022.07330322266 1027.33923339844 1020.72277832031 1020.98937988281 1021.25372314453 1012.31524658203 1007.73345947266 1013.07757568359 1015.68603515625 1013.63598632812 1019.12628173828 1021.63549804688 1021.94903564453 1018.03637695312 1005.30810546875 1009.20281982422 1007.46264648438 1011.43786621094 1009.43872070312 1006.23254394531 1003.86474609375 1004.10406494141 1005.90496826172 1005.96978759766 1021.98120117188 1023.64361572266 1027.72875976562 1027.17248535156 1026.79577636719 1021.67395019531 1025.30358886719 1011.91229248047 1008.39727783203 1008.48248291016 1002.15875244141 1004.24298095703 1004.55285644531 998.219421386719 993.459228515625 986.6552734375 976.584594726562 970.765258789062 962.024169921875 950.705505371094 943.66357421875 940.44384765625 931.900817871094 933.873474121094 932.542175292969 949.760803222656 969.423034667969 984.818542480469 994.954162597656 1001.00225830078 999.413696289062 1010.75219726562 1013.40045166016 1017.42755126953 1027.26586914062 1021.47344970703 1035.63195800781 1046.67077636719 1050.35400390625 1049.10192871094 1058.45104980469 1065.00122070312 1053.45922851562 1054.48645019531 1053.07263183594 1062.82080078125 1064.58068847656 1069.42858886719 1076.10559082031 1081.92346191406 1095.31945800781 1104.14672851562 1106.75207519531 1118.86608886719 1120.37219238281 1113.96142578125 1120.32019042969
963.240234375 961.003540039062 950.101684570312 952.125427246094 950.9296875 942.907104492188 950.228576660156 949.027160644531 953.829162597656 962.045532226562 963.217468261719 952.926391601562 955.573486328125 958.016357421875 961.057800292969 960.674133300781 959.967956542969 971.186889648438 974.035034179688 995.414306640625 994.4912109375 996.335144042969 982.028137207031 987.78662109375 990.624633789062 985.139465332031 1002.328125 1001.53741455078 1003.87243652344 1011.95532226562 1013.42651367188 1009.38507080078 1009.98248291016 1008.01684570312 1006.76837158203 1013.94763183594 1015.43096923828 1020.33093261719 1020.91833496094 1021.07159423828 1036.07873535156 1033.04162597656 1032.38049316406 1023.64111328125 1018.52105712891 1008.31274414062 1010.63507080078 1009.72015380859 1000.24353027344 996.535095214844 993.256896972656 992.551086425781 999.461120605469 1002.0068359375 1006.0908203125 1013.45733642578 1014.47125244141 1016.02813720703 1017.24371337891 1018.68487548828 1009.82922363281 1001.80407714844 1002.70812988281 1009.49530029297 1022.41998291016 1023.14886474609 1017.33795166016 1031.73388671875 1029.03601074219 1025.29931640625 1019.58972167969 1019.91857910156 1014.21636962891 1016.36102294922 1010.48455810547 1001.1279296875 1009.31842041016 1009.36322021484 1018.98199462891 1015.78717041016 1011.28778076172 1017.99713134766 1019.21594238281 1013.71246337891 1007.11541748047 1008.74340820312 1006.56744384766 1012.32611083984 1008.09948730469 1012.10729980469 1008.41687011719 1010.44647216797 1007.84930419922 1015.14508056641 1036.44116210938 1034.47131347656 1033.00170898438 1025.05151367188 1021.39337158203 1024.54309082031 1017.18878173828 1007.54577636719 995.571960449219 1002.99371337891 1003.83941650391 1004.55969238281 1004.90447998047 1001.35339355469 990.280334472656 977.824768066406 967.971435546875 960.810180664062 951.893981933594 940.954650878906 935.258056640625 932.616577148438 928.693542480469 943.069519042969 964.491271972656 981.655639648438 998.087158203125 1007.46087646484 996.474853515625 1005.63958740234 1020.67590332031 1025.63012695312 1021.80401611328 1029.54699707031 1033.82116699219 1024.14465332031 1039.27966308594 1047.09338378906 1050.91564941406 1048.73962402344 1061.43872070312 1054.58715820312 1053.40539550781 1059.98962402344 1063.84619140625 1065.46411132812 1064.10546875 1069.24157714844 1086.93078613281 1092.615234375 1099.55798339844 1111.76123046875 1121.27954101562 1111.78259277344 1111.626953125 1119.05456542969
960.623962402344 953.340515136719 945.611999511719 948.680053710938 949.73828125 945.800903320312 957.025817871094 955.386474609375 961.84033203125 957.398071289062 960.128723144531 956.483520507812 950.97021484375 956.451354980469 968.387451171875 967.39404296875 968.579895019531 968.692321777344 977.665466308594 993.897399902344 991.188354492188 985.968688964844 987.274719238281 984.225524902344 988.516662597656 987.155395507812 999.255187988281 998.871887207031 1000.84826660156 1006.17413330078 1000.23626708984 1009.25476074219 1010.67681884766 1008.76818847656 1003.37091064453 1006.18957519531 1014.41333007812 1011.97875976562 1021.97680664062 1027.46618652344 1026.16577148438 1022.26495361328 1025.08984375 1013.71295166016 1012.81018066406 1001.88836669922 1002.27947998047 1000.67510986328 995.651306152344 995.066833496094 995.548889160156 996.032470703125 1000.69287109375 1002.37225341797 1008.75799560547 1015.05023193359 1016.80236816406 1014.99609375 1007.98559570312 1002.06658935547 1004.80822753906 999.942443847656 995.64306640625 1006.82470703125 1013.64434814453 1012.68487548828 1016.72387695312 1026.83447265625 1015.65362548828 1017.73937988281 1020.10162353516 1010.42712402344 1009.82623291016 1007.98419189453 1010.0947265625 1006.14984130859 1007.12493896484 1004.72473144531 1003.62866210938 1003.85406494141 1009.08746337891 1009.82757568359 1008.00762939453 1005.00280761719 1009.10235595703 1005.33380126953 1012.29272460938 1016.95233154297 1014.58709716797 1017.10699462891 1016.92297363281 1010.45086669922 1011.73669433594 1022.45251464844 1040.51513671875 1035.69592285156 1028.64221191406 1035.86108398438 1026.73510742188 1017.71160888672 1015.52197265625 1003.89410400391 1003.74285888672 1014.06689453125 1012.17413330078 1011.44860839844 1005.46502685547 1004.34777832031 986.398071289062 981.048828125 964.98974609375 956.352172851562 953.496215820312 942.36181640625 938.097351074219 936.532165527344 937.458740234375 948.643432617188 963.418212890625 976.038513183594 999.496643066406 1013.12835693359 1010.23718261719 1014.32672119141 1026.18884277344 1025.87182617188 1024.84985351562 1036.41320800781 1038.97668457031 1038.43701171875 1049.56774902344 1045.20983886719 1058.80053710938 1066.94702148438 1057.68798828125 1046.81481933594 1048.39562988281 1056.99633789062 1070.94787597656 1070.48352050781 1072.45593261719 1075.68896484375 1083.11511230469 1087.05114746094 1101.28967285156 1107.85485839844 1119.11022949219 1127.17211914062 1116.01867675781 1119.2978515625
952.122314453125 948.411315917969 952.138854980469 950.444519042969 947.890686035156 955.688232421875 960.800842285156 963.742065429688 957.446594238281 963.712158203125 964.912414550781 957.817443847656 953.596984863281 969.198120117188 971.49560546875 970.550415039062 971.435974121094 978.861877441406 980.018615722656 982.2373046875 991.041198730469 985.142700195312 993.2880859375 991.786804199219 986.047241210938 996.595642089844 996.484985351562 999.721801757812 997.052001953125 999.08837890625 995.35205078125 1002.77209472656 1001.68811035156 1009.91528320312 1006.68005371094 1001.18286132812 1006.6640625 1012.27337646484 1011.94909667969 1021.81024169922 1026.07556152344 1017.92620849609 1017.64404296875 1012.04876708984 1004.74395751953 997.691711425781 992.22216796875 991.153869628906 999.362670898438 995.197021484375 983.022216796875 981.806091308594 991.037109375 997.037658691406 1001.36590576172 1002.16473388672 1005.15063476562 997.456970214844 1004.99670410156 993.138854980469 995.786071777344 993.333923339844 985.697448730469 998.319152832031 1010.14709472656 1002.10992431641 1010.69561767578 1016.04705810547 1008.58892822266 1016.73315429688 1014.82629394531 1007.03057861328 1008.19165039062 1002.24926757812 1012.96490478516 1005.24627685547 1004.75286865234 1005.41119384766 1007.39398193359 1006.96655273438 1004.75207519531 1002.08990478516 1002.06958007812 1002.31512451172 1002.24908447266 1012.84936523438 1008.9619140625 1013.60998535156 1014.2275390625 1019.23492431641 1011.14642333984 1004.18170166016 1013.71917724609 1021.37451171875 1027.951171875 1029.16064453125 1029.06774902344 1024.306640625 1022.08612060547 1014.81408691406 1016.54180908203 1007.06140136719 1004.68371582031 1000.04449462891 1010.86053466797 1012.48175048828 1011.52526855469 996.29052734375 991.975341796875 980.552551269531 969.850769042969 956.995300292969 952.185974121094 939.248168945312 940.165222167969 946.455017089844 943.994506835938 952.844848632812 961.416687011719 979.110656738281 1011.56866455078 1014.42370605469 1021.92700195312 1034.1884765625 1026.73083496094 1031.39428710938 1030.4951171875 1037.05078125 1046.34167480469 1050.15490722656 1047.57788085938 1047.1279296875 1056.90368652344 1069.20593261719 1056.1474609375 1046.7080078125 1047.91003417969 1053.72094726562 1069.76086425781 1072.24230957031 1084.03869628906 1086.75891113281 1090.02648925781 1091.15759277344 1098.0849609375 1105.4677734375 1119.06408691406 1122.96875 1122.46142578125 1119.87512207031
950.777465820312 955.475280761719 957.523803710938 944.9521484375 950.079833984375 957.64794921875 966.871765136719 958.002380371094 954.443969726562 960.484741210938 968.854248046875 960.925476074219 969.492553710938 980.079833984375 980.096252441406 971.486694335938 971.858276367188 987.97021484375 975.557983398438 975.072265625 987.640686035156 985.319274902344 984.457580566406 987.442138671875 995.194519042969 996.538208007812 991.386962890625 999.62744140625 997.859680175781 997.748718261719 1003.45684814453 995.270141601562 999.6650390625 1005.74078369141 993.825012207031 997.46630859375 990.735717773438 994.875671386719 1002.97625732422 1013.99230957031 1010.19018554688 1009.38641357422 1002.34191894531 1006.97845458984 1002.61346435547 993.143310546875 993.406127929688 994.037292480469 993.685485839844 988.274108886719 986.207397460938 979.365844726562 982.433227539062 987.829467773438 990.886535644531 998.568176269531 996.771362304688 992.295471191406 993.824768066406 989.146179199219 987.380859375 990.278198242188 988.299194335938 998.034118652344 1001.93579101562 997.856872558594 1009.18182373047 1004.44787597656 1008.35821533203 1011.92242431641 1011.74932861328 1008.46899414062 1001.15997314453 1009.57696533203 997.798889160156 1005.80541992188 996.412292480469 991.963256835938 1002.16778564453 995.397338867188 999.682373046875 991.587280273438 1001.62585449219 1004.33770751953 1003.64739990234 1012.0498046875 1007.94104003906 1005.17529296875 1016.10992431641 1015.36120605469 1007.81866455078 1010.79254150391 1015.07220458984 1014.80224609375 1022.20275878906 1026.13342285156 1024.63928222656 1022.70452880859 1025.9267578125 1021.63037109375 1017.63903808594 1008.12103271484 1001.28088378906 1006.94610595703 1013.77227783203 1005.94604492188 1006.82440185547 991.530822753906 987.731811523438 988.360229492188 983.274475097656 971.415100097656 954.963623046875 947.441284179688 941.415405273438 941.8427734375 945.698974609375 951.038208007812 956.8662109375 980.305847167969 1001.89904785156 1015.42205810547 1029.57055664062 1031.53125 1026.04370117188 1036.08044433594 1034.24365234375 1044.95458984375 1054.24938964844 1047.96899414062 1052.9501953125 1058.58728027344 1053.87939453125 1066.30456542969 1053.58801269531 1043.80065917969 1041.96374511719 1050.26806640625 1063.13623046875 1076.08605957031 1082.29553222656 1088.6640625 1100.68933105469 1101.35974121094 1108.23547363281 1111.66906738281 1120.93969726562 1124.74926757812 1119.27331542969 1122.43664550781
956.247375488281 962.708374023438 953.955932617188 947.016845703125 951.210876464844 957.010925292969 951.715942382812 960.110595703125 961.287780761719 968.679748535156 967.990600585938 964.039184570312 966.419860839844 979.691162109375 992.008544921875 977.449096679688 970.531982421875 982.264831542969 985.220581054688 982.031860351562 985.826904296875 984.482543945312 987.618774414062 987.205749511719 989.1240234375 987.927368164062 983.859252929688 989.004943847656 990.135986328125 990.961303710938 988.015197753906 994.892761230469 1000.92370605469 1009.97705078125 995.984497070312 1004.08581542969 994.776428222656 994.581420898438 998.621643066406 1003.30700683594 1003.12109375 1000.21270751953 999.301391601562 1002.29650878906 997.910339355469 1001.36730957031 995.024597167969 998.613891601562 989.199035644531 985.213256835938 979.259704589844 978.292907714844 983.669738769531 985.911743164062 987.855590820312 989.772277832031 988.55078125 985.141174316406 986.215759277344 986.432189941406 985.942504882812 992.398681640625 991.4912109375 991.124145507812 1000.33044433594 1000.22106933594 1012.60131835938 1005.94177246094 1005.10247802734 1016.51434326172 1005.00329589844 1001.95056152344 1001.64654541016 1003.60821533203 996.573364257812 991.821472167969 991.251098632812 986.379699707031 995.649291992188 997.583618164062 1001.34899902344 991.713684082031 994.408935546875 999.049255371094 1002.38977050781 1008.02923583984 1003.27581787109 1008.40289306641 1017.07879638672 1022.96270751953 1014.36944580078 1015.70916748047 1018.15362548828 1017.63385009766 1019.97320556641 1022.52459716797 1025.05920410156 1025.19995117188 1024.66784667969 1026.31701660156 1021.20288085938 1011.12799072266 1014.41137695312 1010.662109375 1007.33251953125 1007.48706054688 1000.66656494141 990.102722167969 986.248413085938 987.11865234375 984.67333984375 975.442443847656 959.659118652344 949.347106933594 936.105651855469 939.912963867188 947.280517578125 952.689636230469 962.282409667969 979.687316894531 1001.47637939453 1012.92639160156 1018.29046630859 1027.81604003906 1031.13659667969 1026.67175292969 1047.37316894531 1046.27392578125 1048.59985351562 1054.19799804688 1065.09155273438 1061.58129882812 1055.8369140625 1054.00708007812 1044.52380371094 1036.91809082031 1047.69714355469 1057.21984863281 1058.04833984375 1066.41394042969 1084.40454101562 1094.95092773438 1105.52026367188 1109.79919433594 1108.68920898438 1117.82214355469 1118.28332519531 1118.02905273438 1119.63696289062 1118.81652832031
952.733520507812 960.247192382812 951.467102050781 948.02197265625 953.456726074219 962.911254882812 957.271850585938 955.328002929688 958.555969238281 969.666320800781 971.813720703125 967.122619628906 969.379333496094 977.234924316406 981.618713378906 981.108032226562 987.785461425781 991.506530761719 990.032043457031 992.605224609375 988.7265625 985.462829589844 979.732299804688 983.354614257812 988.075866699219 991.552307128906 989.415405273438 988.350219726562 987.829711914062 991.577697753906 993.00439453125 983.373840332031 992.950439453125 995.489807128906 990.453063964844 995.80322265625 993.726928710938 987.958618164062 991.431396484375 1001.47174072266 998.895324707031 996.065002441406 995.565307617188 995.517517089844 1003.85168457031 999.892578125 993.987426757812 992.79248046875 987.547485351562 979.87255859375 983.891540527344 971.787780761719 979.182922363281 987.01025390625 986.713623046875 986.135559082031 975.587158203125 986.357055664062 981.738220214844 973.865112304688 975.174499511719 981.078002929688 985.545166015625 987.933715820312 997.636779785156 1003.78387451172 1008.22387695312 1009.8837890625 1005.07397460938 1010.23907470703 999.481689453125 1000.10559082031 1000.33654785156 1002.89593505859 987.65625 989.149108886719 985.066101074219 991.131896972656 984.888854980469 996.157531738281 991.314575195312 992.173034667969 987.374267578125 988.785217285156 995.27490234375 996.898376464844 1002.33380126953 1009.38366699219 1015.33013916016 1017.87243652344 1014.90191650391 1006.73248291016 1018.96832275391 1024.94897460938 1025.80810546875 1020.87139892578 1020.00665283203 1028.85888671875 1031.79846191406 1027.40002441406 1022.19537353516 1018.41510009766 1012.15997314453 1019.72320556641 1012.26446533203 1009.11145019531 997.328308105469 984.187927246094 990.165588378906 985.185546875 977.039855957031 970.642456054688 964.145202636719 948.881652832031 939.215576171875 937.433532714844 937.576354980469 959.84375 957.820922851562 979.037963867188 989.833068847656 993.821594238281 1014.90789794922 1030.53063964844 1032.01098632812 1032.38122558594 1040.17980957031 1043.29504394531 1049.52990722656 1048.46716308594 1057.69763183594 1050.32568359375 1047.64770507812 1043.26843261719 1033.57507324219 1041.35083007812 1041.04772949219 1053.76452636719 1060.6484375 1076.99182128906 1090.46423339844 1103.89477539062 1110.39624023438 1107.40368652344 1111.09252929688 1108.4501953125 1114.58337402344 1120.89819335938 1116.060546875 1110.06823730469
946.336059570312 960.785949707031 957.0400390625 955.018188476562 962.107604980469 953.905639648438 964.040222167969 959.58203125 964.012634277344 964.48193359375 971.304931640625 970.960021972656 972.521423339844 976.50927734375 973.63916015625 983.674987792969 991.32421875 983.373718261719 979.785217285156 982.014526367188 986.342163085938 981.266906738281 982.059143066406 986.972778320312 985.28515625 979.408996582031 981.793151855469 984.066467285156 982.834350585938 991.441223144531 985.540588378906 984.763610839844 990.825317382812 988.968627929688 992.416015625 991.751098632812 993.412353515625 990.111938476562 986.164794921875 994.569091796875 987.439392089844 988.618041992188 984.157836914062 989.89208984375 1000.38189697266 996.265197753906 990.969116210938 985.672912597656 988.162536621094 989.270202636719 981.52294921875 979.150573730469 977.176086425781 983.065246582031 983.869812011719 986.349975585938 978.141784667969 982.292297363281 979.06103515625 983.629150390625 979.438354492188 978.855590820312 987.884582519531 985.906127929688 986.876770019531 999.505004882812 993.844665527344 993.275085449219 996.472473144531 989.957763671875 984.0341796875 983.510131835938 995.184143066406 988.382568359375 990.497802734375 991.974182128906 991.832214355469 990.790161132812 986.944641113281 994.431091308594 993.014953613281 994.22998046875 994.488647460938 994.309143066406 995.989074707031 1001.91107177734 1006.12530517578 1007.109375 1011.83679199219 1008.56298828125 1006.90264892578 1008.685546875 1023.88092041016 1033.69799804688 1023.19250488281 1024.89880371094 1020.72882080078 1031.97436523438 1028.34387207031 1023.96264648438 1019.51995849609 1016.49346923828 1012.501953125 1014.14489746094 1013.79864501953 1008.85766601562 996.871459960938 990.419250488281 975.0029296875 974.301940917969 972.116943359375 962.753234863281 958.410034179688 940.908996582031 941.261291503906 948.991577148438 943.856689453125 955.833862304688 964.741027832031 967.908081054688 992.904296875 1005.37646484375 1009.81286621094 1021.67895507812 1029.3935546875 1025.11376953125 1036.11779785156 1039.30017089844 1040.87390136719 1034.5400390625 1038.91564941406 1044.412109375 1036.43737792969 1035.42858886719 1030.07238769531 1039.76672363281 1043.20874023438 1052.43627929688 1061.65979003906 1075.18591308594 1087.58093261719 1099.36877441406 1099.56042480469 1103.849609375 1110.25170898438 1113.45654296875 1120.8505859375 1121.06665039062 1116.11010742188 1122.19995117188
960.49365234375 968.249389648438 962.120788574219 962.791870117188 966.424682617188 953.87060546875 962.362060546875 967.552001953125 964.344787597656 968.361633300781 971.351867675781 978.718444824219 979.887329101562 972.011779785156 967.509399414062 977.928771972656 978.311157226562 980.373291015625 981.846740722656 980.128662109375 973.451965332031 976.155700683594 978.286560058594 987.056579589844 994.3701171875 984.768249511719 982.132934570312 982.064086914062 979.3193359375 979.322021484375 983.219665527344 977.468017578125 980.424011230469 996.111389160156 993.235046386719 988.438049316406 988.243469238281 990.115844726562 992.956787109375 989.203125 982.381225585938 988.3623046875 981.666809082031 992.675476074219 994.644348144531 986.661926269531 986.702758789062 987.745910644531 987.244323730469 988.613952636719 989.808410644531 980.010864257812 979.099853515625 981.493347167969 992.044921875 981.50634765625 980.94091796875 980.574951171875 984.209411621094 982.548461914062 982.430725097656 989.031616210938 991.422424316406 982.537109375 989.304504394531 988.223754882812 993.26708984375 1000.04760742188 1001.73907470703 996.45947265625 987.992614746094 990.512145996094 990.991088867188 993.061950683594 993.480163574219 1000.47991943359 995.471984863281 987.008239746094 991.854064941406 994.883666992188 1000.99304199219 994.6396484375 995.250183105469 1003.41345214844 995.298645019531 1003.77679443359 1006.30279541016 1010.53961181641 1012.39373779297 1009.65673828125 1011.48223876953 1014.86639404297 1020.76208496094 1025.60827636719 1017.98651123047 1015.34057617188 1020.04272460938 1024.36389160156 1018.93884277344 1018.69262695312 1011.09234619141 1009.48461914062 1008.73461914062 1009.17926025391 1010.51354980469 1005.06292724609 994.996215820312 983.398010253906 974.783081054688 970.673645019531 967.586486816406 960.565612792969 957.616760253906 945.527526855469 938.680969238281 944.357177734375 944.182495117188 957.820739746094 959.568664550781 966.18798828125 979.332824707031 993.298706054688 1004.09210205078 1013.86791992188 1025.03869628906 1025.49047851562 1026.04272460938 1026.89477539062 1034.04675292969 1034.66589355469 1030.57543945312 1032.72302246094 1034.48742675781 1028.55456542969 1028.53564453125 1033.42553710938 1038.57995605469 1039.93188476562 1059.04711914062 1075.35290527344 1092.29650878906 1087.22277832031 1093.33984375 1103.59802246094 1106.80541992188 1113.98864746094 1118.64758300781 1116.82763671875 1113.6875 1113.53674316406
954.63037109375 962.054016113281 956.708251953125 961.990234375 970.28759765625 960.456909179688 961.815612792969 964.652282714844 969.34814453125 972.075012207031 970.954406738281 969.111083984375 975.745788574219 972.832153320312 969.097839355469 975.617614746094 974.538208007812 974.126892089844 977.316345214844 983.284851074219 983.540161132812 994.461669921875 982.910034179688 986.478515625 991.245300292969 994.993286132812 987.46630859375 980.676696777344 983.016540527344 985.556823730469 981.228820800781 979.117370605469 977.779907226562 987.290222167969 984.642456054688 991.92626953125 983.79443359375 988.98583984375 986.458740234375 980.935729980469 977.448364257812 988.370056152344 993.703491210938 995.696594238281 988.632385253906 989.837890625 982.907409667969 985.878967285156 984.639404296875 989.821533203125 989.059814453125 983.085144042969 977.108764648438 974.205444335938 979.112121582031 978.618530273438 980.058349609375 975.051879882812 979.047302246094 986.223449707031 993.11474609375 989.708557128906 994.70703125 996.418090820312 989.523498535156 988.278137207031 995.5986328125 998.576843261719 997.760620117188 993.821166992188 988.821472167969 993.666259765625 996.101867675781 997.856140136719 999.187438964844 998.076110839844 996.477905273438 994.980834960938 1003.5810546875 994.141784667969 992.943176269531 983.496826171875 989.344970703125 993.20263671875 1001.90100097656 1008.34637451172 1015.72442626953 1014.16979980469 1013.76788330078 1005.61395263672 1014.90490722656 1021.36358642578 1015.62670898438 1009.94677734375 1012.79052734375 1014.24633789062 1014.14038085938 1012.796875 1012.09454345703 1013.21887207031 1007.94793701172 998.390441894531 1002.05749511719 1009.81982421875 1002.82116699219 1003.57763671875 990.450256347656 983.34130859375 978.840270996094 969.380004882812 971.496704101562 966.457763671875 967.14208984375 952.925354003906 950.56201171875 950.879333496094 958.408264160156 951.533081054688 957.475708007812 971.309326171875 973.47509765625 987.830505371094 1000.89086914062 1006.37713623047 1018.75183105469 1024.59814453125 1019.34399414062 1026.20275878906 1030.87243652344 1031.46032714844 1027.69201660156 1018.95831298828 1023.01977539062 1026.99731445312 1024.98608398438 1021.97143554688 1031.85388183594 1040.99743652344 1050.74719238281 1072.38879394531 1082.67614746094 1086.47631835938 1099.41784667969 1102.66198730469 1110.35278320312 1121.66345214844 1119.36279296875 1120.53503417969 1116.02868652344 1121.15124511719
946.872802734375 962.456237792969 959.358276367188 968.028442382812 965.981018066406 961.448608398438 963.488525390625 962.987854003906 973.648132324219 971.153076171875 976.401245117188 973.162841796875 983.692138671875 976.539123535156 966.661376953125 966.860778808594 965.505432128906 970.544006347656 972.8681640625 979.259643554688 978.2353515625 990.922302246094 984.412170410156 979.260070800781 986.176330566406 985.568969726562 983.787475585938 978.630615234375 976.947631835938 978.33154296875 973.043029785156 972.791687011719 977.167602539062 977.554016113281 986.367065429688 982.092041015625 976.103942871094 980.381530761719 980.899780273438 982.889587402344 981.054992675781 988.284912109375 988.095397949219 989.987121582031 994.478149414062 989.930053710938 987.39453125 988.253356933594 987.919738769531 989.233703613281 984.067016601562 974.362060546875 976.970825195312 980.440734863281 976.494323730469 975.978576660156 978.45458984375 975.764465332031 973.13330078125 980.1640625 988.794067382812 993.11865234375 995.097229003906 992.371948242188 986.339599609375 989.359008789062 988.709716796875 987.449890136719 990.0205078125 989.472351074219 992.587463378906 988.101684570312 987.916320800781 994.05908203125 1000.14770507812 999.556884765625 994.076171875 996.734130859375 999.375305175781 994.604248046875 991.181213378906 987.003784179688 985.117431640625 997.579284667969 1005.15045166016 1002.03924560547 1015.46197509766 1017.90551757812 1006.513671875 1013.99859619141 1005.74652099609 1014.08447265625 1013.44207763672 1012.93438720703 1014.62292480469 1016.49243164062 1017.15093994141 1020.83801269531 1006.38507080078 1009.11541748047 1007.16491699219 1002.17620849609 999.440979003906 997.067687988281 997.869079589844 993.768859863281 990.09033203125 998.649536132812 981.123474121094 977.72900390625 972.408142089844 963.073120117188 963.787109375 958.616027832031 952.930480957031 955.464965820312 965.846740722656 962.52001953125 967.055908203125 976.155395507812 973.404418945312 985.321228027344 982.556823730469 998.564208984375 1010.34661865234 1020.66955566406 1032.47265625 1024.53234863281 1024.84643554688 1018.57141113281 1016.40771484375 1021.31469726562 1019.43475341797 1014.07373046875 1011.23345947266 1015.75579833984 1017.72833251953 1031.90502929688 1051.82116699219 1065.67529296875 1064.58081054688 1084.94567871094 1104.15295410156 1098.84228515625 1118.56811523438 1116.30261230469 1115.16394042969 1123.36962890625 1125.26354980469 1127.24304199219
953.643188476562 947.609680175781 959.06884765625 962.344970703125 968.637634277344 967.895141601562 969.331298828125 965.23583984375 972.578063964844 968.863952636719 978.916198730469 978.236511230469 983.730712890625 980.50634765625 964.655456542969 972.265502929688 973.197387695312 968.404846191406 967.268615722656 983.464050292969 970.755615234375 977.125427246094 976.553039550781 977.410217285156 981.214111328125 986.948669433594 983.924682617188 980.379272460938 979.62939453125 968.180847167969 970.119323730469 978.240356445312 974.04638671875 977.321228027344 982.69287109375 978.392700195312 968.860900878906 972.795776367188 977.509033203125 984.748046875 985.637390136719 988.385681152344 983.269226074219 982.9306640625 985.356872558594 981.463012695312 985.681213378906 982.808837890625 978.836975097656 975.10595703125 975.865173339844 975.593566894531 976.962707519531 973.488464355469 971.540832519531 969.091857910156 967.170166015625 963.456665039062 968.931762695312 987.192504882812 980.799133300781 986.588562011719 990.418823242188 999.720886230469 993.128479003906 988.101379394531 983.908996582031 981.138977050781 976.78759765625 982.765930175781 993.293029785156 990.717590332031 984.050109863281 994.946044921875 994.209838867188 998.630065917969 996.716186523438 999.691711425781 1002.90869140625 999.321228027344 989.614685058594 989.794311523438 990.239379882812 1001.76013183594 1000.619140625 1006.5595703125 1016.31048583984 1023.37872314453 1022.32873535156 1021.37377929688 1009.92633056641 1013.09240722656 1013.17205810547 1013.75604248047 1012.267578125 1011.02282714844 1002.42065429688 1011.45776367188 1006.42895507812 1009.96990966797 1004.76239013672 1004.49139404297 994.822143554688 993.541809082031 989.422180175781 989.069458007812 996.384033203125 1000.90478515625 990.303771972656 983.736938476562 975.297424316406 962.293823242188 963.391784667969 958.028869628906 958.687438964844 961.402648925781 966.98974609375 972.823486328125 968.213195800781 979.303283691406 980.561706542969 990.608337402344 990.142944335938 994.19580078125 1011.66430664062 1023.0498046875 1020.57165527344 1022.65802001953 1019.01489257812 1014.357421875 1013.11694335938 1011.41174316406 1008.04675292969 1008.76623535156 1008.89331054688 1010.60192871094 1015.54132080078 1029.81884765625 1043.95617675781 1057.85278320312 1079.61193847656 1086.65319824219 1094.76208496094 1113.9423828125 1122.13671875 1114.59350585938 1111.25646972656 1122.36340332031 1133.04443359375 1135.40832519531
947.52392578125 948.513610839844 952.37646484375 954.921875 951.021911621094 961.567321777344 963.706726074219 968.007141113281 974.042053222656 972.309936523438 978.137512207031 974.778686523438 976.556091308594 974.139892578125 969.442016601562 974.389526367188 970.726989746094 975.396667480469 975.401489257812 974.105224609375 976.921997070312 978.600158691406 972.799560546875 975.70166015625 978.503662109375 976.180603027344 975.452697753906 978.752563476562 977.494018554688 977.315368652344 977.555236816406 986.672180175781 981.316955566406 981.163391113281 981.215698242188 979.746032714844 976.134521484375 976.022033691406 974.820617675781 972.581176757812 981.54296875 988.055480957031 980.968383789062 986.184509277344 984.565490722656 981.659362792969 980.618835449219 977.908325195312 985.860778808594 982.730407714844 983.513854980469 976.473754882812 975.568969726562 975.695007324219 970.363403320312 971.958984375 962.441955566406 962.570739746094 969.067810058594 981.875854492188 985.799072265625 981.3173828125 994.406616210938 998.695678710938 995.263244628906 989.187133789062 989.027221679688 985.807312011719 980.976257324219 977.462768554688 978.006042480469 987.815368652344 977.490051269531 985.4384765625 994.653442382812 993.447265625 995.698120117188 1000.20239257812 990.30078125 991.788269042969 991.864318847656 985.568359375 991.828857421875 1004.09857177734 1000.00439453125 1011.57287597656 1019.40350341797 1015.61840820312 1015.77606201172 1011.36846923828 1017.07965087891 1008.27362060547 1007.76550292969 1011.00274658203 1009.341796875 1009.50994873047 999.513549804688 1013.33514404297 1000.80889892578 998.844177246094 1002.69885253906 997.435607910156 1001.80523681641 1000.54455566406 994.507080078125 996.134582519531 1000.009765625 991.150085449219 992.297729492188 983.839599609375 974.473266601562 970.516784667969 970.110107421875 966.8486328125 974.331604003906 969.733459472656 983.545043945312 981.744812011719 976.214721679688 983.16162109375 985.801208496094 992.1689453125 994.38037109375 1002.93481445312 1016.17614746094 1008.80725097656 1015.62829589844 1016.98767089844 1014.34136962891 1014.34063720703 1015.91693115234 1019.04284667969 1004.42218017578 1008.92907714844 1012.40557861328 1015.72094726562 1016.875 1020.48461914062 1045.47509765625 1059.50329589844 1073.95544433594 1083.66467285156 1101.81420898438 1105.89038085938 1113.91760253906 1112.9013671875 1115.01025390625 1117.78979492188 1128.14587402344 1134.07800292969
952.294921875 956.022644042969 964.301330566406 954.586303710938 962.005065917969 970.233459472656 970.004333496094 977.05517578125 979.752136230469 978.073547363281 973.800170898438 974.183166503906 981.171325683594 981.517028808594 985.944580078125 977.361389160156 975.10888671875 975.500610351562 974.695922851562 976.286560058594 979.70166015625 985.162231445312 977.811462402344 975.044799804688 981.254272460938 981.972900390625 981.224365234375 967.483154296875 974.822509765625 978.739624023438 983.216369628906 986.5068359375 986.859680175781 976.418701171875 974.451538085938 979.086791992188 971.263061523438 975.606872558594 974.05615234375 979.570922851562 975.300964355469 977.269592285156 982.924743652344 981.277587890625 981.49609375 972.624572753906 975.281799316406 979.971374511719 981.680786132812 983.656188964844 976.22900390625 976.536743164062 979.872314453125 972.40283203125 969.0263671875 970.46826171875 969.140014648438 963.392333984375 966.918823242188 979.76708984375 975.880554199219 978.268493652344 994.282531738281 1003.63336181641 995.949584960938 980.731750488281 986.988037109375 984.729553222656 978.25927734375 970.941345214844 975.046630859375 982.708679199219 987.44482421875 986.710510253906 995.833129882812 996.892395019531 991.374267578125 997.374938964844 988.533813476562 987.475219726562 990.162353515625 992.262451171875 988.527587890625 1005.17065429688 1002.45141601562 1009.7333984375 1008.23150634766 1016.26452636719 1008.31488037109 1006.14874267578 1006.11151123047 1004.04608154297 999.671630859375 1011.01306152344 1002.07531738281 1007.3193359375 1000.73376464844 1004.3232421875 1006.57043457031 1002.61297607422 1000.45550537109 991.643859863281 995.661071777344 993.555725097656 994.579345703125 994.813537597656 994.796447753906 993.355773925781 988.135009765625 992.90576171875 975.484313964844 979.3798828125 983.856750488281 984.378601074219 983.902648925781 983.358154296875 990.099182128906 987.829345703125 991.657043457031 997.999877929688 991.579528808594 994.451782226562 1003.54730224609 1008.43096923828 1017.1953125 1012.083984375 1011.89331054688 1011.47204589844 1004.66064453125 1010.64801025391 1014.69348144531 1015.84686279297 1005.82556152344 1009.61981201172 1012.5087890625 1017.73083496094 1023.35345458984 1021.431640625 1051.89306640625 1064.43518066406 1076.46179199219 1081.66162109375 1094.765625 1109.57373046875 1122.61303710938 1118.1982421875 1110.24548339844 1115.91528320312 1128.87451171875 1136.32470703125
953.167724609375 961.568176269531 960.888793945312 964.282653808594 964.890686035156 971.897888183594 970.799011230469 977.095031738281 976.749267578125 972.909545898438 976.80908203125 982.095092773438 979.912963867188 978.975463867188 981.847106933594 979.289733886719 970.852905273438 979.486328125 985.141479492188 980.8203125 989.725830078125 982.513061523438 977.608215332031 958.563110351562 975.35546875 975.701477050781 974.320190429688 963.567810058594 968.796630859375 982.996459960938 980.78662109375 988.873474121094 983.861206054688 980.953918457031 979.643615722656 981.102172851562 979.408996582031 971.187438964844 974.829223632812 973.289245605469 975.129516601562 970.566711425781 975.000610351562 985.0888671875 984.032531738281 973.772277832031 974.832458496094 974.673950195312 974.908142089844 977.391479492188 978.069396972656 975.400024414062 972.615966796875 971.68115234375 973.906616210938 974.33984375 969.173034667969 966.872802734375 969.044921875 976.365661621094 978.225219726562 976.733459472656 990.510437011719 990.106750488281 989.070068359375 988.9267578125 984.805786132812 990.2119140625 975.978698730469 975.856811523438 976.134704589844 983.103576660156 989.983764648438 987.611206054688 989.39501953125 992.057800292969 986.724731445312 992.444519042969 985.654113769531 980.7783203125 989.936279296875 1000.54071044922 1000.30255126953 999.321166992188 1006.41619873047 1003.84246826172 1010.05163574219 1011.97100830078 1003.94860839844 1000.35534667969 990.819091796875 991.568359375 994.2744140625 1004.23449707031 998.172485351562 1000.40930175781 1000.22955322266 990.335693359375 995.422973632812 997.461608886719 993.918579101562 998.523986816406 994.654663085938 988.457763671875 992.921081542969 1000.76086425781 997.061401367188 998.775329589844 986.949768066406 988.922119140625 987.121032714844 973.537963867188 994.615234375 990.094299316406 990.903198242188 985.872680664062 991.027160644531 995.869750976562 1000.72088623047 1001.71844482422 994.755493164062 995.10595703125 1002.87268066406 1009.76953125 1007.55670166016 1011.00610351562 1011.39477539062 1012.45489501953 1012.18432617188 1012.47888183594 1007.31292724609 1009.60894775391 1012.75793457031 1017.42346191406 1022.12536621094 1026.78002929688 1029.50231933594 1027.29870605469 1058.18334960938 1078.48315429688 1082.92175292969 1092.41723632812 1099.89270019531 1114.63012695312 1119.95092773438 1113.73522949219 1124.29577636719 1128.92553710938 1134.74841308594 1151.71325683594
955.344299316406 962.616394042969 964.511901855469 967.794982910156 974.221130371094 973.715942382812 974.215148925781 972.214477539062 973.675659179688 972.111450195312 972.494934082031 972.112365722656 978.323913574219 969.755493164062 972.131469726562 976.1279296875 977.226684570312 983.313293457031 984.834899902344 992.144287109375 986.712463378906 982.202758789062 966.300537109375 970.536865234375 965.572082519531 971.953430175781 969.317626953125 964.346740722656 967.532165527344 980.320556640625 983.626159667969 984.218627929688 987.304321289062 983.733215332031 978.091491699219 987.540649414062 985.903381347656 982.138549804688 975.892517089844 977.069458007812 971.30419921875 968.348266601562 972.476013183594 975.798156738281 974.848388671875 976.701904296875 975.845031738281 973.953186035156 977.627075195312 981.582153320312 987.499938964844 977.05419921875 977.318603515625 983.198608398438 975.075622558594 977.658325195312 976.022521972656 973.324340820312 976.579040527344 977.00634765625 981.118774414062 983.883728027344 989.806030273438 982.463623046875 988.346984863281 995.877685546875 990.626953125 993.7392578125 985.442138671875 974.641357421875 981.8994140625 982.083801269531 988.617309570312 978.781921386719 986.907653808594 981.401794433594 981.882385253906 985.159851074219 987.251037597656 986.087524414062 991.329956054688 999.717407226562 997.309387207031 999.510864257812 1011.14007568359 1004.79571533203 999.063232421875 1007.57171630859 998.889465332031 999.695495605469 992.277038574219 992.110168457031 991.013488769531 1001.22839355469 1010.26373291016 999.1240234375 994.788391113281 994.781982421875 987.506042480469 994.772094726562 991.489807128906 990.490234375 990.09716796875 987.180541992188 989.498413085938 993.023315429688 1001.99792480469 998.086791992188 987.287170410156 989.232482910156 985.295593261719 986.478942871094 991.965087890625 1005.42315673828 997.005798339844 990.3857421875 993.249816894531 994.622192382812 1006.02459716797 1001.20648193359 1003.96832275391 994.976135253906 996.612487792969 1002.27545166016 1009.53796386719 1002.32611083984 1001.80920410156 1000.71789550781 1008.44372558594 1014.51184082031 1010.09497070312 1015.91290283203 1017.78540039062 1024.88488769531 1025.42297363281 1024.58874511719 1035.57348632812 1037.93103027344 1058.86145019531 1075.38757324219 1086.80712890625 1096.48388671875 1100.5615234375 1116.00756835938 1119.15930175781 1117.67724609375 1129.53698730469 1133.25939941406 1139.5556640625 1148.97290039062
