NCOLS 150
NROWS 37
XLLCORNER 7394249
YLLCORNER 4842419
CELLSIZE 30
NODATA_VALUE -9999
948.466125488281 950.318786621094 945.483581542969 946.789428710938 956.412048339844 968.682189941406 969.741333007812 972.122985839844 960.204345703125 970.656860351562 967.298156738281 974.841613769531 968.107788085938 962.782287597656 969.220764160156 973.392944335938 978.440856933594 977.599426269531 975.575439453125 975.626281738281 978.049377441406 963.639770507812 958.453552246094 962.417358398438 963.555908203125 962.083679199219 959.333679199219 968.738525390625 960.698608398438 967.800842285156 976.050231933594 972.943786621094 967.914672851562 973.344665527344 973.497863769531 963.342468261719 963.872985839844 957.068664550781 962.120361328125 964.346496582031 969.884399414062 965.91748046875 965.156127929688 961.532958984375 966.940795898438 963.522094726562 968.984313964844 971.956970214844 974.082458496094 975.547424316406 968.939575195312 957.101135253906 952.283203125 959.320129394531 969.737915039062 973.002197265625 964.544555664062 962.331176757812 954.20068359375 954.2646484375 943.396118164062 954.832214355469 966.283752441406 971.552795410156 965.786254882812 968.738098144531 973.065368652344 975.014465332031 967.359436035156 970.498107910156 969.307678222656 956.155090332031 967.596496582031 983.104125976562 977.665649414062 971.099975585938 962.501953125 962.818969726562 963.71484375 965.411376953125 969.372741699219 968.606201171875 965.846008300781 972.979248046875 969.82373046875 968.975830078125 957.897888183594 964.193054199219 966.4443359375 972.648803710938 975.327697753906 968.097412109375 972.948425292969 974.957458496094 977.951843261719 982.382202148438 972.179138183594 985.701354980469 985.300903320312 976.228637695312 971.457214355469 971.298278808594 976.541748046875 981.325256347656 984.770202636719 998.722900390625 997.847229003906 991.006958007812 998.415649414062 998.365783691406 994.081848144531 992.623107910156 1001.01519775391 1009.40209960938 1007.86193847656 1009.32824707031 1011.32513427734 1010.62725830078 1013.05584716797 1017.13458251953 1020.80871582031 1013.20904541016 1021.20477294922 1030.18469238281 1036.58447265625 1030.74682617188 1031.13049316406 1031.30676269531 1038.74768066406 1042.38903808594 1053.24523925781 1057.482421875 1063.31945800781 1070.56689453125 1076.49072265625 1085.04321289062 1083.37060546875 1084.51635742188 1096.79504394531 1099.67504882812 1111.54931640625 1117.37573242188 1123.90344238281 1125.40246582031 1122.64514160156 1121.53576660156 1126.04577636719 1124.82421875 1133.38415527344 1131.96704101562
959.569213867188 956.641357421875 949.5390625 950.878051757812 958.772583007812 971.0595703125 972.536376953125 975.414306640625 967.325073242188 971.238342285156 972.509155273438 968.648864746094 963.872863769531 966.804504394531 977.2978515625 978.4736328125 976.860778808594 973.587280273438 972.673400878906 970.912963867188 978.626708984375 962.237854003906 958.161499023438 959.154724121094 966.258728027344 952.366516113281 957.371032714844 958.398010253906 971.189025878906 968.846130371094 973.473510742188 973.3349609375 972.294921875 970.008666992188 964.296142578125 950.164794921875 958.772644042969 972.021789550781 957.855529785156 956.377258300781 969.266357421875 973.226867675781 975.522705078125 967.380554199219 966.897521972656 964.120727539062 969.882507324219 977.650329589844 971.838256835938 979.136352539062 969.453002929688 964.718078613281 959.78125 960.391845703125 963.463806152344 965.956237792969 960.197570800781 958.412658691406 949.531127929688 944.9951171875 946.539733886719 950.71435546875 961.474304199219 971.17236328125 972.637756347656 967.276428222656 963.457885742188 966.696105957031 967.673461914062 963.680297851562 962.690246582031 961.060546875 964.205810546875 974.512268066406 973.458068847656 966.592102050781 962.380737304688 964.379821777344 960.333923339844 960.985046386719 955.867736816406 969.42724609375 964.480773925781 970.513916015625 974.25146484375 982.824523925781 967.984680175781 971.306274414062 970.168212890625 973.351135253906 972.897766113281 983.021789550781 975.896606445312 975.950927734375 980.015441894531 975.029113769531 973.722961425781 982.9736328125 980.513549804688 978.776794433594 969.168212890625 970.026306152344 975.941833496094 974.639282226562 978.865173339844 992.34375 986.059936523438 990.965026855469 990.0283203125 986.451171875 991.489868164062 994.350463867188 998.393920898438 1001.75378417969 1004.673828125 1007.65368652344 1006.73718261719 1013.70294189453 1016.9443359375 1020.45739746094 1029.49975585938 1026.99243164062 1023.02282714844 1033.15417480469 1022.77038574219 1029.19641113281 1029.85400390625 1031.37329101562 1032.9150390625 1041.43054199219 1051.14880371094 1067.12976074219 1076.25427246094 1072.1513671875 1076.55810546875 1084.15270996094 1084.60131835938 1088.14172363281 1097.90991210938 1103.04528808594 1095.84204101562 1109.36865234375 1112.32751464844 1107.89855957031 1102.17272949219 1107.56323242188 1121.14807128906 1116.55554199219 1120.13525390625 1125.04345703125
958.199157714844 955.461303710938 956.399841308594 966.575866699219 965.247985839844 966.0634765625 966.145751953125 974.811828613281 973.559997558594 969.514221191406 974.342651367188 970.42041015625 967.5693359375 980.160278320312 980.768005371094 979.526672363281 973.957641601562 982.82763671875 971.146118164062 970.657836914062 965.37060546875 964.156616210938 953.775573730469 957.675354003906 960.015502929688 959.133728027344 953.402465820312 962.940246582031 968.452819824219 968.617309570312 974.098022460938 979.020263671875 971.491088867188 960.078308105469 956.422241210938 954.26025390625 958.7275390625 964.011779785156 957.163146972656 956.765197753906 960.277160644531 970.92724609375 963.303955078125 966.93359375 967.72900390625 967.048461914062 979.884582519531 972.364074707031 970.126953125 970.951477050781 969.062072753906 956.857482910156 957.939514160156 962.5615234375 963.477600097656 960.640686035156 947.976806640625 952.563232421875 946.176574707031 945.291076660156 944.070129394531 945.183959960938 957.805541992188 960.884582519531 968.476745605469 971.875732421875 968.998291015625 969.41748046875 964.697814941406 961.525024414062 956.682434082031 960.813537597656 967.799499511719 967.592956542969 979.944458007812 970.505065917969 964.454528808594 970.924926757812 959.795532226562 960.472961425781 963.503845214844 970.8994140625 967.631408691406 971.163269042969 975.308227539062 974.471496582031 978.269165039062 974.95703125 978.293823242188 975.747741699219 981.929504394531 968.1484375 970.305297851562 970.768920898438 973.509765625 976.359497070312 978.007202148438 980.571655273438 980.011047363281 969.470520019531 961.26611328125 973.793762207031 973.127685546875 973.600830078125 978.890747070312 971.999694824219 976.237426757812 985.818054199219 983.903991699219 983.975402832031 989.139343261719 992.244079589844 993.979675292969 997.096374511719 992.714233398438 998.315551757812 1006.78131103516 1017.72827148438 1022.177734375 1023.8779296875 1033.62219238281 1029.14868164062 1023.50787353516 1024.56994628906 1023.98498535156 1028.73620605469 1037.8720703125 1034.82177734375 1030.861328125 1034.34399414062 1049.52111816406 1061.22521972656 1069.70812988281 1072.26000976562 1076.14001464844 1083.080078125 1078.55627441406 1089.263671875 1096.75500488281 1099.04113769531 1105.00939941406 1108.35620117188 1104.06896972656 1103.58740234375 1095.06433105469 1101.47644042969 1106.06884765625 1117.05493164062 1119.85290527344 1118.59301757812
972.910095214844 959.648986816406 958.542602539062 962.58203125 970.324584960938 969.710144042969 971.136169433594 973.996032714844 964.92138671875 962.047058105469 970.821533203125 970.68505859375 971.049621582031 972.347106933594 980.160339355469 980.136779785156 980.084777832031 978.246765136719 972.584411621094 965.519653320312 965.325866699219 963.95361328125 965.852355957031 959.902770996094 960.265991210938 952.46826171875 959.402709960938 963.018310546875 962.737548828125 972.944030761719 967.448608398438 975.935180664062 972.044006347656 970.982482910156 965.41796875 966.638366699219 966.849914550781 961.610473632812 959.252563476562 960.456115722656 954.378967285156 956.113586425781 957.057067871094 957.529174804688 961.608947753906 971.708190917969 980.87548828125 975.872375488281 972.473754882812 967.721252441406 963.76953125 962.076843261719 952.868347167969 963.730773925781 965.001159667969 948.646057128906 948.908996582031 951.577209472656 943.950927734375 943.243896484375 944.144287109375 955.726623535156 957.451782226562 966.75732421875 955.756591796875 965.96142578125 963.348571777344 966.542053222656 963.614685058594 964.199829101562 962.10986328125 967.76708984375 969.508056640625 979.216430664062 981.388122558594 968.746826171875 967.281372070312 965.781005859375 961.141540527344 961.986083984375 962.560974121094 969.334289550781 966.224060058594 961.239196777344 963.704956054688 978.207824707031 977.635009765625 970.178039550781 968.356201171875 971.77978515625 981.573303222656 971.787048339844 974.725524902344 974.552551269531 987.194030761719 978.5732421875 972.204406738281 972.431823730469 974.130676269531 972.54541015625 968.20361328125 973.451538085938 975.883483886719 976.643737792969 979.291931152344 966.200622558594 975.465698242188 980.593994140625 977.832702636719 984.27685546875 986.400085449219 984.138916015625 986.05859375 983.139404296875 985.563415527344 995.416870117188 1002.07763671875 1007.82940673828 1010.27349853516 1021.95013427734 1024.96472167969 1030.04028320312 1024.45935058594 1032.75476074219 1029.61486816406 1030.32983398438 1033.59033203125 1028.12036132812 1039.19348144531 1046.33947753906 1047.84594726562 1063.83508300781 1066.97058105469 1072.03674316406 1083.36511230469 1078.64807128906 1083.84155273438 1087.23498535156 1096.5546875 1094.67016601562 1102.02258300781 1103.43957519531 1098.50219726562 1092.52685546875 1100.759765625 1096.97253417969 1092.27172851562 1108.56726074219 1111.00549316406 1108.83386230469
977.237670898438 971.934997558594 967.456970214844 976.240356445312 969.6279296875 968.517028808594 966.063171386719 974.952941894531 972.087158203125 968.056335449219 971.223754882812 974.244018554688 981.983215332031 984.263610839844 986.267883300781 981.060363769531 978.655395507812 968.082824707031 974.629638671875 972.447998046875 970.693908691406 968.701843261719 967.274597167969 963.878967285156 961.67041015625 954.683715820312 966.361328125 972.947265625 967.812255859375 964.493530273438 975.090759277344 973.571166992188 970.305603027344 973.72900390625 967.423400878906 964.214965820312 964.32470703125 963.198059082031 967.753356933594 962.705383300781 961.419799804688 953.925842285156 958.788269042969 957.730224609375 960.910583496094 970.343688964844 969.140380859375 965.868469238281 966.984313964844 965.415893554688 966.705078125 958.908447265625 952.587524414062 956.138427734375 955.775451660156 950.634765625 949.023681640625 948.960021972656 944.4775390625 951.299987792969 956.983337402344 956.740783691406 958.671081542969 951.055725097656 959.797424316406 969.777587890625 964.273559570312 961.957153320312 954.294494628906 952.806579589844 957.013122558594 968.049438476562 965.90283203125 972.973937988281 973.971374511719 964.270446777344 965.579833984375 964.110900878906 957.347778320312 960.307983398438 964.406311035156 970.173767089844 963.586059570312 958.510803222656 964.268737792969 972.836975097656 966.560791015625 964.171203613281 971.526184082031 974.482421875 980.254272460938 973.494873046875 978.160949707031 981.013610839844 976.900451660156 972.625793457031 964.091003417969 963.670227050781 966.260620117188 965.4619140625 969.740417480469 975.095092773438 979.547546386719 983.506652832031 977.231201171875 976.599243164062 983.21142578125 987.695983886719 975.652282714844 983.396667480469 982.155090332031 986.266418457031 988.958190917969 989.048217773438 989.669677734375 995.515319824219 999.877746582031 999.028930664062 1010.05218505859 1019.20819091797 1017.4248046875 1019.97106933594 1023.72436523438 1027.87463378906 1026.8681640625 1029.1650390625 1026.88793945312 1025.48608398438 1038.23779296875 1047.3154296875 1049.68432617188 1063.36596679688 1065.96130371094 1077.39343261719 1088.69445800781 1089.41442871094 1089.1884765625 1101.97607421875 1097.12585449219 1102.12243652344 1092.44372558594 1092.55480957031 1095.29309082031 1086.74951171875 1098.94714355469 1089.89660644531 1089.35791015625 1097.302734375 1105.06762695312 1102.49975585938
969.392761230469 972.054931640625 977.648620605469 985.960876464844 978.281799316406 977.214477539062 971.930358886719 967.450988769531 976.0126953125 964.234252929688 961.3984375 971.520324707031 974.562255859375 987.204467773438 981.298156738281 980.690246582031 980.944458007812 970.591125488281 968.835266113281 971.674438476562 970.802368164062 973.038269042969 970.05712890625 954.40234375 965.407775878906 962.104675292969 958.98388671875 964.647827148438 964.014831542969 965.457092285156 969.780822753906 964.73291015625 958.445129394531 971.141174316406 965.883605957031 965.666015625 961.107604980469 960.353942871094 960.665954589844 959.71142578125 958.077392578125 971.512634277344 963.423278808594 962.925659179688 968.498596191406 965.849548339844 957.134582519531 967.013061523438 966.436584472656 962.928039550781 969.799743652344 958.611511230469 948.035034179688 944.7119140625 950.763549804688 945.899658203125 959.069091796875 953.862548828125 951.999633789062 957.018371582031 953.012634277344 956.715454101562 959.123779296875 958.589660644531 954.663269042969 963.013671875 956.09814453125 955.874084472656 952.123413085938 955.456665039062 958.541870117188 958.168395996094 954.773071289062 963.085388183594 961.540893554688 963.173828125 962.857482910156 963.123474121094 961.21337890625 968.876159667969 973.141662597656 967.240600585938 967.952453613281 961.034729003906 958.405944824219 958.681701660156 957.237731933594 965.489562988281 972.166320800781 970.779296875 971.906555175781 970.800903320312 978.30810546875 982.622497558594 969.080383300781 975.994079589844 966.286499023438 967.121826171875 965.978576660156 959.888916015625 974.399536132812 979.058959960938 978.12060546875 977.867248535156 975.403503417969 973.095275878906 979.550964355469 980.896911621094 981.442993164062 980.068054199219 974.1015625 978.854553222656 993.444580078125 989.033203125 986.44140625 994.330810546875 985.65478515625 996.122863769531 1003.74487304688 1008.27941894531 1014.62255859375 1021.06060791016 1024.69592285156 1027.90051269531 1027.93627929688 1025.43151855469 1030.08764648438 1023.40728759766 1034.51342773438 1045.91589355469 1049.98669433594 1060.52355957031 1067.87829589844 1079.05773925781 1084.44970703125 1084.41955566406 1088.1728515625 1092.0966796875 1092.822265625 1095.48571777344 1089.97583007812 1086.09460449219 1081.36999511719 1084.98254394531 1090.13171386719 1086.57946777344 1089.85046386719 1090.53247070312 1090.58947753906 1101.16455078125
962.930969238281 969.563110351562 979.62646484375 983.217590332031 985.331420898438 971.004455566406 976.570007324219 975.214538574219 971.896179199219 971.405639648438 971.3955078125 978.307922363281 970.889526367188 972.526916503906 968.691101074219 981.662414550781 976.312438964844 975.191711425781 969.266357421875 968.354431152344 967.767395019531 968.200012207031 968.289611816406 964.8662109375 959.70654296875 952.061889648438 958.078796386719 967.745544433594 967.830749511719 966.201171875 966.282287597656 962.475646972656 971.532775878906 974.551391601562 968.94140625 958.247924804688 954.016540527344 965.571960449219 954.951843261719 952.910888671875 951.3681640625 952.968200683594 960.411193847656 958.34716796875 969.430786132812 970.558654785156 960.832580566406 960.627807617188 953.633850097656 946.224426269531 955.940368652344 948.203735351562 942.29052734375 937.542907714844 944.025695800781 950.52490234375 954.508056640625 958.699951171875 950.878173828125 958.968383789062 957.04345703125 954.220703125 965.509582519531 959.922607421875 958.343872070312 953.6953125 954.277526855469 949.292663574219 948.859313964844 954.650207519531 950.544372558594 951.626037597656 950.370971679688 951.403686523438 952.973449707031 957.619689941406 962.705017089844 963.254638671875 964.443176269531 959.313903808594 966.174499511719 975.818908691406 977.73486328125 962.065002441406 957.491821289062 957.173828125 964.972961425781 959.325073242188 966.921569824219 976.844482421875 969.208801269531 970.821350097656 970.775573730469 975.83154296875 972.404541015625 975.252075195312 974.313171386719 971.630065917969 971.337585449219 965.769775390625 967.095764160156 971.921569824219 983.95703125 978.833923339844 966.090881347656 968.2080078125 983.241821289062 979.4462890625 973.260620117188 985.937622070312 983.470092773438 986.79443359375 987.062866210938 991.899047851562 990.299133300781 994.34375 994.621643066406 988.763488769531 1000.69744873047 1010.50817871094 1011.27270507812 1011.20513916016 1020.88934326172 1024.94091796875 1027.53063964844 1023.47589111328 1029.984375 1024.74169921875 1028.59826660156 1048.95983886719 1057.37487792969 1059.8095703125 1065.54113769531 1071.94787597656 1084.54455566406 1088.7099609375 1081.13781738281 1079.44409179688 1090.10290527344 1081.39831542969 1076.7587890625 1074.02954101562 1074.07958984375 1084.56225585938 1084.66357421875 1087.24572753906 1093.48388671875 1089.88854980469 1088.81994628906 1086.95056152344
964.77978515625 969.581787109375 973.062561035156 973.445007324219 972.828430175781 973.177124023438 973.187866210938 972.874206542969 968.913024902344 974.080627441406 973.270568847656 976.395141601562 972.706115722656 972.920349121094 968.757507324219 968.621032714844 973.053344726562 969.941284179688 967.652160644531 966.84228515625 968.22607421875 963.084777832031 957.736694335938 951.662841796875 959.935607910156 961.87646484375 964.027648925781 963.419372558594 963.979431152344 965.908569335938 964.3994140625 963.025024414062 968.610046386719 977.69140625 970.073852539062 957.772766113281 954.643615722656 957.906127929688 954.739929199219 951.775085449219 954.293701171875 952.391723632812 962.783996582031 952.981506347656 961.462158203125 967.458190917969 953.805969238281 952.708312988281 947.872253417969 954.762817382812 940.31005859375 949.682678222656 948.06201171875 951.196411132812 947.051635742188 948.360290527344 960.244018554688 952.878967285156 959.775634765625 959.352722167969 957.901245117188 963.986999511719 963.115234375 959.127685546875 950.833435058594 961.672546386719 955.238342285156 958.78857421875 954.0791015625 957.415405273438 949.331420898438 951.706787109375 953.151000976562 950.941772460938 955.295471191406 957.80126953125 962.349975585938 962.480651855469 962.964111328125 958.733032226562 962.603393554688 969.298645019531 980.813415527344 976.508483886719 965.783752441406 960.441162109375 965.704772949219 960.416137695312 970.254272460938 966.723693847656 964.73486328125 973.019104003906 969.998229980469 979.028015136719 970.1298828125 977.012084960938 981.352844238281 974.210083007812 975.660522460938 978.860473632812 971.419006347656 960.704467773438 972.142028808594 980.384765625 979.558166503906 983.492797851562 986.344909667969 992.476989746094 982.977416992188 983.585998535156 989.237121582031 990.809020996094 986.956909179688 990.113403320312 994.687255859375 994.884582519531 992.715759277344 995.121215820312 999.044982910156 1005.9140625 1011.92120361328 1019.79718017578 1018.54760742188 1026.13891601562 1031.62133789062 1028.51245117188 1016.37255859375 1023.419921875 1033.97717285156 1052.92370605469 1052.88159179688 1056.06225585938 1066.59130859375 1074.46008300781 1081.27233886719 1083.47729492188 1076.07336425781 1082.60510253906 1079.04077148438 1080.40734863281 1073.51977539062 1067.98449707031 1073.52221679688 1078.28125 1076.12683105469 1076.36462402344 1082.69543457031 1084.76818847656 1081.7001953125 1082.41467285156
958.082336425781 962.389099121094 970.135070800781 971.111511230469 975.041137695312 979.471069335938 969.3876953125 971.182434082031 974.254150390625 965.282409667969 966.817016601562 966.244262695312 974.870910644531 965.576232910156 969.8076171875 960.078491210938 967.498107910156 969.169921875 967.862854003906 965.694519042969 959.977783203125 957.617126464844 949.146667480469 945.222595214844 949.792724609375 953.735168457031 952.366943359375 953.414611816406 959.226196289062 963.077697753906 963.468139648438 959.851379394531 966.666564941406 976.706237792969 969.261291503906 963.995727539062 952.487487792969 959.667846679688 952.134094238281 949.884948730469 946.521362304688 958.371154785156 957.727844238281 946.927673339844 943.593811035156 952.537719726562 938.737426757812 947.291748046875 946.477355957031 947.916625976562 948.2724609375 955.542114257812 952.270385742188 949.604919433594 941.795288085938 942.551696777344 950.943359375 951.975402832031 962.40869140625 957.001708984375 963.613098144531 964.292907714844 960.957763671875 968.550231933594 962.451965332031 955.485778808594 956.540710449219 961.485473632812 965.589599609375 962.524536132812 963.72998046875 954.569946289062 956.986511230469 962.154357910156 964.705139160156 963.251708984375 966.855407714844 960.584777832031 962.971374511719 967.280090332031 959.753601074219 971.336547851562 966.844543457031 978.284240722656 971.495544433594 962.474487304688 963.1787109375 965.732055664062 973.9599609375 968.451599121094 959.306457519531 966.020935058594 976.506591796875 974.259826660156 973.54052734375 975.007873535156 982.483032226562 984.365051269531 983.235595703125 978.8310546875 975.317932128906 966.518249511719 971.132202148438 974.908020019531 976.411376953125 985.457763671875 989.641296386719 995.350769042969 985.830932617188 982.616516113281 994.028381347656 985.973937988281 992.75 996.041259765625 995.0712890625 992.43505859375 994.687255859375 1002.82513427734 999.843383789062 996.979675292969 1005.43469238281 1009.11187744141 1017.60144042969 1024.72900390625 1030.3681640625 1027.4892578125 1022.6474609375 1027.65051269531 1036.76525878906 1058.11193847656 1062.98681640625 1064.78198242188 1070.96740722656 1075.29431152344 1076.39111328125 1082.21459960938 1076.83618164062 1075.81091308594 1066.92895507812 1068.005859375 1066.46276855469 1059.46374511719 1059.33471679688 1065.74682617188 1059.22229003906 1065.93530273438 1064.94921875 1075.37329101562 1076.75732421875 1067.71459960938
966.218078613281 964.472534179688 970.047973632812 969.611999511719 970.298278808594 974.113830566406 968.964965820312 971.684997558594 960.456298828125 954.404174804688 965.209777832031 963.553039550781 960.338439941406 964.490783691406 961.021728515625 965.942565917969 960.747314453125 972.237976074219 963.035766601562 961.868408203125 959.888671875 956.490600585938 939.772155761719 945.658081054688 942.103759765625 948.82958984375 955.121398925781 955.288024902344 956.516357421875 956.586608886719 966.836303710938 958.586120605469 957.560241699219 966.444885253906 972.389404296875 962.0908203125 961.440612792969 956.969360351562 951.100646972656 954.107604980469 953.143249511719 951.14892578125 962.061645507812 944.984741210938 946.307373046875 948.349426269531 938.851379394531 941.320434570312 952.319885253906 954.67333984375 957.855346679688 950.087036132812 946.306335449219 948.100952148438 944.896179199219 952.885314941406 948.249755859375 951.998168945312 961.612915039062 961.998352050781 958.205871582031 960.948791503906 963.472290039062 957.009094238281 951.500610351562 950.644165039062 953.679809570312 962.483520507812 963.555603027344 964.467407226562 959.761779785156 956.623291015625 956.707763671875 964.079956054688 962.520812988281 965.755676269531 968.215148925781 967.272583007812 962.527160644531 963.3173828125 965.023071289062 965.489501953125 970.46337890625 967.183227539062 969.508972167969 974.475952148438 968.666931152344 963.628662109375 966.611572265625 966.509399414062 961.554443359375 962.317932128906 968.676025390625 971.996398925781 979.268005371094 984.381042480469 990.412414550781 982.949340820312 980.901428222656 985.590454101562 982.573791503906 974.319091796875 970.657165527344 971.279907226562 978.905395507812 980.262145996094 996.780700683594 991.968811035156 984.683715820312 996.02734375 1002.64825439453 993.63525390625 986.124145507812 992.733703613281 990.099487304688 990.085998535156 1003.18115234375 997.914855957031 996.14111328125 999.648681640625 1012.96801757812 1010.36145019531 1022.64978027344 1037.73364257812 1034.67797851562 1035.86206054688 1036.09594726562 1025.87744140625 1050.47204589844 1050.52746582031 1054.95129394531 1071.9541015625 1077.86364746094 1084.18933105469 1087.72277832031 1079.15234375 1078.96826171875 1077.5654296875 1064.537109375 1048.82446289062 1052.509765625 1053.72351074219 1053.77795410156 1054.96179199219 1054.78283691406 1050.39538574219 1062.50317382812 1065.44995117188 1066.63269042969 1058.69580078125
964.575134277344 960.190551757812 962.806030273438 968.861694335938 972.759216308594 969.716857910156 967.846801757812 971.511108398438 969.838928222656 962.634155273438 956.6591796875 960.421691894531 958.069274902344 962.831237792969 961.041381835938 966.262756347656 968.2978515625 973.68603515625 966.48681640625 971.026794433594 958.70068359375 943.947143554688 934.600708007812 939.270385742188 941.941589355469 941.604553222656 944.9140625 950.004150390625 955.025146484375 955.937866210938 959.562866210938 961.036865234375 959.365783691406 963.056457519531 964.041198730469 959.2802734375 955.201293945312 955.307495117188 949.527160644531 947.791931152344 944.439819335938 945.020690917969 948.291381835938 946.628845214844 954.244323730469 941.796020507812 934.078796386719 942.577453613281 942.515808105469 956.227966308594 961.721496582031 954.487915039062 952.283386230469 943.320495605469 942.773071289062 947.281677246094 955.949035644531 960.69189453125 962.105590820312 969.053283691406 960.733337402344 965.17919921875 966.886291503906 960.669555664062 954.9521484375 954.349243164062 961.222351074219 958.541259765625 959.618835449219 959.148254394531 968.799926757812 966.590759277344 957.253051757812 963.082092285156 974.643432617188 970.577758789062 964.958374023438 974.938903808594 965.543884277344 958.848693847656 960.579833984375 961.759155273438 969.374877929688 967.834777832031 981.807739257812 976.433166503906 967.072998046875 968.777893066406 966.687927246094 964.194885253906 957.414306640625 953.47900390625 958.802307128906 966.61328125 969.080688476562 976.862731933594 982.712280273438 983.695068359375 986.570251464844 985.111694335938 980.869567871094 979.119506835938 972.072509765625 974.918762207031 982.226745605469 988.27880859375 988.45703125 987.582458496094 982.811157226562 992.222229003906 998.18115234375 994.687133789062 994.907165527344 998.968994140625 990.766052246094 995.764343261719 999.529907226562 1005.14025878906 1001.67932128906 996.819580078125 1007.4521484375 1019.36322021484 1020.85412597656 1031.40686035156 1037.83630371094 1032.90966796875 1028.52221679688 1026.39086914062 1036.36206054688 1044.17407226562 1053.25659179688 1070.22778320312 1074.97497558594 1076.69213867188 1083.33056640625 1077.38928222656 1071.78869628906 1077.16394042969 1068.24438476562 1059.12036132812 1048.28723144531 1041.32531738281 1039.96630859375 1045.31420898438 1043.45434570312 1043.431640625 1054.57495117188 1058.02673339844 1052.02124023438 1051.47448730469
956.556884765625 953.011291503906 958.271911621094 965.675598144531 960.379272460938 961.610961914062 968.42578125 971.273498535156 966.934448242188 972.51708984375 967.799133300781 964.243103027344 959.485595703125 959.123474121094 960.41845703125 962.857788085938 967.035583496094 975.788879394531 964.769104003906 959.29638671875 950.406005859375 945.66259765625 939.275390625 942.352966308594 943.9033203125 940.756286621094 943.946960449219 944.998840332031 949.227111816406 950.771484375 957.730590820312 956.86376953125 952.108154296875 953.549011230469 954.02685546875 949.878479003906 946.603210449219 948.332763671875 948.292175292969 952.301391601562 952.244934082031 943.222717285156 953.662780761719 946.312866210938 946.432495117188 943.745849609375 938.298950195312 948.296508789062 943.779174804688 954.405334472656 958.470947265625 957.987487792969 954.679565429688 959.854675292969 949.008361816406 948.155029296875 952.530334472656 957.892333984375 961.582763671875 967.429016113281 962.60595703125 969.31494140625 961.130065917969 958.266723632812 954.777526855469 956.947082519531 961.790222167969 959.385803222656 957.131164550781 963.16650390625 967.991149902344 961.954467773438 964.57958984375 966.975830078125 975.537719726562 976.756103515625 962.410278320312 967.022399902344 964.585266113281 971.749267578125 957.581420898438 957.799682617188 969.910217285156 977.554809570312 976.460388183594 968.64013671875 967.478515625 969.780334472656 967.838989257812 970.715270996094 959.856323242188 959.327880859375 964.021179199219 965.345764160156 971.910827636719 975.295104980469 977.525207519531 978.28955078125 983.467224121094 983.381591796875 989.374755859375 989.450256347656 978.001831054688 974.154541015625 977.047241210938 983.170837402344 985.150756835938 984.430053710938 985.53759765625 987.175231933594 993.806274414062 998.69140625 998.300842285156 1004.0810546875 996.691589355469 995.323425292969 997.092956542969 1014.19641113281 1006.97180175781 1003.59399414062 1004.72735595703 1006.52868652344 1023.76452636719 1020.16723632812 1022.90209960938 1018.81903076172 1021.74774169922 1021.69891357422 1029.83959960938 1035.060546875 1051.91369628906 1064.26354980469 1069.09973144531 1075.67858886719 1072.38354492188 1077.03857421875 1075.85021972656 1067.56762695312 1061.25537109375 1052.95251464844 1050.80725097656 1039.4599609375 1030.74743652344 1035.31408691406 1032.03454589844 1035.74890136719 1045.81958007812 1051.65893554688 1051.36437988281 1044.15112304688
954.285095214844 951.221923828125 961.662353515625 958.135070800781 969.932678222656 965.521301269531 967.891357421875 960.696838378906 970.092041015625 968.216491699219 962.583251953125 960.487365722656 958.154357910156 955.855834960938 960.304748535156 960.20263671875 967.810241699219 966.645568847656 961.215881347656 958.585021972656 959.741333007812 943.486083984375 935.197326660156 946.400024414062 944.086853027344 934.501953125 942.2333984375 946.640686035156 951.471740722656 952.432312011719 961.068054199219 953.271911621094 958.060607910156 955.021667480469 957.628112792969 946.03857421875 944.310302734375 948.693420410156 943.016540527344 939.310302734375 948.187927246094 949.145935058594 958.102722167969 955.817321777344 954.7275390625 948.736267089844 949.255798339844 951.612487792969 956.197082519531 957.890563964844 960.5537109375 959.829650878906 958.714172363281 961.850891113281 957.088989257812 958.895080566406 963.292907714844 961.380676269531 965.60205078125 964.771362304688 971.107666015625 968.360717773438 967.9697265625 962.389892578125 960.140869140625 955.923156738281 962.694580078125 963.325927734375 961.874572753906 964.868530273438 965.27099609375 959.777221679688 963.81982421875 967.230834960938 969.0048828125 975.285705566406 963.343505859375 970.985961914062 975.327697753906 962.816955566406 960.846130371094 972.773620605469 975.906555175781 981.598266601562 973.989379882812 970.056579589844 963.450378417969 969.60791015625 973.277648925781 974.126892089844 962.080261230469 971.006469726562 967.963500976562 961.818298339844 971.395202636719 978.562377929688 973.98828125 979.347045898438 974.266967773438 982.768981933594 989.339721679688 990.113891601562 978.877136230469 982.009765625 981.160461425781 982.603271484375 989.931396484375 986.730346679688 991.336669921875 1003.42736816406 1001.47454833984 1005.03137207031 1008.72259521484 1010.68902587891 1010.44720458984 1003.37915039062 1003.11193847656 1000.48175048828 1003.45617675781 1007.81781005859 1010.39239501953 1008.60314941406 1012.43865966797 1019.44366455078 1024.40673828125 1022.88189697266 1014.80706787109 1024.68737792969 1024.69775390625 1035.63977050781 1038.90014648438 1047.35485839844 1050.96984863281 1059.48571777344 1067.83947753906 1061.64025878906 1064.57287597656 1059.53820800781 1052.70483398438 1045.14465332031 1043.07116699219 1048.07507324219 1041.1123046875 1024.55151367188 1024.37829589844 1032.54467773438 1040.91638183594 1046.76794433594 1041.11340332031 1046.82421875
952.118774414062 955.582336425781 964.666748046875 961.94091796875 968.490661621094 964.269104003906 964.242919921875 963.114807128906 964.028381347656 954.819274902344 951.6953125 948.137268066406 950.705017089844 963.553344726562 955.985473632812 956.989562988281 959.189575195312 964.570861816406 964.469909667969 958.036499023438 955.081359863281 939.666381835938 936.543029785156 941.278930664062 949.184753417969 947.128601074219 950.672973632812 946.033325195312 940.138122558594 950.928466796875 952.258422851562 952.387145996094 954.535034179688 952.842224121094 953.157104492188 940.330871582031 944.482482910156 947.431640625 952.252197265625 944.028930664062 949.719543457031 945.386047363281 951.389587402344 954.62353515625 953.270202636719 955.724914550781 964.240844726562 970.849975585938 969.949096679688 967.632385253906 964.44189453125 960.069213867188 961.749633789062 958.780090332031 964.479064941406 965.48291015625 962.839050292969 978.611938476562 969.651672363281 966.915161132812 978.6416015625 965.52978515625 960.980590820312 958.770263671875 959.57421875 962.635620117188 967.350769042969 967.940673828125 971.4755859375 963.58984375 958.385986328125 961.396789550781 961.341186523438 960.817565917969 965.509643554688 971.974609375 969.713317871094 968.025024414062 965.673217773438 968.912536621094 971.321960449219 970.779418945312 971.403564453125 979.515258789062 973.251159667969 967.17724609375 976.374206542969 968.977966308594 969.083312988281 975.756896972656 972.640441894531 975.214538574219 971.555969238281 969.000366210938 970.966796875 976.780700683594 981.880493164062 980.165161132812 979.016784667969 980.92138671875 992.355590820312 990.930725097656 988.382629394531 989.107421875 983.258178710938 984.719055175781 996.526000976562 995.054077148438 996.112548828125 1007.779296875 1012.69415283203 1020.3740234375 1012.33898925781 1016.23480224609 1015.08813476562 1011.01983642578 1002.00592041016 1005.95208740234 1011.06066894531 1012.44659423828 1014.18365478516 1019.33563232422 1016.26068115234 1024.50061035156 1022.98571777344 1024.28723144531 1021.74438476562 1022.88739013672 1029.06359863281 1021.30334472656 1029.54626464844 1046.44775390625 1047.18017578125 1055.7958984375 1054.07897949219 1056.97375488281 1055.79833984375 1049.95581054688 1051.61743164062 1042.31823730469 1045.65246582031 1048.58715820312 1035.25708007812 1023.92877197266 1024.15014648438 1027.0078125 1034.49694824219 1035.13806152344 1030.8095703125 1039.84619140625
957.886535644531 956.931945800781 958.595520019531 957.493103027344 962.412414550781 961.882019042969 963.781677246094 970.342468261719 965.595825195312 957.756469726562 945.855773925781 947.071044921875 956.957092285156 952.2880859375 956.252990722656 956.995910644531 953.105651855469 948.868286132812 953.774658203125 954.102172851562 952.435119628906 941.130554199219 940.969116210938 936.695983886719 944.788391113281 944.887756347656 943.558959960938 945.651489257812 947.397705078125 950.160217285156 941.440368652344 947.592956542969 945.841247558594 956.358825683594 943.417358398438 939.67333984375 946.530639648438 949.203796386719 948.01513671875 946.823608398438 959.215942382812 950.021728515625 954.891357421875 951.245910644531 957.914489746094 957.986450195312 958.852233886719 968.004577636719 968.306640625 972.086486816406 972.065002441406 969.620666503906 972.40869140625 969.977905273438 963.094909667969 971.291381835938 975.147094726562 974.987182617188 972.045471191406 976.702087402344 967.021057128906 962.664672851562 963.760314941406 968.371337890625 972.65380859375 969.523803710938 962.576843261719 964.957275390625 969.960693359375 962.294372558594 968.258544921875 968.762329101562 966.6572265625 970.108825683594 966.593078613281 965.365112304688 968.500061035156 970.57666015625 965.829223632812 975.1337890625 975.147644042969 977.692138671875 973.584533691406 979.98974609375 977.177673339844 975.976989746094 979.125549316406 974.236206054688 977.104248046875 977.971008300781 972.356750488281 967.322875976562 972.009033203125 972.047973632812 971.74951171875 981.218017578125 988.4052734375 979.798583984375 979.431030273438 973.213195800781 976.939575195312 986.786926269531 984.374267578125 984.27783203125 979.997497558594 980.555419921875 994.772277832031 995.21923828125 995.475463867188 994.448059082031 1009.91888427734 1017.50451660156 1009.07604980469 1015.86450195312 1031.27233886719 1022.15252685547 1004.31884765625 1009.41589355469 1019.3095703125 1019.23999023438 1021.09240722656 1028.20385742188 1014.03503417969 1017.64404296875 1019.83392333984 1021.74084472656 1024.20556640625 1018.56970214844 1020.62353515625 1025.65588378906 1029.15405273438 1039.84094238281 1038.27563476562 1046.99975585938 1047.05541992188 1053.04077148438 1050.76538085938 1045.89379882812 1043.98156738281 1037.47375488281 1041.01391601562 1038.46826171875 1034.84033203125 1029.99060058594 1016.29107666016 1018.04711914062 1019.95599365234 1023.34973144531 1024.96936035156 1029.29016113281
954.424743652344 954.865600585938 947.847595214844 959.864318847656 962.899536132812 960.606628417969 960.720275878906 961.334594726562 955.585388183594 954.253112792969 943.504089355469 950.860961914062 958.641906738281 946.483032226562 946.789306640625 947.721313476562 945.511840820312 943.894165039062 950.751220703125 963.079711914062 943.662048339844 945.6162109375 936.002868652344 934.819702148438 941.758544921875 943.639953613281 941.401062011719 940.809143066406 948.204711914062 946.010681152344 946.730102539062 950.308471679688 942.876220703125 942.269409179688 955.158142089844 946.181884765625 947.620483398438 949.916076660156 955.375732421875 954.712951660156 955.497314453125 954.435668945312 953.055114746094 953.486633300781 961.19091796875 956.580993652344 962.111328125 967.739318847656 967.830749511719 973.948547363281 968.169128417969 972.65478515625 974.581970214844 970.44384765625 976.374633789062 968.966064453125 975.104858398438 982.013305664062 974.501342773438 963.651489257812 969.184692382812 969.851684570312 962.857238769531 964.191223144531 972.928955078125 972.761840820312 964.438720703125 970.38330078125 960.091918945312 968.572204589844 967.598693847656 969.376953125 971.583129882812 970.552795410156 965.1826171875 959.466186523438 964.656372070312 978.091857910156 974.353515625 973.295166015625 975.296508789062 971.832641601562 978.8916015625 978.40283203125 978.147338867188 974.317321777344 983.687683105469 978.395202636719 977.927734375 981.147155761719 982.7587890625 971.59423828125 971.265441894531 965.559387207031 977.679626464844 987.889282226562 986.907897949219 983.630859375 982.043212890625 969.644226074219 976.911010742188 984.840209960938 990.806396484375 982.476196289062 978.25048828125 977.075988769531 996.404174804688 1005.92974853516 998.7451171875 1001.23297119141 1005.41510009766 1015.37115478516 1019.60601806641 1019.57995605469 1020.65270996094 1016.04064941406 1016.04962158203 1020.38812255859 1023.99938964844 1021.89068603516 1028.90893554688 1032.74792480469 1030.96716308594 1033.44995117188 1023.82739257812 1021.31591796875 1022.78045654297 1016.44134521484 1012.98651123047 1017.32586669922 1026.1875 1040.82507324219 1047.62048339844 1046.53649902344 1049.08068847656 1055.50073242188 1047.24523925781 1047.47216796875 1048.79626464844 1039.36181640625 1033.81005859375 1034.17956542969 1022.79644775391 1019.03863525391 1014.51293945312 1016.0087890625 1011.72247314453 1023.78918457031 1024.40893554688 1025.88671875
953.897277832031 950.364624023438 945.827453613281 949.394836425781 954.371154785156 955.585205078125 963.242248535156 955.586059570312 952.518493652344 947.705261230469 941.708557128906 939.410278320312 945.096313476562 947.718811035156 948.567260742188 941.983520507812 945.208679199219 942.389038085938 943.723266601562 959.853759765625 950.107788085938 939.905639648438 935.781555175781 944.329345703125 945.027099609375 952.157531738281 946.479431152344 949.58251953125 949.407958984375 944.659423828125 949.610290527344 946.359680175781 949.099060058594 944.899353027344 951.764099121094 950.321411132812 948.631286621094 954.751281738281 953.907104492188 961.1591796875 960.954467773438 953.510314941406 951.096313476562 950.676574707031 950.689453125 951.832214355469 970.913513183594 968.374267578125 965.940124511719 979.574829101562 971.066650390625 969.2275390625 981.186767578125 977.956726074219 972.5654296875 980.617919921875 978.761962890625 977.005981445312 977.603088378906 966.838684082031 963.324340820312 962.646301269531 957.359802246094 960.471130371094 968.253601074219 974.840698242188 960.197021484375 969.205993652344 961.178771972656 968.966064453125 970.251159667969 969.415771484375 980.177185058594 976.094970703125 968.275573730469 965.761657714844 971.2509765625 972.8662109375 965.478820800781 973.075927734375 979.589477539062 979.482849121094 979.07421875 977.419189453125 973.539672851562 982.160583496094 979.392944335938 981.558471679688 968.221069335938 978.249877929688 977.700012207031 977.050537109375 969.940307617188 982.599548339844 985.434265136719 981.587707519531 982.656311035156 982.097778320312 978.133972167969 978.082702636719 976.479858398438 981.203063964844 975.686584472656 984.987854003906 986.358947753906 983.946472167969 996.291442871094 1000.76348876953 999.941772460938 1004.84228515625 1015.82263183594 1014.21057128906 1017.59594726562 1012.68676757812 1022.20306396484 1016.59515380859 1024.35571289062 1021.79901123047 1029.087890625 1024.75500488281 1034.69555664062 1036.68139648438 1026.25036621094 1028.38525390625 1026.400390625 1018.19720458984 1019.40502929688 1019.98028564453 1015.09619140625 1013.17059326172 1024.66516113281 1037.55883789062 1048.66674804688 1040.84643554688 1049.41918945312 1042.83911132812 1036.83605957031 1036.21301269531 1033.47302246094 1040.17712402344 1029.60144042969 1026.26586914062 1025.21337890625 1018.47863769531 1014.26940917969 1011.48120117188 1007.59710693359 1025.52563476562 1034.65576171875 1035.44140625
958.354553222656 955.30322265625 960.149230957031 956.576110839844 951.488708496094 952.5927734375 941.271789550781 945.503662109375 947.691101074219 950.096801757812 938.793518066406 936.240051269531 943.421325683594 948.797241210938 953.459350585938 942.400146484375 947.723571777344 948.532836914062 952.544250488281 957.808044433594 952.198181152344 943.485290527344 940.801208496094 953.090759277344 947.643005371094 960.521362304688 951.042907714844 950.901306152344 946.865844726562 942.591064453125 945.11474609375 945.165710449219 946.156005859375 948.29248046875 952.851257324219 948.564575195312 952.861511230469 947.912963867188 949.006408691406 961.784057617188 958.036315917969 953.882263183594 961.46435546875 952.1611328125 959.840026855469 969.608764648438 974.365478515625 976.277954101562 965.298156738281 975.05322265625 983.719116210938 978.533325195312 985.701965332031 978.995666503906 978.513732910156 982.345397949219 981.106811523438 978.836364746094 979.026794433594 972.375061035156 964.093994140625 957.79150390625 959.195556640625 960.919189453125 968.415405273438 970.578918457031 972.306030273438 969.968872070312 966.707397460938 971.657958984375 970.695129394531 971.77685546875 978.109680175781 981.429260253906 991.325256347656 984.0517578125 978.180297851562 972.014953613281 974.867980957031 972.665222167969 979.385681152344 973.062744140625 979.290161132812 982.409057617188 977.7890625 980.075500488281 977.195739746094 982.560485839844 971.885192871094 974.35498046875 975.130554199219 974.866455078125 973.202941894531 979.991943359375 982.43798828125 974.1298828125 983.905334472656 985.695617675781 980.167175292969 983.932556152344 974.111022949219 984.4130859375 973.86328125 980.564758300781 979.178161621094 992.456909179688 989.500610351562 989.017028808594 1004.85919189453 1015.92401123047 1018.24450683594 1018.86651611328 1025.619140625 1034.79956054688 1021.26916503906 1019.42102050781 1026.11901855469 1030.17980957031 1031.51611328125 1024.37829589844 1038.17565917969 1035.78002929688 1029.56298828125 1029.6494140625 1023.53393554688 1018.80377197266 1010.13684082031 1019.693359375 1014.16882324219 1024.2080078125 1019.36114501953 1025.40307617188 1028.39562988281 1034.0400390625 1044.2734375 1025.17260742188 1027.79504394531 1025.22265625 1028.33227539062 1032.23950195312 1035.85021972656 1025.04309082031 1023.77947998047 1017.49108886719 1017.34503173828 1011.54125976562 1008.09826660156 1015.37890625 1027.53259277344 1037.51770019531
955.632202148438 954.731201171875 956.832824707031 962.419982910156 953.805908203125 950.547546386719 941.712219238281 940.62939453125 942.584411621094 945.782104492188 939.240539550781 944.135559082031 951.290649414062 953.094848632812 953.878845214844 948.916076660156 940.802978515625 937.785888671875 943.162109375 951.517517089844 950.703674316406 948.403259277344 938.9013671875 945.544921875 954.91455078125 963.18701171875 956.030029296875 957.772583007812 951.498657226562 950.29296875 949.267883300781 952.245361328125 943.394470214844 946.341552734375 945.217163085938 949.640014648438 953.567565917969 941.856872558594 953.177368164062 952.537292480469 963.040466308594 961.775939941406 968.301025390625 978.354187011719 979.094360351562 976.887573242188 977.118835449219 978.128234863281 969.887145996094 984.693298339844 985.953247070312 986.610900878906 986.520690917969 994.196960449219 985.946594238281 979.726196289062 980.394226074219 974.03515625 976.035400390625 972.577819824219 959.721374511719 963.396179199219 963.421142578125 957.9931640625 967.766357421875 966.736389160156 974.082580566406 970.840026855469 960.585876464844 963.908386230469 962.954467773438 968.772888183594 965.955017089844 963.481689453125 979.084411621094 983.60498046875 983.93212890625 982.407287597656 974.603576660156 965.707702636719 976.348083496094 971.419677734375 979.154663085938 983.692749023438 984.187133789062 974.939147949219 974.187438964844 978.677795410156 978.290100097656 977.231811523438 974.912353515625 965.992797851562 971.501098632812 975.713500976562 981.581604003906 985.300476074219 981.1669921875 992.650207519531 992.105041503906 993.855224609375 990.78515625 990.117614746094 978.111694335938 976.803894042969 986.044189453125 994.946960449219 997.938232421875 1006.15466308594 1015.49133300781 1017.90393066406 1022.33892822266 1016.93719482422 1024.35229492188 1030.14526367188 1027.58032226562 1030.42456054688 1025.05834960938 1030.15539550781 1038.84997558594 1041.396484375 1040.36779785156 1037.130859375 1033.26086425781 1029.75891113281 1032.67333984375 1018.11712646484 1018.40161132812 1021.68713378906 1022.29901123047 1026.40734863281 1024.98559570312 1020.72674560547 1022.61041259766 1023.31231689453 1033.68664550781 1032.41943359375 1021.884765625 1030.21179199219 1029.34899902344 1026.45166015625 1024.57275390625 1023.09997558594 1023.12493896484 1010.27337646484 1014.30450439453 1014.32580566406 1017.43658447266 1017.82305908203 1025.35900878906 1032.81384277344
950.870422363281 957.337219238281 960.571960449219 944.594665527344 949.827026367188 945.510314941406 947.199951171875 941.013793945312 940.37744140625 939.163696289062 947.324035644531 949.093322753906 958.513427734375 950.216857910156 946.149841308594 950.947265625 942.846923828125 943.15576171875 947.573303222656 954.346008300781 950.357788085938 957.468322753906 947.929565429688 953.318603515625 962.396789550781 969.181884765625 960.664855957031 955.295532226562 958.836120605469 952.432312011719 957.44091796875 951.860473632812 953.539733886719 956.148132324219 940.9482421875 947.01513671875 950.719543457031 945.465087890625 949.961730957031 958.788940429688 963.416687011719 959.379333496094 968.762023925781 976.694519042969 976.705749511719 975.824340820312 977.146789550781 981.044860839844 974.561279296875 980.237121582031 993.795532226562 988.229736328125 992.5830078125 987.210998535156 986.778198242188 976.496887207031 974.533752441406 979.345642089844 972.554321289062 973.296997070312 964.920288085938 969.186584472656 974.655456542969 971.19970703125 967.122863769531 961.883972167969 972.642578125 971.187316894531 966.449279785156 966.556579589844 961.443664550781 962.302551269531 967.243774414062 969.473815917969 982.552001953125 975.014770507812 980.038452148438 978.801879882812 977.927368164062 966.104797363281 967.287658691406 976.271606445312 973.655883789062 975.835632324219 978.587951660156 972.124145507812 978.755249023438 977.874328613281 970.44775390625 977.986206054688 973.454895019531 967.904602050781 982.043212890625 974.802978515625 986.228759765625 983.091125488281 992.461608886719 990.697814941406 1003.80487060547 994.274353027344 1003.39721679688 998.191650390625 990.121459960938 994.832580566406 992.549865722656 990.342102050781 998.015380859375 1005.13195800781 1024.23876953125 1023.07611083984 1024.26538085938 1023.15209960938 1023.85583496094 1026.3330078125 1026.71923828125 1040.60803222656 1035.91540527344 1036.83374023438 1039.34802246094 1041.29711914062 1042.52233886719 1039.30651855469 1042.46606445312 1035.54907226562 1035.74304199219 1022.39196777344 1018.08331298828 1023.89715576172 1022.11450195312 1027.23742675781 1020.92578125 1016.30316162109 1025.6767578125 1020.87561035156 1026.7255859375 1021.85748291016 1024.53723144531 1023.90997314453 1020.37078857422 1026.70874023438 1021.18243408203 1023.78234863281 1019.845703125 1009.92034912109 1015.71514892578 1016.86169433594 1020.95715332031 1022.33258056641 1023.72900390625 1018.95513916016
957.011535644531 947.662414550781 946.834594726562 947.927856445312 954.54345703125 952.68701171875 952.343566894531 942.908386230469 935.438720703125 932.95556640625 945.536437988281 942.530395507812 945.218383789062 942.39697265625 945.327331542969 949.637451171875 954.081481933594 952.038330078125 945.691650390625 957.194213867188 963.033142089844 959.508850097656 963.048400878906 972.122009277344 972.784790039062 966.230712890625 957.365905761719 957.625915527344 959.353393554688 951.066101074219 954.542419433594 963.8837890625 961.615234375 955.633850097656 952.774291992188 952.072082519531 950.540344238281 954.125732421875 954.030822753906 973.166076660156 976.541015625 966.651733398438 962.962463378906 974.255249023438 979.650817871094 990.175354003906 984.287048339844 989.204467773438 989.011352539062 992.628601074219 983.05224609375 992.615600585938 988.960021972656 990.770629882812 985.30908203125 985.348876953125 984.767822265625 978.319885253906 973.444763183594 973.691162109375 974.576354980469 975.941650390625 976.007263183594 973.574279785156 970.178344726562 964.436157226562 971.943298339844 981.760070800781 967.847473144531 968.3701171875 961.485107421875 968.178955078125 979.127258300781 979.652099609375 977.304626464844 979.989685058594 979.890625 983.882507324219 980.872802734375 970.656677246094 979.970397949219 982.833129882812 973.747802734375 978.381652832031 981.82470703125 982.513610839844 986.597778320312 974.58447265625 972.025268554688 965.451599121094 965.889709472656 972.544128417969 973.712036132812 980.47412109375 987.305297851562 989.905883789062 989.027282714844 991.814758300781 995.191833496094 996.101318359375 998.505798339844 998.2216796875 999.511779785156 1000.2314453125 999.231628417969 994.043518066406 1006.41253662109 1007.34979248047 1014.19158935547 1025.70190429688 1021.14190673828 1020.0458984375 1028.92016601562 1015.89465332031 1030.53674316406 1027.95104980469 1029.16809082031 1041.85766601562 1035.24450683594 1041.07006835938 1035.16149902344 1045.44116210938 1041.55285644531 1037.41516113281 1036.92346191406 1029.25927734375 1023.52032470703 1022.29626464844 1019.10467529297 1025.95190429688 1017.28393554688 1020.38385009766 1016.82684326172 1018.71374511719 1020.43756103516 1023.81573486328 1018.08380126953 1017.13989257812 1014.54626464844 1021.95666503906 1020.37866210938 1024.00659179688 1020.22448730469 1008.17626953125 1007.61212158203 1017.84210205078 1008.63726806641 1014.35943603516 1011.64910888672 1018.65710449219
952.5947265625 948.661987304688 947.518249511719 945.320861816406 946.650756835938 946.872497558594 949.379455566406 940.734619140625 948.794677734375 931.856506347656 944.456665039062 936.995178222656 939.256530761719 944.111511230469 950.340270996094 957.436584472656 959.951721191406 951.742492675781 958.238098144531 964.463134765625 971.081176757812 964.478515625 968.756713867188 971.435913085938 976.613830566406 969.531677246094 958.625671386719 961.98388671875 956.045959472656 953.576477050781 955.424621582031 949.886596679688 952.792297363281 954.160034179688 950.098693847656 952.692077636719 951.8984375 963.066528320312 968.072875976562 970.323791503906 975.996154785156 974.57275390625 970.538879394531 976.796447753906 979.99853515625 982.457397460938 985.952209472656 990.76220703125 992.579223632812 989.582946777344 983.907958984375 988.751770019531 994.894897460938 989.492126464844 986.759216308594 982.842468261719 991.561828613281 983.815185546875 974.817443847656 981.863098144531 975.030334472656 967.334655761719 975.337219238281 971.376708984375 967.035278320312 966.8583984375 976.645202636719 977.069946289062 977.656677246094 980.288757324219 975.786254882812 968.126892089844 981.709411621094 986.048889160156 981.477600097656 983.059692382812 990.745971679688 990.948120117188 974.273010253906 977.165588378906 980.467102050781 978.550964355469 980.020568847656 991.408752441406 985.605163574219 992.096069335938 985.981811523438 985.096374511719 981.886291503906 970.572998046875 966.688293457031 974.291198730469 974.7001953125 990.502258300781 983.763916015625 989.890625 988.720336914062 994.327514648438 993.575134277344 996.931274414062 1000.55938720703 998.506469726562 1003.24078369141 990.295654296875 1002.84008789062 1005.26721191406 1007.88140869141 1002.02746582031 1008.8408203125 1018.52087402344 1020.77777099609 1022.32189941406 1024.15405273438 1022.01690673828 1030.05712890625 1031.69384765625 1029.42150878906 1037.10144042969 1033.2939453125 1044.29772949219 1044.04162597656 1048.37548828125 1049.49145507812 1030.60852050781 1026.650390625 1021.72863769531 1020.74884033203 1020.03021240234 1021.42657470703 1014.77624511719 1019.02600097656 1014.79083251953 1014.17565917969 1013.67297363281 1008.39758300781 1018.91766357422 1015.54699707031 1020.48223876953 1014.16979980469 1016.39910888672 1007.09704589844 1011.59259033203 1008.77203369141 1002.53686523438 1002.27862548828 1002.70770263672 998.754577636719 998.084716796875 1004.26470947266 1018.15539550781
948.496398925781 954.402221679688 937.405456542969 945.552917480469 939.802001953125 941.386962890625 943.068298339844 941.359619140625 945.652526855469 943.419616699219 941.540100097656 939.81005859375 943.202209472656 951.880432128906 966.108581542969 965.602722167969 971.927734375 960.406433105469 965.826721191406 969.943725585938 969.439880371094 971.792663574219 971.429626464844 971.924865722656 970.741271972656 972.323181152344 969.700134277344 967.815734863281 965.067016601562 966.487854003906 959.383483886719 955.616516113281 960.243835449219 966.749084472656 960.956359863281 951.095764160156 960.139587402344 966.710388183594 972.894958496094 979.595642089844 983.009094238281 973.154663085938 974.353454589844 984.303955078125 993.334899902344 993.165100097656 994.54052734375 994.534118652344 998.244201660156 992.32421875 989.931579589844 989.396728515625 992.74755859375 998.641479492188 986.991271972656 977.498168945312 980.779235839844 973.674377441406 975.157775878906 982.230590820312 979.746337890625 979.157165527344 972.239501953125 966.487854003906 965.7822265625 973.963562011719 980.07861328125 978.9814453125 973.283020019531 970.972290039062 973.350830078125 980.116638183594 975.927490234375 980.874450683594 992.147399902344 991.362609863281 993.293884277344 987.376953125 980.768615722656 983.219177246094 982.763000488281 978.775756835938 978.987426757812 984.15869140625 983.821594238281 988.212219238281 986.125427246094 992.841857910156 979.007385253906 978.970703125 971.810363769531 972.72900390625 973.100463867188 980.38916015625 983.937377929688 982.972473144531 995.35791015625 1000.53576660156 985.7119140625 993.439270019531 996.742553710938 1006.49993896484 994.964538574219 999.3486328125 1012.81744384766 1010.896484375 1009.89709472656 1012.76721191406 1018.62579345703 1024.26623535156 1026.638671875 1024.78356933594 1020.58209228516 1024.12133789062 1038.26025390625 1033.89501953125 1024.40124511719 1026.10693359375 1043.25854492188 1039.66467285156 1038.50891113281 1047.19055175781 1047.22009277344 1036.93286132812 1025.86108398438 1021.55126953125 1019.01605224609 1011.09808349609 1028.6220703125 1018.62414550781 1018.66235351562 1012.86224365234 1005.80755615234 1014.05975341797 1008.45391845703 1011.11688232422 1010.31958007812 1015.99639892578 1008.99224853516 1008.7919921875 1007.03735351562 996.810119628906 1007.29156494141 1002.27789306641 997.34375 1003.93371582031 1002.29553222656 997.096130371094 1004.40252685547 1001.30456542969
943.087036132812 934.68896484375 933.822204589844 939.389099121094 937.713928222656 933.660827636719 938.492736816406 940.603515625 940.478454589844 939.186767578125 948.994506835938 948.078552246094 954.693359375 965.100158691406 966.92333984375 970.893737792969 968.851318359375 967.954833984375 966.769592285156 974.290954589844 972.974243164062 980.800109863281 986.380737304688 972.072631835938 975.758911132812 979.282958984375 979.823669433594 979.992980957031 973.553649902344 970.423706054688 968.393127441406 962.601623535156 960.673095703125 967.820861816406 969.220397949219 961.358947753906 962.003967285156 971.057983398438 968.61474609375 972.87744140625 979.218505859375 981.662841796875 978.138488769531 986.020568847656 985.37939453125 994.668762207031 997.051025390625 1006.15661621094 999.95703125 994.353210449219 991.701599121094 991.097045898438 994.104187011719 996.335021972656 982.72412109375 988.430786132812 986.589294433594 977.423034667969 975.339477539062 989.081787109375 978.24609375 972.791259765625 964.806945800781 966.47216796875 968.043395996094 973.452880859375 981.318603515625 975.060668945312 967.367858886719 974.854858398438 978.309997558594 983.895202636719 982.923095703125 993.114379882812 990.64697265625 988.651245117188 978.183959960938 985.931640625 983.516784667969 987.170349121094 979.264038085938 983.085083007812 981.23095703125 979.517822265625 977.874389648438 977.625610351562 982.623413085938 982.502197265625 981.300109863281 976.425720214844 982.668029785156 974.337341308594 974.697265625 977.415222167969 979.025085449219 982.512634277344 994.443237304688 998.245788574219 991.840148925781 988.762145996094 989.278381347656 997.141845703125 1002.71423339844 1002.77917480469 1007.84564208984 1015.74957275391 1020.43853759766 1021.96307373047 1024.50769042969 1025.55432128906 1030.61755371094 1030.1435546875 1028.12939453125 1041.07299804688 1037.60717773438 1034.23742675781 1036.39868164062 1034.07214355469 1038.59143066406 1041.70422363281 1040.73999023438 1045.654296875 1033.24548339844 1037.13562011719 1030.36169433594 1022.77478027344 1026.34753417969 1017.92553710938 1024.33276367188 1021.39239501953 1017.93579101562 1016.0205078125 1003.25085449219 1007.42724609375 1005.20104980469 1006.97625732422 1013.9560546875 1012.93597412109 1009.89404296875 1001.00762939453 1005.56243896484 997.386840820312 994.993103027344 1002.1748046875 1000.43737792969 998.384643554688 1002.1357421875 1000.18206787109 997.963806152344 1001.06237792969
937.822998046875 927.1884765625 926.015747070312 940.923828125 940.30419921875 926.824035644531 935.281372070312 937.079650878906 944.973754882812 940.758972167969 944.870727539062 953.149780273438 962.388977050781 972.544616699219 970.614135742188 976.892517089844 976.136169433594 977.6572265625 974.31494140625 986.766357421875 980.658752441406 990.015502929688 994.605651855469 981.707092285156 981.367614746094 985.699279785156 990.149719238281 980.735900878906 984.251342773438 974.459655761719 976.760192871094 969.448303222656 978.292297363281 975.279113769531 972.55859375 970.151916503906 960.817260742188 966.947631835938 970.072814941406 978.618591308594 980.211669921875 985.940063476562 984.790405273438 981.269287109375 982.956909179688 994.622375488281 998.762512207031 992.217529296875 994.205871582031 992.463317871094 990.75244140625 996.966430664062 990.506896972656 987.929931640625 985.614868164062 986.739868164062 995.556884765625 978.455261230469 975.213195800781 977.901977539062 983.629821777344 974.658569335938 971.159912109375 954.595703125 968.216369628906 974.399597167969 980.1513671875 975.367980957031 981.797546386719 986.986938476562 988.206726074219 984.081176757812 1000.53826904297 994.707153320312 1000.4453125 990.551940917969 989.160888671875 984.890991210938 985.942810058594 989.695007324219 989.96240234375 986.355407714844 985.709838867188 987.620178222656 978.983825683594 977.023742675781 983.87744140625 990.852905273438 996.843933105469 982.452575683594 985.525268554688 980.053833007812 977.508239746094 971.332641601562 983.139282226562 989.975891113281 998.243774414062 1001.34210205078 990.628479003906 989.185668945312 989.49169921875 1002.5712890625 996.049499511719 997.111938476562 1002.29315185547 1014.34698486328 1021.35162353516 1025.70092773438 1032.26171875 1024.34106445312 1027.29162597656 1034.04553222656 1031.87316894531 1036.09106445312 1040.87255859375 1038.15380859375 1031.49890136719 1032.1357421875 1027.56774902344 1031.28649902344 1034.83264160156 1040.05798339844 1029.13610839844 1040.5615234375 1034.3310546875 1026.14782714844 1017.67895507812 1018.05926513672 1018.50579833984 1009.82537841797 1009.45477294922 1011.41467285156 1006.29974365234 1005.43933105469 1005.92401123047 1015.04583740234 1021.71356201172 1014.90557861328 1001.95220947266 1003.09051513672 997.005249023438 993.42822265625 992.640808105469 989.3134765625 992.031372070312 996.241394042969 994.811401367188 998.47705078125 1002.35888671875 1008.24334716797
931.714965820312 931.852478027344 935.217041015625 934.066528320312 933.737487792969 937.462463378906 929.149658203125 926.463439941406 933.856567382812 940.1650390625 948.640258789062 962.456115722656 962.488525390625 976.427307128906 973.814208984375 977.559509277344 980.174194335938 986.678405761719 986.216857910156 992.746276855469 982.04541015625 997.391662597656 988.549133300781 987.583862304688 987.452331542969 992.742492675781 986.123291015625 982.962524414062 987.083251953125 977.389221191406 975.198059082031 975.289672851562 970.695373535156 962.363464355469 971.206665039062 970.081176757812 965.182312011719 970.777954101562 981.680297851562 969.57080078125 978.763732910156 975.13671875 984.291564941406 983.449340820312 977.828552246094 993.517211914062 1002.30908203125 1003.02154541016 993.259765625 991.149597167969 995.940002441406 1001.06872558594 1001.75769042969 992.57958984375 989.535705566406 991.08984375 996.792846679688 984.686157226562 986.055480957031 974.522827148438 979.145629882812 973.879333496094 968.150329589844 960.946044921875 964.427429199219 969.415344238281 982.248474121094 979.990905761719 982.311218261719 987.0478515625 982.080200195312 987.695129394531 993.977966308594 992.810180664062 995.71240234375 983.503234863281 988.757507324219 996.200439453125 984.309143066406 994.148681640625 986.822692871094 984.531860351562 996.764770507812 997.38818359375 991.726867675781 983.517944335938 988.484680175781 987.089721679688 985.798767089844 983.993591308594 983.823059082031 979.357604980469 980.207702636719 980.9248046875 978.430236816406 995.228271484375 996.883056640625 999.071533203125 998.170471191406 1005.78332519531 1003.78051757812 1011.65002441406 1005.59143066406 1008.37933349609 1012.92492675781 1018.57897949219 1018.69506835938 1024.13220214844 1036.05651855469 1033.00720214844 1027.43469238281 1029.0048828125 1030.76879882812 1036.00170898438 1036.9833984375 1036.43078613281 1027.5263671875 1019.39630126953 1024.13146972656 1028.35754394531 1025.87646484375 1024.34521484375 1029.1640625 1036.28674316406 1029.72692871094 1014.42950439453 1020.23718261719 1013.36798095703 1008.275390625 1004.15924072266 1009.42077636719 1008.31579589844 1009.31585693359 1008.05816650391 1017.27160644531 1014.17175292969 1010.91467285156 1011.91705322266 1003.23004150391 998.310852050781 1001.33270263672 988.344177246094 992.264526367188 985.9541015625 977.7998046875 991.117431640625 991.626892089844 998.744750976562 996.959533691406 1006.0625
938.799560546875 934.8154296875 936.181701660156 931.5341796875 933.534057617188 936.633239746094 935.184143066406 937.992370605469 934.958740234375 945.498291015625 956.18896484375 962.341003417969 961.513244628906 972.805969238281 979.142272949219 977.420104980469 978.996398925781 981.230834960938 987.493286132812 988.939331054688 987.929504394531 993.129028320312 994.489562988281 995.279663085938 992.523132324219 992.911743164062 983.4306640625 984.992858886719 972.931335449219 973.067138671875 980.217590332031 971.663330078125 962.600891113281 961.186157226562 971.108764648438 980.643188476562 965.019226074219 981.745483398438 979.887756347656 977.447448730469 980.008911132812 986.938049316406 993.361450195312 991.669006347656 994.450073242188 995.849182128906 1000.45526123047 998.1572265625 1003.2861328125 995.058532714844 998.007202148438 1005.08941650391 1003.55126953125 1000.22143554688 1001.61114501953 996.256713867188 990.935241699219 989.3076171875 981.018310546875 979.855041503906 974.397155761719 972.263427734375 969.206848144531 959.217468261719 967.742736816406 969.750732421875 982.982971191406 988.302917480469 978.536926269531 980.57275390625 986.529907226562 984.129699707031 998.806518554688 1005.94512939453 993.964172363281 992.204833984375 987.296020507812 985.334411621094 988.817810058594 992.504943847656 998.116455078125 996.891967773438 1001.86944580078 1003.52557373047 995.744262695312 992.406311035156 992.843811035156 998.137390136719 989.388732910156 985.228393554688 988.937927246094 990.766296386719 988.748596191406 986.747314453125 988.451538085938 993.683654785156 1000.63342285156 999.261535644531 1005.64593505859 1009.79833984375 1009.97082519531 1014.34106445312 1002.4853515625 1007.40594482422 1012.25927734375 1020.67272949219 1018.78594970703 1025.47668457031 1032.93737792969 1041.5341796875 1040.31396484375 1030.64331054688 1032.08837890625 1039.71337890625 1032.22021484375 1029.63916015625 1027.89477539062 1022.76629638672 1016.47900390625 1017.41986083984 1016.12072753906 1019.15002441406 1015.15832519531 1033.84130859375 1026.79724121094 1019.43481445312 1018.72955322266 1012.39245605469 1010.99829101562 1004.42944335938 1005.08349609375 1005.56274414062 1007.59112548828 1008.60345458984 1008.28491210938 1012.36663818359 1016.26770019531 1013.53454589844 1008.67364501953 1000.05676269531 1003.00354003906 986.391845703125 989.453186035156 989.360290527344 986.387756347656 975.583129882812 982.8076171875 997.328491210938 998.24609375 1002.30908203125
940.956237792969 938.527526855469 928.365051269531 930.678161621094 929.869445800781 932.100646972656 937.191162109375 942.412963867188 938.408264160156 953.689636230469 958.192932128906 970.944030761719 979.365844726562 976.771179199219 980.041809082031 986.143615722656 983.136901855469 977.113342285156 985.932800292969 985.581176757812 980.004577636719 990.230224609375 991.939270019531 992.705932617188 1000.68487548828 986.542053222656 987.010864257812 977.886596679688 984.042236328125 976.274108886719 979.721435546875 976.635803222656 971.934448242188 973.162658691406 970.700988769531 988.999450683594 980.974060058594 981.117553710938 987.666259765625 984.424865722656 989.352905273438 990.019897460938 1000.26531982422 1006.80267333984 1005.90344238281 1009.62872314453 1015.0927734375 1005.92791748047 1003.90252685547 1000.72393798828 1000.6435546875 1009.59069824219 996.6650390625 1009.45861816406 997.893859863281 995.211303710938 986.604248046875 984.270874023438 976.873352050781 976.156127929688 978.499267578125 975.863342285156 969.332336425781 972.778137207031 973.853271484375 976.855407714844 972.817321777344 972.141235351562 979.778503417969 987.851257324219 995.695007324219 989.477661132812 991.176635742188 992.143249511719 994.474243164062 1001.37762451172 992.546203613281 996.042724609375 990.646545410156 989.656555175781 996.305053710938 1005.32214355469 1005.66296386719 996.787353515625 996.463806152344 991.520080566406 994.717651367188 1000.78588867188 999.086791992188 992.325500488281 994.208618164062 984.696838378906 989.156616210938 979.915222167969 999.957580566406 994.149658203125 997.742797851562 999.921020507812 1004.3046875 1003.19104003906 1007.84680175781 1006.57592773438 1010.83782958984 1017.15740966797 1018.15771484375 1024.16296386719 1025.22436523438 1026.08276367188 1032.18249511719 1031.85571289062 1033.18493652344 1033.78295898438 1032.46484375 1035.93811035156 1028.60583496094 1031.79919433594 1029.34631347656 1011.7548828125 1007.29370117188 1005.73681640625 1006.49072265625 1010.76690673828 1012.07464599609 1019.99322509766 1017.02435302734 1019.03356933594 1015.51538085938 1011.8359375 1009.70123291016 1001.38775634766 1006.53704833984 998.079284667969 992.657104492188 1007.17321777344 1005.66070556641 1008.26049804688 1007.39685058594 1013.29437255859 1007.67614746094 998.616455078125 989.060363769531 988.665832519531 984.794067382812 991.315856933594 990.327575683594 983.9228515625 982.671813964844 986.923095703125 996.840393066406 1007.86450195312
948.569519042969 939.359985351562 934.731689453125 936.619812011719 935.724304199219 938.482666015625 931.848571777344 941.680236816406 935.929870605469 951.558959960938 964.515686035156 969.283874511719 971.363830566406 975.817565917969 981.996887207031 984.745178222656 979.158081054688 979.604370117188 989.447814941406 991.997680664062 993.198181152344 987.163940429688 990.366821289062 993.088439941406 987.540710449219 988.636962890625 990.827453613281 986.237243652344 977.709228515625 980.932495117188 987.613464355469 981.154541015625 981.028503417969 976.885620117188 975.502014160156 982.198425292969 970.851135253906 979.762145996094 990.196411132812 996.459411621094 997.29248046875 1000.64855957031 1005.06689453125 1011.75213623047 1016.22314453125 1014.03747558594 1023.81768798828 1019.65563964844 1011.57757568359 998.080993652344 1005.22857666016 1002.43450927734 1001.85797119141 1002.14300537109 994.713562011719 988.973937988281 987.551208496094 976.875183105469 978.853698730469 980.413146972656 977.847351074219 976.572326660156 967.322265625 973.275085449219 979.9765625 978.134216308594 966.260681152344 972.736328125 979.820373535156 980.414489746094 987.531494140625 995.212585449219 990.885620117188 996.247375488281 996.935668945312 999.056762695312 1005.77075195312 988.158630371094 987.120544433594 993.64794921875 997.30322265625 1003.75592041016 1003.23803710938 998.084350585938 996.638732910156 1003.35247802734 1002.04943847656 992.305419921875 994.725830078125 995.999877929688 994.180358886719 995.576721191406 986.112731933594 985.861328125 993.97216796875 994.873596191406 1001.43560791016 991.417297363281 999.838439941406 998.453674316406 1011.06768798828 1003.93530273438 1009.16290283203 1018.00872802734 1020.94525146484 1016.91046142578 1021.54718017578 1033.73693847656 1030.61999511719 1032.03869628906 1038.38781738281 1040.69592285156 1038.27062988281 1023.56689453125 1024.00402832031 1024.18859863281 1023.83123779297 1006.82379150391 1006.85412597656 1002.396484375 1010.55383300781 1021.4208984375 1019.71270751953 1025.37231445312 1023.44427490234 1019.27239990234 1015.29571533203 1013.76623535156 1009.67004394531 1002.87640380859 1003.58966064453 995.367980957031 996.111328125 1005.78912353516 1002.59027099609 1005.84527587891 1006.81506347656 1005.99011230469 998.189453125 994.15869140625 992.57958984375 992.074951171875 988.1455078125 976.772155761719 982.645080566406 984.5517578125 983.795959472656 980.981323242188 995.089660644531 1002.220703125
939.560791015625 934.223571777344 932.528930664062 934.977355957031 935.85205078125 944.582763671875 941.030395507812 937.100891113281 935.5 956.474182128906 960.363525390625 965.223083496094 973.806457519531 974.514831542969 970.065063476562 974.608276367188 978.908874511719 985.621276855469 996.134094238281 994.989929199219 998.345031738281 988.171325683594 992.472717285156 994.022888183594 990.400939941406 988.576171875 986.014587402344 979.535827636719 981.599365234375 988.553649902344 988.958251953125 980.442077636719 978.75146484375 980.0654296875 983.589782714844 976.9853515625 978.269958496094 985.52294921875 994.694213867188 992.830993652344 993.133056640625 998.03076171875 1003.90887451172 1009.23413085938 1012.50750732422 1013.24444580078 1015.02484130859 1017.95855712891 1004.46826171875 1006.50256347656 1002.7197265625 1006.47106933594 1008.67425537109 1003.53277587891 989.885498046875 985.554260253906 989.6708984375 981.571594238281 981.83935546875 984.431762695312 977.507141113281 977.017822265625 971.701354980469 973.088989257812 981.269836425781 979.797668457031 973.966552734375 974.186950683594 979.537841796875 977.311767578125 990.105712890625 992.580505371094 995.447509765625 994.282409667969 998.102600097656 1003.84185791016 1004.46960449219 997.545715332031 992.723999023438 1000.31134033203 1002.55493164062 1003.43725585938 1002.13934326172 1005.18280029297 1005.09777832031 996.442504882812 1002.1689453125 1000.27520751953 1000.00970458984 994.143493652344 992.555358886719 987.479736328125 981.857971191406 987.874572753906 996.047546386719 996.663757324219 993.771362304688 993.225341796875 997.230651855469 1008.05773925781 997.888916015625 1007.89141845703 1011.16656494141 1016.26977539062 1019.79180908203 1019.62432861328 1025.87817382812 1030.8671875 1033.02404785156 1038.03796386719 1042.55334472656 1046.80017089844 1032.38134765625 1029.71130371094 1021.46044921875 1023.78259277344 1015.95867919922 1005.83557128906 1005.68060302734 1004.57611083984 1018.55993652344 1025.0869140625 1031.228515625 1029.11926269531 1016.72253417969 1022.67272949219 1015.17730712891 1013.05780029297 1010.04681396484 1002.14807128906 996.079223632812 1004.69299316406 1009.73504638672 998.680297851562 1003.32720947266 1002.72473144531 1008.74279785156 1002.55090332031 994.147644042969 983.396850585938 982.66650390625 988.160705566406 983.164367675781 976.686950683594 972.925476074219 976.541198730469 980.42626953125 983.902038574219 986.880554199219 1000.04925537109
940.217346191406 936.562072753906 934.031616210938 933.465026855469 930.417907714844 936.964965820312 936.26416015625 935.696044921875 937.827514648438 951.480407714844 965.346313476562 974.019836425781 977.622375488281 980.122009277344 977.616394042969 977.554443359375 980.527465820312 983.346008300781 988.859619140625 993.552734375 997.192810058594 992.641784667969 987.976928710938 988.684753417969 980.833190917969 987.595642089844 982.872131347656 984.575256347656 981.635314941406 981.929321289062 989.973388671875 985.407592773438 983.508850097656 985.930786132812 984.891418457031 981.225524902344 986.460266113281 996.669006347656 993.794677734375 992.216064453125 987.18359375 989.278137207031 998.287353515625 1001.65203857422 1003.3876953125 1002.15777587891 1009.79656982422 1010.73907470703 1007.63079833984 1004.49652099609 999.919860839844 1011.75793457031 1014.43255615234 994.550354003906 993.950744628906 982.911499023438 983.1298828125 977.571960449219 975.609191894531 984.753234863281 990.794128417969 983.005126953125 977.044616699219 980.484375 981.965393066406 983.297607421875 968.76220703125 973.736450195312 979.951904296875 976.346557617188 983.667419433594 989.131652832031 988.46875 995.799255371094 993.372863769531 1004.34350585938 1004.08026123047 1005.81683349609 1008.06500244141 1004.88641357422 1007.16485595703 1007.22930908203 1002.10827636719 1009.25573730469 1010.66571044922 999.964416503906 998.356323242188 993.615478515625 990.013671875 988.2841796875 987.737976074219 980.082336425781 975.961608886719 991.436462402344 997.571166992188 1000.71710205078 994.864501953125 997.886474609375 1007.18463134766 996.20703125 993.62353515625 1003.38208007812 1009.76257324219 1010.37561035156 1022.77429199219 1029.11120605469 1031.95874023438 1037.95068359375 1040.19665527344 1049.13232421875 1047.80651855469 1047.71984863281 1043.97521972656 1032.82006835938 1024.81945800781 1021.70123291016 1016.8369140625 1008.39465332031 1008.20208740234 1012.36657714844 1020.56396484375 1028.29650878906 1035.80493164062 1030.42114257812 1012.65551757812 1017.39593505859 1018.47845458984 1007.69940185547 1000.81903076172 1002.02764892578 1001.43200683594 1001.5068359375 999.341430664062 1003.71087646484 1005.79486083984 1006.70581054688 1000.50854492188 994.750854492188 990.685791015625 982.991516113281 985.332275390625 986.185913085938 980.026245117188 969.9501953125 977.208435058594 974.990234375 975.598937988281 976.7900390625 984.693542480469 987.437316894531
936.29833984375 937.71142578125 935.722717285156 939.9990234375 932.1904296875 935.391784667969 938.551025390625 943.745910644531 941.489013671875 952.044250488281 964.609191894531 977.447570800781 983.7236328125 978.265808105469 982.02197265625 981.985168457031 974.807373046875 978.013000488281 979.763305664062 986.057006835938 980.292907714844 983.217956542969 982.924560546875 982.547790527344 987.673034667969 987.107666015625 989.654113769531 983.476928710938 986.420104980469 985.385192871094 991.461120605469 984.565551757812 990.502502441406 987.6171875 981.910949707031 980.57958984375 980.042724609375 989.819458007812 993.36376953125 984.218872070312 984.597900390625 993.783996582031 997.17431640625 1002.8642578125 1009.32025146484 1002.74060058594 1002.26684570312 1010.01910400391 1016.04351806641 1012.52996826172 1002.19421386719 1011.77136230469 1007.46862792969 996.377014160156 991.811706542969 988.083251953125 988.858276367188 981.64208984375 986.455932617188 989.46484375 985.888671875 992.050354003906 981.560607910156 973.990478515625 974.374938964844 974.680908203125 982.591003417969 979.752990722656 979.079162597656 968.28076171875 984.555480957031 988.030212402344 985.200317382812 991.613037109375 1002.16473388672 1006.98919677734 999.10205078125 1011.02154541016 1010.21545410156 1015.16943359375 1012.38958740234 1010.65209960938 1004.96166992188 1016.70593261719 1001.962890625 1003.28167724609 995.088745117188 997.38330078125 980.031616210938 988.32275390625 992.505920410156 994.797485351562 983.348815917969 989.844299316406 991.267822265625 994.637573242188 987.463012695312 996.332702636719 996.441101074219 990.109436035156 997.903137207031 1006.16510009766 1003.41857910156 1003.74383544922 1015.32586669922 1022.65466308594 1037.47570800781 1041.92309570312 1049.13110351562 1052.94946289062 1042.99011230469 1050.54992675781 1046.19140625 1043.10095214844 1034.69384765625 1020.92071533203 1017.71783447266 1016.45343017578 1008.02569580078 1011.60412597656 1023.40661621094 1030.67883300781 1028.76782226562 1017.55932617188 1013.82342529297 1005.0673828125 1005.26684570312 1002.74169921875 994.328063964844 990.959289550781 998.810302734375 996.151672363281 1001.48114013672 1007.06817626953 1003.42846679688 1003.43524169922 998.243530273438 998.075866699219 991.677673339844 987.641967773438 997.008911132812 991.739379882812 982.893615722656 980.596130371094 979.207580566406 977.472351074219 982.5 978.160400390625 973.441345214844 976.578552246094
938.222961425781 936.85302734375 945.699829101562 937.338073730469 932.041625976562 933.283386230469 943.606384277344 941.177185058594 944.380310058594 957.527526855469 960.982604980469 972.621276855469 977.975280761719 981.230163574219 980.488525390625 971.921142578125 973.934692382812 972.360290527344 971.001525878906 974.130493164062 980.224792480469 982.911926269531 985.546447753906 986.938171386719 989.182983398438 986.281616210938 985.383850097656 981.965148925781 978.771362304688 984.446655273438 981.852661132812 986.759582519531 984.956481933594 984.302673339844 989.3505859375 985.4365234375 987.196533203125 989.378601074219 985.125427246094 979.900512695312 985.238708496094 993.586242675781 996.084228515625 1001.54815673828 1011.68194580078 999.378112792969 1005.84405517578 1010.37640380859 1011.13598632812 1006.60961914062 1011.57073974609 1001.30389404297 1003.68725585938 1004.95599365234 995.02978515625 991.681579589844 981.162048339844 986.092895507812 986.450256347656 991.706665039062 984.66845703125 980.302124023438 983.737121582031 975.907531738281 975.406494140625 972.578491210938 980.334167480469 980.04638671875 975.6826171875 975.235778808594 984.497741699219 989.780090332031 987.6953125 987.021545410156 992.755554199219 995.463317871094 1001.63311767578 1006.28674316406 1010.25994873047 1009.26995849609 1011.85333251953 1010.53448486328 1011.99438476562 1012.18347167969 1004.38159179688 1005.27478027344 1005.78851318359 995.839172363281 984.6474609375 983.465393066406 998.266357421875 993.634704589844 985.0849609375 989.211853027344 990.679809570312 990.944458007812 994.853149414062 992.427185058594 987.749328613281 992.855651855469 1006.74584960938 1005.75231933594 1000.39611816406 1001.16491699219 1024.58923339844 1031.68225097656 1035.1123046875 1047.15747070312 1047.39233398438 1045.03430175781 1049.00622558594 1046.02880859375 1052.98425292969 1049.33422851562 1041.533203125 1040.87841796875 1035.55676269531 1024.57141113281 1025.77954101562 1018.28442382812 1022.58422851562 1026.72998046875 1023.71862792969 1015.80120849609 1016.705078125 1004.27514648438 1000.16949462891 1000.89801025391 997.110961914062 987.977905273438 989.209228515625 995.289184570312 995.476501464844 1000.7412109375 1001.05999755859 995.567260742188 990.372863769531 989.243469238281 987.194274902344 984.621276855469 989.976440429688 987.433654785156 986.283813476562 986.296875 980.921752929688 980.039306640625 989.609008789062 979.456359863281 976.287902832031 977.090026855469
940.844970703125 948.445678710938 946.705200195312 945.790222167969 929.697692871094 934.976501464844 936.2236328125 944.491882324219 957.010070800781 954.786560058594 954.809692382812 965.761352539062 982.637573242188 976.177490234375 968.928039550781 972.229553222656 962.356506347656 960.679321289062 960.066040039062 970.805419921875 968.627807617188 975.72509765625 977.588989257812 981.601196289062 984.027954101562 986.94189453125 980.594177246094 983.274475097656 988.86328125 982.26123046875 983.805541992188 978.641723632812 974.606872558594 979.307373046875 978.717956542969 978.028198242188 979.769958496094 984.941345214844 974.1416015625 970.141479492188 974.028564453125 991.325012207031 997.87548828125 1009.09832763672 1000.64953613281 999.555114746094 1019.2158203125 1012.72784423828 1002.43218994141 1007.08831787109 1007.34405517578 1000.77783203125 1004.74719238281 1004.40106201172 997.323608398438 995.477600097656 986.924743652344 982.327087402344 986.155517578125 987.246765136719 976.973205566406 977.953369140625 982.044555664062 982.520080566406 980.605041503906 982.251098632812 977.968566894531 978.128601074219 981.018615722656 979.06103515625 982.749755859375 996.756530761719 987.468994140625 980.146545410156 985.982238769531 991.830017089844 988.977905273438 996.245849609375 1002.51617431641 1004.59912109375 1000.89288330078 1004.29821777344 1009.79864501953 1006.23699951172 1004.6591796875 1000.47436523438 1003.51531982422 995.318542480469 990.003051757812 995.237121582031 991.626098632812 998.121887207031 990.319213867188 996.1337890625 996.549194335938 995.263977050781 993.657836914062 993.271118164062 986.631530761719 1002.63519287109 998.077819824219 996.349243164062 995.048522949219 1003.76470947266 1022.86492919922 1031.57775878906 1035.44812011719 1045.42456054688 1042.76867675781 1051.416015625 1052.13110351562 1056.21398925781 1061.7666015625 1057.44152832031 1056.16796875 1050.33422851562 1046.32922363281 1034.048828125 1031.36828613281 1029.86181640625 1033.1611328125 1020.94128417969 1024.05627441406 1014.02917480469 1003.03723144531 999.756164550781 1000.54998779297 993.773315429688 987.156799316406 982.736267089844 991.269287109375 998.682312011719 999.555847167969 1001.36614990234 995.212219238281 989.719665527344 986.159851074219 981.837951660156 987.327331542969 981.826538085938 980.594299316406 987.396423339844 988.384460449219 983.747436523438 982.457763671875 983.23828125 980.653930664062 984.3876953125 991.261108398438 985.282531738281
937.684509277344 933.735229492188 937.285766601562 941.153076171875 939.216552734375 941.483276367188 938.331176757812 944.436950683594 953.93603515625 952.989929199219 963.61328125 965.359008789062 967.356384277344 969.221252441406 969.299011230469 967.94677734375 965.614685058594 956.335021972656 954.099975585938 966.557067871094 962.187255859375 973.597534179688 971.797424316406 964.486450195312 967.496154785156 976.018371582031 974.462036132812 977.783447265625 976.693481445312 986.690734863281 973.268676757812 973.526000976562 977.198364257812 967.023681640625 960.135803222656 970.252319335938 974.474304199219 979.420166015625 982.982727050781 980.700073242188 981.723693847656 986.142700195312 993.522033691406 997.300476074219 999.153869628906 998.355041503906 1006.99096679688 1008.96075439453 1007.91644287109 1009.08618164062 1007.96520996094 1001.02062988281 1001.87329101562 1002.75469970703 1003.716796875 991.071899414062 990.378662109375 984.88232421875 988.240905761719 984.71923828125 991.185791015625 977.916809082031 982.853454589844 980.97021484375 979.247680664062 987.075073242188 987.797790527344 986.3857421875 988.090026855469 984.089721679688 998.537902832031 989.743896484375 979.499572753906 982.597229003906 984.337341308594 986.491149902344 995.313110351562 996.966003417969 1003.42468261719 1006.96343994141 998.053283691406 993.771850585938 1001.33923339844 1001.90100097656 1003.57696533203 1002.09130859375 996.317626953125 996.115661621094 1001.85034179688 1000.51226806641 1005.20941162109 1004.15856933594 999.984191894531 991.354614257812 996.322143554688 1004.76965332031 1005.50952148438 1005.91040039062 1004.27874755859 998.714965820312 1000.47412109375 1000.76483154297 997.29833984375 1008.19689941406 1019.02081298828 1028.47766113281 1035.09692382812 1046.0595703125 1043.3671875 1053.73461914062 1058.04504394531 1066.05822753906 1068.4404296875 1074.26000976562 1058.91760253906 1050.08117675781 1042.6279296875 1041.51611328125 1041.86669921875 1044.18078613281 1035.47216796875 1029.89367675781 1019.56018066406 1012.32427978516 998.465148925781 997.799743652344 997.691101074219 991.784118652344 986.5966796875 992.339782714844 999.424926757812 1001.02734375 997.262329101562 996.626403808594 983.785705566406 986.614501953125 980.552185058594 979.269775390625 982.851684570312 977.707275390625 983.989318847656 975.542907714844 983.709350585938 979.834655761719 977.658203125 973.259582519531 974.910949707031 985.055786132812 988.743530273438 986.169860839844
941.241760253906 938.380676269531 940.697692871094 936.309936523438 938.016906738281 940.353393554688 946.347412109375 949.06591796875 949.985595703125 959.796447753906 965.200073242188 964.256103515625 966.138244628906 959.095947265625 968.735778808594 966.551391601562 961.506469726562 955.854370117188 951.341735839844 952.534057617188 961.0556640625 961.666564941406 957.537719726562 962.107543945312 963.083984375 970.263244628906 972.390747070312 973.5341796875 984.03369140625 976.392639160156 977.799438476562 980.272644042969 971.179138183594 963.280700683594 959.284545898438 961.285034179688 961.275451660156 972.966125488281 962.78271484375 975.198486328125 979.720397949219 988.578735351562 987.842468261719 983.755981445312 999.858276367188 999.786437988281 1002.46203613281 1007.23065185547 1011.9287109375 1001.83935546875 1004.45977783203 1001.33673095703 995.644897460938 997.339172363281 995.822570800781 1000.82141113281 994.529907226562 985.428039550781 985.255432128906 992.457946777344 996.942504882812 980.697082519531 978.616088867188 984.35205078125 989.215270996094 991.799621582031 985.465576171875 991.07421875 986.458312988281 990.783752441406 995.447021484375 995.098205566406 982.452697753906 985.633178710938 993.503601074219 986.161743164062 992.1611328125 991.410827636719 995.747741699219 995.431823730469 994.009887695312 992.713562011719 989.054321289062 995.484191894531 998.312377929688 997.9638671875 1006.06066894531 995.129821777344 1003.47296142578 1011.9501953125 1007.70245361328 1007.47418212891 1003.44763183594 1000.03546142578 1009.22186279297 1006.77770996094 1011.00366210938 1004.21722412109 1006.33062744141 999.916442871094 1007.47094726562 1003.82904052734 1004.86663818359 1002.4033203125 1018.71069335938 1026.36193847656 1034.9580078125 1042.05773925781 1044.43811035156 1044.99633789062 1050.89562988281 1065.76599121094 1068.0751953125 1063.52087402344 1060.26318359375 1056.93737792969 1048.1123046875 1042.23962402344 1036.09484863281 1039.90087890625 1031.9482421875 1024.63671875 1017.02099609375 1009.84649658203 998.198669433594 995.770935058594 993.765258789062 999.304809570312 982.961669921875 989.4248046875 992.093139648438 991.682250976562 995.562072753906 990.823608398438 989.849182128906 984.309753417969 982.692687988281 985.110900878906 979.314086914062 979.216430664062 973.014892578125 977.344177246094 980.935363769531 976.845458984375 974.032104492188 976.216979980469 977.686279296875 980.772277832031 982.209350585938 979.839294433594
944.531433105469 942.287170410156 948.600219726562 951.449768066406 949.768981933594 942.054138183594 946.125366210938 948.677551269531 953.273498535156 958.294494628906 959.489562988281 962.175109863281 959.153930664062 962.923583984375 957.132385253906 962.282836914062 957.820739746094 951.534484863281 955.571228027344 955.879699707031 967.390319824219 954.747985839844 955.398132324219 955.518676757812 962 956.638366699219 958.969299316406 960.265625 964.082946777344 967.608764648438 981.452392578125 976.050476074219 966.481750488281 956.894836425781 965.241882324219 962.7333984375 965.410522460938 961.537170410156 963.017578125 974.64013671875 977.344909667969 977.635009765625 983.163513183594 988.847290039062 988.754699707031 1000.71087646484 996.090087890625 1001.71252441406 997.021789550781 1000.6650390625 997.926574707031 1002.04364013672 998.262939453125 1002.74481201172 997.499328613281 999.3720703125 992.186279296875 991.196166992188 999.900329589844 1002.77844238281 992.890563964844 984.948974609375 977.972717285156 987.631652832031 997.44287109375 991.511901855469 987.859985351562 978.6728515625 984.841613769531 985.455322265625 990.83154296875 987.625671386719 989.173889160156 981.084777832031 993.625732421875 996.456726074219 990.376037597656 995.399475097656 995.905456542969 997.64892578125 995.163269042969 991.880554199219 1000.74920654297 990.473571777344 1005.58953857422 1003.458984375 1003.02215576172 997.536804199219 1006.39367675781 1004.09362792969 1006.94738769531 997.858581542969 995.147644042969 994.358154296875 1010.15063476562 1004.98590087891 1003.71331787109 1002.28680419922 1004.47314453125 1004.97088623047 997.505554199219 998.328735351562 1008.75555419922 1012.28564453125 1013.10516357422 1019.39782714844 1030.44897460938 1028.67626953125 1042.19860839844 1043.43469238281 1054.07385253906 1060.43469238281 1071.65246582031 1058.55895996094 1056.5029296875 1060.23461914062 1056.05859375 1044.63305664062 1039.76184082031 1033.87670898438 1028.09521484375 1023.67474365234 1013.28247070312 1006.67071533203 1007.74255371094 997.659057617188 994.582885742188 998.2607421875 994.063842773438 990.0458984375 987.764953613281 983.561767578125 992.030334472656 996.178894042969 993.96533203125 978.810546875 971.630493164062 970.990356445312 971.031860351562 974.863952636719 978.728088378906 983.203857421875 971.938049316406 965.255249023438 972.386291503906 972.656616210938 974.87646484375 980.537475585938 984.029724121094 974.242553710938
