NCOLS 150
NROWS 37
XLLCORNER 7394249
YLLCORNER 4842989
CELLSIZE 30
NODATA_VALUE -9999
932.996032714844 945.337707519531 959.051147460938 966.580261230469 967.347351074219 963.140808105469 959.826599121094 956.550598144531 961.688232421875 972.680908203125 971.274047851562 978.896362304688 989.958251953125 980.984619140625 984.76513671875 977.716552734375 976.393676757812 988.628967285156 990.598693847656 997.704711914062 992.941284179688 994.754272460938 988.93896484375 985.939270019531 987.861145019531 985.957824707031 988.750183105469 991.140258789062 987.699462890625 983.148864746094 990.412963867188 986.583557128906 988.541137695312 986.058715820312 992.278015136719 991.914978027344 988.374694824219 987.732604980469 982.086364746094 979.279357910156 986.290344238281 986.288513183594 987.077270507812 985.570251464844 992.099792480469 987.195434570312 983.5439453125 986.854064941406 995.758850097656 980.898376464844 974.010620117188 982.587585449219 982.105285644531 973.9013671875 985.298461914062 982.950927734375 984.309326171875 982.755065917969 988.755065917969 999.827270507812 989.078369140625 988.636352539062 985.379028320312 997.00390625 993.584777832031 993.712890625 990.51513671875 1001.35369873047 999.933044433594 988.307189941406 987.672180175781 998.713989257812 1003.37292480469 1000.18719482422 995.765563964844 1004.96691894531 993.768859863281 994.091003417969 987.722229003906 993.577819824219 996.260314941406 999.520263671875 1001.45550537109 1002.27807617188 995.72607421875 1007.5654296875 1018.41369628906 1013.77319335938 1012.56945800781 1010.99609375 1023.36444091797 1025.29089355469 1018.63189697266 1015.73889160156 1012.6533203125 1022.52233886719 1028.5546875 1022.34307861328 1014.90594482422 1015.35162353516 1013.00286865234 1011.47033691406 1008.64520263672 1009.67541503906 999.84521484375 1006.88586425781 994.737182617188 997.549499511719 991.204956054688 976.579833984375 964.2109375 956.093872070312 950.768798828125 948.366821289062 950.33154296875 959.320373535156 954.687622070312 964.837036132812 978.261169433594 993.989196777344 1002.25610351562 1007.25952148438 1015.97772216797 1019.61480712891 1018.32202148438 1017.22344970703 1012.95220947266 1024.46179199219 1015.95153808594 1026.36694335938 1029.9228515625 1025.22192382812 1022.92767333984 1025.78820800781 1023.16888427734 1031.27612304688 1037.23913574219 1035.6181640625 1042.46154785156 1048.52624511719 1052.14196777344 1047.60668945312 1062.43334960938 1059.1259765625 1062.19763183594 1062.59729003906 1064.82702636719 1056.95666503906 1057.97387695312 1062.89990234375
942.707885742188 950.559143066406 960.757446289062 969.209899902344 969.205322265625 967.564697265625 957.689208984375 962.515380859375 966.9580078125 973.091003417969 973.904846191406 978.487548828125 984.817932128906 980.702209472656 980.338623046875 976.545166015625 977.943786621094 982.139770507812 985.694396972656 982.351623535156 980.874694824219 987.9892578125 986.690368652344 981.195556640625 981.509826660156 982.869689941406 983.801208496094 986.414611816406 988.298706054688 986.992797851562 977.099731445312 990.067749023438 991.037719726562 973.18310546875 986.940185546875 984.632751464844 986.804748535156 981.30908203125 982.641906738281 979.807495117188 982.800231933594 983.251953125 991.230041503906 988.333557128906 992.048889160156 987.250183105469 979.118225097656 980.977783203125 992.424377441406 977.200744628906 974.428405761719 976.322082519531 979.505615234375 973.277770996094 979.680603027344 979.670043945312 989.047119140625 980.00830078125 988.306274414062 989.381774902344 994.742614746094 994.511535644531 995.270324707031 990.613464355469 991.885314941406 995.833618164062 994.7900390625 1004.93896484375 993.714782714844 992.98388671875 991.411743164062 995.097839355469 1002.00408935547 1001.08892822266 995.732421875 999.7587890625 998.060974121094 983.099792480469 985.074462890625 979.646606445312 987.088439941406 987.675170898438 995.454467773438 994.384887695312 1004.25506591797 1016.81811523438 1016.47467041016 1014.17022705078 1010.50048828125 1004.36242675781 1016.71887207031 1024.14367675781 1019.74011230469 1016.62847900391 1013.03063964844 1017.69769287109 1022.97961425781 1017.19702148438 1016.11016845703 1010.00341796875 1008.91851806641 1007.33038330078 1004.52661132812 1010.76959228516 1007.56207275391 1005.310546875 1000.01916503906 999.226196289062 991.450073242188 978.440673828125 965.004638671875 955.621215820312 956.635375976562 954.83056640625 952.976867675781 956.678588867188 957.787658691406 964.783813476562 977.645141601562 995.420776367188 1005.0458984375 1005.24865722656 1014.240234375 1015.08166503906 1017.61700439453 1017.98522949219 1022.51245117188 1025.05541992188 1032.55224609375 1030.08544921875 1027.03576660156 1030.771484375 1024.50305175781 1026.96459960938 1022.54223632812 1028.07421875 1028.37268066406 1024.93420410156 1039.56018066406 1043.21984863281 1050.43640136719 1053.55297851562 1055.99951171875 1062.11938476562 1062.359375 1063.35961914062 1066.869140625 1064.849609375 1063.56396484375 1065.79467773438
945.790649414062 949.217102050781 961.032165527344 974.185729980469 962.938903808594 968.771484375 966.208557128906 966.740539550781 980.115234375 974.025085449219 973.193908691406 969.931213378906 976.437438964844 985.299255371094 980.519897460938 974.590759277344 973.804626464844 976.632629394531 981.519775390625 986.797241210938 982.381713867188 974.557556152344 972.54443359375 986.351013183594 977.759094238281 979.355590820312 974.440856933594 977.875122070312 982.768249511719 984.477966308594 989.156860351562 986.377563476562 982.86279296875 971.60498046875 984.878662109375 984.47216796875 984.247802734375 990.495666503906 982.609924316406 985.051025390625 991.354919433594 995.811950683594 992.822692871094 994.718811035156 988.356994628906 988.695007324219 991.520385742188 989.4765625 978.77685546875 980.385559082031 977.285339355469 980.074890136719 980.478088378906 979.203674316406 976.455383300781 971.750061035156 976.141540527344 976.5888671875 990.900268554688 997.611450195312 996.937683105469 999.605651855469 987.281127929688 987.869201660156 985.944702148438 986.5517578125 985.883056640625 994.517700195312 995.112731933594 996.004089355469 992.319580078125 984.788757324219 999.286682128906 994.421142578125 990.469787597656 981.403198242188 989.009948730469 978.20458984375 983.787292480469 984.660400390625 977.999755859375 987.980346679688 1003.91357421875 1007.95477294922 1011.43798828125 1013.14099121094 1014.22595214844 1017.16625976562 1014.25054931641 1018.31060791016 1015.48431396484 1022.49041748047 1021.09906005859 1024.00830078125 1016.10455322266 1016.21697998047 1011.37677001953 1014.08947753906 1018.50787353516 1009.85144042969 1008.24566650391 1007.74621582031 1007.8203125 1006.52532958984 1011.56622314453 997.85205078125 999.60205078125 1000.72033691406 994.663024902344 985.745788574219 976.250366210938 959.968994140625 954.092651367188 952.793395996094 958.901184082031 957.026611328125 961.538146972656 965.766235351562 974.365295410156 991.043579101562 1006.05487060547 1004.24169921875 1015.42614746094 1012.35284423828 1026.05419921875 1020.09857177734 1015.37200927734 1015.56628417969 1017.64123535156 1023.28228759766 1016.56079101562 1019.23937988281 1020.09887695312 1020.84527587891 1018.72973632812 1019.36993408203 1022.17987060547 1029.56677246094 1034.87072753906 1037.93872070312 1046.70861816406 1060.95666503906 1060.17175292969 1065.52197265625 1067.50183105469 1066.810546875 1072.88000488281 1068.68518066406 1070.82995605469 1073.16821289062
945.610778808594 948.846130371094 953.374755859375 971.289672851562 972.402221679688 965.366638183594 975.542358398438 982.048522949219 978.769409179688 972.7685546875 964.771667480469 967.721252441406 968.483703613281 980.003540039062 974.221435546875 982.533508300781 976.507263183594 974.991271972656 984.839904785156 985.49853515625 981.977294921875 971.471740722656 973.980407714844 980.945007324219 981.947326660156 983.088256835938 982.443603515625 974.47314453125 977.935241699219 986.896545410156 984.054077148438 983.592712402344 979.583068847656 981.025573730469 988.103271484375 992.019104003906 992.172058105469 984.001281738281 983.541748046875 986.081665039062 990.237854003906 997.758850097656 991.942321777344 990.41015625 992.615112304688 992.566528320312 989.320678710938 990.563049316406 990.240905761719 978.95703125 984.661315917969 982.241333007812 985.48681640625 975.450805664062 976.044738769531 979.289367675781 981.243408203125 987.474243164062 989.742309570312 992.73583984375 998.029663085938 991.324584960938 976.873352050781 987.052856445312 988.382934570312 983.934936523438 993.109252929688 989.831787109375 992.935974121094 995.605529785156 976.094421386719 985.203125 985.7861328125 979.677795410156 977.382385253906 974.43994140625 977.31591796875 972.617431640625 981.991333007812 976.036804199219 980.628845214844 993.839599609375 1003.91198730469 1008.74096679688 1001.28723144531 1012.69195556641 1006.45172119141 1005.44097900391 1009.71270751953 1016.16857910156 1017.39556884766 1023.32257080078 1022.87664794922 1020.52850341797 1015.24261474609 1008.58905029297 1005.66265869141 1000.47131347656 1000.62426757812 1010.98876953125 1006.51477050781 1003.58978271484 1012.00665283203 1002.54742431641 999.549743652344 997.224182128906 991.023620605469 1000.65832519531 987.254333496094 984.028564453125 973.716674804688 971.399475097656 962.3408203125 959.431091308594 968.716796875 959.502807617188 967.744934082031 973.891723632812 976.695129394531 985.005493164062 999.592346191406 1000.91448974609 1006.29693603516 1002.71270751953 1017.53137207031 1017.04693603516 1013.01989746094 1011.75775146484 1009.15417480469 1018.16650390625 1015.36590576172 1012.58081054688 1017.99627685547 1018.04650878906 1007.837890625 1013.18939208984 1021.69915771484 1024.67822265625 1039.85607910156 1047.99194335938 1048.90661621094 1050.95129394531 1060.53491210938 1065.69201660156 1068.92651367188 1072.46911621094 1073.57690429688 1059.92553710938 1063.77209472656 1074.63854980469
935.831665039062 949.459533691406 957.210815429688 970.278625488281 968.609130859375 965.402648925781 975.936950683594 979.8857421875 980.036926269531 971.898010253906 970.448547363281 977.65478515625 972.011352539062 978.036682128906 974.642272949219 975.499145507812 975.7490234375 971.364562988281 980.587646484375 980.026794433594 983.199462890625 982.748596191406 982.05126953125 982.405517578125 983.006958007812 980.2919921875 967.357543945312 976.637084960938 980.794067382812 987.009826660156 979.869140625 991.36669921875 990.959655761719 982.759643554688 987.432800292969 987.026794433594 981.805236816406 992.758605957031 983.346923828125 986.266418457031 988.760864257812 991.330261230469 992.836303710938 988.336303710938 985.879760742188 993.683654785156 994.638488769531 990.837585449219 988.927734375 978.542358398438 979.250061035156 968.358276367188 985.372253417969 977.5302734375 978.161071777344 981.9091796875 989.864318847656 988.393310546875 988.997375488281 985.916076660156 983.212280273438 978.036987304688 983.526977539062 988.5458984375 987.421691894531 981.379638671875 989.663696289062 991.231140136719 989.474914550781 980.979858398438 976.075927734375 973.317199707031 967.67138671875 969.185913085938 962.853332519531 964.241638183594 961.828308105469 967.156311035156 970.410888671875 971.079467773438 986.061279296875 993.57421875 1001.7978515625 1005.94354248047 1014.78521728516 1012.43664550781 1010.70050048828 1006.50335693359 1005.97503662109 1012.68585205078 1014.65899658203 1018.5888671875 1019.78527832031 1014.71405029297 1008.52642822266 1007.310546875 1000.33630371094 1003.14202880859 1000.14587402344 1003.36499023438 1008.06463623047 1010.75653076172 1010.97857666016 1001.32580566406 998.190307617188 992.794921875 990.528564453125 990.306762695312 990.244445800781 986.951171875 980.604919433594 975.897888183594 974.809448242188 970.038269042969 970.53955078125 978.967468261719 977.118103027344 978.966857910156 987.198425292969 992.967163085938 997.032897949219 999.595825195312 1005.84442138672 1006.93463134766 1008.63940429688 1010.73321533203 1011.54943847656 1002.30883789062 1006.25793457031 1012.42761230469 1010.61273193359 1007.45666503906 1017.47216796875 1015.97113037109 1015.11401367188 1027.15197753906 1027.06201171875 1030.17565917969 1032.15734863281 1036.21374511719 1051.84619140625 1051.53894042969 1055.17175292969 1071.38134765625 1068.60083007812 1082.94873046875 1080.96301269531 1073.36218261719 1061.15844726562 1069.578125
945.740661621094 945.317260742188 958.297607421875 963.514953613281 970.1884765625 967.302856445312 969.997436523438 966.091979980469 980.284912109375 977.355834960938 980.414367675781 971.941589355469 966.116882324219 966.299072265625 972.813720703125 975.76953125 978.096801757812 979.979553222656 973.453674316406 978.348083496094 978.578063964844 972.1669921875 977.460632324219 982.033386230469 983.405395507812 974.769897460938 976.980407714844 977.568115234375 980.713317871094 986.239929199219 988.810363769531 988.608276367188 992.514282226562 979.745788574219 983.429260253906 984.906860351562 990.862731933594 984.279846191406 982.456726074219 977.885437011719 979.711608886719 979.656555175781 986.649963378906 991.017395019531 988.684875488281 985.706726074219 986.857604980469 992.120971679688 979.649963378906 979.228820800781 988.260620117188 976.46435546875 980.3837890625 983.195739746094 979.007507324219 982.613342285156 975.586364746094 978.589904785156 988.198120117188 977.999084472656 975.693786621094 989.069458007812 992.278076171875 995.091796875 988.279541015625 984.61181640625 987.875854492188 992.599304199219 988.415222167969 990.194091796875 983.347595214844 979.036499023438 967.800048828125 959.361083984375 953.901550292969 958.0009765625 958.556884765625 961.728271484375 967.099914550781 980.347595214844 986.109741210938 995.674194335938 1001.24005126953 997.435913085938 1012.48883056641 1006.78442382812 1007.93908691406 996.026611328125 1007.93005371094 1002.79754638672 1013.82513427734 1012.03393554688 1012.42492675781 1013.4638671875 1011.95294189453 1009.21649169922 1005.40789794922 1006.61059570312 993.198669433594 996.48193359375 999.816467285156 1005.0234375 1011.73156738281 1011.33526611328 1003.68957519531 991.627685546875 985.571594238281 979.297668457031 993.870727539062 993.095092773438 986.465637207031 992.39794921875 988.346618652344 983.011962890625 990.234069824219 986.862243652344 982.370178222656 978.025207519531 993.807434082031 1003.33221435547 1003.33288574219 1005.07751464844 1012.3017578125 1013.98840332031 1001.57934570312 1001.68225097656 1005.28564453125 1007.05810546875 1003.40948486328 1004.59301757812 1013.38787841797 1009.22491455078 1010.78009033203 1015.19964599609 1015.88537597656 1014.30120849609 1031.99060058594 1038.30920410156 1036.42468261719 1040.42163085938 1045.80419921875 1054.53527832031 1065.44909667969 1078.5224609375 1070.9697265625 1080.30383300781 1086.95434570312 1075.80358886719 1077.13330078125 1081.74609375
943.856994628906 954.206298828125 956.571838378906 963.870300292969 967.857543945312 972.860595703125 971.35546875 973.393615722656 977.405578613281 977.689270019531 972.241088867188 968.143981933594 969.13720703125 971.416625976562 965.055480957031 970.182250976562 978.602294921875 986.448486328125 982.002014160156 975.859252929688 980.032775878906 974.254943847656 971.464477539062 974.058410644531 974.193176269531 968.248474121094 966.812133789062 975.380676269531 980.097106933594 981.004211425781 986.992614746094 986.461669921875 979.522644042969 970.664672851562 974.796813964844 985.18505859375 987.864196777344 982.458618164062 981.265930175781 971.004272460938 976.511657714844 979.119079589844 982.411682128906 988.049682617188 987.175903320312 990.96142578125 990.576965332031 984.972412109375 983.995544433594 987.169860839844 977.134155273438 981.289428710938 985.006896972656 982.56396484375 968.950561523438 974.65380859375 966.579223632812 968.538757324219 978.63134765625 984.043518066406 986.890869140625 991.746765136719 995.423889160156 989.4765625 994.837585449219 994.521484375 979.833435058594 989.357055664062 983.790161132812 991.206604003906 986.380554199219 978.068664550781 972.439453125 965.620056152344 962.281005859375 965.247131347656 958.336181640625 960.481079101562 962.426696777344 966.963562011719 976.968566894531 981.505676269531 993.183288574219 1005.42120361328 1006.77294921875 1000.31823730469 996.407348632812 999.523315429688 1007.50122070312 1007.3486328125 1004.30480957031 1003.90521240234 1003.79943847656 1002.58227539062 1017.40368652344 1013.36260986328 1008.30004882812 1004.3232421875 997.423889160156 993.30029296875 995.462158203125 991.337280273438 1004.29766845703 1001.92004394531 991.163818359375 978.497314453125 982.467712402344 982.903686523438 988.47216796875 989.4697265625 989.971557617188 995.651916503906 994.57763671875 991.618041992188 997.336059570312 997.508728027344 983.190002441406 984.809326171875 989.506958007812 1008.69995117188 1007.26782226562 1002.33984375 1007.35705566406 1009.71148681641 1004.34509277344 1007.57202148438 998.828918457031 1005.9697265625 1016.6416015625 1003.08911132812 1001.83087158203 1011.146484375 1013.40325927734 1020.63470458984 1023.99884033203 1032.5537109375 1026.91528320312 1030.22253417969 1045.49548339844 1044.46813964844 1054.25146484375 1064.57653808594 1068.37072753906 1081.17846679688 1076.955078125 1080.98693847656 1081.95581054688 1073.60546875 1087.10864257812 1090.75390625
940.103637695312 960.0537109375 962.453063964844 967.988952636719 969.597534179688 969.345642089844 974.393798828125 978.872253417969 975.234924316406 965.291809082031 969.536193847656 967.927856445312 969.488830566406 963.7041015625 961.195129394531 964.225830078125 978.212219238281 983.214050292969 982.066589355469 978.511108398438 977.360656738281 979.227844238281 976.6318359375 971.627563476562 974.180969238281 970.453002929688 970.246826171875 973.931213378906 981.591369628906 979.559448242188 982.004150390625 980.023254394531 973.193725585938 981.431701660156 979.657531738281 984.343933105469 988.106872558594 979.321228027344 981.592834472656 972.692199707031 975.119018554688 981.645263671875 984.020080566406 986.9677734375 987.359191894531 991.080200195312 979.291931152344 976.107971191406 975.684326171875 972.390747070312 975.13623046875 986.995056152344 988.709167480469 986.129638671875 975.391357421875 969.434448242188 968.823181152344 971.982116699219 975.682373046875 984.613830566406 983.6298828125 996.301025390625 1000.07977294922 995.899291992188 999.248352050781 990.580078125 985.9306640625 991.121459960938 988.880737304688 981.521057128906 977.017211914062 971.250549316406 961.972351074219 961.362548828125 964.948608398438 963.824035644531 964.726440429688 961.255676269531 953.931579589844 962.406982421875 970.580932617188 980.531005859375 993.793395996094 996.051391601562 1002.41064453125 1003.61071777344 990.146240234375 1002.19488525391 998.562927246094 997.054565429688 990.541137695312 1004.91101074219 1007.19952392578 1005.26037597656 1009.65802001953 1009.12548828125 1004.97680664062 999.792114257812 996.499816894531 986.465759277344 988.9287109375 986.383850097656 988.859313964844 993.27685546875 991.650695800781 983.164123535156 981.486999511719 990.0908203125 994.957580566406 990.367858886719 995.913879394531 1006.16845703125 1002.02825927734 997.980285644531 1005.53039550781 998.021118164062 999.4091796875 984.9345703125 999.729309082031 1000.98291015625 1003.88488769531 1010.73150634766 1011.47418212891 1008.88037109375 1004.69091796875 998.823364257812 1002.69226074219 998.014282226562 1003.93194580078 1011.72674560547 1011.73126220703 1011.82611083984 1007.1435546875 1019.99841308594 1028.46203613281 1035.56384277344 1030.36804199219 1032.01879882812 1041.4072265625 1052.880859375 1058.25769042969 1068.724609375 1079.33776855469 1078.58349609375 1080.04467773438 1090.45532226562 1081.33215332031 1091.36938476562 1087.42590332031 1087.50280761719
955.52490234375 963.3828125 965.791809082031 967.4013671875 970.987060546875 969.896728515625 967.053039550781 966.828308105469 967.569519042969 966.784912109375 966.162780761719 970.298400878906 971.26611328125 972.724609375 967.089660644531 977.170349121094 971.805053710938 977.365600585938 979.090148925781 981.85888671875 986.566955566406 985.81494140625 974.945068359375 971.829833984375 969.123901367188 965.347534179688 972.666809082031 975.950073242188 978.305908203125 984.072998046875 981.320922851562 974.005249023438 976.305725097656 980.107055664062 980.289306640625 982.026733398438 986.124145507812 983.965942382812 976.159973144531 963.727600097656 970.992370605469 967.688781738281 981.226745605469 984.942749023438 989.817565917969 991.062927246094 981.757995605469 971.75048828125 968.860961914062 974.208068847656 979.349731445312 979.935424804688 981.042297363281 978.506958007812 975.122619628906 966.068237304688 965.885986328125 968.44482421875 977.158142089844 977.58251953125 982.61669921875 990.219665527344 989.52294921875 991.919616699219 991.955261230469 986.550720214844 991.951843261719 989.275024414062 983.402404785156 978.994934082031 972.5361328125 974.441467285156 963.694213867188 961.518859863281 972.635375976562 980.392639160156 968.126403808594 964.2744140625 957.813171386719 965.798950195312 975.682556152344 986.069702148438 985.198486328125 988.762512207031 988.818420410156 995.885192871094 1002.41033935547 1007.82012939453 1005.77075195312 996.035461425781 997.921325683594 999.863891601562 996.2890625 1003.16638183594 1003.48370361328 994.967590332031 996.226989746094 993.054382324219 990.897827148438 988.830200195312 988.612854003906 977.986267089844 989.46826171875 1001.68286132812 996.501831054688 987.007446289062 995.857604980469 993.476623535156 996.363159179688 993.557373046875 1000.99822998047 997.582824707031 991.868103027344 997.549682617188 1004.513671875 1012.08715820312 999.924987792969 996.162841796875 997.155456542969 994.927612304688 996.507690429688 1008.48254394531 1011.81884765625 1002.51373291016 1000.62371826172 997.363159179688 1003.57580566406 1003.85516357422 1005.51904296875 1011.20367431641 1014.55969238281 1025.4541015625 1025.04052734375 1033.08093261719 1041.25244140625 1045.20751953125 1034.14880371094 1037.54040527344 1043.09069824219 1052.29821777344 1066.19641113281 1082.03674316406 1080.92138671875 1084.92626953125 1083.25964355469 1090.55029296875 1086.46423339844 1093.78466796875 1098.54382324219 1096.22375488281
960.600402832031 963.628173828125 968.293090820312 962.002075195312 968.99609375 965.507202148438 958.210815429688 961.70947265625 957.618774414062 971.630676269531 963.978088378906 976.867553710938 974.098693847656 970.547546386719 973.138244628906 973.519592285156 962.558959960938 967.318725585938 982.834655761719 971.498779296875 973.455078125 990.020874023438 977.458801269531 973.926147460938 980.428588867188 976.267517089844 969.596618652344 969.317016601562 975.962158203125 977.048095703125 975.666015625 975.923217773438 974.02001953125 983.619201660156 983.211547851562 980.283569335938 978.421752929688 978.915344238281 975.168273925781 971.429626464844 965.86474609375 960.08642578125 973.907409667969 983.345886230469 984.636779785156 982.630004882812 975.248962402344 964.618713378906 968.001708984375 972.429565429688 981.217407226562 979.689208984375 974.354064941406 973.301147460938 974.438293457031 959.976440429688 965.9013671875 972.459838867188 981.4228515625 983.374328613281 982.067260742188 985.828552246094 984.929931640625 992.300231933594 988.56640625 988.611145019531 989.407409667969 984.155334472656 980.597839355469 976.3251953125 966.756591796875 969.474243164062 974.554321289062 966.500244140625 970.538330078125 974.263427734375 959.113891601562 966.084289550781 953.847717285156 969.777282714844 972.831481933594 985.440795898438 987.997680664062 990.929992675781 990.734802246094 992.279296875 986.373474121094 991.749877929688 1000.35308837891 995.0615234375 993.295288085938 994.01953125 994.839111328125 999.390380859375 995.315307617188 988.6474609375 986.695922851562 990.918090820312 987.236755371094 991.371398925781 984.056396484375 985.809631347656 990.740600585938 997.251159667969 1003.1708984375 992.982788085938 982.916809082031 984.877319335938 995.019897460938 988.900634765625 993.87109375 995.434448242188 1002.56866455078 1002.38391113281 1001.98413085938 1008.8125 1004.80767822266 985.218139648438 996.707580566406 995.355041503906 1003.68914794922 1000.46588134766 1003.25006103516 1007.39703369141 1002.63427734375 1001.07989501953 1004.08618164062 1009.21569824219 1005.36553955078 1017.55731201172 1027.96044921875 1028.56567382812 1032.01611328125 1039.2314453125 1046.09399414062 1039.39538574219 1039.30932617188 1044.45434570312 1049.10925292969 1056.01379394531 1073.73352050781 1090.68627929688 1089.94812011719 1102.61364746094 1102.62438964844 1099.15405273438 1096.30358886719 1101.98315429688 1102.4755859375 1097.98083496094
957.981872558594 964.749938964844 968.100463867188 955.709289550781 949.827819824219 949.367858886719 949.802429199219 966.2333984375 957.710021972656 963.943115234375 972.206604003906 975.195922851562 969.565856933594 973.228576660156 970.416625976562 971.375610351562 969.110046386719 976.407409667969 979.061706542969 977.741638183594 982.102172851562 982.637878417969 980.48388671875 976.350524902344 983.648010253906 979.274047851562 971.480163574219 973.050415039062 968.778930664062 969.979064941406 977.573791503906 977.439819335938 976.437927246094 978.999206542969 977.564758300781 980.421447753906 966.896728515625 975.914978027344 969.169616699219 967.523254394531 965.987915039062 968.436401367188 972.077392578125 972.637512207031 977.338745117188 971.641357421875 966.095703125 965.564880371094 965.682861328125 967.590698242188 966.776489257812 976.146850585938 975.369873046875 973.259216308594 970.101135253906 971.744323730469 968.187561035156 972.953247070312 985.484130859375 990.975402832031 999.193054199219 991.716857910156 995.186157226562 987.242492675781 980.03857421875 988.732543945312 983.048461914062 979.624145507812 977.619262695312 971.51123046875 975.847595214844 969.388916015625 972.964599609375 976.367248535156 968.112548828125 962.885559082031 968.257995605469 968.991027832031 966.428466796875 974.975158691406 982.717529296875 991.03515625 992.507385253906 992.870849609375 991.008361816406 980.533447265625 994.129028320312 992.44775390625 998.467529296875 984.153686523438 985.258666992188 983.308898925781 995.591674804688 998.957824707031 990.340393066406 988.08544921875 983.301086425781 981.014709472656 991.879516601562 988.754272460938 986.631225585938 977.231506347656 982.940124511719 989.468627929688 996.674743652344 993.571655273438 982.074157714844 988.431823730469 995.36865234375 992.688537597656 988.802978515625 1001.07568359375 1000.97332763672 999.588073730469 998.955810546875 1001.56060791016 995.627014160156 991.006164550781 1001.23645019531 1004.69830322266 997.961486816406 1010.58441162109 996.386901855469 1008.14129638672 995.17919921875 998.692443847656 1003.14038085938 1004.68121337891 1015.62432861328 1025.47583007812 1029.39135742188 1036.66662597656 1037.71228027344 1041.70446777344 1047.064453125 1048.9462890625 1047.35803222656 1056.97216796875 1053.43688964844 1065.91796875 1082.75378417969 1101.85803222656 1114.18151855469 1109.91101074219 1109.11120605469 1109.49523925781 1101.14392089844 1102.68408203125 1105.90307617188 1109.61401367188
957.314636230469 963.614624023438 966.042175292969 958.129821777344 958.760314941406 961.06494140625 947.566650390625 957.791687011719 954.687683105469 963.798461914062 975.402587890625 979.019470214844 975.1015625 978.560668945312 974.450073242188 962.340637207031 974.662536621094 980.742431640625 980.717651367188 966.7587890625 977.876770019531 978.505065917969 979.157958984375 972.6328125 974.732421875 973.08984375 970.271545410156 969.650634765625 969.169250488281 968.23046875 976.197021484375 977.382568359375 981.833312988281 978.190246582031 977.600402832031 975.969848632812 976.729553222656 975.738403320312 973.608642578125 965.469848632812 964.503662109375 972.591674804688 969.045532226562 960.149719238281 973.470642089844 967.980285644531 961.828186035156 965.563659667969 966.036010742188 977.73974609375 978.820861816406 986.611755371094 978.113220214844 968.950134277344 971.182373046875 967.123901367188 963.77587890625 970.401916503906 987.96533203125 987.931640625 997.094543457031 993.487976074219 986.125610351562 980.986022949219 979.754272460938 978.141052246094 987.71435546875 986.634521484375 976.355041503906 968.919250488281 965.396240234375 968.717163085938 969.5146484375 976.441528320312 965.271850585938 965.482360839844 970.241271972656 971.682800292969 973.246643066406 979.795227050781 986.101135253906 982.583984375 987.025207519531 989.788696289062 985.208557128906 983.048095703125 988.849853515625 991.759155273438 998.919006347656 993.216552734375 988.681701660156 988.546813964844 987.495056152344 991.454040527344 986.138793945312 987.780456542969 989.978271484375 974.285095214844 984.160888671875 991.019165039062 985.019714355469 977.773864746094 984.212951660156 987.588134765625 989.077026367188 990.089965820312 988.460021972656 986.68310546875 982.399536132812 988.14306640625 989.449584960938 994.489929199219 993.807861328125 993.866638183594 998.955810546875 999.189147949219 998.731811523438 996.609985351562 1000.22271728516 1002.08251953125 997.837768554688 995.348876953125 1001.21948242188 999.73193359375 998.90478515625 1003.6337890625 1013.43518066406 1012.37390136719 1023.12255859375 1027.72375488281 1033.513671875 1028.77124023438 1032.50732421875 1041.11083984375 1050.03820800781 1047.13891601562 1052.22387695312 1056.22094726562 1064.26062011719 1086.90368652344 1097.57165527344 1102.81884765625 1114.12902832031 1120.28479003906 1118.62927246094 1119.92016601562 1120.86499023438 1128.83654785156 1122.26171875 1118.97534179688
961.912048339844 959.28076171875 954.334838867188 954.222595214844 959.640014648438 956.526977539062 957.9970703125 960.948913574219 955.260925292969 959.734680175781 967.583923339844 970.875061035156 969.776977539062 981.92724609375 978.203796386719 978.191711425781 974.893493652344 987.537536621094 973.167053222656 961.804626464844 971.950439453125 973.764221191406 971.035461425781 968.232238769531 972.330505371094 965.828735351562 967.862854003906 968.886596679688 982.21923828125 974.582153320312 976.587463378906 979.240539550781 983.81494140625 978.019226074219 969.78515625 973.3544921875 972.420593261719 965.527648925781 961.356018066406 968.868591308594 968.100769042969 970.264770507812 967.4365234375 965.839050292969 969.003662109375 964.544921875 959.987060546875 965.528381347656 967.586059570312 969.846252441406 980.081298828125 980.660827636719 970.841491699219 970.287475585938 970.498901367188 969.354553222656 964.390319824219 969.152038574219 974.143981933594 988.838684082031 990.511108398438 986.745239257812 982.660278320312 979.2099609375 972.740844726562 971.766723632812 978.303588867188 979.039672851562 979.828796386719 970.927612304688 966.082458496094 970.072631835938 965.130249023438 968.114440917969 963.200744628906 967.424865722656 973.758239746094 967.644897460938 963.496948242188 971.815795898438 975.640014648438 987.047729492188 985.188781738281 984.324340820312 980.349853515625 980.849060058594 986.836608886719 997.669372558594 998.089721679688 995.610595703125 981.817260742188 985.009155273438 983.625061035156 991.710754394531 987.928466796875 988.536315917969 991.511108398438 981.497192382812 980.118286132812 986.32958984375 980.596435546875 977.603637695312 981.480529785156 976.136596679688 987.677429199219 980.250061035156 975.989501953125 979.711853027344 979.749633789062 985.676696777344 982.6484375 987.723327636719 989.258361816406 993.823852539062 996.647399902344 999.123596191406 995.072387695312 995.091979980469 994.991027832031 994.782104492188 987.09228515625 992.586242675781 991.893249511719 993.275146484375 1000.06207275391 1005.13208007812 1016.92297363281 1021.53900146484 1021.11260986328 1024.97119140625 1025.28369140625 1038.65649414062 1038.34936523438 1048.2646484375 1053.65515136719 1055.61071777344 1065.15124511719 1071.14074707031 1071.3681640625 1089.63525390625 1102.11950683594 1113.11413574219 1127.03527832031 1135.84008789062 1133.462890625 1138.41589355469 1130.55541992188 1139.416015625 1136.46923828125 1129.71997070312
948.668823242188 950.634155273438 943.973022460938 949.127746582031 955.015930175781 952.555908203125 960.5107421875 965.98583984375 959.356628417969 967.709045410156 964.089233398438 962.576843261719 976.827697753906 971.105041503906 973.088012695312 982.972290039062 983.922485351562 975.051818847656 975.994445800781 979.49267578125 965.803466796875 980.149047851562 972.305053710938 970.902954101562 962.481872558594 959.797058105469 970.4677734375 977.77880859375 980.458251953125 977.147827148438 979.990905761719 981.52392578125 982.738220214844 973.308288574219 979.166931152344 974.633178710938 969.74169921875 967.25634765625 976.463928222656 974.386779785156 968.72119140625 965.879211425781 968.49951171875 973.189758300781 964.32470703125 969.274353027344 964.435363769531 969.607360839844 976.389526367188 979.950256347656 984.483947753906 975.528625488281 964.647277832031 970.878051757812 966.025695800781 967.466674804688 969.312683105469 971.44482421875 973.101989746094 983.369934082031 978.686157226562 977.114807128906 970.596923828125 968.689514160156 966.059509277344 973.346496582031 971.187377929688 980.251342773438 970.11376953125 969.703857421875 969.67041015625 966.098571777344 967.690185546875 970.325073242188 964.119689941406 960.430297851562 965.7744140625 976.655334472656 971.829162597656 972.3154296875 979.408813476562 985.092895507812 989.335998535156 983.534057617188 987.039978027344 983.531860351562 984.693908691406 995.96923828125 982.875671386719 986.0849609375 983.550048828125 974.291320800781 984.124694824219 996.106018066406 994.619812011719 984.812438964844 982.102783203125 976.910827636719 977.965942382812 983.865478515625 978.535766601562 974.708618164062 983.012634277344 972.099182128906 976.576049804688 971.065551757812 976.782043457031 973.876281738281 984.776123046875 983.852722167969 978.925415039062 984.4658203125 990.348999023438 984.765258789062 1001.22082519531 1002.62622070312 995.164855957031 989.78564453125 998.640869140625 1000.16046142578 998.045654296875 1001.92230224609 998.846435546875 998.25146484375 999.175109863281 1006.83905029297 1018.72369384766 1028.22033691406 1026.26635742188 1020.40380859375 1019.66192626953 1025.37329101562 1026.60607910156 1037.21997070312 1055.99230957031 1060.75183105469 1076.99841308594 1074.88684082031 1083.29382324219 1104.55090332031 1108.30798339844 1121.15747070312 1135.40588378906 1138.95520019531 1139.73315429688 1145.10754394531 1143.83837890625 1144.94116210938 1146.71240234375 1145.12060546875
948.761901855469 948.294799804688 948.377746582031 956.853942871094 955.776306152344 957.867370605469 961.727661132812 962.811950683594 964.086791992188 973.411926269531 973.536987304688 967.139770507812 969.779052734375 972.093933105469 978.25 984.290832519531 986.818420410156 984.347045898438 982.328674316406 974.336547851562 966.976379394531 969.884338378906 971.874877929688 965.119506835938 966.427795410156 960.373046875 975.224426269531 979.328918457031 977.262084960938 980.463745117188 980.502746582031 980.706604003906 985.421325683594 978.992858886719 973.863891601562 967.649780273438 966.866577148438 974.110595703125 978.271362304688 973.434204101562 973.048156738281 964.132141113281 970.613708496094 967.084106445312 963.899536132812 969.486450195312 966.842407226562 972.366882324219 973.802551269531 977.223388671875 977.976379394531 979.579467773438 975.786560058594 968.754699707031 969.02685546875 969.4482421875 969.686645507812 968.990783691406 971.634155273438 972.325317382812 968.38720703125 976.834289550781 976.701904296875 969.619567871094 970.296325683594 971.790405273438 970.527099609375 970.844787597656 969.247985839844 963.267944335938 965.613952636719 961.180114746094 962.338562011719 966.296936035156 971.530456542969 964.90087890625 975.401428222656 970.789184570312 973.611206054688 969.577331542969 976.664123535156 981.540954589844 983.367736816406 980.848083496094 981.1318359375 985.618713378906 986.065856933594 978.851379394531 980.858703613281 981.951354980469 980.683166503906 980.582885742188 981.768432617188 985.157653808594 989.231811523438 984.360473632812 984.160217285156 987.006774902344 986.103149414062 970.104736328125 980.542785644531 981.443786621094 984.578552246094 975.56005859375 984.230285644531 981.026672363281 973.924499511719 975.347839355469 989.800903320312 980.106506347656 986.996826171875 988.922241210938 993.354614257812 991.990966796875 997.671691894531 1008.18566894531 1005.83905029297 1002.06616210938 1001.17181396484 1004.39971923828 997.844787597656 993.488098144531 992.951477050781 995.073852539062 1015.65972900391 1011.75476074219 1019.76696777344 1035.15026855469 1037.4765625 1013.99725341797 1011.39886474609 1023.87268066406 1034.24353027344 1043.87377929688 1056.39672851562 1067.90966796875 1079.7978515625 1085.42883300781 1100.06921386719 1113.47351074219 1118.77563476562 1127.11535644531 1138.47570800781 1148.15930175781 1148.29772949219 1154.65319824219 1154.82727050781 1153.63500976562 1159.72473144531 1159.52185058594
944.221313476562 951.58837890625 957.124267578125 959.074340820312 966.522094726562 959.884948730469 958.642944335938 961.493713378906 962.645385742188 963.952026367188 970.892700195312 970.782592773438 974.305480957031 974.773071289062 969.052978515625 981.737365722656 978.722961425781 976.996765136719 978.723083496094 975.260681152344 964.92138671875 966.021484375 966.305786132812 959.543334960938 962.057006835938 967.286254882812 968.863037109375 969.222717285156 973.514343261719 976.453674316406 977.271850585938 985.232788085938 978.46484375 981.238464355469 975.313842773438 962.104858398438 964.853515625 973.027770996094 968.073913574219 963.802551269531 974.092102050781 965.495056152344 970.305725097656 971.436584472656 961.777160644531 961.237243652344 963.8076171875 968.496887207031 967.604919433594 975.482055664062 966.162780761719 970.296875 972.68359375 975.004699707031 980.816040039062 974.523864746094 976.287719726562 975.014709472656 969.229125976562 973.329223632812 970.205261230469 966.463134765625 976.775573730469 973.324401855469 972.270629882812 974.566345214844 974.644714355469 971.363159179688 961.567199707031 960.828491210938 961.486694335938 961.385986328125 976.011108398438 967.831970214844 968.798095703125 974.14599609375 973.272827148438 977.650451660156 968.089172363281 972.898376464844 973.186706542969 969.867370605469 968.268188476562 969.894409179688 973.01416015625 980.144348144531 982.417175292969 978.342407226562 972.257385253906 978.586730957031 980.268249511719 981.0322265625 981.141052246094 980.170715332031 985.0625 981.932922363281 984.913269042969 984.92578125 983.642761230469 974.777282714844 979.825927734375 980.509338378906 985.380554199219 986.609252929688 979.51806640625 991.788818359375 985.95751953125 981.054931640625 981.368591308594 979.877319335938 994.353942871094 998.798522949219 1000.96356201172 998.623291015625 1003.20867919922 1010.60198974609 1006.94165039062 1014.91076660156 1006.11279296875 1005.87530517578 995.263488769531 1003.56634521484 1002.2890625 1008.01977539062 1019.30096435547 1023.53509521484 1029.09558105469 1041.26123046875 1035.35791015625 1027.23779296875 1022.85357666016 1029.56689453125 1041.75903320312 1049.93469238281 1062.10461425781 1074.94250488281 1082.27600097656 1088.44836425781 1098.6123046875 1109.09289550781 1121.90808105469 1130.42175292969 1139.94311523438 1150.42248535156 1160.9931640625 1161.98657226562 1169.61169433594 1173.91467285156 1168.69262695312 1165.03344726562
951.211975097656 952.233520507812 954.783752441406 961.635986328125 963.867553710938 962.165893554688 959.692016601562 963.27001953125 964.73291015625 966.184997558594 967.839965820312 969.713500976562 974.172119140625 969.349426269531 976.813171386719 983.484680175781 975.630859375 974.535583496094 971.340759277344 974.501098632812 964.068664550781 963.699584960938 970.185302734375 963.099060058594 963.145751953125 970.897277832031 972.1708984375 970.357116699219 972.970764160156 977.623962402344 976.680603027344 979.579528808594 973.234313964844 975.916809082031 976.666137695312 963.037963867188 965.981994628906 963.684753417969 954.721435546875 952.999328613281 965.073120117188 966.001281738281 964.549133300781 970.900573730469 963.428466796875 962.109619140625 964.228698730469 964.975219726562 973.114562988281 968.122802734375 973.739318847656 964.522094726562 962.994506835938 967.887756347656 971.948974609375 969.939270019531 976.706787109375 975.369079589844 975.856140136719 972.571472167969 965.908569335938 964.387145996094 973.62255859375 974.978576660156 980.387390136719 971.550842285156 971.904663085938 974.347961425781 963.015808105469 967.414855957031 969.346801757812 966.014709472656 967.713317871094 971.132995605469 963.905517578125 968.291015625 974.849060058594 968.945434570312 965.235168457031 969.593994140625 974.240966796875 964.187072753906 951.801391601562 968.710205078125 971.645385742188 976.520324707031 977.110595703125 971.018798828125 970.311645507812 965.53662109375 978.288635253906 979.381591796875 976.854309082031 974.727294921875 984.22216796875 998.180236816406 987.309020996094 988.958068847656 985.519653320312 982.079284667969 978.902770996094 980.632446289062 990.598571777344 988.832336425781 993.86962890625 995.746276855469 986.655944824219 983.80517578125 988.668823242188 988.345947265625 992.959350585938 994.707824707031 999.038635253906 1001.5283203125 1008.92474365234 1006.92224121094 1011.19036865234 1014.6171875 1012.58465576172 1010.93725585938 1010.78344726562 1013.91595458984 1012.53576660156 1022.78875732422 1027.28271484375 1022.90954589844 1032.21813964844 1039.07385253906 1037.58081054688 1030.24914550781 1042.52673339844 1045.27453613281 1047.583984375 1062.0341796875 1078.43371582031 1085.53051757812 1087.26782226562 1087.87902832031 1106.03747558594 1108.11840820312 1116.58813476562 1133.32312011719 1144.60583496094 1153.63659667969 1157.8037109375 1162.99645996094 1166.08227539062 1163.15686035156 1160.59851074219 1156.03112792969
947.254577636719 952.12939453125 961.105285644531 967.390075683594 962.993225097656 964.49658203125 962.660705566406 964.446166992188 964.4541015625 964.215209960938 971.409057617188 975.334655761719 978.887573242188 971.64404296875 975.462585449219 981.685668945312 974.948852539062 971.838195800781 971.218688964844 981.752563476562 970.270263671875 967.510925292969 965.362060546875 964.411010742188 965.891052246094 967.986999511719 967.5478515625 970.719848632812 973.461059570312 974.169555664062 969.712707519531 978.083374023438 984.056274414062 979.026550292969 970.000183105469 968.965881347656 957.955383300781 949.833740234375 945.362121582031 947.286743164062 960.739685058594 961.1640625 967.630187988281 962.853210449219 962.504943847656 964.273559570312 967.041076660156 966.170654296875 975.220947265625 973.627380371094 963.451110839844 960.508056640625 967.089233398438 956.207824707031 964.749633789062 975.7119140625 972.775207519531 976.638488769531 972.961364746094 976.300109863281 968.361450195312 964.641052246094 966.848205566406 971.755981445312 966.464721679688 966.411071777344 972.150085449219 973.017700195312 972.7509765625 969.048889160156 965.972045898438 962.455017089844 965.113220214844 965.679931640625 970.346984863281 968.74609375 974.462097167969 975.430358886719 972.599731445312 973.654418945312 974.941772460938 961.854309082031 962.780334472656 959.818298339844 966.269409179688 969.183532714844 973.582580566406 966.148498535156 957.618347167969 955.320922851562 976.490051269531 977.618713378906 978.828002929688 967.878295898438 971.709045410156 984.168884277344 988.011352539062 979.830322265625 982.848876953125 983.13623046875 982.675476074219 977.319152832031 993.285400390625 993.289001464844 997.372436523438 998.683532714844 993.3349609375 990.456909179688 990.461303710938 982.806701660156 986.201049804688 985.904479980469 993.101928710938 1002.57666015625 1010.43304443359 1009.28112792969 1015.30517578125 1012.84588623047 1018.29846191406 1024.0263671875 1018.58435058594 1018.65728759766 1019.46228027344 1023.29772949219 1030.03015136719 1022.25848388672 1031.52075195312 1029.03857421875 1031.58056640625 1042.09228515625 1043.02124023438 1049.95080566406 1052.06042480469 1061.99401855469 1075.26257324219 1085.69714355469 1089.10949707031 1091.60632324219 1095.86083984375 1110.91455078125 1124.57507324219 1132.35485839844 1150.59008789062 1156.22290039062 1164.27307128906 1164.42956542969 1164.38488769531 1160.41528320312 1149.86865234375 1153.62976074219
952.240905761719 956.714599609375 964.011108398438 967.364501953125 965.43017578125 963.451599121094 959.540832519531 963.59521484375 970.805358886719 975.754760742188 967.152099609375 971.480712890625 978.753479003906 979.455200195312 982.212463378906 981.818176269531 970.50927734375 975.447448730469 982.072937011719 982.769409179688 969.067810058594 967.676513671875 960.550598144531 968.161437988281 969.627624511719 968.167541503906 964.825988769531 967.742614746094 970.416015625 964.993530273438 967.639587402344 969.389526367188 973.950927734375 972.467163085938 965.518615722656 967.665222167969 958.7216796875 956.59619140625 948.142211914062 956.206787109375 958.973266601562 956.221801757812 958.229553222656 964.943359375 964.076232910156 963.8564453125 965.774963378906 974.999450683594 972.779479980469 966.578125 955.851989746094 962.538940429688 958.892395019531 954.09716796875 955.234802246094 969.0537109375 972.447265625 970.630859375 960.331420898438 971.416259765625 973.144348144531 964.486755371094 966.026306152344 966.193603515625 968.51513671875 964.587646484375 962.2705078125 969.338684082031 979.322021484375 968.957580566406 971.483703613281 963.291259765625 958.326293945312 956.944213867188 967.815734863281 968.4541015625 972.299072265625 967.53857421875 973.351501464844 976.49560546875 969.013000488281 972.825317382812 964.809020996094 970.381042480469 956.435424804688 976.197326660156 970.967163085938 972.168579101562 964.357727050781 970.416320800781 980.93603515625 977.573669433594 975.067321777344 967.300964355469 979.646545410156 974.458679199219 974.862487792969 980.145446777344 979.057373046875 980.154846191406 976.474975585938 982.917907714844 985.095764160156 982.528930664062 993.576477050781 987.124816894531 995.925964355469 987.032958984375 994.383117675781 983.608154296875 977.972412109375 987.197814941406 984.5947265625 998.875061035156 1003.25549316406 1004.97576904297 1005.80383300781 1012.92932128906 1022.45953369141 1022.43933105469 1024.11279296875 1023.2529296875 1022.64660644531 1030.38745117188 1028.400390625 1034.12036132812 1036.50109863281 1029.58483886719 1033.9501953125 1040.49780273438 1048.72583007812 1052.26794433594 1059.7548828125 1064.59741210938 1078.02551269531 1090.67297363281 1093.85266113281 1095.10522460938 1099.87182617188 1109.974609375 1118.40124511719 1130.06213378906 1145.34033203125 1149.3095703125 1160.46411132812 1156.42102050781 1164.84143066406 1160.77807617188 1154.14831542969 1141.16674804688
950.360168457031 961.470275878906 962.848815917969 960.689453125 965.145202636719 968.015258789062 963.810729980469 963.578430175781 969.370666503906 975.741943359375 970.465148925781 969.226867675781 980.63330078125 983.3525390625 989.269470214844 986.598937988281 977.982543945312 978.183227539062 977.407104492188 977.34765625 974.410583496094 970.688415527344 965.528137207031 960.51806640625 963.225891113281 976.230407714844 969.209838867188 968.990295410156 971.390502929688 967.5595703125 966.275268554688 966.629516601562 973.403930664062 976.046264648438 973.860168457031 967.490783691406 964.666870117188 961.224487304688 956.848449707031 966.095581054688 960.096252441406 963.67431640625 962.732666015625 958.474914550781 951.295471191406 958.812255859375 962.494689941406 968.430358886719 972.065490722656 970.836791992188 967.507385253906 965.832763671875 960.521423339844 956.794372558594 960.466979980469 966.464050292969 960.597778320312 958.711730957031 961.879333496094 964.7275390625 968.307495117188 970.501586914062 970.8525390625 970.191772460938 969.832336425781 965.535583496094 974.682434082031 970.150268554688 971.717529296875 962.806030273438 967.641479492188 966.286682128906 958.840576171875 956.827819824219 966.787170410156 966.154907226562 970.248901367188 970.436767578125 974.962646484375 968.501281738281 967.204711914062 978.832336425781 973.495727539062 966.1357421875 961.1943359375 964.809326171875 976.454833984375 972.383605957031 976.92431640625 971.09375 981.166564941406 972.025146484375 963.26806640625 969.286254882812 965.440734863281 969.030151367188 964.970642089844 965.750732421875 972.355285644531 973.561096191406 974.889770507812 975.042175292969 975.351440429688 987.157592773438 985.892333984375 986.626281738281 997.699279785156 987.178466796875 983.997009277344 983.516418457031 987.600036621094 987.962951660156 991.822021484375 991.458068847656 990.501098632812 997.096618652344 1005.94744873047 1012.87097167969 1012.75726318359 1019.21868896484 1023.27008056641 1017.43890380859 1025.44421386719 1028.6669921875 1032.02368164062 1032.341796875 1029.59045410156 1033.19323730469 1033.37780761719 1040.90551757812 1049.51501464844 1052.5068359375 1066.59741210938 1073.45971679688 1083.69445800781 1093.03845214844 1093.07666015625 1100.36474609375 1099.20202636719 1109.28173828125 1114.798828125 1131.30615234375 1144.68078613281 1143.82690429688 1153.47473144531 1148.93408203125 1155.91101074219 1161.12829589844 1148.81335449219 1146.59997558594
953.55908203125 956.353942871094 964.458618164062 956.996643066406 959.240417480469 962.098693847656 969.196899414062 967.240173339844 973.556335449219 973.339782714844 964.607971191406 977.107116699219 975.494201660156 979.928100585938 977.915710449219 976.251708984375 980.503479003906 986.502807617188 979.399719238281 975.061340332031 972.681762695312 956.7822265625 960.07763671875 965.026184082031 961.787170410156 968.791809082031 962.408630371094 962.181213378906 964.700988769531 972.281494140625 972.344116210938 966.81787109375 981.214965820312 981.447143554688 976.481140136719 972.698669433594 964.672607421875 969.589294433594 965.043334960938 970.831298828125 960.92236328125 966.138977050781 962.497192382812 961.804565429688 958.638671875 960.244140625 959.427062988281 971.653930664062 968.149841308594 972.469299316406 970.584899902344 967.488525390625 953.872680664062 959.733276367188 955.523803710938 957.319885253906 959.953735351562 956.68603515625 961.175842285156 960.457946777344 962.794006347656 967.447937011719 982.331237792969 977.465209960938 965.961120605469 969.132507324219 967.333129882812 970.12158203125 964.873291015625 960.3935546875 968.511535644531 968.69921875 971.674682617188 974.841796875 967.374267578125 965.62353515625 971.714721679688 974.935241699219 974.162841796875 971.669311523438 968.860473632812 971.690307617188 973.665222167969 972.203796386719 964.056640625 969.383422851562 971.707336425781 964.124267578125 971.940979003906 970.88671875 963.93798828125 961.683044433594 971.940979003906 974.288391113281 974.500122070312 969.363586425781 973.507141113281 970.009460449219 967.328674316406 975.199401855469 983.622009277344 979.539428710938 977.461120605469 986.638244628906 980.634399414062 983.735717773438 980.855407714844 987.938110351562 988.492004394531 987.417419433594 986.287963867188 991.664367675781 995.170593261719 998.643493652344 992.249938964844 994.69287109375 1006.66967773438 1004.86199951172 1014.19171142578 1022.75299072266 1024.80932617188 1022.40991210938 1021.45428466797 1031.6826171875 1034.41577148438 1041.96716308594 1032.95593261719 1037.83776855469 1036.99401855469 1037.53308105469 1051.87341308594 1055.80725097656 1067.98815917969 1076.27880859375 1075.8134765625 1084.60656738281 1088.28344726562 1089.86840820312 1095.66882324219 1101.900390625 1107.3505859375 1118.88256835938 1128.00573730469 1141.65393066406 1140.05065917969 1145.68481445312 1146.48132324219 1139.34655761719 1139.46740722656 1134.42956542969
962.970458984375 962.214599609375 964.401672363281 960.09423828125 961.690673828125 963.846496582031 964.262145996094 963.884582519531 976.95068359375 972.230163574219 971.521667480469 978.395263671875 982.402282714844 979.273254394531 977.169494628906 969.038208007812 967.624572753906 979.882995605469 976.096862792969 974.370239257812 966.095031738281 958.744201660156 960.623352050781 965.304931640625 966.627502441406 960.475036621094 956.229370117188 956.427124023438 972.323120117188 974.467590332031 981.753845214844 980.987426757812 980.539916992188 979.706115722656 977.051574707031 970.454406738281 966.600891113281 965.845703125 962.222412109375 967.212585449219 962.755004882812 963.017883300781 961.215698242188 964.205200195312 953.827026367188 964.805236816406 969.231750488281 966.392333984375 967.506286621094 963.212829589844 965.254333496094 951.090148925781 964.430541992188 964.35791015625 960.503356933594 955.008056640625 955.154968261719 956.388122558594 956.767150878906 959.977844238281 956.844909667969 961.933776855469 973.893371582031 980.0615234375 966.581176757812 962.937316894531 955.935363769531 962.244323730469 955.451538085938 962.409118652344 967.806640625 962.856079101562 967.610900878906 962.679504394531 965.268920898438 956.50390625 967.429748535156 976.149353027344 968.842834472656 976.791381835938 969.74072265625 967.295104980469 973.622619628906 967.055725097656 968.221130371094 956.797729492188 965.975158691406 969.846313476562 976.790222167969 965.72607421875 965.336669921875 971.148803710938 974.877807617188 977.827880859375 978.295288085938 972.973999023438 977.512084960938 979.157104492188 978.062683105469 987.1064453125 984.947692871094 982.866149902344 977.979797363281 980.096008300781 982.442138671875 988.090026855469 973.446655273438 975.014099121094 982.347778320312 986.250671386719 988.11962890625 995.488647460938 1002.31317138672 993.114196777344 998.01904296875 994.086486816406 1000.77581787109 1007.42987060547 1019.02655029297 1027.23999023438 1031.10498046875 1025.48645019531 1026.42858886719 1028.43811035156 1032.42846679688 1033.22583007812 1038.56774902344 1035.88696289062 1041.99951171875 1043.06384277344 1046.57470703125 1063.07995605469 1064.78198242188 1074.63366699219 1075.232421875 1086.04479980469 1090.15881347656 1090.56604003906 1098.65356445312 1098.63513183594 1104.96008300781 1114.86511230469 1120.60339355469 1127.27880859375 1126.37097167969 1124.69836425781 1125.90002441406 1128.31335449219 1137.11193847656 1138.79663085938
964.323791503906 965.986206054688 966.167419433594 953.640686035156 970.13232421875 972.151000976562 972.466735839844 968.150268554688 977.394714355469 971.328552246094 975.458923339844 976.516906738281 980.904907226562 976.355407714844 969.301635742188 960.96337890625 960.220397949219 969.467102050781 979.816528320312 969.451477050781 964.233520507812 959.722534179688 963.142028808594 969.144897460938 962.153015136719 963.058166503906 954.790405273438 959.453796386719 972.625366210938 974.404602050781 970.722717285156 970.926330566406 977.596008300781 981.538024902344 975.38818359375 962.795043945312 955.900512695312 961.988830566406 960.325500488281 960.223266601562 959.577270507812 964.569458007812 966.348815917969 968.173217773438 964.193908691406 961.59033203125 963.624816894531 968.576171875 960.770751953125 946.380737304688 951.959655761719 949.179443359375 954.452575683594 964.026489257812 959.039672851562 952.782043457031 953.333435058594 950.049133300781 959.289001464844 958.366516113281 957.004516601562 958.274597167969 961.738830566406 972.518737792969 964.100769042969 959.372253417969 954.925109863281 961.47021484375 957.413879394531 959.933959960938 961.908020019531 958.801208496094 960.048461914062 951.33984375 957.83251953125 963.932189941406 968.704345703125 964.880432128906 966.177612304688 969.69921875 965.72509765625 966.548950195312 966.664489746094 954.026977539062 961.925354003906 963.255065917969 964.404357910156 969.484069824219 976.129516601562 967.325561523438 971.532653808594 972.246276855469 977.464721679688 968.089294433594 973.903259277344 976.703186035156 974.224670410156 979.220275878906 972.918579101562 979.643737792969 983.897216796875 980.960083007812 979.828186035156 976.971740722656 975.337951660156 984.948608398438 974.671447753906 985.925231933594 983.200805664062 986.955871582031 987.031127929688 982.236267089844 987.458129882812 1001.37762451172 1003.80328369141 1003.69055175781 1004.88970947266 1008.08282470703 1010.52404785156 1026.58142089844 1025.32312011719 1025.91491699219 1018.61688232422 1026.40197753906 1029.72692871094 1021.43035888672 1028.36181640625 1036.89416503906 1037.81103515625 1036.0458984375 1048.31201171875 1067.35986328125 1066.24304199219 1072.42016601562 1078.33093261719 1086.52465820312 1084.5966796875 1085.81652832031 1091.29187011719 1092.91687011719 1096.39184570312 1100.10534667969 1105.31066894531 1119.80798339844 1122.046875 1115.2021484375 1113.68994140625 1119.75720214844 1122.87744140625 1127.75708007812
973.931762695312 970.30810546875 967.583984375 967.436157226562 966.426574707031 967.073486328125 980.623596191406 971.788452148438 978.560424804688 969.00048828125 972.091491699219 971.416748046875 977.448364257812 976.163513183594 968.136779785156 960.678833007812 963.4599609375 968.395812988281 977.841796875 968.373840332031 969.058959960938 965.134216308594 967.938720703125 966.770568847656 956.964538574219 956.104675292969 963.994079589844 961.879699707031 964.001708984375 966.4130859375 971.226867675781 963.937438964844 973.700378417969 978.978271484375 975.007873535156 965.398681640625 958.202575683594 961.691589355469 951.669372558594 955.693115234375 951.59033203125 959.462707519531 957.732971191406 957.290344238281 956.210266113281 959.81201171875 962.2138671875 960.404235839844 957.742431640625 954.670104980469 949.927917480469 942.575927734375 955.923583984375 956.880859375 961.425476074219 956.102111816406 951.500610351562 950.8564453125 961.552185058594 958.010559082031 953.174743652344 953.91064453125 964.142211914062 956.6650390625 959.322509765625 957.950561523438 961.015258789062 958.818420410156 954.884216308594 959.695434570312 952.111572265625 963.916381835938 957.495849609375 958.818237304688 958.251770019531 955.101257324219 963.180419921875 967.259094238281 955.283081054688 962.964904785156 961.342590332031 950.934204101562 961.954650878906 960.768920898438 966.101806640625 961.923645019531 959.263793945312 959.620483398438 967.081787109375 966.996826171875 969.6923828125 981.595886230469 973.904357910156 965.36865234375 975.03125 969.659851074219 967.103515625 973.033996582031 977.303405761719 984.322875976562 977.405944824219 982.592468261719 981.074768066406 977.635986328125 982.133117675781 982.409912109375 970.831115722656 969.446716308594 982.278198242188 992.936462402344 993.589416503906 994.179443359375 993.202941894531 1000.90576171875 1005.32250976562 1002.5498046875 999.254638671875 1005.23248291016 1008.41351318359 1019.86474609375 1013.46246337891 1018.80535888672 1014.35064697266 1025.76208496094 1031.25732421875 1021.90704345703 1026.72680664062 1023.66149902344 1032.88635253906 1044.220703125 1051.38342285156 1058.57373046875 1059.97265625 1072.8701171875 1074.71655273438 1083.32080078125 1090.916015625 1089.47937011719 1091.09118652344 1090.0322265625 1091.72766113281 1093.48132324219 1111.33911132812 1107.05419921875 1109.427734375 1108.91381835938 1113.70385742188 1108.19360351562 1117.99328613281 1118.60656738281
963.338623046875 967.574096679688 963.511901855469 969.281921386719 972.625366210938 970.34912109375 967.635009765625 973.149597167969 969.642700195312 974.358154296875 970.60791015625 969.790649414062 976.426818847656 975.248962402344 967.688354492188 971.801330566406 969.767333984375 971.657043457031 969.728637695312 970.924377441406 970.778381347656 963.714965820312 960.652526855469 965.530944824219 959.140258789062 964.725952148438 962.406982421875 959.182983398438 969.189758300781 965.127380371094 968.316528320312 957.204956054688 971.051208496094 968.087768554688 958.535888671875 961.387268066406 963.728942871094 965.734802246094 957.46728515625 956.153564453125 958.306091308594 962.630493164062 956.726013183594 955.07470703125 953.864135742188 952.848388671875 944.545471191406 947.502075195312 947.339050292969 944.620666503906 950.026977539062 947.018310546875 957.772705078125 957.910827636719 965.959777832031 961.698425292969 961.8984375 963.59130859375 965.145385742188 956.321166992188 953.787536621094 958.224426269531 957.187927246094 959.355163574219 957.719177246094 963.781127929688 959.640197753906 951.34130859375 941.891784667969 947.143493652344 954.133056640625 957.131164550781 959.259704589844 947.626403808594 956.012084960938 961.529479980469 965.754943847656 957.347595214844 954.845336914062 957.073669433594 955.8173828125 953.109619140625 953.017272949219 962.714233398438 958.500610351562 959.742858886719 950.175170898438 953.533630371094 955.190551757812 969.827331542969 969.103881835938 973.460327148438 976.748168945312 966.163269042969 965.66015625 965.333618164062 977.2392578125 973.691650390625 978.205871582031 973.152893066406 979.064880371094 982.234497070312 988.484252929688 983.096252441406 988.578735351562 980.25 974.395202636719 970.003295898438 976.561889648438 989.239990234375 985.070190429688 991.490112304688 993.910278320312 989.901000976562 1003.10186767578 992.317504882812 992.513793945312 1002.26257324219 1001.13159179688 1010.02056884766 1011.75048828125 1013.26733398438 1007.9912109375 1011.15252685547 1025.13403320312 1020.47351074219 1027.06970214844 1023.27191162109 1026.21459960938 1041.9482421875 1049.77722167969 1053.19189453125 1056.64416503906 1065.45544433594 1076.50512695312 1083.88439941406 1095.02099609375 1099.02001953125 1098.75854492188 1088.17150878906 1097.60729980469 1097.34240722656 1108.03857421875 1101.12438964844 1103.23291015625 1106.40209960938 1107.28649902344 1099.95666503906 1102.54797363281 1109.04211425781
976.5068359375 971.080139160156 962.594421386719 967.455261230469 970.134948730469 973.119140625 968.517211914062 969.09619140625 977.023620605469 971.077270507812 968.072082519531 972.951293945312 975.264038085938 975.373291015625 972.55615234375 971.204345703125 976.382263183594 976.116577148438 967.473266601562 964.406005859375 967.221130371094 960.676025390625 953.920837402344 964.382385253906 955.54443359375 959.414855957031 963.65771484375 956.742919921875 962.752319335938 969.760559082031 961.867553710938 958.454284667969 955.49267578125 959.269287109375 956.569396972656 956.801696777344 956.890014648438 955.183349609375 957.931640625 962.525390625 960.972290039062 956.746765136719 960.609619140625 958.96337890625 955.462951660156 953.562927246094 951.439208984375 949.127258300781 946.505981445312 949.733581542969 954.058837890625 946.043701171875 947.453979492188 960.662170410156 962.044189453125 965.258483886719 964.740295410156 957.770446777344 956.300231933594 955.202209472656 960.118408203125 954.294860839844 958.074340820312 956.439514160156 954.199035644531 957.648132324219 954.252136230469 945.506713867188 947.5576171875 947.5390625 963.154418945312 955.031799316406 960.974975585938 954.384460449219 951.6220703125 956.964660644531 960.212768554688 958.729736328125 962.099670410156 958.550354003906 958.2060546875 953.680358886719 959.751281738281 966.820678710938 963.114440917969 960.59912109375 947.216064453125 950.302429199219 954.417602539062 967.654174804688 964.096984863281 970.489196777344 975.166625976562 975.175720214844 968.832092285156 981.966247558594 973.829284667969 982.517639160156 977.651428222656 977.547607421875 976.811279296875 975.467529296875 987.281433105469 989.731140136719 987.545043945312 975.103149414062 973.673400878906 978.178527832031 973.20751953125 981.292175292969 989.205627441406 993.613525390625 990.125732421875 989.576354980469 992.595458984375 994.069213867188 996.934875488281 1004.80920410156 1002.66613769531 1011.74548339844 1009.51214599609 1003.60284423828 1008.45861816406 1012.75738525391 1015.04205322266 1012.29895019531 1015.79132080078 1022.99206542969 1019.12579345703 1032.72045898438 1044.28112792969 1054.55603027344 1058.21740722656 1065.04040527344 1080.66760253906 1087.71484375 1090.080078125 1090.58862304688 1089.14465332031 1075.27294921875 1078.65368652344 1089.48132324219 1088.3466796875 1088.73327636719 1087.17333984375 1091.80017089844 1101.45520019531 1099.87939453125 1092.22534179688 1095.71142578125
976.545776367188 973.902648925781 971.334411621094 978.715087890625 972.259582519531 967.160888671875 969.441101074219 967.413330078125 971.185729980469 963.871643066406 961.89404296875 964.9365234375 958.690795898438 968.18896484375 974.555297851562 974.919128417969 971.864196777344 972.64697265625 966.245300292969 960.13623046875 956.635375976562 948.560668945312 954.929321289062 964.894592285156 961.753662109375 961.268493652344 963.54443359375 954.792663574219 955.8818359375 954.797058105469 958.159362792969 963.598754882812 958.476440429688 954.620422363281 961.845886230469 958.305786132812 955.146850585938 959.562683105469 956.381896972656 960.035766601562 960.207885742188 960.6142578125 959.247497558594 961.601928710938 960.932067871094 957.863098144531 952.837707519531 956.853271484375 957.432189941406 947.539733886719 951.973266601562 951.510375976562 953.197692871094 962.457336425781 967.15087890625 966.57421875 961.361145019531 958.115966796875 956.841430664062 955.823486328125 958.280639648438 956.002807617188 959.921813964844 959.667907714844 954.717163085938 955.587158203125 952.272644042969 953.57373046875 956.231567382812 957.281066894531 959.587524414062 958.392761230469 963.843139648438 956.673645019531 960.098022460938 954.872497558594 962.76904296875 965.785705566406 962.096252441406 964.999084472656 963.034606933594 961.678100585938 966.946838378906 966.545715332031 963.568054199219 954.979858398438 950.769775390625 949.393127441406 952.961547851562 951.121520996094 962.208679199219 969.528503417969 970.36962890625 967.898864746094 971.832397460938 979.57958984375 987.005065917969 981.519165039062 978.954833984375 979.115478515625 986.263854980469 976.680480957031 976.008178710938 986.914733886719 989.673706054688 982.586669921875 977.732971191406 985.590270996094 980.460815429688 985.206420898438 994.988525390625 999.12451171875 992.602600097656 986.073425292969 988.226745605469 987.967834472656 986.813781738281 994.989624023438 1002.22741699219 1005.03546142578 1009.7294921875 1008.50775146484 1007.97003173828 1012.78503417969 1013.27917480469 1011.60900878906 1012.55126953125 1022.45373535156 1020.13842773438 1024.33288574219 1045.18835449219 1050.23864746094 1053.99353027344 1064.34020996094 1081.54650878906 1089.29284667969 1086.36291503906 1085.65356445312 1078.54895019531 1069.57434082031 1071.13354492188 1071.33740234375 1079.21643066406 1078.91137695312 1080.34582519531 1076.52563476562 1090.70935058594 1092.78527832031 1084.89636230469 1089.41125488281
976.171875 976.1884765625 966.190185546875 970.411804199219 974.050048828125 962.07373046875 966.608276367188 972.557189941406 974.107727050781 964.432983398438 956.97021484375 962.116271972656 957.950500488281 962.182739257812 977.276550292969 980.8095703125 973.744140625 977.375061035156 975.193420410156 962.073852539062 951.431823730469 949.524047851562 951.083068847656 955.168640136719 948.766479492188 951.758117675781 952.754089355469 953.789855957031 956.560424804688 950.581787109375 951.907470703125 955.452575683594 951.007019042969 953.818237304688 958.932189941406 963.222534179688 965.30859375 959.729187011719 951.091186523438 959.778747558594 959.842956542969 966.050170898438 960.415588378906 963.206115722656 952.026123046875 958.539855957031 957.917358398438 950.605651855469 948.465393066406 955.686157226562 953.815246582031 954.890808105469 952.768615722656 960.335083007812 965.989807128906 959.35009765625 954.804443359375 960.69580078125 961.228393554688 949.733154296875 947.347839355469 958.296691894531 956.744567871094 959.461486816406 954.334350585938 949.107482910156 959.801025390625 952.221557617188 951.135559082031 960.983337402344 960.744812011719 966.446838378906 965.91796875 966.269165039062 963.025512695312 961.768310546875 962.524780273438 964.351013183594 963.713317871094 971.448913574219 964.859619140625 966.723754882812 963.757629394531 958.0576171875 965.470703125 967.044860839844 964.935424804688 957.496704101562 963.15771484375 964.508972167969 964.600891113281 965.654663085938 959.471435546875 962.455993652344 968.938415527344 981.739868164062 987.427124023438 993.546691894531 978.760437011719 980.924560546875 990.985656738281 978.420227050781 982.625305175781 980.46240234375 984.931579589844 978.056091308594 983.383605957031 980.850830078125 977.218994140625 991.004760742188 994.710083007812 996.513732910156 989.3955078125 987.373901367188 990.526672363281 994.633056640625 992.134826660156 999.242492675781 1002.85467529297 1007.12231445312 1005.99768066406 1014.81018066406 1011.79656982422 1008.55670166016 1009.10083007812 1011.03643798828 1018.90447998047 1017.87213134766 1015.37481689453 1022.94091796875 1034.80126953125 1048.3037109375 1054.85510253906 1063.69787597656 1072.85424804688 1074.71850585938 1086.908203125 1078.615234375 1075.06506347656 1062.51147460938 1062.71435546875 1067.96838378906 1064.55212402344 1065.03930664062 1067.86022949219 1071.11267089844 1071.02966308594 1071.12829589844 1075.43920898438 1084.98754882812
977.664611816406 969.468139648438 965.298706054688 965.592834472656 970.453369140625 965.316711425781 969.381896972656 969.138488769531 974.057434082031 962.079833984375 960.063232421875 961.317565917969 943.973205566406 960.202819824219 967.842651367188 979.331176757812 969.95458984375 972.907958984375 970.220336914062 964.181823730469 960.387451171875 953.162475585938 947.02294921875 942.24169921875 944.949951171875 943.9482421875 955.557556152344 952.327575683594 960.368347167969 956.8486328125 948.595153808594 955.533935546875 959.562622070312 954.173828125 955.891540527344 953.029968261719 967.896423339844 962.006225585938 956.847412109375 961.9990234375 953.846984863281 956.422912597656 959.770202636719 957.442993164062 952.562316894531 959.3037109375 959.777404785156 955.104187011719 950.449584960938 960.581970214844 957.905212402344 958.666564941406 952.591613769531 959.715209960938 962.470947265625 957.748046875 955.394348144531 959.488342285156 965.862060546875 950.6171875 957.543701171875 958.841613769531 960.627868652344 954.649780273438 956.100341796875 953.611511230469 961.9228515625 959.637512207031 957.3623046875 956.081115722656 957.806091308594 973.595397949219 963.064819335938 965.08544921875 959.218139648438 963.561950683594 959.746826171875 955.102661132812 954.382507324219 969.533264160156 960.656982421875 969.095031738281 953.797790527344 957.932312011719 964.456848144531 965.462707519531 962.462829589844 956.258666992188 959.7578125 973.0341796875 976.129089355469 972.108947753906 968.175720214844 961.391479492188 974.762268066406 984.168029785156 977.921325683594 989.062133789062 976.741516113281 982.792724609375 991.022521972656 975.853393554688 978.781127929688 982.929260253906 979.11376953125 983.095947265625 981.513916015625 980.335144042969 990.7744140625 999.878234863281 997.900939941406 989.448303222656 990.997985839844 992.799133300781 995.544067382812 993.848999023438 995.256042480469 1001.9365234375 1001.59326171875 1009.55700683594 1006.60803222656 1008.67437744141 1006.22766113281 1010.35028076172 1006.28521728516 1011.92242431641 1023.52374267578 1026.59838867188 1018.39807128906 1028.49523925781 1029.24377441406 1041.40222167969 1048.28930664062 1067.13159179688 1066.04382324219 1068.466796875 1069.36584472656 1078.92651367188 1078.43530273438 1053.40087890625 1048.8759765625 1048.17333984375 1055.58544921875 1059.025390625 1061.31896972656 1066.0234375 1067.16101074219 1060.34155273438 1069.44470214844 1074.76708984375
978.440246582031 967.858276367188 965.148864746094 965.991577148438 958.38427734375 968.838256835938 971.88330078125 967.974792480469 963.809387207031 961.28955078125 953.184631347656 950.516357421875 955.045471191406 958.367736816406 964.950866699219 964.942504882812 964.297180175781 972.45263671875 960.970275878906 963.789245605469 961.607299804688 957.377990722656 951.77001953125 944.752319335938 935.5234375 947.708740234375 951.642028808594 954.38525390625 955.980773925781 952.110778808594 944.96533203125 949.192932128906 952.374816894531 952.551818847656 950.963623046875 954.907775878906 952.259216308594 952.389892578125 953.238586425781 948.808410644531 947.162170410156 953.284729003906 951.529907226562 956.049926757812 951.423950195312 952.615783691406 953.500549316406 952.013732910156 952.637573242188 958.619140625 960.726806640625 952.826904296875 951.1806640625 955.025329589844 958.638488769531 954.951965332031 958.36083984375 964.36572265625 968.664001464844 965.824401855469 968.129272460938 963.902954101562 964.68603515625 959.831359863281 951.445129394531 962.077575683594 966.193542480469 965.511291503906 961.569396972656 962.378540039062 968.818481445312 970.638122558594 970.047607421875 963.450744628906 963.393798828125 964.855895996094 963.201721191406 967.451416015625 966.716247558594 961.310485839844 961.412353515625 963.772155761719 959.289245605469 968.209716796875 971.265197753906 964.3603515625 963.634155273438 967.832702636719 959.97412109375 971.868041992188 960.110168457031 970.6142578125 967.727172851562 960.707092285156 981.015563964844 973.467712402344 979.184204101562 973.17822265625 974.232971191406 979.183837890625 981.727844238281 977.898986816406 979.409545898438 985.506164550781 984.171447753906 986.138977050781 988.672302246094 988.859497070312 990.486145019531 984.524597167969 991.409423828125 993.648803710938 998.555603027344 995.501403808594 998.476257324219 992.9560546875 997.370727539062 990.278747558594 991.266235351562 1000.37103271484 1010.65789794922 1010.82397460938 1011.48217773438 1012.90472412109 1012.72271728516 1021.98419189453 1019.04705810547 1026.45739746094 1028.12609863281 1038.27233886719 1033.47106933594 1034.74438476562 1046.71875 1057.25317382812 1059.62573242188 1070.87475585938 1066.52209472656 1068.79064941406 1071.203125 1064.03967285156 1053.64025878906 1040.11547851562 1042.97631835938 1044.05065917969 1046.81774902344 1056.95874023438 1056.9931640625 1056.48303222656 1060.94897460938 1063.85498046875
973.974304199219 972.546691894531 972.204284667969 973.310241699219 967.658325195312 967.396484375 972.754150390625 975.662780761719 970.930419921875 955.034301757812 958.904602050781 955.762573242188 961.555541992188 955.581237792969 957.663452148438 958.0205078125 950.787170410156 964.290649414062 958.016662597656 961.220581054688 955.744079589844 960.924926757812 956.326110839844 940.177917480469 940.50830078125 951.692016601562 956.384033203125 958.975646972656 948.672119140625 954.873474121094 957.090270996094 946.80517578125 951.699340820312 951.734741210938 951.18017578125 955.4990234375 953.243835449219 950.220092773438 948.668762207031 949.825988769531 959.962951660156 960.287170410156 959.563598632812 952.347595214844 951.436462402344 944.947448730469 952.872009277344 954.982177734375 954.630798339844 954.666076660156 958.1953125 950.911315917969 943.38037109375 950.050170898438 948.252624511719 952.641418457031 962.253845214844 961.530639648438 970.0947265625 966.312866210938 970.965637207031 959.3662109375 959.279541015625 960.390625 953.863464355469 954.432373046875 957.090087890625 965.226013183594 966.951110839844 968.204895019531 968.273315429688 967.926818847656 965.371643066406 965.225219726562 969.375 971.501037597656 965.494934082031 962.360290527344 962.694885253906 958.974670410156 962.84130859375 969.61083984375 963.334106445312 972.104736328125 969.885437011719 961.261169433594 969.715759277344 965.10595703125 969.330871582031 970.009338378906 969.107727050781 968.452209472656 965.200561523438 972.761291503906 977.436767578125 969.504699707031 971.317077636719 970.167419433594 975.772644042969 979.929992675781 979.524719238281 978.944885253906 978.019287109375 980.40869140625 968.400695800781 975.571472167969 984.638732910156 987.580322265625 990.0947265625 994.02099609375 990.730041503906 998.860290527344 994.508178710938 997.125549316406 1002.82568359375 993.483154296875 993.606384277344 997.859741210938 1000.27209472656 1003.34234619141 1001.54046630859 999.276000976562 1010.80053710938 1006.36895751953 1015.40606689453 1015.63732910156 1022.77722167969 1020.80303955078 1022.16546630859 1032.53088378906 1035.49401855469 1039.52856445312 1041.56005859375 1045.57873535156 1056.55615234375 1054.95141601562 1062.56494140625 1064.66186523438 1060.61999511719 1052.15161132812 1036.79064941406 1029.09411621094 1026.80749511719 1038.91137695312 1032.47497558594 1041.05114746094 1050.3623046875 1049.42834472656 1045.63403320312 1050.82043457031
982.846069335938 978.310729980469 975.339721679688 970.782287597656 965.940612792969 965.855834960938 968.150695800781 968.388916015625 964.500366210938 962.930053710938 965.755737304688 964.198791503906 955.09619140625 948.665100097656 953.188659667969 950.009521484375 959.305969238281 956.276245117188 963.897827148438 959.154479980469 950.904479980469 958.417297363281 961.56494140625 944.773071289062 946.256591796875 950.945068359375 950.308654785156 956.918823242188 954.462829589844 955.377990722656 954.607727050781 947.7861328125 957.602294921875 952.244018554688 949.912414550781 953.129943847656 954.416015625 943.699829101562 944.922912597656 951.78076171875 949.871765136719 955.232360839844 948.840576171875 948.256652832031 958.166076660156 948.452575683594 950.964111328125 955.0966796875 960.27978515625 955.715393066406 957.080261230469 957.198547363281 947.232238769531 950.021789550781 951.792114257812 956.4111328125 962.968200683594 966.496826171875 959.625061035156 969.579711914062 964.383178710938 961.046752929688 953.910888671875 957.729736328125 956.687072753906 956.48876953125 962.727600097656 964.076782226562 970.662475585938 959.992004394531 962.993286132812 967.476928710938 969.169616699219 965.905517578125 970.212768554688 969.176940917969 966.651184082031 958.985534667969 968.013488769531 970.200622558594 972.018005371094 973.855407714844 969.55712890625 967.8544921875 971.542602539062 971.638854980469 975.953186035156 965.1376953125 975.836181640625 971.695434570312 974.067932128906 978.791564941406 972.921325683594 974.125244140625 978.047729492188 978.594177246094 970.757141113281 970.947326660156 977.55615234375 983.730224609375 983.449279785156 986.830017089844 983.337341308594 974.3447265625 960.343017578125 968.087707519531 979.82470703125 988.074462890625 994.587829589844 994.036804199219 987.7001953125 996.128479003906 991.5859375 1002.0322265625 998.85888671875 995.984313964844 999.913330078125 1007.34912109375 999.391235351562 1002.52728271484 994.451843261719 1002.10052490234 1006.58953857422 1013.01098632812 1015.92364501953 1016.03833007812 1021.81707763672 1018.46783447266 1022.73211669922 1026.00744628906 1037.01037597656 1037.87158203125 1039.91369628906 1046.16809082031 1053.12341308594 1055.79211425781 1056.78393554688 1064.57189941406 1052.95385742188 1052.33032226562 1031.76953125 1026.58618164062 1039.60522460938 1039.271484375 1038.52038574219 1034.79895019531 1033.91723632812 1039.79174804688 1033.28088378906 1036.82995605469
979.449768066406 974.509216308594 964.839233398438 963.538024902344 969.413635253906 958.811950683594 958.105346679688 962.516540527344 954.473815917969 962.949890136719 959.274841308594 960.420532226562 967.864318847656 957.075500488281 951.6064453125 947.433532714844 958.12841796875 953.22607421875 953.121704101562 955.474914550781 961.220031738281 965.049682617188 961.761962890625 951.420837402344 947.574523925781 947.254455566406 946.800842285156 953.6767578125 945.810791015625 950.572509765625 955.963562011719 947.047546386719 947.632507324219 947.466857910156 948.81298828125 952.573120117188 954.2060546875 949.783264160156 946.052612304688 946.962646484375 938.186401367188 944.460327148438 949.309692382812 950.938232421875 946.876586914062 943.482604980469 940.182434082031 947.124328613281 956.65625 951.303161621094 958.329406738281 952.589050292969 954.569946289062 945.09619140625 948.095825195312 951.853576660156 961.006530761719 957.337280273438 962.815979003906 965.233459472656 962.615112304688 966.031860351562 958.525695800781 955.969299316406 952.946655273438 958.55810546875 952.287475585938 960.612182617188 965.684143066406 964.609802246094 966.356689453125 967.064270019531 962.439147949219 958.82470703125 964.385803222656 967.658935546875 966.409118652344 967.392700195312 971.808715820312 968.919311523438 976.357543945312 971.108276367188 978.274230957031 970.607971191406 972.509887695312 973.9482421875 982.934265136719 976.646667480469 967.239501953125 969.924926757812 970.86669921875 967.191955566406 971.258544921875 965.391723632812 977.472290039062 976.614074707031 971.259155273438 980.480102539062 986.603881835938 987.047668457031 983.044921875 983.351257324219 983.391723632812 976.331787109375 978.776245117188 976.611450195312 988.381103515625 993.399719238281 999.774047851562 998.386596679688 993.102172851562 991.455749511719 989.322875976562 991.621765136719 1006.14227294922 998.331115722656 1008.87860107422 1014.28088378906 1006.20568847656 997.882995605469 1001.16589355469 1009.63018798828 1009.49578857422 1013.90856933594 1011.98022460938 1009.7880859375 1013.64294433594 1021.37994384766 1025.76245117188 1017.7177734375 1023.2294921875 1034.1220703125 1034.69360351562 1043.23132324219 1055.63549804688 1047.474609375 1049.20336914062 1061.49194335938 1043.10363769531 1038.50695800781 1030.80700683594 1029.91955566406 1026.01208496094 1031.646484375 1035.25 1032.96765136719 1034.43640136719 1027.28063964844 1027.7216796875 1038.37683105469
966.694091796875 967.985595703125 959.325317382812 953.960510253906 957.046508789062 955.633544921875 951.051635742188 952.665283203125 947.485595703125 948.006042480469 950.767761230469 960.517272949219 962.756652832031 954.558898925781 955.270629882812 947.866638183594 950.771057128906 949.965393066406 959.9453125 961.1591796875 959.428405761719 957.712768554688 966.06103515625 952.793884277344 949.867858886719 949.2158203125 940.157958984375 940.708740234375 940.246520996094 947.116455078125 953.320983886719 942.153137207031 945.881103515625 948.409790039062 946.275695800781 954.524719238281 954.24853515625 962.034118652344 948.198059082031 945.930603027344 948.746032714844 952.968322753906 953.060363769531 950.696594238281 948.809936523438 948.288757324219 941.341735839844 950.163391113281 953.722900390625 956.924255371094 958.240661621094 958.405517578125 952.073852539062 949.257263183594 944.104858398438 957.776428222656 962.600219726562 962.9423828125 966.101257324219 970.974670410156 961.112121582031 963.762023925781 965.968627929688 963.441467285156 952.368957519531 954.588317871094 948.58251953125 956.14501953125 957.151000976562 961.197448730469 958.751953125 958.798767089844 967.471130371094 963.599853515625 964.778564453125 966.62841796875 971.45263671875 965.695739746094 965.858215332031 970.580078125 972.023193359375 977.501953125 973.520385742188 971.558471679688 977.312316894531 975.7919921875 975.568908691406 980.783203125 977.346252441406 970.291442871094 965.686706542969 966.455871582031 969.281433105469 974.552734375 972.678833007812 979.296325683594 974.097961425781 986.049072265625 995.894897460938 985.365539550781 981.214172363281 984.106811523438 975.689514160156 976.992797851562 986.959167480469 986.7001953125 989.478759765625 991.117248535156 999.396667480469 1000.51953125 994.040710449219 995.495910644531 997.481140136719 1000.56726074219 1005.33026123047 1002.35308837891 1009.30822753906 1009.63903808594 1007.39172363281 1007.67407226562 1008.18493652344 1015.740234375 1016.96069335938 1021.64044189453 1018.10412597656 1006.51654052734 1009.26342773438 1015.48760986328 1027.12829589844 1014.69818115234 1017.29138183594 1018.806640625 1023.97692871094 1027.79467773438 1044.02282714844 1044.544921875 1044.97131347656 1048.85876464844 1030.21655273438 1029.62866210938 1026.49621582031 1030.47583007812 1026.44226074219 1025.72131347656 1020.37023925781 1026.14855957031 1033.853515625 1027.91662597656 1022.3154296875 1033.84704589844
964.00732421875 967.365112304688 962.772277832031 957.184753417969 959.455444335938 950.501159667969 941.853454589844 947.750427246094 949.327087402344 947.978332519531 948.94189453125 942.187866210938 950.159240722656 949.700805664062 947.276611328125 953.638732910156 945.959045410156 952.782104492188 962.620422363281 958.980834960938 951.959411621094 951.798706054688 954.207763671875 950.979370117188 952.727172851562 947.869750976562 947.321716308594 943.612365722656 950.40869140625 951.792602539062 946.525390625 943.898620605469 947.582336425781 949.6474609375 951.337341308594 954.784545898438 946.203308105469 952.273986816406 952.93701171875 948.456359863281 954.644714355469 967.762634277344 954.994079589844 953.570678710938 946.938659667969 949.988464355469 952.751281738281 949.163879394531 954.105163574219 962.497375488281 963.076599121094 957.927368164062 947.709594726562 951.861206054688 960.476989746094 969.467895507812 971.521911621094 966.408020019531 972.203491210938 959.941650390625 966.824462890625 967.989868164062 963.485717773438 965.197692871094 960.897521972656 956.825927734375 954.956970214844 957.534057617188 953.639099121094 967.728271484375 963.074340820312 967.067565917969 963.920532226562 968.155151367188 960.283020019531 962.354614257812 970.6591796875 976.891723632812 963.159790039062 966.028686523438 971.001525878906 978.422912597656 977.185607910156 974.528259277344 979.760437011719 980.221984863281 982.793273925781 978.433410644531 978.699645996094 974.330139160156 968.207214355469 964.197875976562 967.228881835938 972.402404785156 972.469360351562 976.669067382812 982.9345703125 996.008361816406 998.937927246094 987.287231445312 987.237548828125 980.978088378906 973.737976074219 983.774353027344 981.254821777344 981.739868164062 990.96728515625 989.562805175781 1005.69342041016 1004.64453125 996.409118652344 1010.55511474609 1007.96990966797 1007.44958496094 1009.953125 1010.08337402344 1013.26574707031 1005.08239746094 1015.53845214844 1020.99420166016 1019.046875 1025.43859863281 1030.14855957031 1028.90454101562 1029.10656738281 1017.2080078125 1009.671875 1021.52764892578 1018.79907226562 1017.13269042969 1006.78686523438 1013.75360107422 1021.47259521484 1034.32421875 1030.20043945312 1037.88232421875 1036.67761230469 1032.15490722656 1034.80969238281 1023.98645019531 1023.03399658203 1021.90655517578 1026.56945800781 1014.23565673828 1019.88751220703 1030.89501953125 1032.36596679688 1021.40881347656 1016.47784423828 1032.3212890625
955.736389160156 959.248107910156 959.040893554688 956.273010253906 957.502746582031 946.105773925781 949.512084960938 946.279541015625 946.69091796875 941.732971191406 948.682861328125 945.341186523438 952.593688964844 951.804016113281 943.732727050781 943.91357421875 950.137939453125 944.318725585938 952.810241699219 953.492126464844 949.152099609375 946.293273925781 946.248046875 947.645690917969 939.880676269531 938.072692871094 935.723083496094 948.981628417969 945.939636230469 955.724304199219 951.678161621094 949.475891113281 951.793701171875 955.563049316406 958.929321289062 944.595458984375 945.156005859375 944.192687988281 945.704467773438 955.791687011719 953.170349121094 957.987548828125 965.332458496094 954.89208984375 954.402160644531 955.264831542969 956.479614257812 955.790954589844 959.107971191406 963.779602050781 966.487060546875 960.302490234375 957.625183105469 959.398315429688 965.065246582031 971.193420410156 971.324096679688 971.280334472656 973.312927246094 967.148254394531 962.339172363281 965.979858398438 972.618774414062 966.188720703125 961.986999511719 962.263732910156 956.511779785156 959.523376464844 973.381225585938 970.8427734375 977.138916015625 971.848205566406 982.598388671875 982.503295898438 978.875183105469 975.540222167969 968.37255859375 974.876525878906 963.029479980469 972.01025390625 975.41162109375 977.655517578125 968.654602050781 976.912292480469 984.203674316406 975.792785644531 979.370727539062 977.52001953125 976.593444824219 968.990600585938 965.718444824219 967.831970214844 965.407592773438 970.677490234375 975.904296875 974.648071289062 984.663269042969 994.548889160156 997.557006835938 989.338073730469 990.709167480469 991.638305664062 977.289245605469 974.526489257812 981.947021484375 994.202453613281 999.419311523438 995.907836914062 1000.63311767578 1002.67608642578 1015.62939453125 1013.69311523438 1010.96508789062 1007.38989257812 1014.66912841797 1008.21850585938 1010.98327636719 1020.93481445312 1018.18969726562 1021.99438476562 1023.57696533203 1030.75048828125 1037.67150878906 1029.80603027344 1028.5126953125 1018.58428955078 1009.77947998047 1002.16473388672 1011.02990722656 1014.02954101562 1010.87438964844 1020.47631835938 1032.58190917969 1031.69714355469 1036.46264648438 1033.55236816406 1028.44580078125 1025.06359863281 1031.13854980469 1023.73168945312 1027.00244140625 1026.23303222656 1024.67602539062 1020.49291992188 1022.36724853516 1028.90966796875 1022.18585205078 1018.74407958984 1027.89221191406 1029.5400390625
956.606018066406 956.550537109375 961.605590820312 956.991394042969 960.649169921875 957.478149414062 956.625061035156 952.137878417969 950.550354003906 948.526977539062 945.932189941406 950.784912109375 946.852294921875 949.597106933594 951.343872070312 947.445861816406 948.527221679688 947.572570800781 944.168090820312 945.392333984375 936.711059570312 950.377380371094 956.639526367188 952.125366210938 944.922424316406 950.107849121094 941.345153808594 949.735168457031 944.2158203125 953.500793457031 951.024108886719 962.450073242188 958.818298339844 958.404846191406 957.607666015625 944.637023925781 955.65283203125 953.36328125 954.037170410156 947.296813964844 950.221923828125 962.958068847656 961.318969726562 959.17236328125 953.2998046875 962.277099609375 969.892578125 962.859680175781 962.769409179688 961.1083984375 964.6982421875 964.157958984375 963.657165527344 967.787536621094 963.435852050781 969.633178710938 969.435852050781 971.269836425781 973.617919921875 969.182067871094 967.476623535156 969.330078125 969.826232910156 965.28515625 970.145629882812 962.0361328125 959.588134765625 959.993835449219 968.480895996094 971.337768554688 970.736572265625 984.859741210938 988.24072265625 980.507934570312 980.935302734375 972.456481933594 963.891723632812 966.733154296875 971.762023925781 976.981262207031 977.776062011719 972.867309570312 972.955444335938 973.26611328125 985.80322265625 980.580383300781 981.468078613281 970.983825683594 970.78759765625 972.4287109375 973.231018066406 970.276916503906 973.419921875 979.159851074219 970.998657226562 981.061706542969 984.308471679688 988.92919921875 988.170654296875 985.417541503906 993.307556152344 987.891235351562 980.980041503906 974.97705078125 984.614807128906 995.255432128906 999.658020019531 1004.39453125 1003.20977783203 1015.84234619141 1019.30352783203 1021.15692138672 1011.37750244141 1020.67626953125 1020.87628173828 1018.39086914062 1029.83471679688 1028.95568847656 1024.36853027344 1023.71331787109 1033.28210449219 1039.44738769531 1033.13488769531 1038.66064453125 1030.82751464844 1025.30090332031 1017.14306640625 1017.62579345703 1016.021484375 1017.70324707031 1011.65148925781 1020.72991943359 1027.05883789062 1030.09948730469 1032.650390625 1017.03442382812 1023.86779785156 1026.42065429688 1038.41552734375 1022.54364013672 1026.810546875 1027.63647460938 1023.29620361328 1020.27966308594 1015.54675292969 1027.00817871094 1020.55187988281 1022.87976074219 1021.35040283203 1032.99291992188
