NCOLS 150
NROWS 37
XLLCORNER 7394249
YLLCORNER 4843739
CELLSIZE 30
NODATA_VALUE -9999
998.050476074219 993.600219726562 1001.56036376953 996.333740234375 998.163024902344 1000.61895751953 1007.47808837891 1011.18725585938 1007.47845458984 1007.11187744141 1001.93347167969 995.886596679688 1002.72344970703 998.696105957031 1003.37890625 1011.08831787109 1003.86773681641 999.118591308594 1005.10321044922 1023.29168701172 1022.58532714844 1019.85211181641 1020.56707763672 1018.97869873047 1027.2236328125 1028.76220703125 1023.72467041016 1014.01898193359 1011.90307617188 1014.71173095703 1018.68438720703 1019.22741699219 1028.8310546875 1025.1826171875 1021.38903808594 1018.35986328125 1013.71276855469 1010.48992919922 1001.87902832031 1001.88165283203 988.486877441406 989.852294921875 989.799072265625 989.380432128906 985.280151367188 991.893981933594 998.8955078125 997.864379882812 994.879089355469 992.775085449219 998.261901855469 993.004455566406 986.68701171875 985.888854980469 986.1279296875 973.266479492188 959.340698242188 966.924133300781 972.970581054688 968.804626464844 969.808044433594 973.138366699219 961.992980957031 951.132141113281 944.319152832031 943.950378417969 948.254211425781 953.156799316406 951.500305175781 961.362976074219 962.517150878906 962.511779785156 960.976379394531 967.668395996094 977.090576171875 984.680114746094 993.41748046875 1006.49291992188 997.537475585938 1005.54046630859 1017.73950195312 1020.34356689453 1013.67370605469 1001.59893798828 994.254821777344 989.943542480469 982.829406738281 965.904357910156 950.050659179688 948.759338378906 940.9296875 936.907287597656 929.025939941406 918.007019042969 922.321655273438 918.008666992188 912.732055664062 899.194763183594 897.498229980469 890.357421875 884.066650390625 880.068054199219 873.285522460938 872.709350585938 871.4365234375 866.999694824219 881.3037109375 882.176208496094 884.631774902344 877.425354003906 876.218322753906 873.01513671875 884.304870605469 882.415100097656 891.106262207031 896.924621582031 902.180358886719 915.026062011719 927.479858398438 922.120727539062 931.142761230469 937.314575195312 934.481994628906 944.537048339844 946.209716796875 948.436462402344 955.683898925781 950.304016113281 965.351684570312 976.456298828125 989.701232910156 1003.43280029297 1012.74700927734 1028.07421875 1041.54235839844 1055.5439453125 1074.03491210938 1079.58264160156 1094.26428222656 1109.57556152344 1106.19055175781 1111.51586914062 1121.76574707031 1119.19714355469 1122.38891601562 1124.67846679688 1104.96215820312 1097.458984375 1081.5927734375 1080.40185546875
998.382202148438 997.230834960938 996.332336425781 994.090454101562 1002.55139160156 999.460327148438 1013.23571777344 1015.84936523438 1013.67071533203 1010.25042724609 993.054626464844 996.380493164062 1002.15496826172 994.682922363281 995.452758789062 995.701416015625 1005.03973388672 1007.19708251953 1016.74499511719 1022.90795898438 1025.62377929688 1015.03680419922 1020.17486572266 1023.90954589844 1017.98529052734 1021.12994384766 1015.42608642578 1009.60986328125 1006.80578613281 1004.78350830078 1016.54821777344 1019.49334716797 1019.42846679688 1027.20202636719 1019.76580810547 1022.65515136719 1018.04522705078 1014.16900634766 1014.04931640625 1005.20568847656 990.542785644531 975.020690917969 979.789978027344 989.46875 987.283508300781 994.069702148438 998.278503417969 994.180786132812 994.6494140625 1004.55511474609 1004.25122070312 1003.79937744141 996.791748046875 994.096313476562 991.460876464844 977.675964355469 968.930358886719 973.287109375 983.358093261719 982.154052734375 979.293823242188 971.647216796875 965.498046875 969.225708007812 949.754272460938 947.226928710938 954.238159179688 960.40966796875 969.475952148438 961.666259765625 961.229919433594 968.565734863281 956.535949707031 958.5791015625 977.43798828125 990.06201171875 1004.87835693359 1005.22479248047 1002.68511962891 1009.68640136719 1019.70892333984 1032.24340820312 1027.79223632812 1018.45031738281 1004.59149169922 995.408874511719 988.790954589844 964.782592773438 949.079467773438 939.573425292969 936.901184082031 935.677551269531 931.009887695312 923.276428222656 924.297119140625 916.192565917969 912.330688476562 909.762023925781 904.180541992188 890.89208984375 881.202697753906 879.108093261719 886.51318359375 886.280395507812 877.891784667969 875.369201660156 880.098571777344 886.2119140625 885.718017578125 890.372375488281 882.848510742188 885.768005371094 878.330932617188 883.127075195312 889.86181640625 905.486999511719 906.152099609375 918.492919921875 930.911315917969 923.788635253906 927.290832519531 930.262756347656 933.929382324219 934.399169921875 942.111206054688 952.986450195312 950.066528320312 955.582397460938 961.324279785156 978.342468261719 988.140930175781 997.034057617188 1014.99108886719 1031.97607421875 1038.90051269531 1052.052734375 1067.16931152344 1082.4638671875 1099.8369140625 1115.15173339844 1119.00402832031 1122.17565917969 1123.12145996094 1135.03576660156 1135.74365234375 1120.08679199219 1117.28625488281 1109.49731445312 1105.6630859375 1092.40368652344
1004.53033447266 997.4794921875 986.58056640625 991.925170898438 1004.04254150391 997.514587402344 1002.47045898438 1011.1025390625 1005.85400390625 1001.25378417969 991.1484375 991.560607910156 1001.15393066406 995.987854003906 989.625244140625 994.155700683594 1010.23071289062 1015.68310546875 1017.30682373047 1020.48016357422 1022.33178710938 1026.37121582031 1012.64489746094 1014.04370117188 1011.51824951172 1021.37261962891 1010.92199707031 1003.26324462891 1005.06896972656 1009.09545898438 1012.81433105469 1019.92938232422 1022.85205078125 1018.33660888672 1019.95513916016 1020.94934082031 1027.07568359375 1020.03405761719 1010.36395263672 1001.93212890625 987.738952636719 972.986755371094 977.224426269531 982.847473144531 984.770568847656 992.486572265625 996.074951171875 998.260437011719 1000.14038085938 1007.60314941406 1014.15344238281 1003.822265625 1004.07379150391 1005.66656494141 997.642944335938 998.671325683594 989.062194824219 989.228820800781 991.398620605469 991.494201660156 982.145812988281 981.457153320312 976.918334960938 967.999694824219 952.55224609375 951.213134765625 963.315002441406 965.139282226562 968.962158203125 974.391723632812 962.976379394531 965.859436035156 967.324340820312 975.00830078125 979.516662597656 989.632080078125 1000.33148193359 1007.841796875 1011.37744140625 1008.90252685547 1014.74926757812 1025.21411132812 1028.01342773438 1022.51281738281 1014.27258300781 996.512512207031 981.327453613281 953.7666015625 944.559936523438 940.138977050781 936.254455566406 935.857849121094 933.386169433594 928.946655273438 918.328247070312 913.089965820312 917.52294921875 918.865112304688 913.216064453125 899.6796875 888.377807617188 890.560180664062 898.02490234375 889.883483886719 879.604309082031 883.306640625 887.169372558594 891.605285644531 898.274719238281 901.773803710938 895.465637207031 893.327270507812 880.1806640625 889.982788085938 900.803283691406 909.177429199219 910.881225585938 914.153137207031 911.074890136719 928.678405761719 928.007751464844 942.646240234375 941.21044921875 937.744262695312 934.544860839844 949.646545410156 955.861267089844 961.304748535156 964.243774414062 977.028564453125 993.943786621094 1000.89855957031 1025.4208984375 1027.43688964844 1038.20568847656 1048.986328125 1068.73181152344 1074.10766601562 1097.34875488281 1111.60388183594 1129.63500976562 1136.52429199219 1135.87768554688 1138.51708984375 1139.91357421875 1132.69580078125 1127.87927246094 1120.55383300781 1110.26770019531 1104.7685546875
999.198364257812 996.394775390625 990.527038574219 987.929870605469 994.0927734375 997.657775878906 1002.29803466797 992.78173828125 1001.88305664062 997.242309570312 990.362915039062 992.930541992188 986.120422363281 987.454406738281 986.68896484375 1009.26434326172 1009.19555664062 1015.07440185547 1009.31536865234 1015.76531982422 1017.11114501953 1017.84240722656 1016.56475830078 1012.64324951172 1012.78704833984 1010.78265380859 1003.87713623047 998.917663574219 1001.28845214844 1003.67108154297 1016.78771972656 1020.12799072266 1016.14770507812 1012.14440917969 1026.57238769531 1034.91320800781 1026.24133300781 1020.00183105469 1016.78643798828 1005.25280761719 1000.77166748047 992.397216796875 986.242492675781 984.133178710938 980.798278808594 994.674194335938 999.886413574219 1014.70379638672 1006.587890625 1002.05834960938 1005.48773193359 1004.00970458984 999.244384765625 1000.51940917969 999.265991210938 1004.76098632812 1006.49359130859 1000.72735595703 1000.29571533203 992.512329101562 992.155578613281 989.020751953125 981.724243164062 967.888000488281 967.570373535156 959.507751464844 959.946228027344 973.187194824219 971.580810546875 977.8466796875 976.8203125 972.567321777344 971.64306640625 976.975158691406 984.104675292969 985.391479492188 1002.48541259766 1016.72833251953 1017.33154296875 1017.47875976562 1018.68206787109 1018.83294677734 1021.89031982422 1026.18432617188 1014.70318603516 992.290954589844 979.637756347656 956.215576171875 943.551391601562 933.667419433594 936.756469726562 932.857543945312 927.235229492188 919.486022949219 919.239135742188 908.488586425781 921.09326171875 913.443420410156 902.562438964844 899.127197265625 898.383239746094 890.383422851562 887.499694824219 894.382019042969 895.937072753906 896.229675292969 903.8349609375 910.038635253906 914.207336425781 910.219299316406 908.097839355469 895.72998046875 896.812561035156 904.495849609375 911.565795898438 919.518493652344 911.259216308594 918.172058105469 918.145202636719 929.622985839844 934.875793457031 940.609313964844 936.674255371094 944.27587890625 952.264587402344 953.733215332031 961.260314941406 961.119689941406 974.01123046875 975.231018066406 992.203002929688 1007.60858154297 1020.4833984375 1026.01086425781 1038.85290527344 1055.99987792969 1067.32629394531 1084.81811523438 1096.68017578125 1102.37438964844 1117.19458007812 1127.74096679688 1141.59948730469 1144.38220214844 1139.21923828125 1139.75366210938 1139.23022460938 1129.57446289062 1114.68688964844 1116.12292480469
994.908447265625 999.666442871094 998.962707519531 996.290466308594 991.781311035156 990.351867675781 998.034729003906 991.340454101562 998.95556640625 989.564514160156 983.47998046875 989.294921875 981.165771484375 981.335144042969 994.248901367188 1000.11975097656 1003.58782958984 1010.54827880859 1008.45788574219 1019.80053710938 1014.74566650391 1010.27838134766 1009.30053710938 1015.02972412109 1000.98016357422 1000.94256591797 994.81494140625 998.423217773438 996.167358398438 1013.3544921875 1009.42193603516 1018.85400390625 1021.09069824219 1015.65667724609 1019.19866943359 1029.68859863281 1034.02404785156 1027.9990234375 1013.61352539062 1002.35498046875 1007.35162353516 1002.01165771484 992.083618164062 993.006530761719 993.870361328125 1003.94073486328 1010.00067138672 1000.28588867188 1004.03955078125 1002.52008056641 1008.15997314453 1006.26544189453 1000.12457275391 1011.12023925781 1003.95568847656 1008.9814453125 1011.62536621094 1007.74011230469 997.130615234375 994.105102539062 991.750427246094 996.069458007812 985.904907226562 982.268310546875 971.690307617188 973.371887207031 970.125915527344 973.461853027344 980.522766113281 980.474975585938 977.509216308594 983.575988769531 975.752319335938 985.851379394531 992.322082519531 999.705749511719 1003.78173828125 1014.61047363281 1029.60229492188 1027.62390136719 1031.76135253906 1028.59826660156 1023.7607421875 1021.85150146484 1009.17333984375 995.755187988281 971.032287597656 953.326232910156 939.659545898438 934.216918945312 929.796264648438 923.834350585938 917.150695800781 924.140380859375 920.945007324219 917.838806152344 917.841552734375 907.109313964844 902.566955566406 905.750732421875 911.159912109375 903.522094726562 896.5517578125 906.190063476562 896.271118164062 900.228576660156 909.515686035156 925.464782714844 916.187683105469 917.01416015625 905.880554199219 899.533447265625 905.291625976562 914.398864746094 923.31298828125 923.666198730469 915.169738769531 912.897399902344 926.920227050781 924.276123046875 934.751708984375 942.36767578125 948.0263671875 954.148254394531 958.3046875 968.429138183594 975.662841796875 971.993835449219 975.051635742188 984.05029296875 991.767700195312 1008.61584472656 1018.28338623047 1028.99768066406 1042.30200195312 1049.03540039062 1064.89025878906 1072.95458984375 1084.48840332031 1091.12573242188 1106.47998046875 1117.41516113281 1127.93041992188 1138.00317382812 1142.9404296875 1140.38671875 1143.353515625 1140.2333984375 1124.48986816406 1119.88647460938
1001.55859375 1001.37512207031 993.217163085938 997.412170410156 990.797302246094 989.009582519531 998.218383789062 997.464965820312 994.807861328125 989.228515625 983.654357910156 985.025390625 982.646484375 993.708740234375 996.563842773438 998.439331054688 1001.17889404297 1006.16491699219 1005.26043701172 1008.56213378906 1015.26275634766 1011.34094238281 1007.73651123047 1005.86669921875 999.868225097656 995.499328613281 990.642883300781 996.205261230469 997.337524414062 1006.89923095703 1011.388671875 1015.53454589844 1018.08422851562 1020.73840332031 1016.14147949219 1021.85137939453 1033.17224121094 1026.20837402344 1019.04357910156 1000.38037109375 999.481201171875 1002.56573486328 1003.08599853516 1002.04833984375 1005.20953369141 1015.19488525391 1010.65240478516 1005.77600097656 1011.08673095703 1012.44415283203 1011.90399169922 1004.44189453125 1005.17907714844 1008.50360107422 1008.52429199219 1014.26788330078 1016.0517578125 1010.02453613281 1009.18603515625 1007.95660400391 1000.92156982422 995.036010742188 991.122314453125 981.973083496094 980.408874511719 972.502990722656 982.673278808594 974.76416015625 984.005798339844 979.779968261719 984.285217285156 977.529174804688 990.869201660156 998.685607910156 996.83642578125 1008.55212402344 1011.39392089844 1018.61010742188 1023.36590576172 1030.12585449219 1022.75872802734 1033.53784179688 1029.03076171875 1016.02966308594 1016.52166748047 996.41455078125 971.594055175781 956.646606445312 947.727722167969 943.359191894531 939.145874023438 936.943542480469 926.996398925781 926.679077148438 923.918823242188 929.310607910156 921.736389160156 920.982849121094 911.390441894531 924.874694824219 917.985473632812 906.239379882812 913.093505859375 914.927551269531 920.869750976562 912.793762207031 919.719299316406 929.201293945312 928.499450683594 920.283508300781 916.082458496094 905.47607421875 916.844360351562 918.165710449219 922.158752441406 911.909729003906 910.331970214844 915.049743652344 916.412353515625 925.083374023438 934.342956542969 936.825988769531 949.87109375 963.817993164062 964.297424316406 967.134460449219 966.140441894531 981.113952636719 979.385559082031 994.882019042969 999.092956542969 1002.31433105469 1018.33221435547 1036.99609375 1045.40490722656 1046.521484375 1064.65661621094 1073.94274902344 1083.40844726562 1079.86352539062 1086.07287597656 1111.28271484375 1121.52990722656 1140.30139160156 1133.75256347656 1135.04772949219 1144.08081054688 1134.28442382812 1124.38903808594 1128.68493652344
1002.68353271484 995.983459472656 988.706726074219 996.952941894531 980.8720703125 983.872619628906 987.684509277344 996.101440429688 998.232666015625 989.075927734375 987.064575195312 993.396301269531 979.452026367188 983.475463867188 994.830444335938 999.264465332031 1003.54650878906 998.613159179688 1000.78491210938 1007.46661376953 1005.53735351562 999.248291015625 998.598022460938 993.14453125 994.193603515625 992.670349121094 987.839660644531 997.302551269531 997.66650390625 1003.54382324219 1008.79858398438 1013.49114990234 1017.42687988281 1017.73327636719 1019.41442871094 1023.32586669922 1031.05639648438 1026.05151367188 1013.58349609375 1012.24548339844 1007.79699707031 1002.78747558594 1015.88775634766 1011.88586425781 1013.3369140625 1014.86370849609 1007.22338867188 1015.48107910156 1014.73541259766 1015.41705322266 1013.11096191406 1008.43719482422 1009.57019042969 1005.79022216797 1008.76568603516 1005.95153808594 1012.90246582031 1008.79583740234 1010.57666015625 1008.59747314453 1003.56536865234 1006.37030029297 1001.07513427734 993.740051269531 991.327209472656 987.191528320312 989.289489746094 978.590942382812 975.572692871094 981.857849121094 982.613220214844 991.343383789062 993.270202636719 995.278991699219 1006.35729980469 1009.58917236328 1017.85876464844 1024.32666015625 1019.92053222656 1024.65637207031 1026.37048339844 1030.24768066406 1023.52844238281 1016.37750244141 1009.65173339844 986.345458984375 969.412109375 961.22802734375 951.560607910156 952.790771484375 939.209289550781 940.469360351562 937.649230957031 941.661376953125 931.820007324219 932.411437988281 925.785583496094 931.063354492188 928.778442382812 934.9140625 927.9951171875 928.365844726562 919.588684082031 923.673522949219 928.998596191406 927.838745117188 927.090454101562 934.421997070312 936.214904785156 929.742126464844 919.186218261719 913.3134765625 923.510864257812 931.641357421875 922.418701171875 911.3935546875 906.111999511719 911.47998046875 922.088012695312 922.924377441406 931.230224609375 942.945739746094 945.949768066406 951.229797363281 959.075317382812 957.366516113281 964.830139160156 978.885375976562 987.592041015625 993.536010742188 999.637451171875 1005.7373046875 1015.34857177734 1032.62072753906 1047.17492675781 1047.89318847656 1066.57348632812 1074.69702148438 1086.70178222656 1081.2333984375 1083.2548828125 1100.63659667969 1119.240234375 1127.08349609375 1130.99987792969 1127.80249023438 1132.43542480469 1128.92749023438 1121.04943847656 1115.52807617188
987.542663574219 991.563842773438 995.880676269531 996.287231445312 981.971069335938 984.426330566406 988.692321777344 997.02392578125 1006.58288574219 992.693237304688 987.449768066406 988.554626464844 978.636169433594 987.479309082031 983.2412109375 994.562927246094 998.962097167969 1004.23675537109 991.896423339844 995.6552734375 995.215148925781 983.251953125 989.657897949219 994.798950195312 989.623168945312 992.909118652344 992.717651367188 997.144470214844 992.419250488281 996.981811523438 1000.92279052734 1012.62408447266 1013.40875244141 1013.88250732422 1019.09448242188 1028.22778320312 1025.76635742188 1030.85400390625 1022.71234130859 1026.30981445312 1010.13513183594 1015.89318847656 1016.83038330078 1015.04461669922 1016.62719726562 1010.87530517578 1007.14538574219 1009.88879394531 1016.41131591797 1014.37451171875 1008.87322998047 1006.74346923828 1011.10705566406 1012.77258300781 1011.41864013672 1009.22595214844 1013.13275146484 1017.64782714844 1011.38726806641 1014.57403564453 1008.89086914062 1011.88568115234 1009.82946777344 1000.33026123047 994.93505859375 995.441162109375 992.505493164062 987.367736816406 977.652465820312 977.225341796875 984.067260742188 988.017700195312 997.721984863281 1005.05432128906 1013.97277832031 1014.95532226562 1025.51916503906 1032.65515136719 1027.97448730469 1024.60656738281 1032.59411621094 1031.6025390625 1024.84094238281 1007.58312988281 1001.94537353516 991.545776367188 977.182495117188 959.898864746094 952.343505859375 954.033264160156 944.213073730469 940.929321289062 942.854614257812 949.240051269531 944.632568359375 943.445922851562 946.750427246094 941.247436523438 934.235778808594 940.774536132812 939.590759277344 937.652099609375 934.2509765625 928.73046875 934.818664550781 931.248718261719 942.694152832031 942.431945800781 940.519653320312 937.841796875 929.689025878906 923.903015136719 934.125244140625 926.948974609375 917.643371582031 904.011840820312 905.570556640625 909.443969726562 917.467590332031 933.657836914062 943.679321289062 956.644958496094 948.347900390625 949.008728027344 961.979309082031 968.091491699219 974.207153320312 977.473449707031 993.645690917969 995.532470703125 1003.99426269531 1008.07550048828 1016.63037109375 1027.01428222656 1041.71936035156 1054.43249511719 1065.11511230469 1073.18481445312 1079.39196777344 1083.08044433594 1092.85620117188 1099.39587402344 1109.87426757812 1113.26354980469 1122.44250488281 1126.96984863281 1127.50988769531 1116.47302246094 1122.60131835938 1116.57897949219
987.810974121094 989.547973632812 987.626159667969 984.974365234375 980.364501953125 986.636779785156 983.953735351562 986.942993164062 991.45654296875 994.779602050781 988.334777832031 986.685302734375 982.870666503906 979.980224609375 986.342529296875 989.681518554688 1000.39404296875 999.58447265625 990.015502929688 989.587829589844 986.498046875 984.246398925781 986.276184082031 987.000732421875 984.007202148438 991.316223144531 991.82763671875 997.855346679688 1003.29467773438 1011.35711669922 1004.64544677734 1015.42913818359 1020.10778808594 1029.61645507812 1028.79345703125 1028.048828125 1021.13024902344 1025.94641113281 1027.89233398438 1032.5478515625 1026.26196289062 1024.53161621094 1023.68884277344 1023.51580810547 1025.86865234375 1029.33801269531 1023.68780517578 1013.21337890625 1008.03002929688 1009.10314941406 1009.02209472656 1007.24188232422 1015.6884765625 1014.58764648438 1010.15814208984 1006.39678955078 1013.97601318359 1022.00946044922 1021.20599365234 1015.06915283203 1010.68475341797 1017.28729248047 1008.80969238281 1008.04125976562 997.51416015625 1002.75958251953 1000.0498046875 987.3076171875 979.115600585938 980.100463867188 985.781677246094 995.544555664062 1001.76916503906 1000.96118164062 1006.61810302734 1022.08099365234 1027.30847167969 1042.13342285156 1035.6748046875 1033.92761230469 1029.36645507812 1029.24353027344 1027.56262207031 1017.72509765625 997.311950683594 993.771667480469 977.867614746094 959.328796386719 955.431579589844 948.812927246094 944.81982421875 942.301025390625 945.337524414062 954.786315917969 951.195434570312 950.553405761719 952.394470214844 950.799621582031 937.746398925781 951.203063964844 950.374267578125 939.0693359375 947.784973144531 945.763977050781 941.766296386719 942.305480957031 954.181884765625 947.237182617188 956.744323730469 946.515197753906 941.480651855469 937.063720703125 932.135437011719 929.929626464844 920.575317382812 908.321472167969 899.038146972656 909.293823242188 918.775268554688 940.501037597656 950.344848632812 953.547912597656 960.2958984375 968.835632324219 968.12890625 973.466735839844 976.087219238281 995.076049804688 994.568725585938 1006.40057373047 1008.64190673828 1015.48541259766 1023.55010986328 1030.94580078125 1042.12048339844 1055.32067871094 1074.82409667969 1079.05944824219 1086.53515625 1085.12133789062 1090.2021484375 1093.66394042969 1103.6357421875 1108.18359375 1112.04675292969 1118.19616699219 1123.75854492188 1123.37048339844 1117.83569335938 1114.3544921875
988.698059082031 986.48681640625 976.950622558594 977.934509277344 982.997375488281 983.093383789062 991.250305175781 985.757995605469 986.686340332031 983.224609375 981.951049804688 983.067565917969 982.831481933594 982.583312988281 982.654052734375 993.689819335938 997.906616210938 988.871520996094 988.424926757812 984.073364257812 980.647827148438 974.572875976562 969.249755859375 978.853393554688 988.537902832031 991.897155761719 992.541198730469 998.929992675781 1013.86285400391 1019.05682373047 1021.44738769531 1017.49755859375 1015.45178222656 1025.89965820312 1022.73010253906 1023.17010498047 1025.1904296875 1033.50891113281 1038.59216308594 1041.26904296875 1033.92578125 1032.82177734375 1029.19470214844 1032.07604980469 1031.02746582031 1033.15539550781 1028.1298828125 1020.85852050781 1011.90728759766 1002.51416015625 1011.18572998047 1015.05340576172 1008.9345703125 1008.35107421875 1009.28839111328 1008.00305175781 1016.12939453125 1018.86486816406 1024.79772949219 1021.1689453125 1018.70812988281 1016.34356689453 1014.29425048828 1008.80841064453 1004.92163085938 1010.05505371094 1003.54046630859 999.289978027344 991.54248046875 984.202209472656 994.477233886719 988.782043457031 1000.47338867188 1007.44641113281 1013.67059326172 1026.50451660156 1034.5322265625 1030.36291503906 1031.19641113281 1031.44995117188 1028.24865722656 1024.36511230469 1024.62817382812 1015.28546142578 1004.09985351562 992.441772460938 975.651000976562 961.673034667969 950.722290039062 945.972045898438 940.482788085938 938.564697265625 941.547546386719 946.469055175781 955.94482421875 957.685302734375 961.58740234375 949.932006835938 946.886901855469 954.892700195312 959.426940917969 960.125244140625 957.714538574219 953.919006347656 946.208923339844 949.367004394531 955.548889160156 962.859008789062 974.914184570312 959.73193359375 945.693054199219 940.526489257812 936.5859375 925.87744140625 920.509521484375 917.408508300781 915.46728515625 915.891906738281 923.213684082031 943.067687988281 948.861389160156 961.022583007812 965.168701171875 966.511657714844 973.106262207031 980.884399414062 980.87060546875 992.812133789062 1001.31121826172 1007.74359130859 1007.48034667969 1010.02947998047 1025.04284667969 1032.7509765625 1043.884765625 1058.54675292969 1074.19116210938 1082.01293945312 1085.33996582031 1086.42761230469 1091.28637695312 1092.39318847656 1100.01000976562 1100.78210449219 1101.3515625 1108.31726074219 1121.25207519531 1122.37854003906 1119.80834960938 1119.71069335938
991.174133300781 983.576904296875 984.211120605469 978.0576171875 983.535888671875 986.228271484375 983.432250976562 996.915161132812 983.573059082031 979.420776367188 983.160278320312 982.677612304688 981.18798828125 978.360229492188 982.192932128906 982.2607421875 994.151306152344 985.164123535156 986.048522949219 979.760681152344 979.177490234375 979.710083007812 980.005004882812 988.693908691406 990.455383300781 994.845642089844 1004.55389404297 1009.47351074219 1011.55340576172 1019.86590576172 1026.68371582031 1025.77319335938 1026.00903320312 1025.46984863281 1029.05969238281 1026.01440429688 1035.37023925781 1040.11364746094 1041.50158691406 1049.37353515625 1041.60559082031 1035.77221679688 1031.318359375 1037.05895996094 1029.94799804688 1027.92346191406 1028.79382324219 1026.20666503906 1015.40856933594 1005.86083984375 1011.24481201172 1013.02221679688 1000.12908935547 997.755249023438 996.935668945312 1012.02319335938 1017.16101074219 1021.29107666016 1016.47106933594 1024.84606933594 1017.30334472656 1025.912109375 1025.10546875 1025.08972167969 1022.10021972656 1016.78540039062 1008.81085205078 1011.61090087891 1007.86370849609 1002.57421875 1001.23974609375 1001.10876464844 1009.19122314453 1019.65338134766 1018.57299804688 1023.89794921875 1030.50622558594 1027.88049316406 1027.66357421875 1022.48565673828 1025.80346679688 1023.58459472656 1030.95886230469 1024.59545898438 1003.30047607422 997.466003417969 983.935791015625 963.990417480469 963.98583984375 953.874084472656 945.013122558594 947.26220703125 941.969421386719 956.119689941406 963.587097167969 955.646667480469 961.233642578125 950.632202148438 959.095520019531 964.690307617188 970.57275390625 963.027282714844 960.236572265625 966.428039550781 969.305786132812 971.695434570312 965.508483886719 972.288757324219 976.031799316406 960.921203613281 956.8232421875 950.27294921875 938.892272949219 933.654541015625 922.769287109375 923.623229980469 920.317016601562 926.500671386719 928.387817382812 945.083312988281 953.171142578125 963.369018554688 973.019287109375 978.504028320312 983.848876953125 988.760070800781 995.063293457031 997.367614746094 1003.03436279297 1006.02362060547 1014.18786621094 1021.88854980469 1037.7099609375 1045.10131835938 1044.78686523438 1055.94250488281 1075.7529296875 1081.29833984375 1086.70288085938 1082.94995117188 1096.30883789062 1098.53039550781 1104.41979980469 1104.91687011719 1109.65356445312 1112.80249023438 1106.32958984375 1112.70141601562 1123.64807128906 1129.67407226562
987.283630371094 985.560119628906 986.161254882812 987.319702148438 993.7060546875 993.823669433594 987.650146484375 989.410400390625 985.19580078125 989.250305175781 977.226684570312 966.842895507812 969.229431152344 963.494262695312 968.745178222656 981.338500976562 986.648986816406 984.842834472656 985.6650390625 984.121398925781 985.606323242188 991.015380859375 984.339233398438 982.5126953125 988.041076660156 991.9228515625 1002.61242675781 1006.30126953125 1018.86822509766 1022.43859863281 1026.60852050781 1023.21246337891 1023.15844726562 1024.90979003906 1019.71728515625 1033.77551269531 1035.8388671875 1040.43408203125 1039.92163085938 1051.083984375 1037.84912109375 1039.556640625 1046.31213378906 1038.037109375 1034.14501953125 1032.99963378906 1028.49157714844 1026.19458007812 1015.81359863281 1009.09893798828 999.752258300781 1005.64611816406 996.682250976562 996.324584960938 998.905700683594 1002.11712646484 1016.41589355469 1025.24475097656 1023.56793212891 1023.08477783203 1019.61730957031 1029.12927246094 1031.32983398438 1024.3349609375 1028.54675292969 1022.10717773438 1024.38659667969 1025.36059570312 1022.93188476562 1017.81896972656 1014.88299560547 1012.79571533203 1011.18536376953 1009.57318115234 1016.19934082031 1017.18188476562 1026.37658691406 1028.81372070312 1034.76318359375 1030.826171875 1033.45886230469 1026.97009277344 1023.15594482422 1029.06140136719 1018.10308837891 1003.32720947266 991.294006347656 981.390014648438 968.795593261719 957.0673828125 954.282287597656 952.400756835938 955.734802246094 967.613647460938 971.029113769531 971.788208007812 959.8740234375 951.244140625 967.718811035156 976.930480957031 968.280334472656 970.409301757812 969.189147949219 985.067626953125 991.6708984375 981.57177734375 976.470336914062 968.31982421875 972.481750488281 968.044067382812 963.431396484375 953.275024414062 946.663818359375 940.927490234375 932.838134765625 936.206665039062 935.8603515625 929.722106933594 933.985046386719 944.858642578125 958.476013183594 965.363708496094 973.335021972656 982.028930664062 996.823547363281 996.353454589844 1000.68194580078 1005.05480957031 1002.58056640625 1004.18115234375 1022.43487548828 1030.55603027344 1044.04992675781 1044.52868652344 1045.3642578125 1060.03259277344 1070.24877929688 1081.01721191406 1086.42260742188 1088.5849609375 1095.60412597656 1088.47668457031 1094.70727539062 1098.88928222656 1095.73376464844 1100.0888671875 1100.01672363281 1103.70593261719 1114.28918457031 1115.22497558594
982.779418945312 981.669494628906 988.141540527344 987.276916503906 985.7080078125 982.876159667969 984.373474121094 986.968566894531 983.623718261719 993.361206054688 981.5126953125 963.027160644531 965.204895019531 948.801696777344 962.407836914062 976.268432617188 978.930236816406 985.278198242188 980.485656738281 974.335021972656 980.068481445312 984.350280761719 983.996887207031 987.523742675781 978.65283203125 996.846618652344 1000.83923339844 1006.96441650391 1012.20947265625 1006.0146484375 1022.10833740234 1022.03112792969 1016.1923828125 1018.0771484375 1016.09881591797 1025.47875976562 1031.03381347656 1037.36059570312 1040.14440917969 1050.45373535156 1048.19934082031 1041.38293457031 1042.51416015625 1040.08740234375 1029.33044433594 1031.67407226562 1022.23266601562 1021.80541992188 1008.98132324219 1008.70294189453 1004.32989501953 996.907592773438 1001.20465087891 989.262451171875 993.33447265625 998.835571289062 1011.70758056641 1015.84014892578 1014.17767333984 1024.56079101562 1015.98345947266 1026.04516601562 1029.64709472656 1029.89831542969 1031.85021972656 1026.98425292969 1031.92395019531 1018.54412841797 1025.09362792969 1032.7724609375 1026.80432128906 1021.82861328125 1021.11938476562 1024.89575195312 1008.34460449219 1014.81567382812 1022.55474853516 1027.95764160156 1034.03588867188 1025.7900390625 1023.92553710938 1013.37866210938 1019.41320800781 1016.12493896484 1007.84954833984 998.619812011719 991.463562011719 983.11328125 964.957763671875 966.424865722656 965.56396484375 971.395568847656 980.657836914062 983.651245117188 984.98974609375 972.825500488281 965.474548339844 958.546203613281 971.274047851562 971.41845703125 972.434509277344 970.659057617188 976.768432617188 986.333862304688 996.939208984375 993.140197753906 989.064636230469 979.022827148438 970.824462890625 974.802062988281 971.467163085938 961.870849609375 951.216674804688 946.484680175781 934.966918945312 932.784545898438 938.959533691406 940.78369140625 941.766540527344 944.213684082031 957.227111816406 961.165893554688 976.352905273438 989.3095703125 1004.09289550781 1004.15240478516 1009.15667724609 1012.42456054688 1005.45251464844 1009.75500488281 1012.60675048828 1028.50805664062 1035.19982910156 1042.50598144531 1058.38391113281 1053.0791015625 1070.78820800781 1076.44921875 1082.66296386719 1086.75134277344 1089.654296875 1090.84362792969 1093.76000976562 1103.19799804688 1100.0302734375 1092.34545898438 1092.98864746094 1103.82165527344 1103.29455566406 1111.73840332031
981.422302246094 974.838195800781 970.487365722656 971.390014648438 977.729309082031 972.278381347656 978.637512207031 978.374572753906 980.991821289062 980.01806640625 971.572326660156 962.139099121094 961.037902832031 958.876159667969 956.640014648438 967.959838867188 978.39990234375 990.855651855469 974.538146972656 974.40234375 972.05615234375 968.797485351562 974.420349121094 977.912048339844 980.294372558594 994.272033691406 994.865478515625 1004.95129394531 1003.97808837891 1008.06414794922 1009.84497070312 1018.53576660156 1025.91772460938 1024.68920898438 1020.16094970703 1022.43975830078 1031.80554199219 1033.79309082031 1042.13208007812 1039.44567871094 1046.61901855469 1047.76525878906 1044.04431152344 1040.54699707031 1033.93359375 1025.76354980469 1022.70794677734 1016.47644042969 1007.95568847656 998.825744628906 1011.09362792969 1002.22302246094 999.813903808594 991.82421875 997.577087402344 1001.99200439453 1005.23321533203 1013.58270263672 1019.30975341797 1022.64801025391 1018.92340087891 1027.17529296875 1025.8115234375 1033.93493652344 1027.35400390625 1025.87097167969 1023.72058105469 1031.53234863281 1032.68811035156 1034.83715820312 1036.61584472656 1031.35729980469 1021.31439208984 1013.68487548828 1016.46429443359 1018.38488769531 1021.7939453125 1019.81640625 1020.07849121094 1028.25866699219 1024.67138671875 1014.94787597656 1019.76983642578 1011.53479003906 1003.88134765625 995.359436035156 985.562866210938 980.097290039062 973.372680664062 968.723327636719 969.649108886719 971.169128417969 973.222290039062 981.940002441406 982.0830078125 980.988037109375 972.104064941406 968.743225097656 970.954956054688 965.209899902344 968.552185058594 981.154968261719 985.635620117188 993.96728515625 1001.50262451172 993.50537109375 993.953369140625 993.938781738281 982.851928710938 977.650329589844 975.026123046875 957.04150390625 949.706176757812 935.314331054688 935.524475097656 943.017517089844 944.211730957031 933.946411132812 938.6396484375 949.750793457031 956.867248535156 972.238403320312 977.4228515625 997.528930664062 1004.56646728516 1007.7646484375 1010.513671875 1014.72204589844 1009.85003662109 1007.75311279297 1013.53649902344 1029.02209472656 1037.17236328125 1039.32141113281 1047.71667480469 1058.23657226562 1058.87023925781 1065.45129394531 1081.50402832031 1088.83178710938 1101.58447265625 1098.84411621094 1084.56774902344 1096.30871582031 1088.98193359375 1094.25732421875 1098.40686035156 1098.62524414062 1094.71228027344 1105.78271484375
959.350402832031 955.360229492188 968.520141601562 966.225402832031 974.324340820312 963.52490234375 968.889831542969 969.373779296875 977.469482421875 976.51708984375 961.115173339844 965.038879394531 960.401428222656 957.875427246094 961.085205078125 965.220153808594 969.721801757812 974.2998046875 971.820678710938 971.354370117188 971.88232421875 973.811584472656 974.884887695312 983.235656738281 986.753845214844 995.320007324219 1005.60223388672 1005.02136230469 1007.63031005859 1014.51916503906 1007.11083984375 1026.41125488281 1025.68188476562 1020.74859619141 1017.072265625 1024.27661132812 1026.54211425781 1023.36584472656 1032.09680175781 1038.05541992188 1037.12683105469 1038.85705566406 1041.99206542969 1034.76196289062 1022.15374755859 1025.27844238281 1017.98864746094 1011.04565429688 1008.9375 1005.66333007812 1004.9326171875 1006.33502197266 1002.78991699219 1004.44183349609 999.846374511719 1004.65093994141 1014.72729492188 1011.15716552734 1016.36627197266 1022.29425048828 1022.31457519531 1024.30895996094 1028.84069824219 1034.80847167969 1024.99621582031 1027.70861816406 1037.25952148438 1026.7685546875 1031.4638671875 1034.080078125 1032.96118164062 1021.13128662109 1019.21911621094 1013.05908203125 1016.71923828125 1017.91168212891 1021.58190917969 1017.81683349609 1020.86053466797 1021.87371826172 1019.68627929688 1010.78033447266 1012.04803466797 1009.56262207031 1004.08111572266 995.284851074219 990.467590332031 989.306945800781 977.756530761719 986.105773925781 982.17724609375 973.912841796875 980.123168945312 978.43408203125 990.648376464844 988.316528320312 974.537231445312 963.125244140625 971.087524414062 970.533569335938 977.555908203125 978.369689941406 984.409851074219 994.186584472656 995.695251464844 990.252624511719 987.23876953125 984.246887207031 982.593078613281 980.74462890625 967.710083007812 954.646484375 939.320983886719 943.235717773438 933.055969238281 937.907531738281 945.114074707031 940.538208007812 940.838623046875 946.846496582031 959.154052734375 972.681945800781 987.262878417969 999.519226074219 1003.23327636719 1011.82507324219 1008.07189941406 1022.92810058594 1015.74694824219 1013.18188476562 1018.12164306641 1039.67578125 1042.10632324219 1050.45654296875 1059.48718261719 1058.92663574219 1071.244140625 1064.44140625 1079.42761230469 1082.689453125 1081.85046386719 1086.50134277344 1088.64111328125 1088.02087402344 1089.20666503906 1090.08862304688 1096.77612304688 1099.15026855469 1097.01330566406 1103.71008300781
955.944030761719 954.661865234375 951.04150390625 956.347351074219 952.298278808594 964.112915039062 964.835632324219 969.623229980469 972.099426269531 960.224182128906 957.271911621094 965.120849609375 969.937194824219 959.371459960938 963.728454589844 961.863037109375 960.647644042969 966.129089355469 963.329772949219 964.843322753906 958.039245605469 960.638000488281 978.336791992188 982.373779296875 982.79931640625 988.400329589844 995.765930175781 1008.0400390625 1004.29357910156 1014.83416748047 1014.96276855469 1026.03576660156 1026.17761230469 1029.7880859375 1032.50036621094 1022.14727783203 1017.67834472656 1022.04913330078 1022.7724609375 1025.58557128906 1035.52136230469 1039.14929199219 1029.25476074219 1027.35888671875 1024.44970703125 1024.02453613281 1024.80432128906 1007.5771484375 1004.55999755859 1001.41845703125 1005.88665771484 1003.19281005859 996.436218261719 1003.45477294922 1008.12188720703 1008.18353271484 1010.48461914062 1016.33654785156 1016.32482910156 1021.53588867188 1030.80493164062 1030.02221679688 1032.80285644531 1034.52868652344 1029.69226074219 1035.38464355469 1031.92163085938 1030.52124023438 1026.25012207031 1023.63385009766 1023.57086181641 1020.08319091797 1017.60955810547 1015.84228515625 1015.80578613281 1019.53961181641 1018.24163818359 1020.44000244141 1025.35668945312 1023.92602539062 1018.68292236328 1009.17712402344 1014.74499511719 1011.21740722656 1010.77880859375 1003.65087890625 994.512268066406 994.215270996094 987.983642578125 982.427673339844 985.102233886719 988.245178222656 995.256774902344 994.087097167969 993.221130371094 1004.66461181641 993.296997070312 984.903198242188 975.455444335938 971.385925292969 976.791870117188 983.946533203125 988.185546875 993.513732910156 994.477233886719 993.962158203125 986.070739746094 987.061157226562 979.454895019531 969.076538085938 963.29443359375 951.032836914062 943.865112304688 942.761840820312 937.599182128906 936.407287597656 947.657165527344 941.962585449219 939.230651855469 959.99169921875 965.04248046875 987.200988769531 995.540710449219 1005.47650146484 1016.41857910156 1016.07861328125 1022.44372558594 1025.26452636719 1028.8583984375 1023.81744384766 1024.10778808594 1037.82360839844 1049.64953613281 1051.5712890625 1064.98425292969 1066.11755371094 1052.7119140625 1057.73571777344 1065.3251953125 1078.97326660156 1084.16333007812 1084.0068359375 1085.18310546875 1084.43212890625 1081.4091796875 1084.18054199219 1091.95837402344 1090.47094726562 1098.32214355469 1103.49450683594
955.593627929688 951.762573242188 943.7783203125 948.252868652344 955.448059082031 956.041625976562 957.35595703125 963.14453125 971.506652832031 961.3974609375 966.387634277344 960.724426269531 967.220642089844 965.134033203125 958.149169921875 958.707763671875 956.705383300781 965.075988769531 963.521606445312 959.412353515625 955.044921875 952.749267578125 967.308898925781 977.643310546875 985.191223144531 980.211853027344 988.913391113281 994.815795898438 999.8212890625 1014.12133789062 1019.50750732422 1035.05493164062 1035.75634765625 1028.24523925781 1028.29504394531 1018.28649902344 1007.19915771484 1020.49078369141 1024.84558105469 1026.935546875 1023.09265136719 1019.51904296875 1026.45910644531 1022.95581054688 1030.7216796875 1033.67504882812 1013.89501953125 1006.89862060547 1003.63818359375 1002.08184814453 997.156799316406 1004.42504882812 1009.29028320312 1010.66967773438 1007.36627197266 1015.7529296875 1014.03216552734 1011.50622558594 1018.72052001953 1018.32379150391 1026.11206054688 1029.94409179688 1027.01403808594 1024.54931640625 1034.419921875 1031.40002441406 1029.93347167969 1027.58508300781 1016.15063476562 1014.89013671875 1016.24951171875 1021.83953857422 1012.69201660156 1012.89434814453 1014.61492919922 1010.46765136719 1019.16986083984 1025.02587890625 1021.76623535156 1021.60278320312 1022.94836425781 1016.81262207031 1017.46154785156 1014.09606933594 1008.69995117188 1012.42645263672 1012.212890625 997.922973632812 997.409240722656 995.090576171875 995.350952148438 995.689575195312 1013.33929443359 1020.39654541016 1012.14904785156 1013.888671875 1010.67559814453 993.509948730469 990.194763183594 992.587158203125 995.714233398438 986.10986328125 990.80908203125 989.277954101562 990.816833496094 992.976318359375 981.1611328125 980.533874511719 980.092590332031 971.050048828125 976.762390136719 955.897216796875 942.183654785156 947.595825195312 942.112182617188 941.406982421875 944.455871582031 947.44775390625 944.636474609375 962.710510253906 975.029418945312 990.403625488281 1001.76800537109 1006.93054199219 1023.05194091797 1029.51257324219 1024.39794921875 1028.69104003906 1039.33532714844 1035.31872558594 1033.40930175781 1045.7734375 1050.12036132812 1055.73474121094 1062.00598144531 1061.8466796875 1052.10437011719 1059.15832519531 1070.02807617188 1074.57373046875 1081.09228515625 1084.62072753906 1084.89379882812 1088.44775390625 1086.34423828125 1089.74133300781 1099.25634765625 1104.07250976562 1098.55798339844 1101.50207519531
950.62548828125 945.216613769531 943.682800292969 940.796203613281 946.206420898438 946.283996582031 953.892700195312 955.948974609375 965.497924804688 955.752990722656 947.140930175781 950.630981445312 961.228515625 962.318359375 963.0576171875 958.07763671875 956.70654296875 965.402587890625 963.143005371094 959.629211425781 952.241149902344 969.288208007812 970.190124511719 971.730773925781 987.639709472656 989.607543945312 985.63916015625 989.657470703125 1003.76654052734 1016.83630371094 1008.35394287109 1018.55249023438 1026.13513183594 1023.95220947266 1013.19317626953 1022.00811767578 1019.36505126953 1020.60357666016 1024.22192382812 1026.06909179688 1017.36016845703 1019.41851806641 1013.72338867188 1023.93811035156 1025.90087890625 1025.08459472656 1008.77740478516 1004.05999755859 1001.38958740234 1001.13958740234 1005.04998779297 996.809387207031 1007.39605712891 1012.27294921875 1013.50799560547 1012.03253173828 1016.38061523438 1016.23901367188 1015.83258056641 1014.37884521484 1016.49230957031 1019.69122314453 1032.89245605469 1026.87561035156 1024.70471191406 1028.1044921875 1028.07421875 1027.34680175781 1021.18487548828 1021.27178955078 1018.3701171875 1010.01629638672 1015.30883789062 1008.73077392578 1008.98193359375 1014.51318359375 1009.02630615234 1014.64416503906 1016.39947509766 1011.12408447266 1014.17346191406 1015.49597167969 1027.14428710938 1018.40045166016 1013.67333984375 1010.34332275391 1009.00170898438 1011.19384765625 1010.40356445312 1012.93359375 998.17578125 1000.84655761719 1015.99261474609 1024.93420410156 1028.83776855469 1027.34130859375 1018.93469238281 999.256286621094 999.308776855469 1002.28350830078 1004.45361328125 1006.60516357422 1006.15362548828 994.487060546875 995.477416992188 1003.47265625 998.5439453125 992.35546875 988.836608886719 975.742248535156 961.969055175781 956.806762695312 950.774047851562 946.347595214844 949.20068359375 948.9541015625 942.157348632812 948.411560058594 956.259216308594 972.790283203125 985.642639160156 997.819519042969 1006.94036865234 1021.28668212891 1023.03253173828 1030.27587890625 1033.3935546875 1041.8427734375 1042.14245605469 1048.16137695312 1049.90881347656 1048.85461425781 1044.53088378906 1058.54577636719 1048.87048339844 1053.80065917969 1051.82238769531 1062.16748046875 1062.10949707031 1072.43029785156 1079.04663085938 1082.82983398438 1091.18371582031 1089.30798339844 1098.59216308594 1098.86242675781 1107.93395996094 1109.94458007812 1106.46032714844 1107.64086914062
948.572692871094 944.220336914062 939.811340332031 938.20751953125 947.720703125 941.524047851562 940.434753417969 948.842041015625 947.849060058594 950.202514648438 950.957641601562 948.63232421875 953.743225097656 954.519958496094 966.359497070312 964.683776855469 965.430480957031 966.381286621094 966.592163085938 969.186218261719 964.269958496094 965.092956542969 966.134460449219 969.40185546875 982.807739257812 989.52587890625 983.28173828125 996.495544433594 1002.44958496094 1011.84222412109 1000.83905029297 1018.30194091797 1019.56219482422 1009.51525878906 1011.29821777344 1009.1064453125 1018.21276855469 1017.64923095703 1021.51782226562 1019.69573974609 1000.24835205078 1003.74584960938 1011.57788085938 1021.17144775391 1016.94787597656 1019.75939941406 1005.015625 1003.66143798828 1001.49682617188 1003.75549316406 996.609680175781 998.348022460938 997.69580078125 1006.62927246094 1001.47515869141 1012.56463623047 1003.93640136719 1005.41809082031 1015.06817626953 1008.91217041016 1015.48156738281 1013.53887939453 1028.37243652344 1027.31530761719 1021.73046875 1024.11486816406 1028.20532226562 1026.01342773438 1016.04113769531 1010.52911376953 1017.37823486328 1019.19183349609 1021.53363037109 1013.14196777344 1007.83868408203 995.528686523438 998.228576660156 1008.09631347656 1011.08673095703 1014.90869140625 1008.84558105469 1006.72222900391 1013.24578857422 1007.59088134766 1011.15002441406 1015.11560058594 1015.48114013672 1010.96740722656 1014.90258789062 1015.46630859375 1007.02459716797 1007.16784667969 1011.24102783203 1020.38165283203 1028.03308105469 1018.72711181641 1016.32708740234 1006.37536621094 1009.93853759766 1001.16870117188 1005.53948974609 1010.44000244141 1008.61950683594 1001.4619140625 1005.18048095703 1010.40747070312 1007.57501220703 995.749755859375 993.513122558594 970.699035644531 961.380126953125 949.232604980469 947.235107421875 945.996643066406 949.418640136719 947.311828613281 952.541198730469 957.595886230469 964.343017578125 984.115966796875 986.504760742188 999.904113769531 1008.43640136719 1019.51037597656 1027.59924316406 1028.60925292969 1034.22839355469 1035.06762695312 1039.56384277344 1044.04565429688 1046.92138671875 1045.89135742188 1051.30871582031 1056.06726074219 1052.54650878906 1052.77551269531 1049.2412109375 1059.34838867188 1068.47033691406 1074.38000488281 1080.51403808594 1083.51977539062 1089.76123046875 1085.2880859375 1100.8056640625 1098.77197265625 1105.39379882812 1107.9638671875 1105.84362792969 1111.2373046875
932.552917480469 941.031616210938 944.178283691406 949.76904296875 944.498291015625 947.858337402344 944.825805664062 944.94091796875 948.344970703125 956.119934082031 948.411499023438 947.361328125 954.582092285156 954.730224609375 963.259948730469 958.457336425781 962.65234375 964.715576171875 961.956298828125 963.831604003906 976.282836914062 980.636352539062 972.991333007812 977.092956542969 984.548278808594 989.653076171875 990.710510253906 992.950622558594 1009.13000488281 1006.27624511719 1007.80230712891 1006.81030273438 1006.68536376953 1005.23370361328 999.190246582031 1002.32525634766 1021.61859130859 1020.31103515625 1021.54998779297 1012.85308837891 1007.29614257812 1005.32354736328 1011.03839111328 1008.876953125 1003.46221923828 1006.56872558594 1001.49163818359 1001.54510498047 998.970642089844 998.454040527344 997.183532714844 984.237243652344 994.225402832031 999.313049316406 1000.18054199219 1002.71362304688 999.2021484375 999.631103515625 1006.03790283203 1005.54174804688 1006.828125 1010.94305419922 1014.04132080078 1022.64581298828 1023.99841308594 1021.53668212891 1023.32208251953 1020.64361572266 1014.41387939453 1010.78979492188 1018.47583007812 1014.146484375 1017.00042724609 1009.90307617188 1005.75396728516 992.3642578125 992.004821777344 1002.44805908203 1006.99017333984 1007.42950439453 1001.41937255859 1007.53778076172 1014.76416015625 1015.0478515625 1008.92669677734 1015.26043701172 1012.49951171875 1017.13403320312 1018.63519287109 1019.80059814453 1017.95880126953 1020.62359619141 1014.38739013672 1024.71496582031 1023.51812744141 1022.9453125 1006.73474121094 1003.6845703125 998.531188964844 1006.42541503906 998.90478515625 1005.79388427734 1006.73889160156 1010.06237792969 1012.51861572266 1010.189453125 1007.62432861328 1005.17834472656 991.820983886719 976.227783203125 950.992309570312 936.623168945312 929.098266601562 940.371276855469 935.601867675781 949.468200683594 955.561340332031 961.822998046875 973.312744140625 993.780700683594 1001.9658203125 1004.30224609375 1014.20318603516 1010.50476074219 1034.76318359375 1031.52392578125 1034.44750976562 1033.16918945312 1031.69445800781 1034.75244140625 1046.30554199219 1048.24963378906 1051.32922363281 1053.05322265625 1051.01501464844 1050.71606445312 1050.91174316406 1053.27856445312 1065.10302734375 1071.66967773438 1080.9384765625 1069.41784667969 1083.537109375 1094.21789550781 1099.67138671875 1100.90563964844 1107.72265625 1113.00170898438 1108.8017578125 1113.89147949219
927.349914550781 931.390686035156 945.975524902344 938.475463867188 939.124450683594 950.300720214844 945.8935546875 946.651489257812 953.899597167969 961.309631347656 959.457702636719 966.177185058594 960.421447753906 966.05126953125 963.639587402344 961.139038085938 961.537780761719 968.744262695312 968.252197265625 962.874084472656 973.924438476562 981.140625 983.034240722656 991.841674804688 984.834716796875 989.583801269531 991.682312011719 992.269226074219 994.519409179688 1004.36572265625 1006.35137939453 1007.33422851562 999.026794433594 997.201171875 997.79150390625 1000.42028808594 1023.66650390625 1017.83953857422 1013.39965820312 1011.4853515625 1002.31604003906 1004.80688476562 1005.85559082031 999.944763183594 1003.40356445312 1004.50457763672 1002.64654541016 1004.37493896484 996.904968261719 992.500427246094 993.219604492188 989.23291015625 986.912902832031 993.1923828125 998.219665527344 992.980773925781 994.090881347656 1001.45910644531 1014.80163574219 1011.56213378906 1011.93505859375 1001.27960205078 1002.67358398438 1019.09393310547 1020.57922363281 1013.75946044922 1007.47674560547 1008.52789306641 1014.53894042969 1010.34814453125 1015.77813720703 1025.67211914062 1017.6435546875 1014.29107666016 1012.84197998047 1009.62261962891 1000.82678222656 995.998901367188 997.964599609375 1002.75592041016 1009.44403076172 1016.02734375 1014.65258789062 1005.56665039062 1011.68914794922 1017.25317382812 1011.59033203125 1015.22821044922 1016.35369873047 1013.89849853516 1019.1279296875 1017.13677978516 1025.53564453125 1026.03405761719 1022.45513916016 1017.08386230469 1014.33825683594 1008.107421875 1003.8515625 993.996154785156 1002.34613037109 1000.50610351562 1005.17016601562 1010.70770263672 1013.59167480469 1005.99108886719 1008.07067871094 1001.68048095703 998.928100585938 974.190979003906 956.024780273438 949.809692382812 939.638366699219 945.658935546875 937.933166503906 947.527648925781 950.014221191406 960.509521484375 968.059204101562 995.949523925781 1002.01342773438 1012.31317138672 1005.66979980469 1017.43603515625 1034.11242675781 1038.00952148438 1039.03076171875 1033.93286132812 1035.38720703125 1044.84924316406 1042.26635742188 1048.42468261719 1054.11145019531 1048.4736328125 1052.73474121094 1048.93444824219 1047.13830566406 1060.78723144531 1061.65991210938 1076.87243652344 1080.2080078125 1073.26892089844 1078.35888671875 1089.05493164062 1096.10510253906 1101.47583007812 1100.53332519531 1104.33544921875 1111.63598632812 1113.1396484375
927.689758300781 939.291259765625 936.75537109375 942.974853515625 940.757629394531 950.573425292969 952.59130859375 948.099426269531 957.313171386719 963.373352050781 974.144226074219 971.234130859375 960.552062988281 968.7880859375 968.611450195312 975.437255859375 963.386962890625 962.997009277344 968.0908203125 972.410400390625 982.077331542969 980.025024414062 983.997680664062 982.927185058594 981.914367675781 984.14453125 986.8046875 986.142456054688 996.727294921875 1001.38458251953 1001.16687011719 992.497436523438 994.725158691406 1003.02471923828 999.930847167969 1001.29669189453 1004.45812988281 1008.59020996094 1009.42132568359 1009.24548339844 1000.57049560547 1011.00988769531 1008.56042480469 997.96630859375 994.585510253906 995.600708007812 997.132202148438 1002.20111083984 999.015563964844 986.84619140625 980.859497070312 974.386474609375 982.140869140625 991.615600585938 993.453308105469 992.401489257812 994.973327636719 1002.73461914062 1008.42272949219 1002.51519775391 1013.63909912109 1007.47100830078 1013.25091552734 1022.2109375 1020.75445556641 1014.93322753906 998.991149902344 1010.51873779297 1009.81762695312 1009.87359619141 1005.58758544922 1011.09063720703 1011.85162353516 1010.53588867188 1006.02551269531 1005.19378662109 1003.39276123047 994.069885253906 995.300537109375 997.271789550781 999.390991210938 998.590148925781 1005.75695800781 1003.34051513672 1006.51354980469 1019.52282714844 1019.78454589844 1019.73492431641 1016.38134765625 1007.80938720703 1016.63684082031 1019.57922363281 1023.32806396484 1020.47882080078 1016.76153564453 1013.60375976562 1009.4443359375 1010.865234375 1002.35485839844 996.291931152344 997.118896484375 992.045776367188 989.818359375 1010.00360107422 1013.15545654297 1007.38006591797 1004.11676025391 1003.72521972656 990.483459472656 972.301940917969 966.619506835938 961.211547851562 947.031555175781 937.710083007812 937.299621582031 947.659729003906 957.924011230469 962.320922851562 969.218383789062 994.02880859375 991.572387695312 1000.98931884766 1015.59326171875 1023.97918701172 1029.2421875 1036.69152832031 1033.62976074219 1036.21496582031 1041.85107421875 1031.1533203125 1038.93627929688 1042.69604492188 1050.65966796875 1043.6220703125 1057.31018066406 1053.16174316406 1057.34521484375 1064.19226074219 1065.70239257812 1079.23840332031 1078.3505859375 1069.29895019531 1068.44494628906 1077.69995117188 1087.11779785156 1094.76965332031 1104.37036132812 1105.49987792969 1106.53454589844 1105.60766601562
932.645446777344 938.031188964844 940.310241699219 943.515502929688 951.796813964844 955.209289550781 958.206604003906 955.823974609375 954.554382324219 973.466064453125 965.662536621094 967.952697753906 971.824035644531 973.251708984375 975.291259765625 984.607177734375 975.885375976562 970.174682617188 977.72900390625 976.554504394531 980.444213867188 977.657470703125 980.513122558594 979.162719726562 979.509033203125 978.2685546875 986.1796875 989.070922851562 985.389831542969 996.991638183594 995.817687988281 992.534973144531 992.265380859375 992.524780273438 998.04443359375 991.020812988281 999.214111328125 997.577087402344 999.005737304688 1009.55688476562 1006.25103759766 1001.01873779297 1003.36291503906 995.567932128906 994.574157714844 992.380432128906 994.924438476562 994.484924316406 987.179321289062 977.955810546875 976.276916503906 972.988037109375 975.609375 986.873596191406 987.266723632812 988.730102539062 993.290100097656 1002.10150146484 1010.93041992188 1002.80377197266 1006.75067138672 1005.51531982422 1013.65924072266 1022.11090087891 1009.03533935547 1012.53948974609 997.537414550781 1006.17620849609 1006.63549804688 1011.46343994141 1001.29046630859 1013.55200195312 1006.61968994141 1008.53723144531 1001.93383789062 1004.78564453125 1005.93444824219 999.471435546875 985.200378417969 988.783142089844 983.549499511719 988.657775878906 991.158325195312 1002.03173828125 1011.62066650391 1013.96362304688 1015.79248046875 1017.11047363281 1017.03997802734 1011.70434570312 1013.48687744141 1012.69580078125 1018.63470458984 1018.33032226562 1013.75732421875 1006.54919433594 999.834655761719 1007.45739746094 1001.56823730469 993.0166015625 998.347290039062 995.443786621094 1010.52099609375 1016.45294189453 1016.96630859375 1014.97509765625 1008.03607177734 997.069641113281 993.573425292969 977.302429199219 980.261291503906 959.252868652344 952.8408203125 946.082275390625 945.803527832031 947.459350585938 952.442749023438 962.8193359375 980.443298339844 978.694396972656 999.009460449219 1013.31451416016 1016.28204345703 1021.72625732422 1027.62927246094 1036.59362792969 1033.33068847656 1036.68249511719 1027.52319335938 1036.85595703125 1030.06494140625 1030.0859375 1044.55847167969 1047.32800292969 1053.05749511719 1050.60327148438 1055.48828125 1055.78076171875 1061.14172363281 1070.07641601562 1064.85437011719 1060.48486328125 1067.53662109375 1063.62622070312 1075.28747558594 1085.81115722656 1106.896484375 1105.00537109375 1105.23474121094 1111.64489746094
934.385925292969 935.884765625 934.04052734375 944.278381347656 957.224853515625 954.093200683594 956.763549804688 965.413635253906 965.643249511719 969.761413574219 969.407104492188 971.153442382812 972.041748046875 976.500732421875 979.910705566406 976.476013183594 985.24267578125 979.200988769531 974.263000488281 967.989562988281 967.754638671875 975.961181640625 977.006042480469 983.872375488281 980.071228027344 975.725524902344 983.296264648438 989.277221679688 987.911010742188 988.782531738281 995.992797851562 994.394409179688 991.74658203125 996.25244140625 984.962524414062 990.370666503906 989.964660644531 991.516296386719 1000.29504394531 993.629028320312 1001.80743408203 1001.57843017578 1000.19116210938 997.458984375 987.635864257812 996.846984863281 995.022705078125 991.112854003906 983.460205078125 976.128295898438 966.888061523438 965.420532226562 971.806091308594 984.491943359375 988.432434082031 982.583068847656 991.432739257812 997.867980957031 1002.49676513672 1007.49053955078 1013.73950195312 999.030944824219 1009.24542236328 1005.38275146484 1006.19287109375 999.123840332031 1003.63073730469 999.034362792969 999.641540527344 1006.22015380859 1008.69598388672 1007.0791015625 1003.54211425781 1003.65612792969 999.165588378906 996.740844726562 1007.46862792969 998.137634277344 987.422058105469 989.581359863281 987.746887207031 990.690307617188 994.021057128906 999.665344238281 1008.76013183594 1014.43304443359 1017.82348632812 1014.11614990234 1018.33563232422 1019.77673339844 1019.77160644531 1002.84375 1016.05981445312 1013.64038085938 1013.33728027344 1004.57257080078 1002.80932617188 998.318969726562 998.731872558594 998.924743652344 1000.18249511719 997.991516113281 1006.92987060547 1015.67407226562 1014.74719238281 1009.81811523438 999.767822265625 997.326538085938 989.024169921875 975.978576660156 964.501831054688 958.041259765625 957.513244628906 948.510864257812 941.690124511719 945.065490722656 955.971130371094 963.572814941406 974.030517578125 990.827941894531 996.451049804688 1006.16607666016 1014.29571533203 1022.44299316406 1016.43444824219 1032.1513671875 1035.11193847656 1038.53515625 1034.10632324219 1031.55590820312 1029.53552246094 1031.12060546875 1034.54150390625 1033.28112792969 1034.10217285156 1049.40515136719 1051.73388671875 1052.38330078125 1058.10717773438 1055.80700683594 1053.54553222656 1057.21740722656 1063.27770996094 1066.02136230469 1071.29724121094 1082.08435058594 1098.40600585938 1104.01403808594 1100.45263671875 1107.1953125
935.695617675781 941.004089355469 939.850402832031 954.725830078125 963.359619140625 962.634582519531 959.895141601562 963.017700195312 970.139282226562 973.127258300781 977.779968261719 978.825805664062 983.316345214844 990.792846679688 985.378967285156 981.781982421875 983.84912109375 979.299377441406 976.621398925781 966.816955566406 979.28759765625 972.794860839844 973.8720703125 983.043151855469 978.446472167969 982.607788085938 990.522766113281 988.47119140625 980.972839355469 987.073913574219 994.480895996094 995.045593261719 988.764343261719 981.062744140625 994.974731445312 993.1640625 991.775390625 985.890869140625 994.832336425781 994.642211914062 993.808044433594 998.458984375 997.617126464844 992.868286132812 987.600463867188 983.755798339844 996.605773925781 986.449340820312 984.742431640625 989.518371582031 974.650817871094 978.020690917969 980.915588378906 989.3271484375 988.969543457031 988.261535644531 997.795776367188 993.800537109375 997.023376464844 1004.32531738281 1000.46862792969 995.837158203125 993.701721191406 995.110168457031 1007.72772216797 1000.19073486328 1005.16912841797 1002.38433837891 1000.72528076172 998.361450195312 1010.93627929688 1005.73211669922 1001.12768554688 996.580261230469 992.681091308594 996.602722167969 999.16748046875 998.00927734375 1001.37518310547 993.15966796875 980.542724609375 985.58056640625 992.191833496094 997.491027832031 1000.32696533203 1007.291015625 1017.27508544922 1006.68182373047 1010.86694335938 1010.36761474609 1015.00048828125 1008.58331298828 1018.15588378906 1005.19921875 1006.84515380859 1013.84490966797 1007.92736816406 999.842468261719 1000.08685302734 992.427612304688 996.800842285156 999.130310058594 1003.62255859375 1024.63879394531 1015.02868652344 1012.43627929688 1005.54248046875 996.874694824219 987.728942871094 978.381896972656 973.03466796875 957.680297851562 955.036804199219 940.78662109375 937.693908691406 949.424011230469 955.01904296875 957.087951660156 968.389099121094 986.275085449219 996.26123046875 1003.71173095703 1011.81127929688 1017.49188232422 1026.46264648438 1028.27893066406 1031.35949707031 1035.55749511719 1029.34606933594 1025.8876953125 1034.81237792969 1031.57067871094 1035.85021972656 1027.05810546875 1031.73596191406 1044.52709960938 1051.87292480469 1053.20190429688 1048.97778320312 1046.87707519531 1049.63244628906 1054.04296875 1060.708984375 1072.80786132812 1080.84606933594 1086.36499023438 1092.50476074219 1104.85327148438 1103.56420898438 1102.46081542969
940.101989746094 943.571350097656 954.766418457031 962.693115234375 965.713134765625 969.048400878906 965.001892089844 965.146606445312 973.017761230469 970.975280761719 981.688415527344 991.095886230469 980.54443359375 983.494079589844 982.464538574219 978.959350585938 978.205627441406 977.717468261719 976.51953125 978.022338867188 980.959594726562 980.944641113281 980.1796875 984.147644042969 984.439270019531 987.197692871094 992.268676757812 985.002807617188 984.366271972656 992.678955078125 983.814758300781 988.962768554688 983.966735839844 982.434875488281 989.600646972656 995.069458007812 987.634216308594 988.172180175781 981.605834960938 987.501098632812 990.797729492188 1002.01226806641 985.088806152344 988.824340820312 990.6552734375 990.031921386719 996.077270507812 996.982299804688 992.532104492188 992.318420410156 991.310363769531 982.484802246094 981.298034667969 985.512451171875 984.984130859375 981.112731933594 993.985534667969 992.450378417969 996.565673828125 998.336120605469 1000.64276123047 994.703308105469 991.938842773438 990.934448242188 999.856140136719 998.104248046875 1001.43341064453 1003.49481201172 1000.93627929688 996.331298828125 993.621276855469 1000.513671875 1000.87298583984 1000.54388427734 994.281921386719 1002.24975585938 1000.62506103516 1000.53564453125 1001.25622558594 998.39111328125 993.443420410156 994.393981933594 995.011047363281 991.006958007812 1004.50653076172 1008.42022705078 1014.75634765625 1008.37420654297 1005.39178466797 1012.84130859375 1008.94036865234 1011.71649169922 1010.99829101562 1018.81408691406 1016.60900878906 1024.3828125 1015.21636962891 1002.83660888672 999.216125488281 998.5732421875 1003.24359130859 1016.65869140625 1001.79754638672 1010.46203613281 1008.92553710938 1004.08166503906 1000.10437011719 998.970275878906 990.103393554688 974.213073730469 975.854370117188 966.345336914062 956.574829101562 943.610473632812 941.024780273438 946.498107910156 953.98291015625 962.287231445312 975.241027832031 977.857177734375 988.291931152344 1002.10803222656 1009.95404052734 1012.99310302734 1027.65759277344 1025.72021484375 1030.53588867188 1035.38208007812 1029.34545898438 1034.29187011719 1033.61145019531 1034.65417480469 1034.28930664062 1031.44396972656 1039.767578125 1045.79797363281 1049.13439941406 1041.62072753906 1048.81018066406 1056.67687988281 1044.74096679688 1050.869140625 1060.32287597656 1070.42041015625 1077.34851074219 1089.53186035156 1102.94348144531 1101.4970703125 1100.47875976562 1103.56018066406
946.902648925781 948.154174804688 950.222106933594 963.851806640625 974.21044921875 976.097412109375 970.550354003906 977.432495117188 970.065490722656 980.583435058594 987.276977539062 986.275634765625 976.6787109375 980.664611816406 968.284790039062 977.261596679688 970.81298828125 977.129577636719 982.792175292969 982.09326171875 977.365844726562 981.02099609375 984.351989746094 977.530639648438 974.958251953125 996.368835449219 992.204956054688 988.3681640625 980.042114257812 984.521789550781 988.164001464844 986.289916992188 984.70361328125 989.409545898438 988.456481933594 993.891540527344 991.084350585938 991.913513183594 976.856689453125 981.385864257812 987.946228027344 981.399780273438 995.744140625 988.280700683594 999.737976074219 994.988464355469 988.482971191406 992.710083007812 991.348999023438 992.238220214844 992.573852539062 970.834899902344 979.027893066406 975.3037109375 987.796997070312 985.329040527344 986.275817871094 985.958740234375 995.735778808594 996.598205566406 998.421447753906 992.446044921875 983.848205566406 992.150512695312 993.1298828125 986.588012695312 987.708557128906 994.056945800781 991.628051757812 979.450073242188 988.226684570312 996.981811523438 997.560729980469 998.66796875 991.633666992188 1001.67626953125 1000.49438476562 1002.49768066406 1002.49969482422 1001.57971191406 996.870849609375 1002.99743652344 997.047119140625 1005.81408691406 1010.64276123047 1019.62738037109 1011.814453125 1014.21203613281 1015.23059082031 1010.19757080078 1017.74255371094 1012.24884033203 1012.19097900391 1011.19848632812 1020.10955810547 1024.93005371094 1021.056640625 1012.38232421875 1002.84912109375 1005.18518066406 1012.64703369141 1011.4072265625 992.207580566406 998.625122070312 995.410278320312 1002.25885009766 997.195861816406 994.009704589844 994.138488769531 978.295654296875 976.861267089844 974.312744140625 958.858032226562 940.436767578125 943.644775390625 948.653686523438 958.732177734375 967.376586914062 970.474853515625 978.460327148438 990.780944824219 997.796020507812 1015.8916015625 1019.54290771484 1017.65692138672 1025.66625976562 1029.67126464844 1029.14916992188 1034.46130371094 1033.0263671875 1034.62170410156 1024.34411621094 1025.47082519531 1021.94519042969 1031.83422851562 1033.12414550781 1032.02368164062 1036.24084472656 1041.51940917969 1053.93920898438 1048.89147949219 1049.88024902344 1051.66223144531 1067.77502441406 1084.2900390625 1095.42639160156 1098.09899902344 1096.99487304688 1103.64233398438 1111.28845214844
942.836975097656 956.136596679688 963.050170898438 971.088623046875 968.936279296875 970.322265625 970.508056640625 979.007934570312 973.360290527344 975.657897949219 985.413635253906 993.103271484375 979.984985351562 980.303649902344 980.429992675781 975.393676757812 979.917114257812 977.781616210938 980.2158203125 980.719665527344 985.957885742188 984.635437011719 980.302612304688 979.780334472656 983.998291015625 985.940002441406 989.580017089844 976.896057128906 978.445068359375 984.294616699219 985.315490722656 982.60888671875 980.435485839844 979.252502441406 991.810791015625 991.729187011719 987.85302734375 984.262939453125 977.967956542969 975.618347167969 979.696655273438 980.13525390625 989.330383300781 992.483581542969 994.104064941406 988.087646484375 987.060607910156 982.882080078125 987.193176269531 981.985717773438 984.806701660156 975.943237304688 972.775573730469 978.236267089844 982.914855957031 982.624572753906 984.418273925781 987.873657226562 992.002258300781 989.466430664062 999.56494140625 996.228759765625 987.089477539062 981.198608398438 989.249267578125 991.997009277344 988.448364257812 986.8251953125 989.303466796875 986.653015136719 981.496520996094 985.31787109375 988.554138183594 998.236328125 991.119750976562 997.153930664062 995.953857421875 1002.88342285156 1001.63458251953 998.069519042969 1002.62042236328 997.898742675781 998.600402832031 1009.55908203125 1016.62554931641 1022.923828125 1019.15478515625 1011.56481933594 1016.39770507812 1011.98956298828 1019.75238037109 1015.27111816406 1015.24206542969 1009.341796875 1019.10089111328 1014.58392333984 1014.80603027344 1013.12237548828 1006.35327148438 1001.80328369141 1011.77838134766 1005.47985839844 997.403991699219 990.54248046875 984.258911132812 995.677612304688 991.255798339844 1000.79083251953 989.762817382812 979.525085449219 981.091796875 978.671997070312 973.636047363281 954.283264160156 949.632629394531 959.406860351562 965.065185546875 970.73193359375 975.0166015625 976.91650390625 997.781677246094 1010.29479980469 1006.54736328125 1014.78851318359 1020.58404541016 1018.49670410156 1030.29467773438 1029.76623535156 1028.18835449219 1023.94549560547 1024.95556640625 1021.52270507812 1020.68994140625 1026.73095703125 1026.33984375 1025.32006835938 1025.11779785156 1028.42370605469 1038.43395996094 1053.25830078125 1057.10754394531 1059.41357421875 1056.66809082031 1071.52001953125 1086.44836425781 1092.02880859375 1103.23193359375 1108.47729492188 1102.16479492188 1111.98486328125
949.057495117188 959.711486816406 960.459411621094 961.827819824219 971.997314453125 975.065185546875 974.720275878906 977.191650390625 972.814880371094 971.857116699219 978.001586914062 987.852844238281 979.089233398438 987.915954589844 982.732055664062 976.895874023438 969.579528808594 974.731140136719 979.938049316406 985.373657226562 984.015197753906 979.8349609375 979.55078125 981.865356445312 981.633911132812 980.779907226562 983.569641113281 981.9443359375 975.969360351562 974.381103515625 984.344177246094 988.655700683594 987.702026367188 983.152221679688 982.660095214844 977.828735351562 978.468505859375 985.347839355469 985.655517578125 974.447265625 984.135620117188 972.297912597656 977.529418945312 980.037475585938 984.836975097656 985.689575195312 990.983581542969 990.765075683594 987.731872558594 987.130981445312 983.487976074219 979.505920410156 971.976684570312 974.604125976562 982.864074707031 984.306274414062 991.976684570312 989.645080566406 985.3779296875 993.988464355469 1005.33599853516 992.328979492188 988.749389648438 989.337219238281 997.1689453125 991.722351074219 986.495849609375 987.252319335938 985.88037109375 984.606201171875 969.616638183594 983.074340820312 988.028015136719 999.084106445312 991.377807617188 995.070556640625 982.343566894531 992.395629882812 995.132385253906 996.43115234375 1005.27301025391 1001.79455566406 1007.32824707031 999.882385253906 1007.14288330078 1012.03393554688 1017.42358398438 1013.22161865234 1020.22802734375 1022.80792236328 1026.57531738281 1021.04913330078 1019.31176757812 1016.12896728516 1018.48999023438 1014.90667724609 1013.578125 1010.11328125 1001.62487792969 1003.62982177734 1001.30517578125 998.925048828125 992.536987304688 996.336975097656 990.877258300781 990.724853515625 993.825927734375 999.023010253906 990.483581542969 986.095092773438 987.945190429688 988.352111816406 984.213745117188 972.077819824219 969.396850585938 965.436584472656 972.115600585938 981.723449707031 979.372009277344 983.00048828125 1005.7197265625 1002.92535400391 1005.36529541016 1002.19799804688 1015.46832275391 1017.57403564453 1026.71081542969 1025.02014160156 1021.37847900391 1021.63299560547 1019.36578369141 1021.21435546875 1017.65808105469 1025.30700683594 1018.70520019531 1016.25750732422 1017.89416503906 1026.88623046875 1042.748046875 1053.20690917969 1062.57275390625 1064.95666503906 1065.33239746094 1077.35913085938 1086.36901855469 1096.03442382812 1102.8828125 1099.12158203125 1109.17736816406 1121.88122558594
950.449340820312 957.734619140625 952.639953613281 964.828125 968.385681152344 962.694641113281 973.623168945312 969.498107910156 968.55810546875 973.521606445312 975.028198242188 979.159851074219 985.06201171875 977.1728515625 975.5087890625 969.467041015625 963.959289550781 967.482421875 979.713317871094 982.91650390625 987.636901855469 985.368713378906 983.779602050781 980.188415527344 977.56396484375 975.677368164062 981.074951171875 977.391540527344 972.855346679688 972.754089355469 979.348693847656 982.829406738281 980.400329589844 974.732482910156 982.771179199219 985.474365234375 981.724426269531 990.837524414062 986.748352050781 983.049560546875 989.052551269531 984.945861816406 988.020935058594 984.342529296875 977.37744140625 978.302368164062 990.197326660156 984.094299316406 978.0986328125 977.968139648438 976.837280273438 970.363891601562 973.184692382812 976.425598144531 979.107177734375 975.941650390625 987.073364257812 988.341186523438 983.783752441406 993.559692382812 986.964111328125 988.798095703125 993.123168945312 995.368896484375 997.644287109375 990.553100585938 983.478271484375 986.91796875 984.104797363281 979.927429199219 980.3271484375 986.905395507812 999.331604003906 1002.33447265625 988.271545410156 985.510803222656 979.868896484375 986.746643066406 1002.72186279297 1001.76129150391 1005.50811767578 1008.10333251953 1007.10931396484 1004.19024658203 1010.40063476562 1018.01672363281 1020.77465820312 1013.25463867188 1022.56408691406 1027.35095214844 1023.11016845703 1023.91778564453 1019.50231933594 1021.71649169922 1020.06896972656 1013.35614013672 1004.64105224609 994.132080078125 999.422973632812 999.866271972656 1001.5205078125 999.426147460938 1000.08355712891 998.384460449219 998.467224121094 991.204650878906 999.672729492188 992.452209472656 995.695556640625 988.774230957031 990.633117675781 996.473205566406 992.826477050781 980.329956054688 971.503784179688 972.891540527344 980.974243164062 987.354187011719 983.668701171875 986.34912109375 997.402221679688 993.211303710938 998.381103515625 1004.81072998047 1005.80065917969 1011.83166503906 1019.17565917969 1014.93511962891 1020.16192626953 1016.76605224609 1011.66290283203 1017.55364990234 1020.47467041016 1021.99652099609 1018.44085693359 1018.06091308594 1027.72338867188 1026.47888183594 1039.73303222656 1049.62768554688 1070.76928710938 1074.18286132812 1077.94799804688 1083.7099609375 1088.26550292969 1090.11108398438 1104.08410644531 1105.83056640625 1120.86987304688 1123.849609375
943.008483886719 948.741760253906 945.969848632812 964.819702148438 958.917419433594 963.2177734375 967.5771484375 969.925598144531 971.319763183594 972.780029296875 977.534484863281 976.520141601562 979.3671875 971.298156738281 968.569030761719 968.757751464844 969.558654785156 963.80224609375 976.88916015625 979.631103515625 987.888793945312 977.768798828125 973.9638671875 984.279418945312 975.208251953125 977.283752441406 978.692565917969 976.370910644531 979.491638183594 978.171508789062 982.285827636719 976.768249511719 977.523498535156 980.026489257812 988.680419921875 991.641052246094 991.628479003906 987.103454589844 975.194091796875 972.869384765625 979.911926269531 977.439636230469 985.478942871094 979.404724121094 974.216125488281 974.833190917969 981.826721191406 982.077270507812 976.313842773438 977.204956054688 966.787475585938 968.022705078125 972.117492675781 984.728637695312 974.561157226562 973.054138183594 982.892883300781 987.770812988281 1000.93518066406 1005.01470947266 993.199462890625 986.193664550781 987.100524902344 986.611694335938 995.532470703125 985.379211425781 977.080322265625 982.269775390625 976.177062988281 978.555847167969 987.797973632812 988.700012207031 995.257263183594 999.999633789062 990.054870605469 986.170288085938 980.672302246094 982.920532226562 1003.28369140625 1011.57214355469 1005.93707275391 1006.99530029297 998.390563964844 1004.16467285156 1004.30499267578 1015.89526367188 1019.55627441406 1019.4736328125 1023.08721923828 1027.76794433594 1017.07263183594 1017.85925292969 1015.08270263672 1014.85375976562 1011.21618652344 1007.67944335938 1001.47552490234 1000.01068115234 997.39208984375 1007.64593505859 998.183227539062 998.062316894531 998.437561035156 994.479553222656 994.111633300781 999.091552734375 997.904846191406 991.67333984375 992.330993652344 987.707153320312 988.109252929688 990.592834472656 990.832763671875 990.386352539062 983.81982421875 983.940673828125 994.030212402344 990.472900390625 992.938293457031 987.951293945312 987.774353027344 987.575073242188 1001.25390625 1002.69635009766 1014.41278076172 1007.61798095703 1013.18041992188 1008.98114013672 1016.2890625 1015.94842529297 1012.09448242188 1020.51556396484 1025.03186035156 1015.74176025391 1012.48583984375 1010.42541503906 1016.39624023438 1025.4765625 1047.49963378906 1055.20727539062 1064.11657714844 1072.61108398438 1078.00451660156 1083.64099121094 1099.72241210938 1102.97692871094 1105.16394042969 1115.02746582031 1126.93579101562 1130.82421875
955.207946777344 951.976684570312 958.892822265625 962.765686035156 960.399780273438 971.070617675781 968.280334472656 981.891967773438 976.174560546875 969.239562988281 972.197143554688 974.952819824219 971.620483398438 966.847839355469 962.771667480469 959.814147949219 964.148193359375 969.531372070312 980.521545410156 985.402099609375 980.8095703125 980.894287109375 978.051574707031 977.22998046875 974.328796386719 971.563354492188 970.341247558594 972.615295410156 976.317199707031 976.916564941406 974.294067382812 980.615234375 979.533935546875 985.929992675781 987.612121582031 980.985717773438 976.985717773438 982.921875 979.940124511719 977.329467773438 976.265869140625 971.389282226562 974.701599121094 973.21435546875 971.340698242188 970.913696289062 975.736267089844 973.580017089844 982.866149902344 970.584350585938 971.829406738281 979.018127441406 974.873291015625 972.032470703125 972.744079589844 976.573547363281 977.201232910156 986.684448242188 998.35986328125 998.954711914062 990.992736816406 988.932373046875 988.025817871094 983.006591796875 982.670349121094 982.844970703125 989.489318847656 977.352722167969 977.107177734375 978.51953125 986.561767578125 992.738708496094 997.233703613281 992.698120117188 985.262084960938 991.905151367188 989.710144042969 992.809875488281 1002.55975341797 1010.29071044922 1012.70166015625 1012.95684814453 1002.78356933594 1002.7353515625 1014.25152587891 1007.47027587891 1015.22814941406 1013.98382568359 1017.15655517578 1022.95458984375 1015.69281005859 1010.89465332031 1014.52886962891 1007.49841308594 1002.20202636719 1002.49493408203 999.993957519531 1001.2197265625 996.989074707031 991.718444824219 994.489379882812 995.860473632812 997.6962890625 996.912353515625 993.8779296875 997.588989257812 996.812744140625 998.365051269531 990.58642578125 984.959350585938 994.533630371094 997.572814941406 993.589233398438 994.521057128906 998.198608398438 985.984985351562 994.999145507812 1004.86047363281 989.855041503906 999.927368164062 991.989990234375 993.303894042969 998.171264648438 1011.02545166016 1009.17864990234 1006.6845703125 1007.79272460938 1013.10400390625 1011.67071533203 1007.46697998047 1015.49237060547 1016.61730957031 1020.98626708984 1018.88372802734 1022.48864746094 1014.07263183594 1006.59826660156 1022.1240234375 1042.001953125 1051.43371582031 1062.99328613281 1073.85559082031 1078.38879394531 1088.66137695312 1098.96508789062 1107.3837890625 1109.43286132812 1123.30859375 1135.89013671875 1139.59655761719
952.229858398438 957.505004882812 964.064147949219 966.014709472656 966.699890136719 965.731384277344 965.391723632812 969.486450195312 966.750854492188 968.7890625 975.559143066406 973.268249511719 978.316467285156 966.395874023438 967.606140136719 968.70458984375 965.689819335938 968.270690917969 976.57373046875 980.893859863281 983.278686523438 987.506530761719 980.606140136719 974.250244140625 968.831481933594 969.908752441406 971.352294921875 966.21923828125 981.565307617188 983.317199707031 987.9140625 981.371520996094 988.539123535156 991.492370605469 984.171325683594 977.615600585938 975.361694335938 980.909912109375 974.258850097656 969.815612792969 972.824584960938 968.990295410156 971.208679199219 966.673583984375 967.283325195312 965.711364746094 966.573913574219 974.561340332031 977.229797363281 978.29443359375 977.517272949219 970.4375 972.899230957031 974.283569335938 973.040161132812 978.295776367188 970.338134765625 980.157409667969 983.033813476562 989.373107910156 987.641845703125 986.140991210938 985.442932128906 980.330200195312 978.015075683594 995.45654296875 985.911926269531 983.0068359375 979.32568359375 973.816467285156 972.085144042969 983.164672851562 988.826477050781 989.911193847656 992.973510742188 983.192321777344 990.005432128906 993.202087402344 1003.15093994141 1008.07867431641 1014.4990234375 1014.95837402344 1020.72991943359 1009.24951171875 1015.60461425781 1010.69708251953 1013.91088867188 1018.58465576172 1022.35437011719 1010.65142822266 1000.77972412109 1002.30596923828 1004.26959228516 1008.38531494141 1000.3310546875 1000.48706054688 1006.99530029297 1002.35070800781 997.872802734375 990.196044921875 994.438598632812 988.228576660156 992.250061035156 991.324279785156 993.229125976562 992.488891601562 996.796936035156 995.136108398438 994.860778808594 990.617065429688 994.264953613281 994.011352539062 992.940063476562 1000.09643554688 995.452514648438 1002.08178710938 1000.91876220703 1006.09387207031 996.54931640625 995.188659667969 1001.02044677734 1003.80645751953 1007.58721923828 1009.74279785156 1010.44104003906 999.997863769531 1002.43389892578 1004.93249511719 1001.74633789062 1009.56091308594 1009.38513183594 1015.73059082031 1016.92755126953 1021.60491943359 1021.82250976562 1015.41833496094 1021.77954101562 1027.22827148438 1037.67932128906 1051.86108398438 1062.009765625 1064.39526367188 1080.72204589844 1076.47216796875 1097.12585449219 1107.65112304688 1115.6064453125 1129.759765625 1140.72937011719 1146.18444824219
958.716064453125 959.988342285156 962.246459960938 968.695983886719 970.481384277344 968.597961425781 962.292175292969 966.707641601562 963.18408203125 968.298034667969 979.177734375 975.418823242188 976.228210449219 977.415832519531 963.377136230469 960.6064453125 970.456237792969 976.409973144531 976.820983886719 972.169311523438 982.284240722656 973.163879394531 964.494873046875 970.731567382812 965.412353515625 968.480712890625 968.778259277344 971.379272460938 978.811157226562 985.899047851562 977.337280273438 987.245178222656 984.451599121094 983.237854003906 982.194763183594 973.180419921875 977.361389160156 973.431945800781 974.4609375 970.511413574219 965.404174804688 963.136962890625 969.344482421875 968.450134277344 963.558227539062 965.778259277344 966.161987304688 971.056579589844 980.308349609375 968.821105957031 976.077819824219 967.950988769531 971.416625976562 970.262512207031 969.120239257812 975.187072753906 971.691467285156 963.591491699219 971.791259765625 976.24560546875 980.333984375 985.139770507812 983.753356933594 986.994689941406 987.868103027344 987.604553222656 993.269775390625 982.928161621094 977.822570800781 976.815673828125 974.363037109375 973.062438964844 975.368408203125 983.70166015625 984.577697753906 982.450012207031 993.059997558594 991.753234863281 1001.57482910156 1000.61224365234 1007.67279052734 1007.21112060547 1008.31646728516 1000.68072509766 1008.00714111328 1010.19281005859 1005.19519042969 1011.69470214844 1011.78381347656 1005.16796875 1011.91131591797 996.8857421875 1004.71411132812 1003.05657958984 998.378540039062 1004.29870605469 1004.34020996094 1004.64117431641 997.547119140625 989.435363769531 987.584594726562 990.684509277344 988.183166503906 989.696899414062 988.851013183594 987.003967285156 991.365112304688 998.367797851562 990.099853515625 990.636657714844 995.98828125 998.212829589844 1004.31317138672 999.09423828125 988.195678710938 1000.30456542969 994.265747070312 997.706298828125 1003.60687255859 1005.34606933594 1010.54956054688 1010.18786621094 1009.32177734375 1006.94891357422 1001.09991455078 999.626525878906 1005.65325927734 1001.26196289062 1002.09191894531 1002.76031494141 1013.25067138672 1011.33013916016 1016.1240234375 1020.00378417969 1013.16174316406 1019.29919433594 1025.20666503906 1027.88037109375 1048.22937011719 1061.20190429688 1065.71789550781 1075.15844726562 1080.96459960938 1085.8642578125 1099.04248046875 1110.58239746094 1122.3486328125 1138.35852050781 1148.34069824219 1159.95361328125
949.904113769531 957.686157226562 959.729187011719 963.131958007812 968.050170898438 969.332214355469 958.970764160156 961.7529296875 955.4619140625 961.646789550781 962.143371582031 974.832946777344 976.597229003906 970.192626953125 974.143981933594 970.878479003906 976.838623046875 979.083068847656 975.544921875 980.60107421875 980.030944824219 985.89453125 971.631408691406 972.386779785156 973.047485351562 972.408508300781 977.359558105469 978.792602539062 974.065490722656 980.641540527344 984.773498535156 977.170654296875 976.639404296875 975.881652832031 974.962524414062 983.021179199219 965.466430664062 970.051330566406 971.742553710938 964.370056152344 961.649780273438 958.604797363281 957.517517089844 961.903564453125 962.649719238281 968.960815429688 966.289733886719 974.869323730469 977.556884765625 977.625732421875 969.132995605469 963.848510742188 966.925842285156 969.848815917969 976.488403320312 969.788208007812 968.848449707031 962.782165527344 962.454040527344 971.980590820312 968.541015625 978.103820800781 980.675476074219 987.297790527344 984.802429199219 983.621215820312 985.981384277344 974.787475585938 975.110168457031 975.544799804688 970.675598144531 969.307373046875 977.023193359375 975.663879394531 974.511535644531 972.892395019531 978.935302734375 984.678527832031 983.751220703125 988.210021972656 1000.91546630859 991.683410644531 994.073852539062 999.409301757812 994.998474121094 1000.28063964844 996.075866699219 1005.81646728516 999.824340820312 1003.51770019531 1007.16827392578 1000.15869140625 1000.41192626953 995.063842773438 998.508422851562 998.343322753906 996.133666992188 1002.75445556641 999.560363769531 992.187866210938 985.491943359375 987.086791992188 992.899841308594 991.344177246094 984.633850097656 987.863647460938 990.630493164062 1001.63830566406 1003.650390625 999.970764160156 995.275268554688 995.759033203125 999.483215332031 998.433898925781 992.413513183594 995.024230957031 997.866638183594 999.416442871094 988.741821289062 1001.01940917969 1005.92584228516 999.317443847656 999.078002929688 1002.55700683594 1003.96759033203 1005.65313720703 1013.34594726562 1009.18585205078 1008.55035400391 1011.17913818359 1010.70001220703 1019.46838378906 1018.89166259766 1019.96820068359 1018.16333007812 1019.61071777344 1031.7529296875 1033.32971191406 1053.50024414062 1065.91101074219 1072.703125 1071.09606933594 1083.19665527344 1097.09460449219 1111.73364257812 1120.62609863281 1136.69226074219 1140.08312988281 1154.75134277344 1164.55090332031
951.364196777344 951.927612304688 956.050048828125 968.354187011719 966.667785644531 966.771240234375 960.729125976562 960.709716796875 966.944763183594 966.716979980469 969.170471191406 965.142395019531 972.077270507812 976.54638671875 980.131713867188 978.815490722656 976.538452148438 978.649719238281 981.12890625 981.995971679688 978.625427246094 983.796264648438 977.850646972656 968.712707519531 970.936584472656 978.697204589844 978.865783691406 975.740966796875 977.779052734375 984.189147949219 976.690307617188 980.921813964844 979.160827636719 977.310668945312 976.259521484375 976.172241210938 973.736999511719 967.232360839844 975.28271484375 973.796508789062 963.606689453125 947.332092285156 963.837768554688 967.34521484375 972.297546386719 971.853393554688 971.995971679688 971.319274902344 977.537902832031 974.4775390625 972.809814453125 968.394287109375 968.695922851562 963.158935546875 975.417724609375 966.281799316406 964.401306152344 957.05078125 959.067504882812 966.224792480469 961.476989746094 979.231872558594 981.060607910156 980.529541015625 977.560729980469 989.953796386719 983.487915039062 976.36962890625 973.706848144531 969.962646484375 967.97265625 966.461059570312 973.904846191406 979.565124511719 982.370239257812 972.563354492188 971.272277832031 975.510864257812 979.837524414062 987.293640136719 977.758544921875 980.908325195312 984.528747558594 990.528564453125 995.266235351562 997.637329101562 991.676330566406 993.998229980469 998.846923828125 994.99853515625 993.154418945312 985.307556152344 998.370666503906 991.661560058594 993.969787597656 993.649047851562 992.4912109375 992.84326171875 991.161010742188 992.4345703125 983.929626464844 986.131042480469 990.173217773438 991.143676757812 981.322937011719 981.572021484375 991.745361328125 992.131896972656 1004.92822265625 998.892150878906 999.058044433594 1000.31494140625 997.546569824219 1004.92578125 1008.53894042969 1002.82287597656 994.828979492188 1005.40972900391 995.526733398438 1000.1025390625 996.642272949219 996.553955078125 999.191772460938 1004.08361816406 1008.98443603516 1011.62731933594 1015.57403564453 1019.69683837891 1018.61175537109 1017.21368408203 1019.88446044922 1021.12896728516 1015.96893310547 1015.87274169922 1015.04888916016 1037.77600097656 1043.16625976562 1052.75427246094 1062.58422851562 1067.94360351562 1078.3994140625 1081.0205078125 1088.61047363281 1094.54602050781 1109.09008789062 1126.66687011719 1129.85925292969 1145.91735839844 1162.95654296875 1167.86975097656
948.128967285156 951.153747558594 964.794921875 963.722778320312 954.880676269531 958.419616699219 962.316650390625 966.434143066406 966.116638183594 968.444030761719 967.196655273438 968.722229003906 964.879821777344 977.327453613281 987.587585449219 983.153076171875 982.329711914062 974.589050292969 978.090515136719 984.276123046875 974.922485351562 980.303405761719 976.933715820312 980.476623535156 972.751647949219 985.617797851562 979.779724121094 974.215148925781 980.777160644531 981.502563476562 978.180053710938 978.201538085938 980.844055175781 980.280639648438 971.7333984375 977.804748535156 972.584838867188 977.168518066406 976.833312988281 970.690307617188 962.76025390625 954.44482421875 970.033020019531 969.813415527344 971.722229003906 965.478759765625 970.016296386719 971.125366210938 976.790588378906 975.254760742188 980.072692871094 981.559875488281 973.190734863281 968.624267578125 966.2119140625 965.526123046875 966.62548828125 967.436950683594 961.516662597656 969.034362792969 964.677612304688 969.013793945312 976.28271484375 975.895141601562 986.389404296875 987.772155761719 985.278015136719 975.746520996094 969.506042480469 978.064697265625 968.140197753906 965.134338378906 971.730163574219 973.718444824219 975.15087890625 974.169372558594 970.996887207031 967.990417480469 967.772888183594 969.921875 971.865539550781 973.546081542969 980.658142089844 982.59228515625 991.2724609375 990.418212890625 987.205383300781 990.56103515625 994.106506347656 986.795593261719 977.691711425781 985.732788085938 982.047119140625 988.493530273438 989.94091796875 988.138366699219 982.030517578125 986.921325683594 987.066833496094 991.384399414062 985.422729492188 985.4296875 987.289794921875 984.598571777344 979.213256835938 981.315612792969 991.269714355469 991.010803222656 994.276428222656 994.476135253906 996.505310058594 998.203918457031 999.247192382812 1001.79388427734 1008.88330078125 993.502380371094 988.94921875 993.717834472656 996.9951171875 1000.51965332031 991.429870605469 990.710693359375 995.364379882812 1001.29919433594 1001.21746826172 1007.04559326172 1019.16058349609 1021.87957763672 1019.53900146484 1021.86077880859 1024.29382324219 1026.7255859375 1020.96752929688 1019.86975097656 1024.984375 1034.47888183594 1047.56567382812 1060.30090332031 1069.50085449219 1077.06005859375 1078.94140625 1083.96276855469 1103.509765625 1112.82482910156 1123.42785644531 1130.68518066406 1131.91540527344 1144.38427734375 1161.45153808594 1165.40686035156
