NCOLS 150
NROWS 37
XLLCORNER 7394249
YLLCORNER 4842419
CELLSIZE 30
NODATA_VALUE -9999
953.727294921875 954.166625976562 964.402587890625 959.810791015625 964.377563476562 962.808410644531 955.238830566406 967.918762207031 973.785217285156 973.651489257812 968.892578125 969.257995605469 968.852172851562 985.251098632812 979.222290039062 979.040222167969 974.060913085938 968.953308105469 977.841003417969 983.013793945312 964.673522949219 966.768127441406 964.438598632812 962.831237792969 969.340698242188 961.180603027344 966.107604980469 966.023864746094 970.987243652344 969.331115722656 975.748962402344 983.322265625 980.733093261719 978.602233886719 970.189147949219 969.667053222656 961.147216796875 960.484619140625 967.605651855469 964.085266113281 965.167175292969 965.823913574219 959.297180175781 960.138854980469 957.944885253906 960.705139160156 967.370178222656 968.072143554688 966.6396484375 961.1298828125 971.444580078125 972.785522460938 971.208862304688 961.371704101562 962.6865234375 961.921630859375 962.515075683594 969.307678222656 977.647583007812 968.288818359375 978.644653320312 976.585021972656 972.829833984375 968.370361328125 970.574829101562 980.373413085938 977.42431640625 966.879150390625 962.100219726562 962.122192382812 966.976684570312 967.916625976562 958.361206054688 960.628540039062 963.103393554688 968.983154296875 964.797119140625 966.985534667969 971.591369628906 978.346252441406 973.113830566406 979.271789550781 973.002746582031 962.4560546875 970.791320800781 968.522521972656 976.49267578125 973.74267578125 972.511779785156 980.446228027344 980.058166503906 980.41650390625 982.039978027344 981.13134765625 979.600158691406 964.888061523438 965.202697753906 974.616088867188 980.630493164062 987.191833496094 990.079345703125 976.5791015625 985.113159179688 989.553588867188 997.728393554688 997.63818359375 1004.79028320312 1002.09399414062 1001.38549804688 1001.79937744141 994.507507324219 1004.99188232422 996.634338378906 988.936462402344 998.961730957031 1002.21514892578 1010.892578125 1017.12243652344 1022.94152832031 1027.53405761719 1025.4306640625 1032.18823242188 1036.65612792969 1038.02624511719 1034.92321777344 1045.71118164062 1045.72106933594 1049.74938964844 1035.98950195312 1044.18371582031 1052.53674316406 1054.49157714844 1054.33813476562 1061.24597167969 1055.78466796875 1069.54260253906 1078.71643066406 1092.97473144531 1095.66687011719 1103.2392578125 1111.35729980469 1111.03649902344 1115.15356445312 1124.10852050781 1136.41870117188 1136.14465332031 1136.10522460938 1131.67028808594 1124.87683105469 1126.27038574219
956.421997070312 949.425354003906 956.174499511719 961.372863769531 960.603088378906 958.867004394531 963.529541015625 972.065673828125 978.685302734375 980.139587402344 973.947143554688 970.474731445312 977.583557128906 987.965148925781 991.794982910156 977.886962890625 973.400634765625 978.953674316406 976.478515625 975.746643066406 973.59033203125 964.852783203125 966.740966796875 962.429931640625 962.231994628906 964.945983886719 961.725769042969 963.020812988281 967.657897949219 967.228820800781 971.992614746094 983.694396972656 981.255920410156 986.477722167969 975.156311035156 973.575866699219 956.790832519531 961.230346679688 965.254516601562 959.224304199219 961.984130859375 958.238525390625 961.759216308594 967.361328125 965.826599121094 956.686157226562 964.616516113281 962.459838867188 960.069152832031 960.93359375 969.642761230469 965.941955566406 973.563049316406 974.269287109375 966.859069824219 960.5107421875 964.365661621094 970.441528320312 973.500122070312 979.195434570312 976.154663085938 975.229614257812 965.935607910156 961.324645996094 969.473022460938 970.80859375 973.542907714844 963.561584472656 957.46240234375 958.623962402344 959.490295410156 962.536437988281 961.263488769531 962.986511230469 965.159545898438 956.475524902344 960.15771484375 968.424987792969 973.45751953125 972.970397949219 978.162414550781 978.215759277344 970.919799804688 963.461181640625 973.918701171875 976.964050292969 973.019470214844 972.24169921875 964.734069824219 968.997192382812 976.714050292969 985.548889160156 984.369445800781 973.004089355469 975.606994628906 975.590393066406 973.329956054688 970.9716796875 973.343200683594 980.962280273438 990.079833984375 983.952758789062 984.85888671875 980.012939453125 982.303833007812 993.826171875 1001.91027832031 1000.23406982422 1002.77630615234 998.597961425781 987.251220703125 991.483825683594 998.974670410156 992.244873046875 992.723937988281 1001.73565673828 997.35107421875 1012.89782714844 1014.0439453125 1021.09625244141 1026.77612304688 1035.21203613281 1039.41284179688 1042.84020996094 1044.50964355469 1042.12548828125 1037.49841308594 1041.75402832031 1046.21130371094 1040.06127929688 1044.00012207031 1046.37316894531 1044.22448730469 1055.22839355469 1060.01489257812 1067.41259765625 1085.11071777344 1092.22412109375 1092.98205566406 1104.55883789062 1106.9697265625 1106.1123046875 1111.89660644531 1118.48669433594 1127.19104003906 1121.7490234375 1125.01953125 1124.94055175781 1116.17053222656 1114.01062011719
958.699340820312 949.948974609375 948.618041992188 962.529357910156 962.467834472656 958.069641113281 962.171752929688 969.3271484375 967.077880859375 973.089477539062 975.149536132812 967.761169433594 976.347473144531 977.002319335938 982.699890136719 977.489135742188 967.437255859375 975.530639648438 977.364013671875 980.810729980469 976.34912109375 968.153137207031 970.22216796875 961.963012695312 960.045288085938 958.718383789062 958.48388671875 955.951965332031 969.371459960938 965.785888671875 967.284423828125 977.06201171875 962.149169921875 973.979736328125 976.6796875 968.571838378906 961.34423828125 958.277038574219 960.307067871094 950.189208984375 957.225280761719 965.345703125 959.122131347656 968.516967773438 968.428833007812 966.527770996094 962.995300292969 968.780639648438 962.26513671875 969.010375976562 966.353149414062 969.24462890625 966.389221191406 974.080200195312 976.306579589844 973.250061035156 962.7626953125 965.51416015625 963.374450683594 971.144775390625 968.085998535156 972.623291015625 976.942077636719 967.848693847656 961.158386230469 960.167785644531 965.77099609375 954.783569335938 951.678649902344 959.074584960938 956.223205566406 965.144775390625 963.225708007812 962.286926269531 959.112121582031 967.450439453125 962.080200195312 957.406372070312 952.099304199219 963.972961425781 969.405395507812 973.672546386719 973.365844726562 966.218994140625 968.552185058594 971.196044921875 974.314514160156 957.529052734375 956.537841796875 970.7099609375 975.70556640625 976.442565917969 979.787536621094 967.846801757812 973.589782714844 972.682312011719 971.886596679688 969.495483398438 971.61669921875 978.530334472656 984.822937011719 983.938842773438 984.861267089844 983.400695800781 981.707763671875 984.709289550781 998.337158203125 993.644714355469 986.29345703125 993.06494140625 993.790588378906 993.6845703125 993.973754882812 997.261291503906 998.123901367188 1000.27410888672 1004.22381591797 1006.40594482422 1016.787109375 1011.68615722656 1030.76721191406 1029.57336425781 1029.67785644531 1034.86804199219 1030.89318847656 1029.55090332031 1034.70361328125 1039.92980957031 1036.00695800781 1030.2470703125 1043.626953125 1040.82446289062 1046.994140625 1050.90686035156 1058.58044433594 1071.49560546875 1087.38098144531 1088.65319824219 1092.21435546875 1099.8955078125 1110.36560058594 1114.25146484375 1112.50219726562 1119.3525390625 1117.50317382812 1119.47924804688 1120.82006835938 1108.26037597656 1105.83544921875 1111.03967285156
958.41162109375 956.396606445312 950.850830078125 963.037353515625 960.173522949219 964.161987304688 973.302185058594 968.475646972656 971.84033203125 966.398498535156 968.378540039062 971.3359375 973.795532226562 974.087890625 975.554626464844 979.920288085938 973.41064453125 973.773010253906 970.471313476562 979.959167480469 977.853515625 970.615600585938 973.043029785156 972.116638183594 962.736511230469 964.749816894531 960.257934570312 958.542175292969 965.604431152344 970.625854492188 968.127990722656 973.912963867188 968.141418457031 966.130249023438 969.691467285156 981.974182128906 971.980529785156 969.714477539062 964.530944824219 963.301391601562 967.558776855469 973.248168945312 965.425354003906 958.412719726562 958.32080078125 961.688598632812 966.232360839844 969.915588378906 972.284912109375 971.948181152344 968.162536621094 962.102966308594 961.601135253906 974.49609375 973.648010253906 961.824768066406 965.349365234375 960.723449707031 954.548095703125 953.963317871094 965.485534667969 964.833435058594 973.128967285156 966.328552246094 965.192138671875 964.386901855469 954.274475097656 958.646423339844 954.59814453125 952.527221679688 949.414611816406 963.549377441406 969.316345214844 966.398376464844 962.979064941406 967.297180175781 966.785705566406 959.945922851562 957.872497558594 962.659118652344 965.282531738281 967.031372070312 964.105163574219 958.935180664062 965.026184082031 975.743347167969 969.704895019531 965.741943359375 967.4765625 971.530639648438 974.388122558594 973.279968261719 976.105712890625 967.752685546875 971.934753417969 972.217712402344 974.263549804688 974.0283203125 972.663818359375 978.997863769531 992.05224609375 986.88818359375 986.472229003906 981.469665527344 978.858520507812 985.334411621094 987.96484375 985.218994140625 979.607238769531 992.018188476562 989.422973632812 994.1337890625 990.834716796875 997.629150390625 995.699584960938 995.340881347656 1000.44390869141 1004.48425292969 1006.01507568359 1010.12316894531 1013.31127929688 1025.17126464844 1031.08837890625 1027.60400390625 1030.7646484375 1029.05139160156 1033.37744140625 1039.24340820312 1031.10522460938 1030.24304199219 1035.6279296875 1046.39855957031 1051.380859375 1053.81872558594 1071.77514648438 1080.0673828125 1089.33081054688 1096.19689941406 1089.31518554688 1097.51477050781 1111.64208984375 1107.58190917969 1114.84765625 1117.90966796875 1112.70751953125 1117.99291992188 1104.06066894531 1098.13098144531 1100.82409667969 1099.21655273438
962.740173339844 962.218872070312 957.976745605469 966.119506835938 969.787048339844 975.040161132812 976.600341796875 974.804321289062 972.180114746094 967.216125488281 969.593627929688 963.04296875 970.850769042969 973.5986328125 975.891723632812 971.81005859375 974.641723632812 967.149963378906 967.598327636719 975.201538085938 975.183837890625 963.600891113281 966.932922363281 962.254577636719 960.874572753906 957.455139160156 962.895751953125 955.542114257812 962.049560546875 965.078552246094 966.633239746094 979.62646484375 966.226867675781 969.729370117188 978.511108398438 971.594848632812 970.445556640625 967.504638671875 963.889343261719 961.590270996094 968.931640625 972.010559082031 962.456726074219 951.247802734375 959.16259765625 957.71826171875 955.859252929688 965.363159179688 963.78955078125 961.010864257812 955.598876953125 964.355346679688 967.799072265625 965.7333984375 962.826721191406 955.307250976562 956.60107421875 956.046691894531 951.271118164062 951.324951171875 956.523010253906 954.665588378906 962.296569824219 963.134216308594 961.057556152344 959.709899902344 962.296813964844 961.474243164062 959.622253417969 951.750732421875 950.54150390625 953.815734863281 972.118103027344 970.338684082031 969.568664550781 960.304260253906 967.144958496094 964.316955566406 968.266479492188 968.844665527344 962.656433105469 957.784423828125 959.155212402344 950.554931640625 960.905212402344 964.217712402344 973.007141113281 967.390319824219 960.895935058594 967.19384765625 975.610595703125 975.100341796875 972.313354492188 970.017700195312 969.878356933594 972.411987304688 969.988403320312 973.365051269531 974.802429199219 980.703430175781 980.2578125 980.738342285156 985.257873535156 978.092468261719 976.265075683594 976.085815429688 978.084167480469 980.286315917969 982.784606933594 984.0322265625 987.880187988281 992.943725585938 987.163452148438 989.001220703125 989.233642578125 990.910827636719 994.115112304688 1005.16870117188 1015.32678222656 1013.08941650391 1010.80395507812 1024.80895996094 1018.15393066406 1030.07287597656 1027.25341796875 1038.03552246094 1035.71752929688 1032.47448730469 1024.91027832031 1028.4345703125 1032.22131347656 1048.70532226562 1052.04040527344 1061.82482910156 1077.67224121094 1081.74377441406 1093.99182128906 1102.03942871094 1102.11511230469 1095.92053222656 1102.86596679688 1101.01306152344 1108.99353027344 1101.37829589844 1102.94909667969 1100.80798339844 1100.16833496094 1095.39184570312 1094.96948242188 1089.03344726562
962.854797363281 971.015686035156 970.107116699219 963.49853515625 971.257019042969 978.534545898438 980.44580078125 971.197021484375 965.372375488281 969.223754882812 962.880798339844 961.6064453125 975.591918945312 973.430603027344 984.48046875 983.460815429688 969.980407714844 968.704406738281 970.143676757812 967.810302734375 965.601928710938 968.827697753906 965.641906738281 958.659240722656 962.643920898438 956.263244628906 959.866271972656 960.746154785156 965.764038085938 966.638244628906 959.814086914062 961.085998535156 967.469604492188 966.5029296875 966.66552734375 966.288940429688 968.212341308594 964.614562988281 961.536315917969 958.808349609375 963.641479492188 967.668090820312 960.884155273438 957.895690917969 965.4091796875 963.215026855469 962.729675292969 962.582641601562 955.539367675781 960.01123046875 958.935424804688 960.757019042969 960.064514160156 962.194458007812 957.354797363281 952.642028808594 956.384704589844 949.423217773438 953.345947265625 955.603210449219 958.357177734375 955.939025878906 964.365783691406 958.455505371094 957.196533203125 959.6044921875 958.173767089844 963.971435546875 964.245483398438 953.672668457031 959.734008789062 957.361755371094 958.88623046875 973.814575195312 962.510498046875 956.832092285156 967.994873046875 960.273559570312 956.863403320312 965.050842285156 957.175476074219 959.057312011719 953.614074707031 957.400817871094 957.260986328125 966.022521972656 960.035888671875 962.730712890625 952.220520019531 957.243896484375 969.064819335938 964.940490722656 965.199951171875 971.564697265625 973.831115722656 968.421875 977.839538574219 981.232849121094 972.72705078125 973.004272460938 979.0830078125 975.502807617188 978.410034179688 973.201171875 972.474060058594 983.303283691406 978.14208984375 966.35498046875 976.373474121094 981.495300292969 990.839782714844 994.964172363281 981.386291503906 985.314025878906 986.218811035156 979.308532714844 982.761901855469 993.377197265625 1007.01062011719 1006.7314453125 1007.90679931641 1013.37078857422 1013.39935302734 1020.59295654297 1028.21740722656 1037.78552246094 1039.2587890625 1027.81311035156 1037.7802734375 1035.50903320312 1037.87817382812 1053.98767089844 1043.89978027344 1061.15222167969 1078.64233398438 1081.24096679688 1093.01953125 1097.64514160156 1096.70068359375 1100.13586425781 1095.46264648438 1099.42321777344 1098.60168457031 1095.36022949219 1091.85168457031 1098.34008789062 1095.28930664062 1088.20263671875 1085.29248046875 1086.14758300781
970.685668945312 971.040161132812 968.1376953125 973.726501464844 980.608703613281 977.106628417969 971.781677246094 977.595581054688 969.117797851562 972.145751953125 964.367248535156 969.895202636719 969.372131347656 973.207702636719 973.272888183594 977.970031738281 975.861511230469 969.307739257812 964.224670410156 963.088684082031 966.69482421875 967.1181640625 965.420776367188 959.275817871094 963.991943359375 966.74658203125 958.471252441406 959.510375976562 968.236755371094 966.357666015625 956.753356933594 960.018432617188 963.253967285156 961.197509765625 969.674560546875 964.721008300781 972.340698242188 973.813598632812 966.169982910156 960.083374023438 958.133850097656 963.382873535156 961.668151855469 956.247436523438 961.357055664062 963.597534179688 963.627319335938 955.43701171875 948.526550292969 949.357055664062 955.572387695312 964.919921875 960.276672363281 956.7509765625 946.718566894531 950.893371582031 957.02685546875 954.115234375 950.1748046875 955.797912597656 960.033508300781 947.245483398438 954.789978027344 960.847045898438 959.014953613281 962.211730957031 958.735717773438 972.286376953125 962.825805664062 953.222106933594 947.51904296875 954.983520507812 959.251953125 963.000305175781 963.385009765625 960.3154296875 958.896118164062 957.44287109375 970.040954589844 974.961364746094 962.015747070312 955.935302734375 950.333923339844 958.507263183594 962.259643554688 964.695556640625 955.866027832031 954.0771484375 960.016662597656 958.300659179688 969.832336425781 970.138366699219 959.952087402344 966.921508789062 973.855285644531 970.934875488281 975.593811035156 975.378356933594 977.862182617188 977.040161132812 976.222412109375 971.550842285156 968.425109863281 968.520690917969 973.666320800781 977.680603027344 975.321594238281 974.457763671875 983.181762695312 980.539367675781 986.544006347656 988.050476074219 988.102478027344 984.057312011719 980.289794921875 975.976867675781 991.323974609375 997.386840820312 1003.44421386719 1009.1259765625 1007.04809570312 1011.150390625 1011.98474121094 1015.38146972656 1028.14868164062 1037.35827636719 1032.78259277344 1031.10302734375 1038.80053710938 1037.68237304688 1043.38024902344 1057.20776367188 1052.20239257812 1058.97497558594 1066.50793457031 1084.32458496094 1085.142578125 1090.033203125 1086.65466308594 1084.82397460938 1085.11560058594 1077.86059570312 1082.12854003906 1085.2802734375 1080.06616210938 1081.43481445312 1086.7451171875 1083.17309570312 1074.04968261719 1079.71606445312
972.059143066406 969.650329589844 958.63525390625 961.059204101562 970.561706542969 974.701232910156 968.426696777344 971.400085449219 965.803161621094 960.102416992188 958.556274414062 968.118774414062 973.8759765625 981.180786132812 974.564147949219 985.697143554688 982.805053710938 974.203002929688 961.606262207031 967.443725585938 972.406982421875 964.080627441406 958.285217285156 953.674743652344 962.524475097656 962.895751953125 956.373596191406 954.855346679688 956.317810058594 955.838073730469 952.295593261719 946.730773925781 964.37353515625 958.917602539062 960.58837890625 965.163330078125 974.773193359375 976.742126464844 971.832641601562 962.621215820312 963.16455078125 959.282897949219 962.710693359375 958.155334472656 954.268371582031 970.180053710938 955.56884765625 960.173461914062 956.766052246094 949.421081542969 952.636657714844 952.626098632812 951.455688476562 954.610534667969 952.018371582031 948.316955566406 951.5146484375 953.965515136719 950.039245605469 951.233154296875 958.788391113281 957.551879882812 957.9423828125 963.849609375 960.394287109375 955.541076660156 958.425964355469 969.34228515625 963.575927734375 957.276428222656 955.224792480469 955.951293945312 957.986328125 963.556335449219 955.1611328125 963.311157226562 963.329711914062 965.184448242188 972.148193359375 975.232421875 967.0419921875 955.733581542969 954.530456542969 959.123046875 963.620971679688 964.345825195312 952.026794433594 957.989929199219 962.286376953125 961.284790039062 965.896911621094 973.774658203125 964.940246582031 966.12548828125 970.19921875 976.722717285156 971.74072265625 978.993103027344 980.451354980469 982.037902832031 981.062927246094 974.001281738281 970.346557617188 975.844848632812 977.075439453125 978.124938964844 973.704223632812 983.487976074219 980.159240722656 982.368591308594 993.363891601562 989.528015136719 993.288879394531 990.659118652344 992.834289550781 984.071044921875 983.758850097656 994.924621582031 1003.30688476562 1013.13592529297 1015.21136474609 1008.08941650391 1014.38177490234 1014.81323242188 1013.41546630859 1020.83477783203 1029.048828125 1039.88134765625 1040.03869628906 1042.6982421875 1042.87438964844 1048.85949707031 1054.70629882812 1055.42248535156 1067.53039550781 1084.49011230469 1090.58422851562 1091.72924804688 1073.93859863281 1066.88806152344 1063.57971191406 1066.380859375 1062.71716308594 1063.90930175781 1066.74035644531 1076.501953125 1080.27587890625 1072.79650878906 1068.28979492188 1079.58068847656
958.332824707031 967.742004394531 967.893859863281 963.083557128906 967.675415039062 972.711181640625 972.887329101562 967.624145507812 964.909729003906 958.847717285156 955.2646484375 958.631774902344 965.20849609375 971.095825195312 972.5361328125 978.775085449219 977.9013671875 978.419189453125 970.931213378906 965.83984375 960.646728515625 958.957824707031 946.400756835938 950.222900390625 955.370544433594 953.636108398438 953.479553222656 951.425598144531 954.817565917969 951.142883300781 953.505920410156 958.222717285156 959.0341796875 952.420043945312 948.220581054688 949.071044921875 963.874938964844 964.60986328125 964.490661621094 959.77734375 962.555419921875 959.707641601562 957.758666992188 954.481628417969 957.21484375 964.342102050781 958.94970703125 965.937622070312 959.356994628906 949.771484375 943.135681152344 939.57568359375 956.077575683594 956.011413574219 957.307739257812 950.451965332031 952.602172851562 950.668151855469 940.311950683594 947.269958496094 954.359252929688 956.571044921875 960.6142578125 965.807067871094 960.681884765625 964.535034179688 956.444274902344 955.641723632812 960.365234375 952.489624023438 956.091918945312 967.143310546875 959.536865234375 960.088745117188 954.892822265625 960.102416992188 961.815307617188 961.85400390625 970.217651367188 968.519836425781 965.75927734375 961.32470703125 956.552795410156 954.221557617188 963.051330566406 954.4765625 961.261779785156 960.398864746094 955.481567382812 961.128173828125 960.998657226562 972.808532714844 970.041625976562 969.460510253906 981.798522949219 980.206604003906 974.353759765625 974.432006835938 975.72119140625 973.981018066406 979.334899902344 980.120178222656 980.317016601562 975.475463867188 983.981689453125 983.759765625 985.026550292969 981.387268066406 987.092590332031 990.376159667969 1003.96771240234 998.792846679688 992.944396972656 995.080078125 988.85546875 991.167907714844 993.355651855469 994.42626953125 1006.74395751953 1010.68792724609 1010.09222412109 1013.1923828125 1008.28948974609 1005.634765625 1012.54351806641 1027.89575195312 1042.10998535156 1046.68884277344 1043.94543457031 1037.76416015625 1045.69470214844 1045.48864746094 1052.69396972656 1060.78527832031 1062.89697265625 1077.71411132812 1087.28491210938 1089.97485351562 1075.27404785156 1072.38586425781 1058.83483886719 1042.29431152344 1035.69189453125 1050.82238769531 1057.13269042969 1071.95043945312 1068.92517089844 1065.63134765625 1069.27221679688 1074.33959960938
961.955017089844 968.646667480469 971.671325683594 964.401977539062 967.823364257812 974.276123046875 974.960571289062 963.763122558594 969.359008789062 964.294921875 963.888732910156 956.866943359375 954.093933105469 957.204040527344 963.554504394531 969.814514160156 970.963195800781 973.631286621094 969.483520507812 959.446228027344 953.733337402344 951.405151367188 948.301391601562 947.762023925781 951.242004394531 953.055969238281 946.116271972656 951.534790039062 951.407348632812 947.629150390625 953.879577636719 949.166015625 955.862426757812 953.39599609375 945.634216308594 947.615356445312 951.355102539062 948.634338378906 949.753601074219 952.314697265625 955.021728515625 959.135498046875 959.392456054688 949.273132324219 954.809692382812 955.565124511719 966.323059082031 957.280090332031 954.000183105469 950.870788574219 948.828552246094 954.25537109375 950.959899902344 955.677673339844 949.509033203125 954.094055175781 959.423461914062 952.180541992188 947.216918945312 963.864807128906 964.429870605469 961.552368164062 952.589904785156 961.684265136719 965.177001953125 958.761291503906 961.34619140625 952.953857421875 956.144836425781 957.684631347656 959.504028320312 964.451965332031 957.0966796875 956.700988769531 961.283020019531 958.287658691406 963.896911621094 969.343322753906 967.799987792969 957.89453125 963.841430664062 961.505981445312 953.835693359375 963.318481445312 964.848571777344 956.649291992188 964.40185546875 975.1875 970.238647460938 972.026489257812 969.352233886719 963.077514648438 970.149475097656 966.262939453125 981.618103027344 982.281921386719 981.805786132812 979.405334472656 977.468933105469 977.292602539062 980.410278320312 976.1640625 982.423828125 983.627136230469 989.001159667969 995.856689453125 996.565673828125 1000.98876953125 995.700378417969 989.460083007812 999.151672363281 1000.91241455078 987.759582519531 989.379943847656 987.885559082031 993.646179199219 999.055053710938 999.766357421875 1003.26086425781 1014.3623046875 1012.44097900391 1006.86218261719 1001.28942871094 1006.68176269531 1014.48883056641 1026.20520019531 1039.36865234375 1044.20324707031 1038.140625 1030.13696289062 1042.751953125 1044.02233886719 1050.96118164062 1046.26403808594 1054.35888671875 1072.48315429688 1084.99084472656 1079.04528808594 1070.94287109375 1067.24975585938 1050.48974609375 1032.00476074219 1030.09460449219 1040.46911621094 1052.99597167969 1058.46557617188 1056.76379394531 1066.79382324219 1069.51306152344 1067.98889160156
965.123046875 970.980102539062 969.667785644531 970.204162597656 961.212158203125 971.386840820312 978.256225585938 978.23779296875 973.870910644531 967.697143554688 963.215515136719 957.803466796875 951.538940429688 959.233520507812 961.191284179688 961.2705078125 970.746337890625 967.236022949219 955.741455078125 950.501342773438 948.055725097656 946.241821289062 948.200500488281 945.93359375 940.635131835938 951.810913085938 948.114501953125 948.141723632812 951.718688964844 950.8935546875 952.517761230469 953.072021484375 944.498718261719 942.915466308594 943.9296875 950.076110839844 948.076049804688 946.87890625 949.834533691406 955.789123535156 954.948791503906 959.772521972656 959.811706542969 948.349060058594 953.150329589844 956.773498535156 956.981140136719 960.724548339844 958.817321777344 953.4599609375 956.235656738281 956.9697265625 950.16943359375 961.518371582031 954.893615722656 953.439758300781 952.900390625 960.465759277344 966.535217285156 959.876220703125 961.137451171875 970.142700195312 962.806396484375 958.40625 962.701477050781 964.840026855469 963.919982910156 962.211242675781 959.371765136719 958.822814941406 958.610168457031 967.297790527344 972.796630859375 964.349975585938 958.688720703125 964.1513671875 956.115295410156 967.5390625 965.607788085938 960.820068359375 966.222839355469 966.274291992188 965.05322265625 960.886840820312 963.923828125 961.175231933594 973.349304199219 967.596984863281 970.44384765625 980.607116699219 974.992431640625 971.98876953125 972.014953613281 975.029846191406 978.39501953125 976.505920410156 970.176330566406 962.994934082031 965.222839355469 975.485229492188 976.091003417969 981.367919921875 987.692199707031 1001.76281738281 993.417541503906 996.90234375 996.136657714844 1003.62731933594 1002.55871582031 995.50634765625 994.730712890625 991.196716308594 985.811462402344 996.882263183594 986.882629394531 990.92041015625 990.777404785156 995.304016113281 1000.8154296875 1001.47131347656 1004.89849853516 1001.16687011719 1002.17712402344 1004.43304443359 1013.29046630859 1025.48205566406 1039.47351074219 1028.93310546875 1023.97534179688 1027.24584960938 1034.18127441406 1045.99096679688 1041.650390625 1048.57543945312 1056.12768554688 1068.14453125 1072.51977539062 1076.65283203125 1071.30102539062 1052.55285644531 1050.69226074219 1041.70727539062 1031.93994140625 1034.98901367188 1038.15856933594 1047.37536621094 1058.970703125 1068.40246582031 1059.84558105469 1057.44555664062
955.246765136719 961.317077636719 966.053894042969 975.963012695312 966.76416015625 972.230895996094 972.880676269531 967.939514160156 974.388061523438 971.663146972656 970.20263671875 957.91552734375 955.279968261719 956.56591796875 957.001342773438 962.001037597656 962.219604492188 953.356201171875 947.414733886719 948.408203125 937.857482910156 940.459350585938 943.073547363281 939.893127441406 942.217651367188 939.710632324219 941.235107421875 944.821899414062 950.917724609375 951.741271972656 952.229248046875 950.46533203125 946.076293945312 949.397399902344 951.94384765625 952.243103027344 942.184326171875 948.710815429688 955.066467285156 955.238891601562 954.085083007812 958.359619140625 960.33056640625 956.3212890625 953.558776855469 955.342712402344 962.786499023438 955.913757324219 960.819458007812 962.75439453125 953.711486816406 949.200988769531 957.660034179688 949.733459472656 957.266296386719 949.769653320312 955.637817382812 956.485717773438 962.841857910156 964.167114257812 964.120483398438 959.488037109375 961.112487792969 961.318420410156 961.629577636719 964.7861328125 967.00048828125 961.965270996094 952.221069335938 961.460754394531 971.189636230469 972.281616210938 974.256713867188 964.886596679688 958.71484375 962.539916992188 965.525146484375 972.98486328125 967.725219726562 976.190002441406 973.550903320312 977.25830078125 976.212829589844 967.122192382812 966.180847167969 970.520446777344 968.262756347656 969.173522949219 959.524169921875 969.57958984375 971.774108886719 979.561279296875 970.782165527344 971.472351074219 966.284423828125 968.728088378906 969.807434082031 973.428466796875 963.921447753906 969.508728027344 982.768310546875 982.825256347656 992.093811035156 995.698181152344 993.224975585938 996.2490234375 998.496643066406 994.500610351562 990.793762207031 993.156799316406 1000.04077148438 995.566772460938 1000.37512207031 996.10888671875 994.923706054688 1000.70355224609 1004.25506591797 996.906311035156 990.936218261719 989.224914550781 998.830322265625 1001.61114501953 1000.71514892578 1003.12377929688 1008.5947265625 1022.74072265625 1034.3837890625 1028.89965820312 1020.376953125 1024.59399414062 1032.11877441406 1038.02221679688 1040.39819335938 1040.267578125 1050.39038085938 1058.74890136719 1062.14611816406 1065.255859375 1070.59924316406 1058.68444824219 1047.93566894531 1034.05334472656 1028.28125 1036.72375488281 1038.978515625 1043.080078125 1041.23901367188 1049.40942382812 1058.80847167969 1054.00952148438
956.721862792969 957.143432617188 955.278259277344 957.907836914062 967.602172851562 968.256896972656 972.952941894531 971.64794921875 965.245971679688 961.241882324219 964.485778808594 957.921875 957.898132324219 953.324523925781 955.642211914062 957.006591796875 963.957702636719 960.015747070312 936.80517578125 939.993530273438 937.276550292969 938.613586425781 942.566223144531 936.648498535156 938.187255859375 939.380004882812 937.067687988281 945.052001953125 941.046875 939.069091796875 948.127319335938 949.675842285156 955.436889648438 951.442321777344 951.402954101562 948.15185546875 955.574645996094 954.739196777344 960.650085449219 960.168762207031 954.615417480469 951.75390625 952.455383300781 953.582641601562 958.30078125 948.832641601562 950.050476074219 957.665893554688 965.082336425781 960.504943847656 957.385498046875 953.017272949219 957.086242675781 955.184936523438 959.024230957031 965.463256835938 956.429077148438 958.827941894531 954.81396484375 958.471801757812 965.405395507812 963.476806640625 959.783874511719 961.890686035156 968.994995117188 972.214111328125 959.947570800781 961.424743652344 953.279235839844 962.01123046875 964.011535644531 974.144592285156 970.013549804688 972.302062988281 967.372436523438 970.070861816406 965.595336914062 970.510620117188 964.559753417969 967.78662109375 974.500427246094 979.564025878906 982.755493164062 971.254577636719 969.985290527344 969.676940917969 978.591491699219 974.615539550781 968.810668945312 966.368957519531 972.797668457031 974.321838378906 964.680419921875 964.420654296875 965.94921875 965.434020996094 971.092651367188 966.806396484375 977.605224609375 968.997497558594 969.477783203125 985.333862304688 990.291748046875 988.486694335938 989.794921875 995.300964355469 999.480773925781 989.235168457031 990.533996582031 998.531066894531 994.970886230469 1007.84228515625 1002.70355224609 994.94287109375 1006.87359619141 1013.89428710938 1012.34252929688 1000.71270751953 988.158935546875 992.402404785156 995.039306640625 1002.43676757812 1002.15502929688 1007.23864746094 1007.22296142578 1015.71752929688 1021.17199707031 1020.91162109375 1014.99401855469 1022.76293945312 1023.89532470703 1035.35009765625 1041.80847167969 1047.30517578125 1048.8134765625 1045.66748046875 1050.86486816406 1056.72412109375 1060.13879394531 1051.19677734375 1038.03503417969 1039.94372558594 1034.76599121094 1033.05187988281 1041.79187011719 1047.16540527344 1041.96398925781 1044.45166015625 1050.17102050781 1041.95703125
952.724975585938 947.528686523438 958.442016601562 957.84619140625 961.288513183594 969.483703613281 964.936828613281 955.108520507812 962.598388671875 961.904663085938 961.82666015625 951.965026855469 943.808471679688 952.515075683594 946.728637695312 955.898803710938 961.112365722656 945.031860351562 940.824462890625 932.138610839844 937.150634765625 940.910095214844 939.041564941406 931.062255859375 934.365661621094 947.343688964844 941.970397949219 940.911010742188 947.408569335938 943.991882324219 952.622802734375 960.384704589844 957.75830078125 952.676818847656 947.616821289062 954.747192382812 966.146606445312 960.584167480469 961.530517578125 957.037109375 961.691955566406 955.596984863281 948.087524414062 942.753662109375 944.810363769531 946.4111328125 952.662292480469 967.218811035156 969.749206542969 970.142883300781 961.400512695312 959.683044433594 957.253051757812 963.383117675781 960.148559570312 962.101745605469 963.418273925781 967.67041015625 959.745849609375 967.521057128906 964.4775390625 962.678649902344 961.244689941406 967.037963867188 964.04541015625 961.106506347656 958.813720703125 958.572387695312 966.931884765625 965.169250488281 971.783752441406 979.895141601562 971.877563476562 973.4560546875 968.135009765625 972.654907226562 968.152954101562 960.125610351562 962.864990234375 968.397888183594 973.337219238281 979.454650878906 979.738464355469 976.31201171875 979.986267089844 974.920227050781 979.212890625 973.766540527344 974.468200683594 965.527282714844 965.546691894531 967.890258789062 964.011291503906 975.836853027344 971.813049316406 981.448425292969 974.739807128906 974.936584472656 983.020202636719 971.33984375 982.552978515625 985.474731445312 994.041809082031 988.110961914062 990.624755859375 1000.84368896484 992.480102539062 994.333312988281 999.5263671875 1002.09893798828 1003.54193115234 1009.28637695312 998.45458984375 1002.16363525391 1008.97082519531 1008.97119140625 1005.07482910156 1001.20690917969 1003.87872314453 994.601989746094 995.672119140625 1003.08190917969 1001.11322021484 1002.69079589844 1007.83966064453 1014.10754394531 1019.50897216797 1014.72039794922 1018.62829589844 1022.94702148438 1026.33166503906 1028.50366210938 1039.80090332031 1048.13891601562 1050.23498535156 1046.11755371094 1044.72814941406 1048.47009277344 1049.54614257812 1044.83618164062 1042.69348144531 1042.166015625 1039.61657714844 1044.23803710938 1043.08605957031 1040.8671875 1027.24291992188 1033.78210449219 1028.85217285156 1035.20300292969
958.330810546875 947.687622070312 952.113342285156 956.325378417969 957.216430664062 968.704406738281 961.6650390625 958.181274414062 965.110168457031 959.275573730469 963.186950683594 957.055786132812 946.912902832031 956.249877929688 950.808715820312 949.122863769531 943.309265136719 940.0078125 933.646850585938 934.099792480469 940.803527832031 946.019653320312 945.232849121094 934.682739257812 941.848571777344 947.62255859375 937.735961914062 943.099548339844 946.38525390625 943.835571289062 951.467407226562 955.309143066406 961.623962402344 951.977966308594 958.357971191406 967.288940429688 970.485778808594 968.05322265625 960.970458984375 952.673950195312 961.623168945312 959.002685546875 942.715759277344 934.965087890625 941.72216796875 953.834716796875 945.190856933594 955.345031738281 963.608337402344 967.316528320312 959.541931152344 963.829772949219 966.027099609375 958.681274414062 957.45751953125 971.180480957031 970.343139648438 967.399475097656 959.56982421875 974.186706542969 966.981262207031 971.631713867188 972.766845703125 970.550048828125 960.61328125 963.828674316406 965.603393554688 962.758056640625 963.617492675781 967.941589355469 979.519287109375 979.170959472656 973.496032714844 968.885070800781 972.32470703125 963.675537109375 973.208374023438 974.355834960938 970.249145507812 967.346740722656 976.481384277344 978.062316894531 976.729309082031 971.035949707031 984.58642578125 987.309875488281 976.869384765625 971.621520996094 976.885803222656 971.052001953125 968.6083984375 970.191833496094 963.628356933594 971.005737304688 976.953308105469 982.089782714844 984.986633300781 977.287719726562 980.3271484375 977.8134765625 982.686157226562 978.44287109375 983.860778808594 990.367370605469 987.751770019531 998.281860351562 1000.47845458984 1004.52990722656 1006.56011962891 1005.70782470703 1004.45288085938 1002.48773193359 996.058166503906 1004.14135742188 1002.12261962891 1009.375 1016.64654541016 1016.3916015625 1013.42529296875 1009.69909667969 1010.67602539062 1014.77239990234 1013.88195800781 1019.41430664062 1010.46954345703 1011.35101318359 1021.86120605469 1020.17810058594 1019.19409179688 1022.24468994141 1031.06945800781 1040.71423339844 1028.92102050781 1039.45251464844 1045.51232910156 1049.51586914062 1041.31127929688 1037.63952636719 1044.46459960938 1036.47680664062 1041.15686035156 1038.90698242188 1040.86120605469 1041.20397949219 1046.06945800781 1040.15783691406 1033.35400390625 1031.06787109375 1026.55139160156 1030.41369628906
951.790893554688 961.412780761719 958.517272949219 955.664184570312 953.816528320312 964.851989746094 957.806091308594 958.713439941406 956.506408691406 957.093933105469 955.234741210938 945.791076660156 946.891662597656 956.367553710938 948.488220214844 943.112976074219 945.369384765625 943.11376953125 936.059265136719 937.385375976562 941.185302734375 951.091735839844 953.759948730469 940.573852539062 936.239440917969 944.615661621094 943.790222167969 946.087341308594 939.786376953125 945.021362304688 949.457153320312 960.613830566406 951.586242675781 951.043579101562 945.797119140625 946.583129882812 960.001159667969 967.987426757812 959.449462890625 955.995422363281 959.4755859375 955.874816894531 945.634399414062 938.18017578125 944.525512695312 951.307006835938 953.329772949219 950.447937011719 953.385803222656 955.044616699219 963.363098144531 957.060363769531 959.429443359375 964.870666503906 970.05517578125 964.025451660156 975.837280273438 973.013122558594 966.638061523438 970.51904296875 967.373718261719 965.773498535156 968.769409179688 965.275756835938 963.058898925781 965.485046386719 960.639404296875 967.419616699219 967.875305175781 979.214538574219 976.153076171875 983.522094726562 974.004211425781 971.734069824219 969.640319824219 973.117736816406 988.198303222656 977.380798339844 967.996215820312 971.3720703125 975.77978515625 980.05029296875 980.844604492188 982.406311035156 981.966186523438 981.134704589844 972.811828613281 974.443542480469 978.348999023438 975.244201660156 965.766052246094 969.685729980469 976.745300292969 973.050598144531 969.204833984375 984.269165039062 980.066467285156 984.449768066406 985.775512695312 979.836059570312 972.209655761719 973.95849609375 977.997619628906 989.368225097656 989.486694335938 993.329406738281 1007.70300292969 999.723327636719 1004.28546142578 1005.67193603516 1005.93371582031 1016.88482666016 1010.95111083984 1023.9033203125 1016.90612792969 1023.12921142578 1024.89282226562 1028.05859375 1020.67053222656 1019.51068115234 1023.21539306641 1017.53411865234 1017.90844726562 1023.65289306641 1027.34533691406 1017.12371826172 1032.79284667969 1033.31567382812 1027.09594726562 1022.34906005859 1030.306640625 1033.04516601562 1029.70825195312 1029.75915527344 1032.23352050781 1040.12805175781 1036.85375976562 1041.20349121094 1042.41516113281 1045.57702636719 1034.19262695312 1034.31799316406 1031.55932617188 1033.98547363281 1038.826171875 1025.73852539062 1026.79748535156 1023.64605712891 1015.41857910156 1032.44201660156
949.972351074219 959.015747070312 963.534362792969 962.261901855469 967.104736328125 963.36669921875 956.981689453125 952.900146484375 951.523559570312 946.735290527344 952.85888671875 947.134399414062 943.9853515625 952.3310546875 943.501220703125 944.507751464844 945.289794921875 946.617614746094 939.09326171875 936.487426757812 944.384704589844 951.697448730469 950.453063964844 944.100036621094 938.116638183594 943.218017578125 949.623168945312 946.633605957031 941.823669433594 944.036376953125 951.184326171875 951.954711914062 947.504516601562 942.3916015625 945.306030273438 950.656066894531 955.944519042969 963.13623046875 963.162414550781 963.956604003906 961.826293945312 955.289306640625 950.473876953125 948.989013671875 950.849548339844 957.060424804688 956.184631347656 949.199035644531 956.959655761719 955.874633789062 956.659301757812 961.398071289062 958.506774902344 961.840942382812 973.702331542969 971.288208007812 972.345886230469 968.014282226562 968.072265625 970.873962402344 967.548889160156 968.650512695312 959.828063964844 964.337585449219 967.064270019531 968.798828125 966.928100585938 964.1884765625 970.404174804688 963.262145996094 969.168701171875 982.022888183594 974.289916992188 976.013427734375 969.052185058594 976.86474609375 974.049621582031 969.524475097656 967.41748046875 969.103637695312 967.297607421875 959.431091308594 975.766540527344 976.505920410156 980.633422851562 985.474914550781 985.963806152344 981.762512207031 978.512390136719 983.221923828125 972.737731933594 972.790100097656 979.799560546875 975.187194824219 975.561340332031 981.742065429688 984.785461425781 984.554748535156 988.034423828125 971.939453125 971.195129394531 980.930908203125 978.280395507812 982.295043945312 993.175354003906 991.09423828125 1005.99847412109 998.371459960938 1004.56701660156 1002.51898193359 1020.01568603516 1016.03796386719 1023.49548339844 1023.29711914062 1026.55749511719 1029.30725097656 1036.19897460938 1035.88464355469 1038.19189453125 1022.53790283203 1027.50439453125 1028.35290527344 1027.44140625 1018.14013671875 1031.4111328125 1027.7109375 1029.96398925781 1031.31701660156 1029.10314941406 1022.20074462891 1026.16137695312 1017.28833007812 1022.60998535156 1015.86627197266 1028.10302734375 1023.75573730469 1032.17626953125 1038.88354492188 1037.17297363281 1039.36535644531 1027.79077148438 1031.38562011719 1024.81823730469 1032.37683105469 1027.11108398438 1026.43273925781 1018.66101074219 1021.80328369141 1009.04113769531 1014.07043457031
945.175048828125 959.030700683594 958.205322265625 968.413635253906 963.262451171875 958.663330078125 954.473876953125 954.954650878906 949.416015625 943.040161132812 946.133728027344 950.574829101562 942.682861328125 937.539245605469 939.448913574219 938.1025390625 940.652770996094 944.745910644531 943.110534667969 942.013854980469 949.615844726562 953.238586425781 962.830200195312 950.703674316406 942.643920898438 940.682434082031 937.967834472656 950.529113769531 940.152526855469 944.939880371094 949.197143554688 952.397033691406 953.242980957031 943.718078613281 951.86572265625 948.318115234375 959.288879394531 959.474914550781 956.736877441406 961.069152832031 964.045715332031 960.501953125 958.847778320312 957.092041015625 954.67626953125 957.486083984375 951.285583496094 955.988647460938 955.839050292969 966.812316894531 959.580261230469 957.998962402344 960.077514648438 967.89208984375 971.804321289062 978.229064941406 990.429992675781 980.303466796875 975.388793945312 964.122009277344 955.436279296875 965.390014648438 960.238037109375 964.384399414062 954.846862792969 968.362365722656 977.895202636719 969.342712402344 968.663696289062 975.036376953125 978.901123046875 981.998962402344 980.006042480469 972.443908691406 975.098754882812 972.465026855469 971.102783203125 971.695068359375 972.323913574219 978.295471191406 965.918640136719 969.627868652344 970.712768554688 969.593872070312 984.750244140625 980.270141601562 988.519897460938 993.796752929688 973.621948242188 970.7841796875 978.724731445312 973.802490234375 977.38623046875 978.465393066406 985.491638183594 991.061767578125 990.494018554688 991.840698242188 986.036499023438 990.125549316406 987.913146972656 991.422485351562 978.595336914062 977.639587402344 978.0986328125 989.01220703125 995.404907226562 994.162719726562 1001.06713867188 1005.02905273438 1017.90405273438 1024.68127441406 1022.29272460938 1028.51403808594 1034.38427734375 1031.13305664062 1035.58581542969 1044.35412597656 1046.52673339844 1030.63220214844 1039.79858398438 1034.7666015625 1028.03161621094 1028.5791015625 1028.00073242188 1031.60388183594 1027.62768554688 1031.64379882812 1028.95678710938 1027.77307128906 1024.34692382812 1017.57745361328 1016.21069335938 1025.97583007812 1023.15417480469 1019.87121582031 1030.53820800781 1028.54968261719 1026.5517578125 1031.53759765625 1012.97503662109 1012.38208007812 1021.1220703125 1016.71319580078 1023.14678955078 1017.27160644531 1012.80950927734 1009.63592529297 1007.66857910156 1004.49096679688
958.052368164062 958.323059082031 957.7421875 967.762084960938 963.9619140625 965.147766113281 950.794799804688 944.465698242188 940.420166015625 933.872863769531 941.594787597656 942.836181640625 941.585815429688 939.129333496094 931.424682617188 937.890075683594 939.599731445312 946.4111328125 945.125732421875 946.862915039062 944.574096679688 953.092834472656 963.317932128906 964.706115722656 952.031860351562 945.377136230469 939.393737792969 945.594970703125 942.539733886719 939.478088378906 953.76025390625 947.076904296875 950.994689941406 953.691284179688 958.551635742188 960.799865722656 958.331359863281 961.579772949219 965.670593261719 965.884704589844 970.221496582031 965.1044921875 959.89990234375 961.327941894531 960.957702636719 969.861450195312 959.989990234375 965.335632324219 968.305297851562 975.813049316406 971.558044433594 968.257690429688 968.477478027344 975.943176269531 969.560974121094 982.412109375 987.211486816406 991.593994140625 979.977844238281 960.531677246094 959.93701171875 956.715087890625 958.830993652344 959.163146972656 961.15673828125 965.822082519531 968.318969726562 972.069458007812 960.128051757812 974.724182128906 981.681579589844 981.708312988281 969.854125976562 961.765319824219 975.334655761719 975.065368652344 974.342956542969 974.696716308594 969.829833984375 973.699340820312 968.875305175781 967.162048339844 961.598693847656 976.546081542969 981.455261230469 976.619995117188 982.027282714844 988.283264160156 986.304992675781 982.606750488281 981.097534179688 990.838562011719 984.851379394531 983.554443359375 982.201477050781 986.040405273438 990.163452148438 990.79736328125 987.372680664062 991.080810546875 986.966125488281 988.389831542969 989.427062988281 984.827880859375 985.606018066406 991.314819335938 989.042846679688 991.611083984375 989.114318847656 1005.38537597656 1014.15051269531 1025.85302734375 1024.07568359375 1022.03955078125 1030.88391113281 1031.02038574219 1040.73706054688 1052.25927734375 1045.05712890625 1031.775390625 1033.30212402344 1037.25573730469 1037.52001953125 1034.92163085938 1031.44116210938 1029.62280273438 1033.79663085938 1031.87646484375 1038.46594238281 1023.71624755859 1021.18725585938 1012.80328369141 1006.63970947266 1012.376953125 1017.71905517578 1019.67712402344 1024.73999023438 1030.99768066406 1025.98791503906 1020.9619140625 1013.34759521484 1014.234375 1013.14508056641 1016.28729248047 1009.42608642578 1007.99566650391 1012.38452148438 1008.27105712891 1002.57806396484 997.96142578125
952.149841308594 952.498229980469 955.423767089844 952.469909667969 950.024475097656 950.916687011719 939.446716308594 940.71923828125 950.878051757812 940.364624023438 944.881591796875 936.616516113281 935.439331054688 939.441467285156 941.946899414062 940.682373046875 948.974670410156 943.876770019531 952.994689941406 956.108093261719 954.469970703125 957.554626464844 960.047912597656 964.010559082031 957.772827148438 957.740173339844 949.360046386719 940.669555664062 936.316833496094 941.451904296875 953.431457519531 958.338928222656 951.126220703125 948.538635253906 958.89453125 964.679016113281 966.364318847656 968.755798339844 977.09814453125 971.938537597656 964.578002929688 966.255554199219 965.411804199219 962.591857910156 968.355407714844 971.051513671875 974.388854980469 970.322998046875 975.5068359375 982.504577636719 975.354736328125 973.709594726562 969.731079101562 978.694274902344 982.382690429688 991.645385742188 994.68505859375 994.4873046875 981.925903320312 977.5341796875 973.526245117188 970.084289550781 962.188293457031 961.385192871094 960.8916015625 962.795104980469 974.668701171875 968.448974609375 985.465942382812 973.983459472656 969.473571777344 977.81689453125 975.056762695312 969.319030761719 969.212280273438 979.735473632812 975.367248535156 971.680419921875 971.767822265625 977.142944335938 974.465576171875 963.74462890625 960.182983398438 971.481201171875 984.995666503906 984.773864746094 984.602600097656 975.14599609375 979.58203125 980.114929199219 981.106750488281 980.082397460938 982.4208984375 987.119750976562 986.324890136719 990.817687988281 987.47265625 991.204162597656 994.812927246094 992.909362792969 994.4521484375 1002.90576171875 1004.97119140625 999.238891601562 1000.01770019531 995.973388671875 990.706237792969 997.897277832031 995.245422363281 1008.37225341797 1012.95806884766 1023.59741210938 1023.60192871094 1015.27807617188 1032.49462890625 1032.80847167969 1046.22924804688 1056.7783203125 1048.90026855469 1042.75036621094 1040.86779785156 1040.74401855469 1039.03442382812 1034.02722167969 1032.57971191406 1032.67980957031 1028.0849609375 1019.93176269531 1027.46264648438 1020.74963378906 1017.36657714844 1020.736328125 1010.68145751953 1010.46374511719 1014.24700927734 1008.15484619141 1009.84301757812 1022.61224365234 1020.25158691406 1013.32849121094 1012.25677490234 1015.25830078125 1015.03326416016 1016.37603759766 1013.16119384766 1006.59069824219 1007.75994873047 1008.42889404297 998.846374511719 997.085144042969
943.816284179688 947.367980957031 943.409240722656 949.631713867188 943.422119140625 949.142700195312 943.640991210938 940.720153808594 944.620178222656 943.786376953125 949.311401367188 946.374938964844 943.653503417969 937.74462890625 940.395385742188 942.366394042969 944.576477050781 942.474670410156 953.258850097656 965.924072265625 963.240478515625 971.780090332031 971.162109375 968.649108886719 964.670288085938 967.347900390625 957.292236328125 951.839233398438 947.5078125 944.12646484375 949.33837890625 962.937438964844 958.257629394531 953.211853027344 960.255615234375 962.935302734375 964.165771484375 965.263488769531 978.951354980469 976.837585449219 961.374572753906 967.642944335938 968.720458984375 964.375671386719 969.993347167969 976.31298828125 975.88720703125 980.73095703125 995.929748535156 980.657165527344 980.819702148438 982.334411621094 977.682495117188 975.427612304688 991.78369140625 995.697998046875 999.7080078125 989.877502441406 977.802795410156 974.127319335938 974.726257324219 968.596252441406 960.650817871094 970.740112304688 962.214111328125 969.810729980469 974.914672851562 976.916625976562 976.4619140625 965.770874023438 962.048400878906 975.873046875 982.737976074219 978.255615234375 978.72900390625 979.348388671875 979.514038085938 982.545776367188 979.752807617188 981.621765136719 979.277404785156 978.781372070312 979.983520507812 978.776245117188 977.753173828125 982.184265136719 985.818359375 973.885314941406 979.807373046875 976.905090332031 975.849548339844 985.328125 985.425720214844 992.078063964844 981.612731933594 989.435729980469 988.418090820312 998.116638183594 997.682434082031 996.636535644531 1002.41662597656 1009.19757080078 997.255615234375 1001.36291503906 1004.12774658203 1002.27685546875 989.654479980469 1005.85809326172 1009.09020996094 1018.72454833984 1020.25567626953 1019.44641113281 1025.43054199219 1029.3408203125 1038.7021484375 1042.48901367188 1041.40795898438 1046.85583496094 1041.22216796875 1051.90234375 1047.48706054688 1046.50085449219 1038.78283691406 1037.70617675781 1027.95690917969 1030.5869140625 1032.17736816406 1022.51525878906 1016.99078369141 1016.13446044922 1015.57824707031 1016.45288085938 1015.96636962891 1016.48266601562 1005.0869140625 1015.91400146484 1009.73583984375 1019.43420410156 1018.67095947266 1016.33203125 1009.53955078125 1009.03070068359 1008.11437988281 1012.00457763672 1016.73370361328 1006.44183349609 1008.17852783203 1006.12170410156 1000.95587158203 995.664184570312
950.533996582031 947.425720214844 938.136413574219 948.04541015625 948.034851074219 945.947509765625 943.970397949219 944.698913574219 946.443176269531 935.352722167969 945.957336425781 945.124633789062 945.738830566406 946.745544433594 952.934204101562 956.53369140625 955.33642578125 949.224609375 952.192077636719 962.61181640625 968.48046875 978.440246582031 971.703491210938 972.316101074219 971.0625 965.317138671875 957.702758789062 950.800903320312 952.999267578125 960.258117675781 952.365905761719 959.91015625 956.943420410156 956.165283203125 960.714721679688 974.193908691406 970.021423339844 970.681213378906 975.578125 984.588806152344 969.959594726562 962.970764160156 981.01416015625 977.0166015625 973.300720214844 976.738525390625 982.295288085938 991.287658691406 992.372192382812 989.836242675781 995.098937988281 987.712890625 990.11962890625 985.119140625 988.684448242188 981.207458496094 992.521362304688 989.640686035156 995.515869140625 978.072509765625 978.669067382812 980.134094238281 974.687561035156 966.763000488281 960.292053222656 966.68505859375 975.305847167969 972.633728027344 968.2255859375 971.810485839844 983.988891601562 985.051574707031 989.878234863281 980.917907714844 984.494506835938 985.028564453125 985.244506835938 991.841918945312 983.422607421875 978.94287109375 979.861694335938 990.747314453125 986.826599121094 983.67333984375 988.354309082031 985.568115234375 980.752990722656 980.729309082031 977.067810058594 977.43359375 979.763427734375 981.944152832031 988.910766601562 990.102294921875 985.5087890625 983.999145507812 986.931518554688 989.986267089844 1003.04309082031 1000.78674316406 1004.29595947266 1003.30975341797 1001.51513671875 991.405456542969 1003.02142333984 998.382263183594 999.318969726562 1000.31127929688 1016.63104248047 1016.93408203125 1019.48541259766 1022.87054443359 1026.08422851562 1023.9052734375 1027.30432128906 1036.24133300781 1039.6591796875 1047.50170898438 1050.81567382812 1056.84265136719 1051.99548339844 1044.41540527344 1048.84118652344 1038.18786621094 1025.466796875 1027.71472167969 1019.81317138672 1021.1484375 1015.2197265625 1023.06085205078 1024.44470214844 1021.99597167969 1016.20745849609 1010.47003173828 1012.23376464844 1005.32635498047 1011.70159912109 1020.44213867188 1016.62030029297 1011.00543212891 1010.83142089844 1012.79992675781 1003.17864990234 1009.04986572266 1007.58850097656 1003.10046386719 1004.63629150391 1003.56976318359 990.447143554688 992.935119628906
953.593200683594 941.433715820312 943.425598144531 935.986694335938 953.101013183594 946.864440917969 947.576782226562 940.842834472656 946.223327636719 946.043212890625 952.238342285156 947.825134277344 948.981994628906 954.451843261719 953.537109375 963.82470703125 964.929992675781 960.510009765625 953.056335449219 954.838317871094 969.299987792969 976.650573730469 975.871459960938 975.499755859375 971.041137695312 972.974487304688 963.593383789062 955.143371582031 953.633850097656 962.808837890625 960.370361328125 963.159057617188 963.863037109375 960.110961914062 960.029663085938 971.892517089844 972.743469238281 973.450866699219 984.744750976562 985.110534667969 981.006958007812 981.336975097656 986.728820800781 991.07275390625 987.992126464844 990.521728515625 988.71826171875 995.237121582031 997.890991210938 1001.55755615234 996.525817871094 984.4814453125 996.434631347656 996.804931640625 992.750610351562 990.734497070312 987.290405273438 980.695983886719 987.349792480469 981.595886230469 978.564514160156 981.029663085938 979.780517578125 971.086975097656 965.104125976562 970.872192382812 976.147705078125 976.143920898438 962.592590332031 973.5517578125 972.778503417969 986.611572265625 986.963623046875 976.201232910156 975.270874023438 992.46533203125 990.554382324219 985.160949707031 985.834655761719 991.448303222656 991.688049316406 995.873779296875 990.529296875 984.302001953125 990.488342285156 984.445007324219 974.701293945312 986.44970703125 987.649169921875 980.810791015625 977.221496582031 986.474548339844 994.108093261719 989.289855957031 994.4814453125 1001.19116210938 989.358459472656 994.88232421875 1006.46783447266 1008.15142822266 1003.75091552734 1000.96368408203 999.01806640625 995.206787109375 1000.99676513672 997.016357421875 1009.06475830078 1002.87322998047 1012.55078125 1017.44378662109 1020.93255615234 1030.57556152344 1028.64416503906 1026.80334472656 1029.23559570312 1035.18566894531 1037.17834472656 1038.28918457031 1044.90405273438 1049.34033203125 1056.13293457031 1049.45861816406 1031.59936523438 1037.76623535156 1028.23620605469 1030.16284179688 1026.39453125 1017.95690917969 1015.17645263672 1016.68707275391 1023.90252685547 1020.15087890625 1025.15881347656 1022.98126220703 1013.72857666016 1012.35528564453 1013.5859375 1017.90869140625 1008.40588378906 1009.87542724609 1010.60998535156 1002.15075683594 998.608520507812 1007.978515625 1009.0576171875 1005.36785888672 999.954162597656 995.394470214844 995.465026855469 989.586547851562
947.689575195312 942.557495117188 939.536376953125 937.117797851562 940.689636230469 939.633605957031 941.22216796875 941.187072753906 950.160705566406 950.713806152344 960.886474609375 957.830627441406 967.948852539062 962.328979492188 958.451843261719 966.939636230469 970.359558105469 968.46875 956.482849121094 961.404174804688 970.390380859375 976.993896484375 976.368957519531 975.262634277344 968.630859375 967.379638671875 969.40966796875 961.885070800781 959.541870117188 963.990356445312 963.959167480469 958.306518554688 971.806457519531 966.615173339844 967.467590332031 960.512573242188 965.3740234375 970.997436523438 981.371948242188 987.692687988281 986.526184082031 996.494750976562 989.404357910156 995.379333496094 992.568542480469 989.575500488281 989.5908203125 1001.28143310547 1009.03540039062 1000.48785400391 996.260559082031 1000.71142578125 999.284973144531 998.463256835938 999.899475097656 994.75244140625 993.677917480469 987.3369140625 988.617797851562 986.523010253906 981.793701171875 984.584716796875 976.509216308594 975.058959960938 972.571166992188 968.323913574219 975.31298828125 969.487365722656 968.650146484375 971.207153320312 969.153381347656 980.378295898438 993.496398925781 992.356140136719 989.892822265625 983.8515625 984.609008789062 986.798706054688 987.292846679688 988.347290039062 993.857666015625 1000.63201904297 988.360961914062 980.881042480469 978.064086914062 983.311096191406 983.459716796875 985.873779296875 991.004211425781 980.526916503906 985.94189453125 985.127258300781 992.543029785156 988.474792480469 993.929565429688 999.354919433594 1001.35632324219 998.797119140625 1008.77355957031 1000.21856689453 999.62890625 1006.99029541016 998.126098632812 994.381225585938 997.112365722656 990.052734375 998.651428222656 1002.43127441406 1017.08721923828 1022.22937011719 1016.59826660156 1022.4033203125 1021.05383300781 1025.95703125 1031.18298339844 1038.34069824219 1040.17065429688 1046.61926269531 1044.46557617188 1041.83837890625 1044.09106445312 1041.15380859375 1032.1142578125 1036.17126464844 1034.23132324219 1029.75952148438 1021.03753662109 1009.79962158203 1004.38812255859 1003.22869873047 1011.07897949219 1022.98028564453 1027.82983398438 1026.57189941406 1022.59918212891 1020.12213134766 1022.83282470703 1019.66284179688 1011.00421142578 1017.95983886719 1009.94696044922 998.069091796875 994.164916992188 1001.76782226562 1001.70220947266 991.580871582031 988.877136230469 995.600463867188 993.9892578125 989.939208984375
945.559875488281 948.265686035156 939.4931640625 933.594421386719 927.91845703125 933.802307128906 935.536682128906 939.539489746094 947.14794921875 955.143493652344 961.126831054688 960.356323242188 969.373901367188 970.808776855469 963.30859375 967.111511230469 976.583557128906 978.515319824219 969.096740722656 973.369750976562 987.196838378906 981.564758300781 987.855895996094 974.877136230469 971.15966796875 968.934204101562 973.491149902344 967.977478027344 961.330993652344 967.066467285156 963.895202636719 970.766906738281 978.275817871094 976.274230957031 965.970947265625 969.592651367188 973.890380859375 975.471923828125 976.078979492188 979.939575195312 986.903015136719 996.37744140625 997.554138183594 998.585021972656 997.999816894531 997.472351074219 995.066833496094 998.220825195312 999.282836914062 996.926391601562 1001.33581542969 996.175476074219 993.747314453125 980.073913574219 995.265441894531 998.441772460938 997.670166015625 989.39599609375 986.716491699219 980.429382324219 978.210754394531 973.987365722656 978.247131347656 974.261901855469 965.591003417969 971.431457519531 983.726867675781 975.894287109375 978.599853515625 972.463317871094 977.44091796875 984.925170898438 986.356506347656 998.325134277344 994.362976074219 991.861206054688 996.440002441406 990.338317871094 991.858154296875 988.4013671875 986.336303710938 994.369689941406 992.537353515625 987.537658691406 982.0537109375 987.944030761719 985.83154296875 978.849304199219 985.267211914062 976.765625 981.574829101562 989.052795410156 987.006164550781 991.693176269531 995.855712890625 994.870483398438 1003.75256347656 1002.52490234375 1004.56475830078 1004.03143310547 1003.84631347656 1003.91094970703 1000.00274658203 1000.638671875 993.594665527344 997.691833496094 991.928100585938 1006.54174804688 1014.86267089844 1020.93041992188 1021.97039794922 1019.15411376953 1023.49285888672 1028.06372070312 1024.81262207031 1031.30651855469 1034.72241210938 1027.42700195312 1031.486328125 1038.88488769531 1034.64721679688 1031.80810546875 1025.26745605469 1030.484375 1030.56433105469 1034.62915039062 1012.47766113281 1008.01916503906 1008.12225341797 1006.08441162109 1005.14410400391 1016.98931884766 1022.38903808594 1021.8076171875 1017.87237548828 1017.73315429688 1016.92547607422 1010.93206787109 1009.0390625 1010.74688720703 1005.00848388672 998.025146484375 995.395263671875 996.851989746094 1001.564453125 992.894409179688 1001.01110839844 1005.49230957031 991.080139160156 983.248718261719
953.105102539062 948.795837402344 945.689758300781 936.376586914062 940.877746582031 934.063842773438 938.471801757812 943.370361328125 947.923156738281 962.65234375 964.128112792969 967.698913574219 971.529541015625 973.864440917969 978.366394042969 976.704895019531 974.606750488281 986.401550292969 982.685241699219 987.134155273438 983.560302734375 986.923706054688 988.856262207031 983.173706054688 973.168212890625 967.595031738281 976.757568359375 966.033264160156 964.909912109375 962.188842773438 968.260375976562 968.0185546875 978.256103515625 982.703491210938 976.817077636719 976.854187011719 982.444885253906 981.664367675781 988.977722167969 982.832397460938 987.473815917969 999.075988769531 1003.40118408203 1000.42755126953 1005.68084716797 1009.80047607422 998.994201660156 999.121826171875 1003.64483642578 1003.70159912109 1005.76446533203 1001.18103027344 988.844299316406 988.016662597656 990.195739746094 997.227294921875 996.822631835938 989.189697265625 982.718627929688 978.863403320312 981.78515625 971.42333984375 974.715637207031 972.923522949219 968.926574707031 970.916870117188 984.195739746094 985.012878417969 975.078674316406 980.98291015625 983.171997070312 986.598754882812 995.815185546875 1006.375 1005.08489990234 999.946716308594 993.394775390625 993.200561523438 991.344299316406 989.110168457031 990.69091796875 994.142028808594 1000.72833251953 999.5859375 990.955810546875 988.444641113281 989.057373046875 993.1884765625 993.028991699219 987.893127441406 993.638427734375 993.541564941406 985.478454589844 992.183898925781 1000.02478027344 1000.69610595703 1006.24359130859 1003.42218017578 999.307739257812 1002.52264404297 993.677307128906 1011.04797363281 1003.9140625 1002.28826904297 1003.97265625 997.803588867188 991.2734375 1004.2724609375 1011.98828125 1017.81878662109 1022.23608398438 1028.05920410156 1034.01416015625 1030.25646972656 1022.84069824219 1026.47143554688 1021.57342529297 1021.98034667969 1028.05395507812 1032.44384765625 1033.50036621094 1033.29174804688 1032.1982421875 1024.67639160156 1029.36804199219 1023.06958007812 1009.79907226562 1002.76324462891 998.424743652344 1004.37878417969 1003.70550537109 1008.54449462891 1015.56085205078 1016.34411621094 1014.15710449219 1013.21850585938 1015.20373535156 1010.34344482422 1006.03057861328 994.787536621094 988.371398925781 987.583312988281 990.181457519531 997.386108398438 1000.00939941406 996.203186035156 1003.77856445312 1001.28704833984 1000.89978027344 983.5263671875
942.896240234375 943.218994140625 938.687561035156 938.434936523438 937.568298339844 943.59326171875 941.104797363281 947.466613769531 950.690307617188 951.692199707031 957.397033691406 965.09130859375 963.793273925781 971.175842285156 973.781066894531 982.317199707031 979.855712890625 986.478698730469 986.040344238281 996.085388183594 991.203247070312 1002.34918212891 995.093994140625 984.716796875 984.307922363281 985.4052734375 984.034729003906 982.335388183594 975.033935546875 963.174621582031 971.042846679688 975.884033203125 985.248291015625 986.298522949219 980.721130371094 976.067443847656 977.705261230469 986.478088378906 985.096923828125 992.911193847656 990.809631347656 1003.12451171875 1007.90447998047 1006.568359375 1005.53198242188 1015.24493408203 1004.11065673828 1004.51306152344 1005.25695800781 997.980224609375 1006.53771972656 999.601318359375 992.375854492188 996.364501953125 990.121154785156 997.272033691406 997.929138183594 983.271606445312 981.148132324219 980.086547851562 982.565551757812 980.054809570312 971.511108398438 970.512329101562 966.345336914062 980.443664550781 973.865539550781 976.029541015625 987.577819824219 986.161987304688 989.824890136719 991.069519042969 1006.68829345703 1011.23785400391 1001.43316650391 1002.72930908203 997.20849609375 986.433532714844 1001.98101806641 997.131774902344 995.174560546875 1002.48193359375 1004.60864257812 1000.22149658203 999.589599609375 985.37939453125 994.693237304688 1000.01580810547 993.55322265625 987.232849121094 984.418701171875 984.767211914062 985.928527832031 992.348022460938 992.82763671875 1001.46221923828 995.929992675781 1002.74475097656 997.742553710938 1000.37274169922 1003.79028320312 1006.96179199219 1013.64709472656 1007.84881591797 1004.49255371094 1001.47375488281 1000.87542724609 995.966918945312 1011.34527587891 1020.53216552734 1026.57836914062 1028.48156738281 1035.38305664062 1032.33764648438 1026.77221679688 1019.66412353516 1025.630859375 1021.23278808594 1018.73168945312 1026.01330566406 1036.84582519531 1037.82653808594 1028.73693847656 1022.99523925781 1027.98876953125 1015.55145263672 1006.25811767578 1000.69171142578 998.0361328125 1005.00451660156 1006.33581542969 1008.93664550781 1007.0556640625 1008.51031494141 1017.3212890625 1019.38171386719 1020.3115234375 1014.52789306641 996.870666503906 991.233276367188 984.792724609375 984.61865234375 986.015991210938 987.434387207031 991.176147460938 999.153564453125 1000.00189208984 1004.00244140625 1004.06323242188 1003.46887207031
941.777282714844 938.798767089844 931.881958007812 933.782775878906 936.48291015625 938.43896484375 944.752685546875 939.002502441406 944.969970703125 951.115600585938 955.12939453125 965.766540527344 965.836791992188 974.002197265625 975.320922851562 977.316162109375 977.476928710938 984.849914550781 992.564514160156 997.21142578125 1003.74621582031 993.963073730469 992.248168945312 989.058776855469 984.521850585938 985.365051269531 977.088073730469 975.314147949219 972.252380371094 968.507995605469 977.688049316406 973.423583984375 986.993103027344 982.381652832031 975.832580566406 977.561828613281 978.31298828125 982.9560546875 984.327392578125 992.865783691406 999.263854980469 1009.79010009766 1005.16259765625 1013.3076171875 1013.41052246094 1016.85620117188 1012.01422119141 1011.45697021484 1007.28839111328 1007.68249511719 1002.25054931641 1004.35107421875 996.562438964844 993.472961425781 985.150512695312 990.960815429688 994.783935546875 991.082946777344 983.174133300781 976.451171875 982.224182128906 982.263977050781 978.426147460938 968.043518066406 974.787963867188 976.360290527344 986.847412109375 982.052429199219 985.298156738281 984.835754394531 985.226623535156 990.973266601562 1003.18188476562 1010.87683105469 1006.86694335938 1002.44976806641 999.322143554688 1002.37683105469 1012.27850341797 1013.017578125 1011.87396240234 1003.22003173828 1006.96105957031 1013.92614746094 1009.57928466797 1008.55926513672 1008.67181396484 1006.43341064453 1001.88208007812 1002.26385498047 990.491333007812 987.925903320312 990.385498046875 991.539733886719 997.953674316406 1002.82238769531 999.2568359375 1001.58441162109 994.106201171875 1003.93829345703 1008.11444091797 1016.26556396484 1015.56311035156 1009.72479248047 1001.72821044922 1006.25531005859 1004.65484619141 1007.775390625 1010.84655761719 1019.81005859375 1037.833984375 1038.67236328125 1033.76745605469 1028.86975097656 1030.76489257812 1025.91870117188 1025.08081054688 1018.32257080078 1016.48614501953 1028.74951171875 1031.08349609375 1030.587890625 1034.34509277344 1023.5068359375 1023.68389892578 1018.91168212891 1003.97021484375 1005.67614746094 1004.36639404297 1003.98315429688 1008.93048095703 1004.92065429688 1004.16412353516 1009.1943359375 1011.3330078125 1012.66375732422 1006.58666992188 1009.74768066406 1007.73400878906 997.050964355469 994.326232910156 983.7060546875 985.155578613281 978.643798828125 981.878295898438 988.3828125 995.861328125 998.785278320312 999.296936035156 995.707824707031
938.969299316406 939.195739746094 934.115844726562 931.648071289062 935.952697753906 936.340942382812 941.986083984375 944.629821777344 950.336120605469 961.270690917969 966.633239746094 969.127807617188 967.130676269531 975.6044921875 971.690673828125 976.457885742188 975.707946777344 983.149475097656 991.669006347656 1002.53271484375 1002.37268066406 993.603942871094 989.286193847656 986.962158203125 984.247375488281 977.011108398438 981.876708984375 969.922546386719 971.042541503906 972.784912109375 979.6083984375 978.27685546875 982.253479003906 981.904174804688 982.25830078125 987.387756347656 977.925048828125 982.65087890625 986.720825195312 995.754577636719 998.819702148438 1005.59936523438 1007.76904296875 1009.91381835938 1014.64947509766 1014.60192871094 1009.94244384766 1017.98400878906 1020.18621826172 1018.54144287109 1006.20043945312 1005.53643798828 1001.78479003906 995.246032714844 986.511413574219 986.792541503906 983.181030273438 977.81201171875 984.318603515625 982.090881347656 980.841003417969 975.763549804688 976.371398925781 971.301513671875 973.449279785156 983.738403320312 989.822692871094 988.226379394531 983.792419433594 981.01806640625 982.346313476562 992.104064941406 998.198791503906 1000.38934326172 1001.00939941406 1002.09875488281 998.814086914062 995.186767578125 1005.94281005859 1008.92718505859 1007.18054199219 1004.54693603516 1010.73681640625 1006.33142089844 1010.73004150391 1009.99542236328 999.661376953125 1001.93231201172 994.380554199219 1000.07293701172 995.282348632812 991.937622070312 994.160583496094 995.707275390625 993.430053710938 998.5791015625 1006.04943847656 1003.3544921875 994.635375976562 1002.07189941406 1005.00421142578 1009.69885253906 1010.41943359375 1007.58642578125 1010.99768066406 1004.17138671875 1006.70544433594 1008.06182861328 1019.57153320312 1031.22973632812 1040.78137207031 1045.13610839844 1044.14038085938 1036.13854980469 1030.77673339844 1032.21118164062 1032.94384765625 1029.58862304688 1029.18542480469 1022.75158691406 1024.36572265625 1023.58068847656 1024.9033203125 1020.83135986328 1016.79193115234 1020.40863037109 1012.57098388672 1002.39984130859 1006.76953125 999.052124023438 999.640319824219 999.5126953125 1000.31024169922 1008.14715576172 1002.39129638672 1004.810546875 999.711242675781 999.864685058594 998.522277832031 997.288146972656 995.628295898438 986.46875 981.422485351562 985.042114257812 989.300903320312 990.881713867188 988.203979492188 984.124267578125 987.433837890625 979.043640136719
936.75927734375 936.714538574219 941.144836425781 938.001647949219 939.925231933594 944.997619628906 939.017333984375 938.175964355469 951.8515625 970.924377441406 968.074951171875 979.34375 973.351501464844 988.6474609375 979.442016601562 979.410095214844 984.537109375 993.203674316406 1001.87622070312 1002.4072265625 995.401977539062 987.571838378906 984.704711914062 986.319641113281 979.62646484375 981.538024902344 976.583129882812 971.878601074219 980.179260253906 984.993103027344 979.14501953125 978.699035644531 978.836486816406 983.316223144531 980.962341308594 978.053894042969 986.152282714844 987.545715332031 995.368408203125 990.066528320312 1001.07202148438 1007.92022705078 1007.58697509766 1009.77642822266 1013.88989257812 1008.66394042969 1005.84283447266 1013.55670166016 1014.65795898438 1007.65887451172 1006.27288818359 999.47265625 1005.45257568359 999.40185546875 991.737365722656 992.100769042969 985.074096679688 980.548278808594 977.713989257812 982.892150878906 981.216796875 983.049011230469 978.8505859375 970.362365722656 977.927062988281 978.511352539062 986.355102539062 979.940002441406 971.238159179688 979.8466796875 976.267333984375 981.068054199219 989.041870117188 993.916809082031 995.303100585938 994.794860839844 986.386840820312 1000.56951904297 998.427917480469 1005.24627685547 1008.25152587891 1010.00274658203 1011.78356933594 1017.9091796875 1011.20843505859 1005.50457763672 1005.14532470703 995.952575683594 986.892700195312 990.434875488281 992.017761230469 993.052062988281 997.698364257812 994.80029296875 991.692687988281 1004.15856933594 998.526062011719 995.567932128906 1004.99127197266 1002.39324951172 1006.33502197266 1011.06072998047 1014.44750976562 1010.46020507812 1007.48132324219 1005.61053466797 1008.39495849609 1018.14483642578 1021.552734375 1028.84997558594 1040.40783691406 1049.17932128906 1044.92053222656 1031.43212890625 1031.10705566406 1032.78698730469 1025.77978515625 1028.87622070312 1026.18200683594 1017.134765625 1017.76104736328 1016.51818847656 1011.37396240234 1011.90765380859 1013.99572753906 1009.17419433594 1017.09503173828 1011.95654296875 1012.67578125 1010.98498535156 1006.00543212891 995.607055664062 995.671875 998.7666015625 994.181091308594 990.389526367188 995.7373046875 994.661254882812 992.809631347656 998.771240234375 993.581848144531 989.978210449219 984.175903320312 993.602905273438 996.626098632812 991.680053710938 986.609069824219 987.161926269531 979.697204589844 972.803405761719
934.156005859375 946.905456542969 939.884094238281 941.895751953125 940.460205078125 940.598327636719 934.647766113281 939.514465332031 947.32470703125 958.259399414062 972.188354492188 973.712158203125 973.152465820312 976.199340820312 978.357849121094 976.578247070312 984.301574707031 990.009521484375 984.894409179688 989.935546875 992.234313964844 994.701782226562 988.216247558594 989.206115722656 981.195678710938 980.771667480469 982.978088378906 989.318359375 986.656494140625 984.703430175781 980.421508789062 982.921997070312 984.409729003906 982.119262695312 987.177124023438 984.410827636719 982.31884765625 979.204650878906 993.592590332031 999.349548339844 995.841186523438 998.792846679688 1003.5244140625 1001.59075927734 995.352233886719 999.769287109375 994.472473144531 1004.74389648438 1003.85675048828 1010.85192871094 1006.18634033203 999.974609375 1002.56481933594 996.750671386719 993.921447753906 992.739929199219 988.956359863281 985.451538085938 977.807067871094 985.413452148438 985.720764160156 982.567626953125 970.811584472656 967.907531738281 967.214416503906 978.843505859375 976.621887207031 978.37451171875 979.21044921875 973.694641113281 979.316650390625 982.0380859375 990.119079589844 990.071228027344 991.479431152344 985.506408691406 987.692810058594 990.593383789062 998.760009765625 1006.80511474609 1000.82263183594 1007.81030273438 1012.93225097656 1004.79998779297 1005.55114746094 1003.54968261719 994.770629882812 1001.55163574219 1000.96704101562 1003.76440429688 991.595703125 993.467712402344 989.610412597656 989.417541503906 992.4765625 998.758544921875 1010.53234863281 998.409362792969 1002.66619873047 1004.95690917969 1005.90319824219 1007.49774169922 1009.28619384766 1006.87707519531 1006.82952880859 998.841979980469 1012.19909667969 1020.12200927734 1023.85546875 1035.89294433594 1043.39868164062 1040.92272949219 1035.21643066406 1029.37829589844 1027.51647949219 1022.49176025391 1030.15466308594 1024.69006347656 1031.2080078125 1017.24011230469 1011.09161376953 1012.68707275391 1011.49908447266 999.168395996094 1000.48950195312 1007.45288085938 1014.9794921875 1008.287109375 1007.05206298828 1012.3701171875 994.235290527344 992.100219726562 995.785278320312 992.409362792969 993.207214355469 1004.97845458984 997.335021972656 997.011291503906 999.108520507812 1002.66619873047 992.358520507812 986.873779296875 991.200988769531 998.415649414062 987.090026855469 980.649841308594 990.625061035156 979.382568359375 974.821899414062 971.75244140625
940.901000976562 953.857849121094 956.776916503906 948.680908203125 942.22119140625 943.222534179688 935.811584472656 937.265808105469 934.914123535156 950.423095703125 962.836608886719 968.264282226562 964.811767578125 973.953674316406 976.885803222656 975.166259765625 979.335571289062 978.394409179688 984.219482421875 985.126220703125 991.015502929688 994.192565917969 993.086975097656 993.235534667969 991.318115234375 988.633239746094 983.339660644531 984.444458007812 982.589904785156 994.512878417969 985.085205078125 979.302856445312 983.711242675781 984.641296386719 981.239868164062 976.081420898438 981.669067382812 984.886779785156 995.249206542969 993.387390136719 995.279174804688 995.187438964844 996.944458007812 1004.15380859375 1004.90667724609 995.163330078125 994.295227050781 996.579162597656 1002.2587890625 1002.98480224609 996.816040039062 997.765014648438 996.316955566406 995.068176269531 991.124572753906 991.937255859375 991.709167480469 985.903503417969 985.9951171875 978.600830078125 977.424682617188 972.506286621094 973.540832519531 974.102722167969 970.40283203125 973.546875 983.642150878906 978.270324707031 975.739379882812 971.702087402344 977.979553222656 981.8740234375 991.851745605469 988.886779785156 997.064636230469 986.893310546875 978.771789550781 993.950744628906 1002.56072998047 1001.71807861328 998.486633300781 1009.72216796875 1009.60797119141 1004.62451171875 1009.34655761719 1003.79010009766 999.420532226562 1001.88323974609 997.144897460938 1003.95263671875 999.511901855469 994.659606933594 989.960021972656 990.175048828125 994.4140625 1001.48504638672 1003.30743408203 1000.85882568359 997.756958007812 997.875915527344 1003.48114013672 1005.40393066406 1004.13134765625 997.534973144531 1001.07464599609 1005.32092285156 1018.87231445312 1020.88775634766 1019.43762207031 1029.39074707031 1033.5634765625 1047.83654785156 1039.42358398438 1023.36651611328 1034.57934570312 1030.40795898438 1022.45635986328 1025.21984863281 1027.95922851562 1019.74114990234 1013.60235595703 1012.67059326172 1008.98980712891 1001.49755859375 988.052429199219 997.559753417969 1004.86431884766 996.369934082031 1003.49816894531 999.355407714844 1000.76080322266 992.743286132812 990.141723632812 984.225646972656 989.44580078125 995.47900390625 994.106079101562 992.302856445312 995.275939941406 996.420837402344 990.633544921875 990.910522460938 982.388610839844 987.118713378906 979.904541015625 972.366455078125 980.927368164062 980.695556640625 973.361755371094 972.121704101562
949.291381835938 946.002014160156 946.174682617188 943.681640625 944.661010742188 941.389770507812 941.3837890625 930.363342285156 946.982666015625 955.230529785156 958.670288085938 971.55224609375 967.394958496094 974.844299316406 979.618041992188 974.289916992188 967.220642089844 973.608032226562 975.358215332031 981.356323242188 990.789306640625 990.216918945312 992.049682617188 992.391723632812 988.197387695312 985.662475585938 986.8212890625 976.29443359375 980.91748046875 979.543762207031 981.132751464844 973.936462402344 986.826171875 986.122497558594 980.675109863281 973.293151855469 972.429504394531 990.947326660156 996.473449707031 991.621459960938 980.348510742188 999.361389160156 999.019165039062 1006.49322509766 1006.27777099609 994.896789550781 992.531005859375 997.459045410156 1000.60400390625 996.433471679688 997.233947753906 995.58935546875 991.127624511719 993.300903320312 991.519470214844 993.185791015625 986.433715820312 987.74462890625 983.923217773438 982.180847167969 976.8525390625 976.007385253906 977.09619140625 974.474853515625 975.51611328125 971.405334472656 980.8603515625 982.087890625 981.419616699219 978.124389648438 984.3369140625 984.379150390625 986.300048828125 991.247009277344 989.794616699219 982.836853027344 992.852355957031 990.940490722656 998.190551757812 998.672119140625 1009.00036621094 1009.20379638672 1003.44702148438 1004.45385742188 1001.65063476562 1000.93334960938 1001.96862792969 999.783386230469 991.4091796875 998.427978515625 996.378112792969 992.550903320312 989.597900390625 994.137573242188 989.800720214844 994.298828125 991.846313476562 1002.89898681641 1001.25549316406 1003.34191894531 1002.93072509766 998.980163574219 1001.39300537109 996.022338867188 1006.63958740234 1011.02355957031 1022.38592529297 1029.13146972656 1024.30554199219 1036.35375976562 1043.1279296875 1048.03015136719 1040.57263183594 1037.54150390625 1035.13134765625 1039.77026367188 1030.54345703125 1026.36999511719 1032.12658691406 1025.86962890625 1019.38354492188 1016.66491699219 1003.32965087891 998.936950683594 1002.07849121094 1005.32818603516 995.514892578125 991.652587890625 995.808227539062 990.035827636719 985.2548828125 981.669677734375 990.732055664062 991.891845703125 993.064331054688 997.63330078125 996.068298339844 994.642272949219 997.691284179688 996.312866210938 993.703308105469 984.597106933594 976.097839355469 972.877624511719 977.889831542969 979.208129882812 983.7021484375 984.184936523438 983.652770996094 973.798034667969
942.97802734375 939.195129394531 945.243835449219 942.186218261719 939.779663085938 943.460876464844 939.372619628906 940.0673828125 944.979064941406 956.127502441406 961.543151855469 965.312072753906 973.262756347656 977.559692382812 976.29736328125 968.753723144531 965.686279296875 975.5830078125 975.578125 983.238098144531 989.959411621094 992.0048828125 983.834411621094 983.953308105469 982.52734375 979.455139160156 973.571105957031 977.789794921875 979.325012207031 971.802307128906 975.388671875 973.929992675781 980.1455078125 977.853393554688 982.503601074219 985.842102050781 982.687316894531 994.831665039062 996.239013671875 983.392272949219 987.32470703125 997.483825683594 1001.72607421875 1008.58941650391 1003.78533935547 1007.10211181641 999.808471679688 999.972900390625 1003.34777832031 998.803894042969 992.313110351562 995.657409667969 997.147277832031 1002.23388671875 998.283935546875 997.0068359375 992.162231445312 988.169860839844 987.458435058594 981.624145507812 977.552185058594 979.278625488281 982.596862792969 971.209777832031 984.640380859375 973.970947265625 976.372009277344 977.484985351562 985.414489746094 984.208557128906 980.985229492188 981.565551757812 978.89599609375 982.899719238281 984.355834960938 987.906555175781 987.850219726562 988.762756347656 999.4365234375 1000.77862548828 1004.56579589844 1000.95544433594 1007.86737060547 1003.40057373047 993.415100097656 990.284240722656 1003.115234375 996.836730957031 1002.20648193359 1003.6845703125 1003.92980957031 992.500427246094 991.124145507812 989.828247070312 999.326538085938 1000.87188720703 992.259033203125 1000.05596923828 999.324279785156 1006.20153808594 1003.15679931641 995.605834960938 1010.52325439453 1000.63421630859 998.379638671875 1014.68334960938 1024.0146484375 1024.10314941406 1030.25378417969 1041.76318359375 1053.09582519531 1046.80114746094 1039.15795898438 1036.52941894531 1042.4638671875 1034.54382324219 1038.81457519531 1030.5009765625 1022.10589599609 1028.74243164062 1020.39300537109 1013.7666015625 995.562316894531 998.980895996094 998.657531738281 1001.26092529297 994.323425292969 995.762390136719 990.136108398438 975.957763671875 977.379821777344 979.513427734375 974.275085449219 971.440856933594 978.141296386719 985.534118652344 987.679931640625 989.868469238281 994.3046875 989.130065917969 990.054626464844 977.943298339844 981.254760742188 979.091125488281 973.053649902344 980.694091796875 982.321350097656 990.326110839844 980.660766601562 979.136779785156
941.843444824219 938.61865234375 941.091552734375 944.585021972656 941.582702636719 942.096496582031 946.761596679688 953.445556640625 954.561401367188 961.849182128906 968.127380371094 965.755615234375 963.226867675781 968.908447265625 967.147155761719 972.218139648438 970.873657226562 963.685729980469 969.598876953125 973.281982421875 979.221801757812 973.600402832031 967.987365722656 973.855041503906 975.338928222656 972.52880859375 969.476013183594 973.892150878906 973.407653808594 961.982971191406 966.135131835938 968.682067871094 961.718627929688 968.705444335938 972.650268554688 976.686279296875 983.678344726562 984.926574707031 995.139221191406 988.87451171875 986.48388671875 983.925231933594 998.328430175781 997.978942871094 998.206970214844 1005.21185302734 1005.70428466797 1004.21850585938 1008.44866943359 997.438354492188 990.078918457031 993.175109863281 997.193603515625 1001.49865722656 1000.67681884766 998.39990234375 992.048278808594 989.760925292969 993.239501953125 985.930786132812 989.81640625 989.858825683594 983.34228515625 979.524597167969 979.841674804688 974.103576660156 975.309143066406 974.572692871094 978.077758789062 985.294189453125 984.587585449219 985.564819335938 987.296325683594 982.664001464844 983.283264160156 977.806274414062 983.863647460938 990.225708007812 1000.88653564453 1008.48553466797 1003.16583251953 1000.77301025391 1001.68615722656 1005.13110351562 997.33154296875 999.959350585938 1004.4638671875 1000.88433837891 1009.46533203125 1009.23400878906 1003.99334716797 998.143615722656 992.661987304688 996.78515625 1003.27191162109 1004.29022216797 993.359497070312 992.40185546875 994.683227539062 1000.57971191406 998.248107910156 996.899658203125 1001.43243408203 1002.31030273438 1008.57849121094 1020.52490234375 1019.95458984375 1032.90014648438 1032.70446777344 1049.34509277344 1052.11804199219 1047.76965332031 1044.21398925781 1038.32849121094 1038.96643066406 1039.45495605469 1047.31408691406 1041.25146484375 1028.59497070312 1020.65893554688 1022.09240722656 1008.26550292969 1001.62292480469 997.775268554688 992.325073242188 998.83447265625 993.291320800781 987.98486328125 994.173645019531 982.880676269531 977.533874511719 976.009765625 978.43701171875 973.851501464844 968.136291503906 982.485595703125 989.421447753906 983.493408203125 987.750793457031 982.954345703125 979.7470703125 984.001770019531 987.528198242188 989.500610351562 976.62158203125 970.490112304688 970.863098144531 981.505493164062 981.586791992188 975.734313964844
936.069702148438 933.3427734375 940.339782714844 942.18603515625 942.497985839844 940.808898925781 950.1826171875 949.094299316406 957.320983886719 960.869018554688 967.347351074219 966.713012695312 973.641540527344 965.117065429688 958.096801757812 970.37744140625 963.984802246094 962.757629394531 971.86767578125 970.257629394531 963.84521484375 965.943054199219 962.463562011719 958.578430175781 963.773132324219 971.663330078125 968.227233886719 959.407287597656 965.136291503906 953.729919433594 959.857360839844 956.747253417969 956.973022460938 966.3701171875 974.121765136719 972.095520019531 978.646789550781 985.200012207031 991.312255859375 989.346801757812 985.492065429688 983.085083007812 988.99560546875 1000.45404052734 992.005249023438 1001.51959228516 998.15966796875 987.7890625 994.425659179688 994.717407226562 988.923278808594 1001.07177734375 1003.36883544922 1007.20220947266 1004.21453857422 995.682556152344 985.101013183594 995.609924316406 997.203002929688 990.101928710938 997.963500976562 992.715270996094 996.558410644531 986.345520019531 983.98388671875 980.640258789062 975.917236328125 978.510498046875 983.660827636719 994.389587402344 986.95458984375 978.720825195312 982.260131835938 974.130859375 977.171936035156 979.953735351562 990.989562988281 993.388366699219 997.572265625 998.14794921875 992.241333007812 1004.36010742188 1001.03381347656 1000.83917236328 998.753112792969 997.834106445312 1002.6064453125 1003.97180175781 1001.49139404297 1005.07159423828 998.235168457031 991.339965820312 996.967346191406 1001.39398193359 1003.89440917969 1008.67388916016 1007.99200439453 998.765319824219 1010.25036621094 1007.51824951172 999.277404785156 999.376159667969 995.76953125 1000.40875244141 1011.62768554688 1016.92712402344 1023.47320556641 1038.9951171875 1036.81726074219 1047.24047851562 1046.61975097656 1052.7802734375 1047.84973144531 1042.9228515625 1043.47998046875 1042.22595214844 1052.85363769531 1043.84216308594 1034.50524902344 1027.82995605469 1019.43524169922 1013.24822998047 1002.08959960938 999.12744140625 999.98046875 992.355163574219 987.516845703125 981.662780761719 979.973815917969 979.7392578125 978.207946777344 978.341003417969 978.929992675781 971.360778808594 970.46240234375 982.495544433594 983.306518554688 986.549011230469 990.196472167969 976.826049804688 976.821105957031 982.173583984375 978.818786621094 981.513793945312 975.322814941406 969.417358398438 976.955627441406 977.702392578125 984.661560058594 983.171264648438
945.8095703125 932.133117675781 931.354797363281 930.014343261719 929.572448730469 936.491821289062 941.763916015625 948.230834960938 951.776000976562 957.710632324219 963.719421386719 969.223754882812 966.852233886719 972.249206542969 963.90966796875 964.712585449219 956.210632324219 961.368469238281 963.877258300781 969.427001953125 958.477294921875 952.926086425781 953.923583984375 958.693908691406 958.962524414062 957.556701660156 966.138793945312 957.139831542969 961.0888671875 952.30517578125 955.171203613281 959.331481933594 959.472106933594 969.535400390625 970.491271972656 974.963806152344 967.079284667969 977.558654785156 987.360046386719 977.687927246094 981.809631347656 979.73046875 984.432495117188 999.739379882812 994.983093261719 992.252258300781 988.826354980469 987.680541992188 983.728637695312 987.010498046875 989.988464355469 995.906616210938 1010.20349121094 999.184020996094 999.854858398438 994.086242675781 997.583862304688 1002.27032470703 999.288879394531 990.903381347656 993.011047363281 992.204528808594 990.640563964844 995.897644042969 992.615661621094 984.375427246094 980.868347167969 982.06982421875 984.812133789062 988.891784667969 990.476684570312 979.716064453125 977.519165039062 985.271911621094 989.206237792969 987.083862304688 990.455017089844 982.384094238281 990.008972167969 992.443908691406 988.68115234375 992.488586425781 1000.65832519531 995.745483398438 1002.82366943359 1003.62060546875 999.927368164062 1002.89685058594 1013.58984375 1004.40838623047 1005.34802246094 991.355041503906 993.639953613281 996.717163085938 1000.37219238281 1010.15795898438 1013.12182617188 1008.25457763672 1005.79418945312 1003.96466064453 1002.89520263672 1001.96783447266 1004.70745849609 1012.10845947266 1016.03900146484 1023.32806396484 1027.85363769531 1038.34753417969 1049.81652832031 1049.63403320312 1037.84790039062 1043.3447265625 1049.91223144531 1051.46984863281 1058.62719726562 1054.765625 1050.0869140625 1046.46179199219 1034.91101074219 1028.97619628906 1033.84265136719 1018.95227050781 1011.51202392578 1007.31506347656 1001.3408203125 1005.25109863281 1001.85186767578 982.661437988281 970.379211425781 973.614501953125 972.972839355469 977.959899902344 979.395874023438 970.521362304688 976.308654785156 980.997802734375 982.752014160156 982.103881835938 977.130126953125 978.884704589844 972.652526855469 977.972229003906 975.667297363281 976.147766113281 971.39599609375 972.094787597656 971.434387207031 976.086303710938 981.466064453125 976.765930175781
