NCOLS 150
NROWS 37
XLLCORNER 7394249
YLLCORNER 4843499
CELLSIZE 30
NODATA_VALUE -9999
981.166137695312 989.133850097656 984.997131347656 987.182800292969 984.790344238281 985.288024902344 990.513000488281 983.783996582031 986.905090332031 988.80712890625 985.769714355469 978.095031738281 982.156188964844 985.583618164062 992.473754882812 987.369262695312 998.359191894531 996.006225585938 999.355895996094 991.490173339844 994.105285644531 990.518432617188 987.154113769531 982.795837402344 984.586181640625 985.893188476562 985.544677734375 985.581420898438 1001.36108398438 1018.52313232422 1013.44635009766 1025.54370117188 1022.20886230469 1025.48974609375 1018.69152832031 1019.2236328125 1020.53558349609 1030.21606445312 1025.12463378906 1032.34411621094 1029.37292480469 1014.24114990234 1016.82476806641 1013.66296386719 1017.42376708984 1017.42712402344 1002.35150146484 1013.9111328125 1007.32470703125 1009.01611328125 1011.51104736328 1008.6123046875 1010.19128417969 1011.72247314453 1014.9931640625 1016.01129150391 1018.02313232422 1020.11840820312 1011.16131591797 1012.09289550781 1017.53851318359 1011.65478515625 1007.97723388672 1004.43634033203 1010.57989501953 1009.46508789062 1009.44909667969 1004.08569335938 998.2109375 998.970275878906 997.136535644531 992.413391113281 997.042907714844 1000.29516601562 1010.57281494141 1028.23010253906 1034.810546875 1026.74291992188 1042.16064453125 1037.14147949219 1029.35729980469 1033.39208984375 1027.14465332031 1016.92614746094 999.247314453125 994.182678222656 983.9892578125 979.803588867188 969.950988769531 964.280578613281 948.610534667969 936.578125 936.774108886719 938.176879882812 943.883911132812 959.185607910156 963.259033203125 956.292236328125 944.663696289062 941.144104003906 939.343017578125 938.3056640625 939.43359375 943.206359863281 932.181823730469 934.568908691406 943.323059082031 959.733154296875 957.001953125 963.668884277344 955.930908203125 947.427001953125 944.862854003906 940.582214355469 930.605590820312 915.563110351562 913.232360839844 913.525207519531 918.561462402344 930.2333984375 936.662963867188 951.095092773438 958.81591796875 963.2890625 971.177551269531 980.01171875 982.208679199219 995.421203613281 997.347961425781 1013.62658691406 1014.00482177734 1022.01068115234 1045.29089355469 1067.26696777344 1062.15100097656 1064.90856933594 1073.47082519531 1079.23254394531 1080.13427734375 1090.98547363281 1093.20275878906 1103.90673828125 1101.34973144531 1104.83471679688 1111.01782226562 1119.21240234375 1128.77746582031 1125.53735351562 1115.09240722656 1113.92309570312
989.71533203125 991.686828613281 983.423889160156 983.853515625 986.940307617188 991.17626953125 994.603515625 990.972717285156 990.497680664062 986.281799316406 981.692077636719 981.194702148438 979.912902832031 972.627075195312 980.837097167969 982.997131347656 990.63232421875 986.863708496094 988.528625488281 992.925415039062 999.840881347656 990.986145019531 979.041137695312 979.614196777344 984.494140625 980.717712402344 988.794189453125 998.330322265625 1013.23840332031 1017.13397216797 1025.74682617188 1027.2802734375 1024.08276367188 1027.74279785156 1016.44885253906 1024.59240722656 1029.69750976562 1036.17114257812 1032.23095703125 1045.15258789062 1031.48571777344 1019.64398193359 1016.87744140625 1025.72253417969 1022.26611328125 1021.02905273438 1010.29357910156 998.343078613281 1012.18518066406 1015.26226806641 1009.03991699219 1006.71063232422 1010.71881103516 1010.44561767578 1004.82958984375 1008.28961181641 1008.83514404297 1014.35778808594 1022.11682128906 1021.75299072266 1023.52178955078 1011.8017578125 1009.16418457031 1011.55322265625 1014.96228027344 1007.09155273438 1013.15771484375 1011.73675537109 1005.05731201172 999.382934570312 986.751708984375 995.480590820312 1002.37866210938 1005.87963867188 1009.28570556641 1017.78314208984 1032.45812988281 1030.82092285156 1021.41204833984 1028.09204101562 1024.49621582031 1035.39709472656 1030.60815429688 1020.28680419922 1002.73498535156 980.714416503906 982.015197753906 974.367492675781 970.046875 952.78369140625 950.500610351562 934.477294921875 943.942016601562 950.069458007812 956.199462890625 964.025268554688 968.475280761719 965.132995605469 959.716430664062 946.863647460938 935.290832519531 948.376953125 956.650329589844 960.275268554688 946.376098632812 956.905639648438 957.626708984375 968.363342285156 968.595764160156 967.184936523438 961.867309570312 951.916320800781 944.228698730469 936.326293945312 938.544799804688 933.831359863281 920.498657226562 919.108459472656 927.229248046875 939.908081054688 941.707946777344 956.023864746094 965.390747070312 980.699890136719 973.509887695312 988.339599609375 996.270629882812 995.578674316406 1009.49346923828 1024.36584472656 1027.39855957031 1035.49523925781 1049.51037597656 1062.00512695312 1065.09167480469 1067.02709960938 1070.40808105469 1072.79931640625 1082.26965332031 1087.12548828125 1098.22961425781 1102.39465332031 1097.00842285156 1103.62316894531 1102.19348144531 1112.33337402344 1113.64587402344 1125.3740234375 1113.94604492188 1116.0380859375
989.427368164062 985.490112304688 986.044250488281 984.932250976562 987.723693847656 988.238159179688 988.112365722656 988.566467285156 986.842712402344 984.026306152344 976.889587402344 976.041809082031 967.113708496094 961.372497558594 968.676391601562 981.266723632812 982.973083496094 986.477966308594 990.737915039062 992.0302734375 995.519775390625 985.286010742188 980.479553222656 978.941589355469 982.862731933594 987.621337890625 1004.06219482422 1007.47961425781 1014.81762695312 1016.68334960938 1024.72888183594 1027.97265625 1020.42468261719 1015.06329345703 1026.05895996094 1029.20129394531 1036.08483886719 1044.81262207031 1041.10559082031 1043.99060058594 1033.38232421875 1028.27258300781 1019.80480957031 1018.38500976562 1025.06701660156 1024.24621582031 1015.85150146484 1007.97601318359 1005.64068603516 1006.87017822266 1006.55822753906 1003.02136230469 1010.58978271484 1008.90301513672 1008.41821289062 1009.88818359375 1010.9150390625 1010.52331542969 1018.34155273438 1014.29901123047 1024.13610839844 1019.87298583984 1021.72149658203 1020.02435302734 1018.29699707031 1011.73248291016 1012.98547363281 1017.17230224609 1009.58349609375 1003.74133300781 1000.86077880859 1001.66638183594 1006.61450195312 1001.56774902344 1009.8544921875 1011.46600341797 1015.93914794922 1026.12536621094 1021.89471435547 1025.2548828125 1021.46844482422 1031.52954101562 1035.14599609375 1022.82427978516 1001.24475097656 989.4951171875 985.127197265625 977.738830566406 964.993103027344 955.391479492188 947.593322753906 943.669311523438 944.976806640625 957.81689453125 970.925354003906 979.74951171875 981.148132324219 983.226135253906 973.288879394531 961.64892578125 953.514282226562 959.220092773438 966.679321289062 971.553833007812 962.541870117188 966.972412109375 971.986999511719 974.961059570312 980.950866699219 976.464233398438 965.387634277344 948.355163574219 948.754821777344 945.972778320312 937.1142578125 931.786437988281 931.80029296875 929.764099121094 936.3046875 945.345886230469 952.946655273438 954.580139160156 965.54150390625 976.955261230469 979.263793945312 985.076782226562 994.480041503906 997.061401367188 1007.02813720703 1028.33203125 1037.38488769531 1045.97326660156 1051.93481445312 1058.86767578125 1059.79968261719 1056.21020507812 1059.54663085938 1072.74328613281 1075.51281738281 1086.24194335938 1088.70458984375 1100.60559082031 1097.28918457031 1091.76489257812 1090.57348632812 1106.70849609375 1114.92395019531 1124.0927734375 1127.46691894531 1117.37487792969
981.469787597656 985.497741699219 982.474609375 986.113464355469 990.476989746094 985.766662597656 987.323913574219 977.328063964844 981.345031738281 980.107177734375 978.491516113281 973.5078125 966.963623046875 971.038330078125 974.197631835938 977.144714355469 979.811584472656 974.051818847656 983.205993652344 983.8583984375 988.108520507812 990.294494628906 986.940185546875 985.944885253906 990.689147949219 999.719543457031 1000.80108642578 1019.49670410156 1013.64044189453 1017.89184570312 1030.59753417969 1031.34814453125 1021.53631591797 1019.05932617188 1025.06970214844 1029.09973144531 1033.62585449219 1034.98950195312 1039.29699707031 1039.33068847656 1037.20141601562 1041.81616210938 1029.07409667969 1028.46936035156 1022.68695068359 1012.38110351562 1015.20257568359 1015.89495849609 1000.9619140625 1004.29766845703 1005.48767089844 999.418701171875 1008.11529541016 1007.1005859375 998.826782226562 1018.20428466797 1013.54370117188 1006.46746826172 1004.77587890625 1019.99249267578 1025.22412109375 1025.47009277344 1018.16271972656 1019.47912597656 1028.71997070312 1021.66284179688 1017.46051025391 1019.04022216797 1013.39630126953 1010.90905761719 1016.087890625 1011.06787109375 1012.13262939453 1010.88677978516 1014.6318359375 1013.37097167969 1012.42803955078 1021.89514160156 1015.30297851562 1021.22125244141 1030.29333496094 1031.2177734375 1031.82788085938 1020.66827392578 999.05419921875 997.479553222656 978.919067382812 975.610290527344 975.67919921875 966.383483886719 956.908081054688 948.996032714844 950.537475585938 963.105895996094 978.407348632812 984.539916992188 987.22998046875 993.279724121094 984.145202636719 979.0595703125 968.197143554688 966.715087890625 973.297790527344 976.697326660156 974.476928710938 985.048889160156 979.759643554688 972.484191894531 980.660400390625 975.46337890625 974.428405761719 956.848999023438 940.578247070312 939.361755371094 932.542114257812 931.317321777344 922.303466796875 932.114379882812 936.161071777344 939.686218261719 947.396728515625 958.011474609375 965.64208984375 970.371520996094 976.067504882812 981.534790039062 990.801513671875 996.063049316406 989.726196289062 1012.68756103516 1037.74047851562 1043.01867675781 1052.15197753906 1060.35864257812 1060.37976074219 1056.51354980469 1055.64208984375 1065.83764648438 1071.32299804688 1082.21411132812 1095.09020996094 1095.44055175781 1086.85302734375 1092.65747070312 1098.18908691406 1109.74157714844 1112.5625 1124.43481445312 1120.109375 1114.57958984375
981.2978515625 977.941162109375 980.390075683594 984.058715820312 983.251403808594 987.910522460938 978.811401367188 992.362548828125 989.014404296875 977.624877929688 974.426696777344 967.787353515625 963.232238769531 968.197265625 958.077453613281 968.95166015625 976.559387207031 982.037231445312 983.439025878906 979.313720703125 979.511474609375 986.113586425781 974.624572753906 988.144470214844 993.717346191406 1004.63348388672 1011.78521728516 1019.03991699219 1022.86492919922 1030.69396972656 1030.66845703125 1029.38684082031 1024.51721191406 1022.39672851562 1019.86456298828 1030.77270507812 1020.31292724609 1029.27770996094 1040.14636230469 1040.44787597656 1042.78662109375 1044.20422363281 1033.83630371094 1023.93267822266 1023.64758300781 1016.92791748047 1015.86450195312 1013.8505859375 1011.7080078125 1003.42767333984 999.134033203125 1006.14318847656 1016.96234130859 1012.73010253906 1019.91821289062 1019.34460449219 1012.05847167969 997.896301269531 1003.35290527344 1004.25421142578 1018.384765625 1027.35693359375 1028.05541992188 1019.42510986328 1017.78387451172 1021.93139648438 1029.79541015625 1016.64996337891 1014.92468261719 1014.28900146484 1012.84521484375 1019.89868164062 1020.61907958984 1014.83044433594 1012.15155029297 1008.04803466797 1015.56072998047 1017.62554931641 1012.0283203125 1017.36810302734 1021.22528076172 1023.17645263672 1023.08276367188 1016.21704101562 1014.61450195312 1010.84381103516 992.651123046875 976.305603027344 978.271057128906 971.092834472656 961.517028808594 958.725891113281 967.884094238281 964.128356933594 973.946594238281 991.150939941406 996.306884765625 982.803649902344 990.5263671875 988.201049804688 975.908630371094 971.024230957031 979.154296875 985.356872558594 990.192504882812 992.523742675781 981.224853515625 982.416931152344 968.033142089844 977.397399902344 975.720764160156 958.987426757812 945.495666503906 939.857055664062 929.638122558594 930.644958496094 923.508850097656 927.578063964844 939.176574707031 949.453063964844 952.535705566406 963.603576660156 964.746337890625 966.846252441406 979.202758789062 989.845092773438 998.826049804688 1000.98968505859 1008.30041503906 1012.21716308594 1031.72155761719 1049.84375 1052.53247070312 1050.47680664062 1045.72131347656 1051.03503417969 1053.04565429688 1061.56408691406 1067.34765625 1084.23364257812 1092.05065917969 1091.88732910156 1089.70056152344 1093.20336914062 1101.30615234375 1111.6005859375 1117.81896972656 1122.59777832031 1117.36206054688 1118.88989257812
980.407470703125 974.252197265625 981.144226074219 979.814575195312 974.175903320312 972.261535644531 977.750915527344 982.858581542969 983.42822265625 978.756164550781 977.404174804688 974.559875488281 965.8486328125 969.296752929688 963.316345214844 971.6533203125 973.045288085938 980.0615234375 977.934692382812 974.782592773438 974.384094238281 982.591613769531 985.797058105469 985.827392578125 1000.62884521484 1006.60363769531 1007.24475097656 1012.12408447266 1025.07458496094 1026.64489746094 1030.37573242188 1025.12670898438 1018.79132080078 1010.47039794922 1025.38732910156 1023.54431152344 1021.91870117188 1030.33862304688 1036.71118164062 1035.21105957031 1033.00805664062 1038.65502929688 1044.65075683594 1034.61584472656 1029.60913085938 1021.57470703125 1018.70434570312 1022.57543945312 1011.7470703125 1007.8798828125 996.324768066406 1012.32580566406 1013.21539306641 1014.25360107422 1015.12219238281 1013.2958984375 1017.63781738281 1008.33532714844 1008.2841796875 1012.05328369141 1015.53991699219 1026.41625976562 1026.46948242188 1027.00732421875 1020.28741455078 1026.67065429688 1020.93487548828 1027.33068847656 1023.16351318359 1018.56408691406 1014.79028320312 1026.55651855469 1024.10400390625 1012.40411376953 1009.39825439453 999.114624023438 1009.47052001953 1016.58856201172 1019.080078125 1013.42150878906 1013.60107421875 1014.14349365234 1020.48834228516 1019.65600585938 1016.67901611328 1010.52233886719 1007.27075195312 989.064514160156 980.7548828125 980.059509277344 962.936401367188 962.738525390625 972.682373046875 974.695007324219 983.968322753906 988.62548828125 990.011352539062 979.531005859375 985.046020507812 989.487426757812 991.817138671875 984.137390136719 986.393981933594 992.597778320312 999.842590332031 987.415893554688 981.345275878906 977.550720214844 966.782531738281 976.271240234375 973.614624023438 958.643981933594 953.03173828125 941.096618652344 939.210876464844 935.149475097656 928.333312988281 937.763732910156 941.293579101562 951.309814453125 952.087829589844 954.069396972656 962.015563964844 963.555908203125 980.79736328125 995.395690917969 1006.73236083984 1003.24084472656 1013.70135498047 1018.57299804688 1027.99047851562 1038.32409667969 1047.35595703125 1054.94445800781 1045.01159667969 1051.97009277344 1055.01306152344 1055.95715332031 1064.6708984375 1076.48681640625 1087.35681152344 1090.95935058594 1089.61596679688 1101.48657226562 1105.49926757812 1114.58605957031 1115.96508789062 1124.36499023438 1118.41540527344 1123.64624023438
968.437133789062 972.817260742188 970.888854980469 969.048522949219 959.242614746094 965.677917480469 968.342651367188 969.935302734375 961.858459472656 967.2939453125 978.566040039062 971.029968261719 970.837524414062 965.905578613281 956.091979980469 960.468994140625 959.25146484375 966.268005371094 974.633728027344 983.847351074219 980.991943359375 982.174865722656 980.882385253906 989.652526855469 993.09228515625 1005.52917480469 1010.26141357422 1012.39038085938 1011.48980712891 1022.76379394531 1022.90869140625 1013.65155029297 1016.04406738281 1022.37512207031 1028.47570800781 1026.87084960938 1030.57666015625 1031.97778320312 1027.82495117188 1029.23217773438 1031.64392089844 1037.07666015625 1048.24877929688 1032.78552246094 1024.85192871094 1011.88482666016 1011.06561279297 1010.73815917969 1003.25091552734 1007.88110351562 1003.11352539062 1012.70007324219 1018.67218017578 1012.09722900391 1004.81872558594 1007.94653320312 1016.57409667969 1008.53881835938 1007.65502929688 1009.06622314453 1018.40295410156 1019.34191894531 1028.88159179688 1026.25988769531 1020.38171386719 1021.71417236328 1022.68359375 1026.794921875 1019.04754638672 1018.94116210938 1024.40417480469 1025.14245605469 1024.22265625 1010.33953857422 1012.26251220703 1012.14978027344 1003.16278076172 1006.79333496094 1012.81500244141 1010.76763916016 1006.86401367188 1020.96118164062 1014.45599365234 1013.78649902344 1017.90338134766 1008.30548095703 1002.30804443359 984.716796875 981.3427734375 970.128173828125 973.729797363281 970.762756347656 977.897277832031 986.166259765625 995.791809082031 992.528503417969 992.397155761719 996.332763671875 988.348022460938 995.348449707031 1004.20739746094 1000.25042724609 989.023010253906 993.143371582031 993.828369140625 991.839782714844 979.043151855469 977.577514648438 962.84033203125 959.467895507812 965.462219238281 955.294677734375 957.205200195312 943.547424316406 931.906921386719 928.860534667969 934.114318847656 941.307067871094 938.757995605469 951.490295410156 951.091857910156 960.271667480469 959.781555175781 975.050598144531 991.505859375 1008.01849365234 1009.38403320312 1011.21124267578 1007.30297851562 1017.00732421875 1028.38928222656 1047.30712890625 1047.4970703125 1046.27197265625 1045.71252441406 1039.24377441406 1045.73742675781 1051.84460449219 1062.78515625 1067.11608886719 1077.89233398438 1083.85412597656 1077.50256347656 1091.10510253906 1102.62536621094 1105.52954101562 1110.23046875 1109.68225097656 1116.34631347656 1120.85131835938
972.080322265625 963.871276855469 958.135864257812 968.792053222656 961.838439941406 963.558471679688 962.929870605469 964.963256835938 956.302124023438 969.789978027344 969.2314453125 967.252136230469 964.989685058594 959.635375976562 957.512451171875 959.128112792969 954.135986328125 963.368103027344 978.998229980469 983.307983398438 986.828125 975.697692871094 986.602600097656 994.859313964844 990.140197753906 995.580444335938 994.565551757812 997.675476074219 1006.63793945312 1015.3525390625 1011.39776611328 1004.29833984375 1023.98010253906 1028.21215820312 1027.69763183594 1025.072265625 1029.80725097656 1028.42333984375 1030.69873046875 1026.5283203125 1024.23852539062 1028.89636230469 1023.98217773438 1031.26721191406 1032.3291015625 1014.93463134766 1016.19909667969 1006.16320800781 1001.00262451172 1005.23223876953 1000.4638671875 996.818237304688 1016.23822021484 1015.65747070312 1013.47772216797 1009.04559326172 1001.69714355469 1007.38397216797 1010.52239990234 1009.962890625 1010.50970458984 1018.69354248047 1026.58081054688 1027.0654296875 1024.88146972656 1018.76440429688 1023.49993896484 1020.55212402344 1020.01647949219 1025.06591796875 1029.685546875 1027.96313476562 1012.48815917969 1012.92547607422 1010.66015625 993.536193847656 994.5107421875 1002.14105224609 1017.25671386719 1010.51452636719 1014.11450195312 1016.11242675781 1017.00317382812 1015.611328125 1012.18511962891 1002.36663818359 998.443725585938 1002.46820068359 988.517883300781 976.826110839844 984.703918457031 990.707153320312 989.826049804688 999.833801269531 1011.08508300781 1002.08081054688 1001.62054443359 1000.5888671875 1007.69482421875 1008.91296386719 1006.27008056641 1001.75567626953 991.332885742188 1000.22894287109 994.716247558594 990.033447265625 989.804504394531 979.293212890625 963.860778808594 962.648071289062 958.77734375 958.232116699219 959.145080566406 947.628051757812 943.968078613281 936.334716796875 940.651245117188 944.820251464844 942.456665039062 953.460876464844 959.10400390625 963.299926757812 981.304077148438 996.3037109375 1000.38226318359 1008.64385986328 1014.43200683594 1021.25750732422 1019.78216552734 1020.365234375 1031.06823730469 1042.59716796875 1051.26391601562 1050.25256347656 1038.4765625 1046.19165039062 1045.63391113281 1050.95922851562 1053.82202148438 1054.64880371094 1061.17614746094 1070.03356933594 1079.27368164062 1093.27465820312 1099.86938476562 1091.34008789062 1105.19384765625 1110.20153808594 1120.42456054688 1124.91259765625
973.321655273438 965.312194824219 957.012145996094 961.116821289062 957.313110351562 954.921447753906 953.562866210938 955.587829589844 959.634826660156 963.316528320312 963.58740234375 969.003173828125 954.162475585938 954.382568359375 952.591735839844 957.192810058594 956.411376953125 964.481689453125 982.377014160156 980.363952636719 985.890563964844 985.721435546875 981.994384765625 993.119140625 983.630432128906 984.9140625 997.866943359375 1002.64300537109 1004.71697998047 1004.31884765625 1016.52740478516 1019.90795898438 1027.6591796875 1022.63073730469 1023.85968017578 1020.48431396484 1031.13269042969 1025.36022949219 1018.85473632812 1025.90478515625 1021.74743652344 1023.46807861328 1023.19757080078 1018.01177978516 1021.10064697266 1017.05847167969 1010.2841796875 1006.75317382812 1002.60070800781 1000.74682617188 1003.44769287109 987.84716796875 1010.40832519531 1011.93743896484 1007.81408691406 1003.33868408203 1005.228515625 1011.26098632812 1015.32104492188 1007.17877197266 1015.50518798828 1017.97082519531 1022.83544921875 1027.57006835938 1021.04187011719 1025.51684570312 1020.72509765625 1030.21398925781 1033.77087402344 1032.29321289062 1033.24609375 1030.79565429688 1022.54663085938 1014.59838867188 1013.34185791016 1010.68908691406 1007.00378417969 1001.31536865234 1009.00433349609 1012.78375244141 1008.22180175781 1021.58984375 1020.10235595703 1014.46459960938 1012.50317382812 1002.34045410156 1004.56915283203 998.252563476562 997.7216796875 990.032958984375 990.284240722656 1001.07873535156 1002.90435791016 1003.00933837891 1019.30450439453 1014.27252197266 1014.00579833984 1014.55603027344 1011.81433105469 1008.63433837891 1003.63946533203 998.214904785156 995.821655273438 997.305358886719 997.897338867188 1004.42712402344 993.832946777344 987.571960449219 975.368530273438 967.971252441406 959.287231445312 955.777404785156 949.751953125 949.078308105469 939.346435546875 939.090087890625 939.26318359375 949.918212890625 951.983947753906 954.691955566406 964.256042480469 963.307495117188 990.05322265625 992.608459472656 1007.12554931641 1013.72802734375 1018.35614013672 1025.966796875 1029.27453613281 1028.68725585938 1037.69519042969 1041.14270019531 1054.01904296875 1042.81884765625 1046.84594726562 1047.85278320312 1043.73181152344 1049.47241210938 1054.3212890625 1055.78442382812 1066.16748046875 1073.93469238281 1086.28540039062 1092.58386230469 1092.54467773438 1087.50537109375 1102.32568359375 1102.94506835938 1117.88781738281 1125.22045898438
963.492736816406 957.348266601562 959.895568847656 955.997314453125 955.69580078125 957.440002441406 948.859680175781 953.581176757812 952.446228027344 954.679443359375 962.644958496094 959.056274414062 957.921142578125 951.937805175781 954.524169921875 949.862182617188 958.030090332031 961.255981445312 971.075866699219 980.24658203125 984.162536621094 986.519226074219 983.90283203125 987.613342285156 991.612060546875 989.304748535156 989.214538574219 998.033081054688 995.357177734375 1001.16943359375 1003.35540771484 1011.05224609375 1012.96069335938 1012.73358154297 1019.53094482422 1022.87390136719 1029.9609375 1026.54455566406 1025.81530761719 1023.14727783203 1018.55657958984 1015.3544921875 1010.72326660156 1015.53277587891 1013.68450927734 1010.37866210938 1002.96112060547 1005.19055175781 998.276428222656 997.529418945312 995.953247070312 1003.23266601562 1003.35485839844 1005.56048583984 1014.57757568359 1005.98089599609 995.235534667969 1008.15222167969 1014.07244873047 1009.43737792969 1006.94079589844 1014.53717041016 1025.80114746094 1019.3701171875 1017.05633544922 1022.92913818359 1026.46911621094 1020.79077148438 1021.51452636719 1019.65600585938 1032.15539550781 1028.30249023438 1027.8984375 1018.80279541016 1015.26470947266 1006.36669921875 1010.90295410156 997.760009765625 1012.82562255859 1006.09729003906 1006.17211914062 1016.65466308594 1020.80560302734 1010.41577148438 1006.568359375 1004.08917236328 1012.13873291016 1004.5537109375 994.68896484375 1002.76483154297 1002.55047607422 1020.45257568359 1020.91564941406 1026.78149414062 1025.52880859375 1024.30004882812 1020.10260009766 1012.46337890625 1011.28466796875 1004.81750488281 1000.20098876953 998.563110351562 994.203979492188 996.764465332031 1006.47180175781 1002.4404296875 1000.81127929688 1000.8505859375 988.589599609375 972.498474121094 961.154418945312 956.212036132812 946.991394042969 943.15625 945.114624023438 937.962707519531 944.906982421875 953.611999511719 949.64306640625 966.31005859375 970.238403320312 985.427307128906 999.180236816406 1003.92181396484 1014.75762939453 1021.76916503906 1025.5791015625 1020.28198242188 1025.14978027344 1039.02563476562 1040.76232910156 1048.61779785156 1046.02319335938 1050.79223632812 1056.00830078125 1057.75158691406 1055.89318847656 1062.57556152344 1057.81713867188 1059.60620117188 1076.84216308594 1079.85192871094 1078.83532714844 1082.71875 1087.20544433594 1102.43688964844 1109.65270996094 1107.80725097656 1115.10925292969 1119.65014648438
956.626037597656 946.80126953125 946.731262207031 946.171875 944.672485351562 944.263000488281 944.141174316406 948.966064453125 946.565979003906 940.373168945312 949.348327636719 956.560913085938 958.149536132812 953.104125976562 960.483520507812 959.003173828125 966.322326660156 961.864562988281 971.582458496094 980.72607421875 980.672790527344 976.739685058594 976.915649414062 978.976501464844 988.382751464844 993.868469238281 993.296997070312 999.464782714844 995.73388671875 994.024597167969 1003.99261474609 1015.51861572266 1011.62542724609 1006.31707763672 1013.63830566406 1026.70886230469 1024.57153320312 1014.42108154297 1020.83715820312 1020.29339599609 1013.11315917969 1012.75128173828 1013.38244628906 1009.37310791016 1004.86340332031 1004.07379150391 998.565307617188 999.736206054688 991.467529296875 996.127990722656 994.229736328125 998.968383789062 999.717163085938 1007.09143066406 1004.85021972656 1005.48425292969 997.442749023438 1014.43035888672 1009.03173828125 1010.01086425781 1006.2109375 1006.78796386719 1019.33953857422 1012.32415771484 1016.39880371094 1022.40570068359 1027.07995605469 1014.40716552734 1020.13488769531 1014.00146484375 1017.0390625 1029.07141113281 1027.79162597656 1017.28088378906 1013.29608154297 1019.3203125 1005.59649658203 1004.71734619141 1007.02160644531 1000.07348632812 992.266906738281 1008.767578125 1011.82800292969 1003.45471191406 1002.07373046875 1008.12042236328 1007.48608398438 1008.25769042969 1003.00531005859 1010.49426269531 1016.37939453125 1032.99743652344 1033.89428710938 1035.08874511719 1029.46496582031 1028.64184570312 1034.43823242188 1013.75482177734 1001.4267578125 994.645202636719 999.228637695312 1003.62640380859 999.868225097656 1008.31658935547 1006.69775390625 1014.31768798828 1006.52117919922 1005.05163574219 994.797790527344 977.745300292969 961.395263671875 948.589172363281 945.093933105469 947.479797363281 941.017028808594 946.282043457031 958.231628417969 961.804138183594 962.782653808594 978.858276367188 983.149719238281 994.623962402344 1006.70544433594 1012.69586181641 1018.10180664062 1015.7333984375 1020.95349121094 1027.50573730469 1038.33544921875 1043.95153808594 1047.47021484375 1051.46801757812 1052.63623046875 1050.17956542969 1059.27160644531 1053.82348632812 1050.15563964844 1051.70837402344 1062.28955078125 1067.10583496094 1072.0693359375 1078.79479980469 1079.16748046875 1079.93896484375 1096.16784667969 1101.43615722656 1105.65026855469 1105.38220214844 1112.61303710938 1123.33581542969
957.491821289062 951.14453125 942.999755859375 947.586486816406 943.357727050781 940.139343261719 945.431335449219 944.125427246094 942.443237304688 935.183288574219 946.146545410156 959.729187011719 959.555603027344 961.427490234375 958.818054199219 956.3837890625 961.520568847656 972.653991699219 974.136291503906 979.163452148438 980.523315429688 993.440307617188 984.435852050781 986.849426269531 990.211059570312 996.515625 993.835388183594 997.917663574219 1000.91662597656 1001.76049804688 1002.84967041016 1005.4453125 1004.10607910156 1004.12390136719 1009.00531005859 1014.85174560547 1014.40435791016 1012.72222900391 1017.31817626953 1012.05145263672 1012.40051269531 1011.88507080078 1013.611328125 1012.50500488281 1002.27514648438 1000.02331542969 991.801696777344 990.355529785156 985.931823730469 989.980651855469 987.672180175781 993.392211914062 992.259155273438 996.430480957031 996.784606933594 999.550537109375 994.035400390625 999.492858886719 1005.94708251953 1013.96514892578 1011.44543457031 1011.00756835938 1016.38714599609 1018.08947753906 1017.44116210938 1011.14227294922 1018.56750488281 1013.61633300781 1015.69018554688 1010.52667236328 1016.93231201172 1010.13415527344 1020.24365234375 1018.05798339844 1007.37286376953 1002.89385986328 996.546569824219 993.767700195312 998.863037109375 1000.81884765625 992.216064453125 999.51025390625 1000.05755615234 993.848327636719 1000.20941162109 1007.58935546875 1002.76965332031 1014.95233154297 1013.81665039062 1016.39575195312 1030.40197753906 1033.44799804688 1033.27587890625 1039.7412109375 1030.91796875 1034.84069824219 1028.60632324219 1007.40832519531 1005.82458496094 1004.81549072266 999.589294433594 1005.88726806641 1008.20123291016 1003.66339111328 1004.57275390625 1010.52368164062 1008.50054931641 1001.56353759766 999.614074707031 978.290893554688 964.720703125 949.751220703125 950.170043945312 955.603210449219 949.097106933594 948.493957519531 956.655456542969 968.867614746094 969.946228027344 991.519836425781 989.95068359375 990.726379394531 1000.76300048828 1009.79534912109 1012.69458007812 1019.73498535156 1026.35827636719 1030.44543457031 1039.04064941406 1048.29431152344 1057.17749023438 1056.76782226562 1055.2734375 1046.74133300781 1060.783203125 1056.21301269531 1050.59338378906 1059.13903808594 1061.28601074219 1062.07568359375 1068.66003417969 1072.89172363281 1079.22875976562 1082.17761230469 1102.77758789062 1105.978515625 1101.60046386719 1105.96655273438 1113.37255859375 1116.69702148438
957.381896972656 953.528015136719 940.997314453125 939.003784179688 941.095397949219 949.85205078125 949.596740722656 946.494995117188 944.380065917969 945.399047851562 950.705627441406 954.582153320312 955.102966308594 956.486572265625 964.490539550781 965.0634765625 965.932067871094 973.572448730469 975.060424804688 979.474304199219 978.38916015625 984.193115234375 993.843017578125 990.571594238281 998.18017578125 994.679260253906 994.48046875 995.03662109375 995.167541503906 1000.77740478516 991.321044921875 992.896850585938 999.574340820312 1000.52868652344 1003.78247070312 997.9912109375 1007.94958496094 1003.96502685547 1006.67358398438 1008.59197998047 1006.67236328125 1010.09808349609 1010.53558349609 1009.53771972656 1013.61791992188 1008.47595214844 996.2080078125 985.415283203125 989.943359375 985.513366699219 989.901184082031 984.882446289062 986.008911132812 990.491577148438 990.770568847656 986.677734375 991.449951171875 1003.93347167969 1003.74267578125 1009.08117675781 1017.04479980469 1021.92443847656 1018.38922119141 1018.06982421875 1013.13446044922 1007.10675048828 1014.67425537109 1007.28497314453 1014.29479980469 1009.96759033203 1013.04632568359 1009.8037109375 1007.45098876953 1014.96722412109 1012.26824951172 1001.77313232422 991.313110351562 985.118896484375 990.49609375 987.424987792969 990.80224609375 997.954223632812 1001.68090820312 1001.05438232422 1005.51525878906 1006.56842041016 1007.421875 1018.61077880859 1029.75244140625 1016.57379150391 1019.93157958984 1028.41052246094 1038.19897460938 1038.92907714844 1029.32751464844 1030.74768066406 1023.64794921875 1018.80041503906 1007.51208496094 1005.42944335938 995.462585449219 1003.32470703125 1004.31225585938 1005.24401855469 1012.25048828125 1011.11627197266 1010.58990478516 1007.00769042969 996.285949707031 981.672668457031 971.375549316406 958.925231933594 954.88427734375 956.402160644531 952.514770507812 946.683227539062 958.618835449219 967.010437011719 970.267272949219 982.413818359375 990.084289550781 1006.08276367188 1005.16577148438 1015.50872802734 1012.4560546875 1008.56304931641 1019.37017822266 1040.69812011719 1034.79650878906 1038.20825195312 1046.96264648438 1051.15551757812 1046.20068359375 1044.56469726562 1045.92504882812 1051.16613769531 1053.94897460938 1053.36047363281 1061.71704101562 1066.1044921875 1062.42846679688 1070.4658203125 1077.97338867188 1088.71826171875 1094.02917480469 1102.20764160156 1106.87316894531 1111.79028320312 1118.24536132812 1116.6455078125
958.813720703125 953.97705078125 944.603515625 944.192687988281 950.115539550781 959.149169921875 957.98095703125 964.04052734375 960.466735839844 957.24267578125 952.09814453125 966.57861328125 960.837829589844 967.300415039062 965.724670410156 969.874267578125 964.080261230469 974.925231933594 975.164611816406 972.745483398438 973.368957519531 988.01953125 990.210021972656 991.507202148438 993.648071289062 992.724792480469 988.942077636719 994.962707519531 991.331481933594 989.571350097656 989.002319335938 994.827697753906 998.896240234375 1004.88830566406 999.315246582031 985.231262207031 991.883239746094 996.481384277344 997.350341796875 1002.39959716797 1005.60784912109 1008.02728271484 1017.7919921875 1011.55114746094 1005.66705322266 999.51904296875 987.555419921875 987.790161132812 988.325439453125 989.529968261719 993.113952636719 979.077880859375 980.387145996094 987.797973632812 988.482238769531 989.498657226562 990.159484863281 989.198669433594 988.369750976562 999.757690429688 1024.32287597656 1022.69799804688 1019.82788085938 1021.10607910156 1017.74603271484 1008.79388427734 1011.45831298828 1009.59735107422 1011.33197021484 1001.22332763672 1005.57287597656 1005.50927734375 1003.49163818359 1010.96673583984 1008.25842285156 1003.75378417969 994.54248046875 997.030822753906 993.958557128906 988.771240234375 994.834716796875 1000.44256591797 1004.04437255859 1001.43237304688 996.465393066406 1007.68695068359 1012.40325927734 1021.67333984375 1013.80657958984 1026.59606933594 1025.02075195312 1026.67224121094 1037.82727050781 1036.39538574219 1029.08044433594 1024.4736328125 1024.125 1022.85705566406 1013.29467773438 1009.26916503906 999.661193847656 1003.0634765625 1002.42816162109 1003.16339111328 1003.35101318359 1011.64630126953 1004.880859375 996.982788085938 985.424621582031 981.108154296875 974.441955566406 964.277038574219 952.564819335938 956.187683105469 944.227294921875 945.1591796875 960.606201171875 972.033508300781 980.255737304688 989.96337890625 994.071838378906 1009.03179931641 1015.21429443359 1018.80474853516 1011.08276367188 1012.49383544922 1023.87420654297 1038.82922363281 1034.91003417969 1036.08337402344 1037.51025390625 1041.97937011719 1053.8369140625 1043.85375976562 1041.20593261719 1044.73742675781 1049.07043457031 1054.79455566406 1059.05969238281 1059.50476074219 1062.85717773438 1065.84216308594 1076.84252929688 1083.68237304688 1087.24792480469 1095.18530273438 1099.55004882812 1108.38195800781 1104.85986328125 1107.91137695312
948.18505859375 954.247802734375 943.26708984375 943.60400390625 940.343078613281 950.165893554688 952.92626953125 959.381164550781 958.242248535156 965.396362304688 969.566162109375 978.750244140625 973.113952636719 971.952209472656 976.463012695312 971.326538085938 966.891906738281 973.926208496094 966.750305175781 978.627807617188 974.642517089844 981.912109375 991.092651367188 995.156677246094 994.912292480469 994.865112304688 984.317687988281 987.3134765625 977.203430175781 985.001586914062 985.85009765625 990.241455078125 998.279052734375 994.327209472656 986.744995117188 987.376953125 989.70263671875 987.0859375 1000.13677978516 1004.20245361328 1001.18615722656 997.838317871094 1001.37432861328 1006.26232910156 1018.35827636719 1003.46960449219 998.841491699219 984.319274902344 988.215454101562 987.6982421875 991.528076171875 989.490356445312 982.259399414062 990.692932128906 991.125610351562 985.775756835938 992.657165527344 995.986572265625 1003.35772705078 1010.98413085938 1007.28186035156 1018.62542724609 1021.70562744141 1021.39392089844 1003.97717285156 997.767150878906 1008.93542480469 1006.14831542969 1006.46563720703 1008.3681640625 1002.76647949219 1007.24420166016 994.55908203125 994.572265625 1003.85961914062 998.348083496094 990.843811035156 1004.9306640625 998.746704101562 993.369445800781 989.732055664062 996.097351074219 1004.97204589844 1004.42529296875 1001.81024169922 1006.45886230469 1011.06750488281 1017.20031738281 1026.5810546875 1028.56079101562 1028.7978515625 1022.90069580078 1032.65173339844 1025.79821777344 1021.02172851562 1022.06030273438 1025.13110351562 1021.09014892578 1013.90600585938 1008.95037841797 1008.35675048828 1006.97570800781 1006.13153076172 1011.38427734375 1007.26086425781 1004.85205078125 1002.21765136719 996.029174804688 986.661437988281 978.461669921875 968.724731445312 965.405944824219 953.525817871094 953.50390625 938.398254394531 947.2412109375 964.162048339844 972.74560546875 984.532897949219 990.428283691406 996.659301757812 1003.29388427734 1013.17858886719 1020.52239990234 1013.19152832031 1022.13452148438 1034.21911621094 1033.67541503906 1037.55786132812 1028.31042480469 1028.90771484375 1043.52160644531 1043.7275390625 1041.58459472656 1039.62731933594 1042.04370117188 1051.69177246094 1050.85827636719 1055.97253417969 1052.74487304688 1061.98291015625 1053.80041503906 1068.73034667969 1079.47668457031 1087.40173339844 1095.9130859375 1093.95080566406 1100.48840332031 1097.18664550781 1109.83203125
957.715942382812 946.96826171875 945.968688964844 950.492858886719 954.979858398438 950.799621582031 958.134094238281 965.227111816406 962.589904785156 966.117431640625 976.256286621094 978.883911132812 980.490539550781 971.224548339844 974.930297851562 972.400146484375 972.585144042969 974.528503417969 988.090148925781 982.66162109375 980.684448242188 982.151916503906 1003.37445068359 995.475708007812 998.55322265625 992.2080078125 985.966430664062 980.014099121094 981.116027832031 979.43701171875 981.922912597656 986.402221679688 996.520263671875 989.175842285156 987.271850585938 985.878173828125 995.914123535156 995.212951660156 998.200378417969 987.787353515625 989.840576171875 997.666931152344 995.157287597656 1002.58587646484 1010.45031738281 1000.94592285156 1001.39288330078 988.935607910156 987.966125488281 988.138549804688 992.23974609375 984.078674316406 984.89306640625 983.860290527344 984.422790527344 992.242797851562 994.256591796875 996.1884765625 1000.70007324219 1008.43988037109 1012.31237792969 1013.08386230469 1014.86163330078 1012.01147460938 1005.53302001953 999.348449707031 1006.43701171875 1000.66345214844 994.977844238281 999.950134277344 1005.30505371094 1004.41302490234 1002.71356201172 997.440490722656 988.306396484375 991.3232421875 984.756042480469 990.618286132812 996.767639160156 992.501647949219 990.001708984375 996.047729492188 1003.78295898438 1010.46990966797 1006.68853759766 1012.49645996094 1009.15405273438 1011.88299560547 1020.27215576172 1030.83581542969 1036.35009765625 1032.09521484375 1020.65869140625 1030.64636230469 1017.2373046875 1017.19134521484 1019.19458007812 1019.43975830078 1018.88470458984 1015.17749023438 1013.13018798828 1015.76202392578 1007.91748046875 1003.04217529297 1004.35986328125 1003.94073486328 993.877014160156 999.199890136719 989.1923828125 971.990844726562 966.915588378906 966.142578125 956.428466796875 949.252258300781 940.198120117188 941.625793457031 958.920837402344 968.358337402344 982.616271972656 984.567016601562 991.980224609375 994.611877441406 1012.78405761719 1014.36846923828 1023.16333007812 1029.19799804688 1036.57165527344 1046.93371582031 1041.12573242188 1028.04370117188 1019.39190673828 1038.19079589844 1037.89807128906 1035.37829589844 1033.27893066406 1031.48791503906 1039.43774414062 1052.32885742188 1050.68212890625 1051.15368652344 1049.72326660156 1056.73278808594 1058.38513183594 1075.22692871094 1083.26220703125 1093.24035644531 1104.98986816406 1112.68676757812 1111.26110839844 1108.69506835938
957.818908691406 954.866638183594 956.091857910156 961.549499511719 964.861022949219 961.723999023438 958.461791992188 959.795471191406 967.632446289062 974.615051269531 972.884521484375 971.529602050781 985.834533691406 970.510559082031 971.214477539062 970.756896972656 973.627563476562 975.81494140625 984.666015625 984.796936035156 981.091674804688 981.662841796875 992.361572265625 997.534912109375 998.890686035156 993.139587402344 991.145935058594 983.644226074219 981.337280273438 975.898559570312 974.032409667969 980.183959960938 983.071533203125 987.838806152344 981.157958984375 993.934814453125 992.631591796875 997.784240722656 999.86572265625 980.259521484375 989.129699707031 985.394470214844 991.494934082031 996.214721679688 1000.88598632812 1000.3447265625 996.713439941406 989.832946777344 994.794860839844 993.610168457031 990.466857910156 986.197814941406 979.309448242188 977.30029296875 984.452819824219 992.56689453125 993.44970703125 1001.89929199219 1017.45629882812 1016.85528564453 1009.49487304688 1013.62554931641 999.333190917969 1005.96124267578 1007.56561279297 1000.97601318359 1001.30944824219 1002.72436523438 991.168579101562 1001.45172119141 1001.24279785156 1000.42462158203 1005.33337402344 995.648742675781 985.55859375 978.866027832031 972.6083984375 984.502868652344 993.774169921875 994.605407714844 993.287414550781 1007.78088378906 1008.42016601562 1010.08288574219 1008.97119140625 1014.24407958984 1006.5009765625 1014.13537597656 1016.185546875 1026.79846191406 1024.83984375 1027.37243652344 1028.94982910156 1030.15209960938 1018.23968505859 1013.50720214844 1010.9384765625 1022.49383544922 1011.01818847656 1021.494140625 1020.12451171875 1016.87335205078 1011.54931640625 1003.13439941406 991.01318359375 998.539367675781 999.194946289062 996.156921386719 991.105895996094 977.717651367188 965.915283203125 961.915954589844 952.842163085938 944.727966308594 943.430297851562 951.354370117188 964.364440917969 965.170776367188 971.638977050781 978.323852539062 986.853515625 997.300354003906 1003.09893798828 1013.283203125 1013.20245361328 1029.94873046875 1034.82360839844 1043.53625488281 1039.68139648438 1031.63977050781 1028.49035644531 1034.02136230469 1031.9765625 1030.20581054688 1027.16979980469 1031.19409179688 1041.46142578125 1051.29772949219 1057.95471191406 1049.24829101562 1059.21215820312 1060.66455078125 1059.86450195312 1074.42395019531 1087.41198730469 1095.63122558594 1101.76330566406 1109.82922363281 1112.31372070312 1115.26025390625
957.204284667969 954.407897949219 962.013916015625 965.190612792969 970.20166015625 963.908020019531 958.080261230469 961.735168457031 970.015502929688 976.746337890625 970.711486816406 967.218139648438 972.421630859375 976.127563476562 971.441040039062 977.536193847656 974.979675292969 986.025939941406 983.423706054688 980.488098144531 979.922485351562 979.869384765625 982.207397460938 988.462768554688 988.217224121094 992.13134765625 992.644165039062 984.434692382812 974.561584472656 979.993530273438 980.330627441406 981.691955566406 986.827392578125 993.425476074219 988.674011230469 991.015869140625 998.683654785156 999.962646484375 997.466430664062 990.292602539062 986.873962402344 985.567260742188 984.361389160156 995.662048339844 991.735229492188 993.496520996094 995.571228027344 993.638427734375 995.952087402344 1003.04577636719 988.939697265625 981.002563476562 975.461975097656 968.992553710938 981.917846679688 989.338256835938 992.264587402344 1000.83563232422 1009.01879882812 1010.20434570312 1003.26239013672 992.056579589844 998.163208007812 996.284423828125 997.996215820312 998.183532714844 997.562622070312 998.140991210938 996.450988769531 989.497680664062 993.062561035156 992.929321289062 1000.96405029297 1000.09008789062 988.494445800781 979.680908203125 979.075866699219 975.436157226562 976.52587890625 993.232971191406 991.763427734375 1002.22027587891 1000.36932373047 1009.10052490234 1008.00659179688 1006.76336669922 1003.24572753906 1007.2275390625 1011.40942382812 1013.69573974609 1014.77075195312 1015.16827392578 1023.36956787109 1012.88525390625 1014.04382324219 1014.4951171875 1010.75067138672 1020.51849365234 1014.29760742188 1017.68859863281 1016.16967773438 1012.03814697266 1014.82580566406 1011.50714111328 994.491149902344 997.285034179688 997.739074707031 1002.08087158203 990.507995605469 981.603332519531 968.823608398438 969.351928710938 960.037170410156 943.954772949219 947.099609375 953.279113769531 957.998840332031 959.292297363281 964.008911132812 974.122436523438 987.954162597656 987.404602050781 993.240234375 1007.18054199219 1014.45666503906 1026.38391113281 1033.21020507812 1036.65905761719 1036.86181640625 1029.07751464844 1030.037109375 1035.36437988281 1030.21643066406 1027.986328125 1026.0869140625 1022.41284179688 1029.70068359375 1037.73034667969 1042.47570800781 1054.90393066406 1062.51525878906 1063.61584472656 1064.81701660156 1075.26452636719 1087.20129394531 1088.24975585938 1106.20666503906 1104.81066894531 1103.18078613281 1118.94580078125
957.463623046875 955.452880859375 968.051086425781 968.271118164062 967.431945800781 963.498474121094 960.078674316406 962.267822265625 965.549011230469 979.429016113281 972.207641601562 967.026306152344 976.555053710938 972.142517089844 978.815368652344 971.429992675781 975.422607421875 980.823181152344 983.150024414062 983.022033691406 980.916320800781 980.233825683594 988.213684082031 986.234069824219 991.875366210938 995.818359375 997.759521484375 982.384155273438 979.428405761719 982.596252441406 989.115051269531 989.370422363281 988.015197753906 983.071228027344 995.453796386719 990.064392089844 994.831481933594 998.413879394531 996.210754394531 993.050231933594 987.77099609375 981.901000976562 980.632141113281 990.518493652344 992.289367675781 991.501098632812 993.061279296875 992.57373046875 986.908874511719 992.418701171875 992.259155273438 976.696716308594 976.991638183594 982.504821777344 980.55859375 980.475891113281 996.366271972656 995.802307128906 996.622619628906 996.261962890625 988.729309082031 991.267822265625 1000.37957763672 995.419189453125 992.686584472656 991.140930175781 993.581115722656 991.752258300781 993.559753417969 996.872192382812 1001.24761962891 993.251342773438 995.776733398438 993.106567382812 978.795349121094 980.065612792969 980.439086914062 977.143615722656 978.279541015625 986.171203613281 990.750732421875 1001.42156982422 994.928466796875 1012.70184326172 1004.90252685547 1014.32293701172 1010.72576904297 1006.96862792969 1014.64227294922 1007.07177734375 1017.09484863281 1023.99719238281 1012.05712890625 1009.22039794922 1011.35601806641 1012.25006103516 1004.5576171875 1008.46099853516 1012.44549560547 1014.529296875 1022.07788085938 1014.38714599609 1010.98980712891 1007.92407226562 1003.39465332031 995.248901367188 992.351928710938 993.464904785156 991.206176757812 985.040405273438 978.472717285156 969.366333007812 962.110900878906 958.514099121094 957.67333984375 952.8779296875 960.404418945312 958.14453125 966.817016601562 972.654052734375 975.898132324219 984.965209960938 990.919616699219 1004.46374511719 1011.89758300781 1021.89544677734 1031.12963867188 1026.28540039062 1031.16931152344 1030.33569335938 1021.86865234375 1029.8154296875 1019.23736572266 1015.03442382812 1021.67468261719 1023.29144287109 1019.69537353516 1023.48107910156 1041.46923828125 1051.3515625 1055.56323242188 1063.96166992188 1071.02490234375 1072.96838378906 1083.04223632812 1096.45092773438 1100.53100585938 1110.7431640625 1114.97009277344 1115.8349609375
946.368408203125 954.743835449219 957.802185058594 968.452941894531 968.542114257812 970.99853515625 974.808349609375 973.587463378906 975.510864257812 980.84375 981.155944824219 981.707336425781 981.051330566406 971.430419921875 967.417419433594 968.79931640625 980.068359375 984.586181640625 980.960571289062 983.427185058594 981.484558105469 987.7109375 984.1728515625 989.21630859375 986.620788574219 986.734191894531 987.0859375 983.344665527344 977.314758300781 986.160766601562 983.523010253906 990.458801269531 990.247985839844 983.748962402344 987.258666992188 991.817138671875 981.606994628906 989.377990722656 988.611694335938 982.252624511719 985.692749023438 980.683776855469 983.639770507812 988.981811523438 987.727294921875 989.066833496094 983.835510253906 993.683776855469 992.02490234375 987.264892578125 986.390869140625 976.831665039062 974.708129882812 987.945129394531 983.878662109375 982.372314453125 987.658874511719 991.015380859375 997.090942382812 988.5087890625 988.935485839844 987.861206054688 990.249267578125 988.577392578125 987.978942871094 989.828247070312 987.672973632812 987.732238769531 993.611145019531 986.658020019531 991.592041015625 993.340515136719 986.854736328125 989.079345703125 972.830078125 976.335510253906 978.697509765625 982.539611816406 980.049377441406 976.665771484375 981.616760253906 990.140319824219 1001.50268554688 1004.14532470703 1010.55444335938 1014.92059326172 1010.88330078125 1011.60858154297 1007.68609619141 1012.04931640625 1020.03454589844 1021.57647705078 1014.92004394531 1009.93383789062 1006.26885986328 1004.13806152344 1004.55767822266 1004.16180419922 1009.86553955078 1005.54284667969 1008.74090576172 1003.28277587891 1009.76586914062 1004.69299316406 991.582580566406 997.061218261719 986.376037597656 989.1845703125 992.95556640625 991.042663574219 975.731689453125 969.539611816406 963.929565429688 963.220947265625 965.604187011719 954.843383789062 960.466003417969 964.119445800781 966.667846679688 970.539794921875 976.820617675781 979.175842285156 987.89208984375 1003.56823730469 1010.68426513672 1007.19732666016 1016.16131591797 1021.35729980469 1025.74279785156 1021.51788330078 1027.94775390625 1019.90356445312 1014.99774169922 1014.99255371094 1020.60955810547 1024.36389160156 1020.77014160156 1021.10125732422 1039.07116699219 1046.42468261719 1057.40649414062 1054.26306152344 1073.56713867188 1076.92065429688 1082.92639160156 1094.58703613281 1100.96203613281 1102.09033203125 1109.83972167969 1118.12243652344
950.624328613281 948.658447265625 964.274719238281 966.799133300781 975.406494140625 963.586975097656 972.030212402344 968.422790527344 975.497619628906 979.788818359375 974.190734863281 981.554321289062 989.671508789062 982.597106933594 974.646911621094 974.495422363281 978.907836914062 974.481567382812 976.362854003906 981.148376464844 977.488098144531 976.842041015625 983.617919921875 985.308288574219 991.096557617188 990.044677734375 988.389709472656 984.602844238281 987.312622070312 987.166198730469 986.917297363281 981.323547363281 988.864685058594 985.778442382812 981.430541992188 979.160888671875 980.226684570312 986.755798339844 991.681701660156 979.090637207031 986.391296386719 989.231140136719 990.744140625 1001.00750732422 994.111267089844 989.709777832031 990.068969726562 987.841003417969 993.259094238281 986.653015136719 978.890014648438 972.953369140625 978.33642578125 977.848449707031 977.054626464844 980.075988769531 978.490783691406 988.182434082031 994.858215332031 1002.73901367188 988.230224609375 994.017639160156 989.212463378906 988.087890625 987.138061523438 988.68310546875 989.116760253906 996.459716796875 994.076477050781 993.515563964844 993.222839355469 989.970336914062 990.744750976562 987.33837890625 977.443481445312 982.977783203125 980.7529296875 976.251281738281 982.97021484375 983.354064941406 977.99365234375 978.586669921875 998.5888671875 1007.47302246094 1008.36242675781 1013.51000976562 1017.47418212891 1013.42547607422 1006.07299804688 1010.28137207031 1020.69421386719 1020.98400878906 1015.23858642578 1003.43383789062 1004.59149169922 1002.62127685547 1007.63250732422 996.26171875 1003.07183837891 1000.97766113281 1007.30804443359 1006.1484375 1012.20977783203 1007.94573974609 994.90625 993.0732421875 994.114074707031 1001.26916503906 991.931457519531 982.493286132812 979.792236328125 975.952758789062 973.28076171875 967.555969238281 959.43310546875 954.772216796875 969.111938476562 974.89599609375 969.474487304688 971.334655761719 975.843200683594 982.459594726562 992.566711425781 1004.98675537109 1014.98376464844 1019.65472412109 1014.12097167969 1034.75146484375 1032.10522460938 1023.30651855469 1025.39929199219 1009.45166015625 1019.93182373047 1008.71374511719 1015.86383056641 1020.11126708984 1020.31579589844 1023.26879882812 1031.39990234375 1047.52160644531 1058.66088867188 1061.34326171875 1079.9423828125 1094.77697753906 1095.55187988281 1105.94665527344 1113.70434570312 1112.51501464844 1117.09460449219 1114.83312988281
955.374633789062 952.546752929688 955.779052734375 967.434326171875 973.869567871094 963.651794433594 971.581665039062 970.533203125 977.987121582031 973.078857421875 982.351013183594 982.984619140625 974.319030761719 975.351440429688 980.727416992188 980.129089355469 976.146240234375 971.304748535156 972.573486328125 978.741760253906 984.34619140625 989.131774902344 980.749267578125 970.112121582031 971.906372070312 983.586181640625 986.184875488281 976.631103515625 975.462524414062 979.831481933594 986.523193359375 986.180969238281 984.259765625 984.294982910156 974.392639160156 986.071655273438 982.286926269531 980.270385742188 985.956176757812 979.186157226562 988.244201660156 982.986267089844 984.742370605469 992.691528320312 993.525817871094 987.606567382812 984.3310546875 985.877746582031 979.703552246094 981.483764648438 979.326049804688 966.066528320312 965.543334960938 974.914123535156 973.815368652344 980.078063964844 987.584289550781 985.261352539062 990.532348632812 994.375061035156 995.182983398438 996.42236328125 987.481994628906 988.961181640625 987.91650390625 982.552124023438 976.815368652344 993.351257324219 989.394714355469 992.4931640625 981.318176269531 987.481384277344 982.973937988281 988.255004882812 989.463134765625 987.004821777344 981.57470703125 980.819763183594 983.6005859375 980.773559570312 974.868408203125 975.514709472656 991.950256347656 996.792785644531 998.900329589844 1007.57678222656 1010.2705078125 1004.13128662109 1004.5654296875 1009.26477050781 1011.76037597656 1013.50390625 1010.51623535156 1008.15209960938 1008.02215576172 1015.59735107422 1009.62493896484 1009.84399414062 1005.46276855469 999.680847167969 1001.43225097656 1003.89849853516 1008.00695800781 1005.29150390625 995.348205566406 992.930053710938 999.706237792969 1003.79309082031 1000.04010009766 987.090148925781 980.135925292969 982.121154785156 974.3388671875 971.370422363281 964.069152832031 959.307006835938 968.593139648438 974.89208984375 983.019653320312 979.62158203125 985.375549316406 995.266967773438 1000.34576416016 1009.22595214844 1018.30615234375 1009.67108154297 1020.03240966797 1019.80023193359 1023.47448730469 1021.76885986328 1014.78289794922 1011.66448974609 1019.62591552734 1007.69635009766 1012.81640625 1021.40216064453 1017.16479492188 1023.36004638672 1036.38659667969 1057.00708007812 1070.13952636719 1074.48376464844 1086.71423339844 1085.53112792969 1095.537109375 1111.609375 1115.06994628906 1110.16137695312 1114.20239257812 1118.92517089844
952.076538085938 949.362060546875 955.082397460938 960.859313964844 965.430786132812 969.163452148438 975.381652832031 973.104675292969 971.590270996094 969.11328125 977.903259277344 979.339050292969 971.939025878906 977.970397949219 982.166442871094 977.765686035156 977.757629394531 975.138732910156 982.175048828125 991.211303710938 982.937316894531 984.438903808594 976.21728515625 973.802062988281 971.267517089844 983.700866699219 984.995056152344 984.336059570312 980.867126464844 976.987426757812 983.821716308594 990.316040039062 987.305114746094 977.099365234375 980.83984375 980.829162597656 975.45166015625 980.291870117188 983.863708496094 975.181640625 984.938659667969 988.680969238281 984.07763671875 981.138122558594 989.292724609375 983.1611328125 980.831237792969 983.20361328125 978.328247070312 977.53369140625 977.877746582031 974.525329589844 967.961730957031 971.02294921875 969.0576171875 974.7646484375 979.307250976562 980.764221191406 987.48193359375 988.983520507812 989.660278320312 979.785949707031 979.814697265625 992.337890625 986.446228027344 980.105529785156 974.991760253906 982.831359863281 990.218627929688 987.249816894531 981.53271484375 976.634643554688 986.175598144531 983.628540039062 985.927551269531 983.894714355469 988.4248046875 982.130065917969 982.074584960938 981.77001953125 980.641235351562 977.884216308594 991.287353515625 999.879516601562 995.92626953125 1003.41802978516 997.131530761719 1002.66638183594 1004.38861083984 1013.20184326172 1010.06707763672 1008.06207275391 1006.20385742188 996.367492675781 1001.94982910156 1008.19879150391 1005.33825683594 1007.97003173828 1000.02947998047 997.023498535156 991.478149414062 999.261352539062 995.667785644531 993.887329101562 999.42578125 998.9599609375 995.300720214844 998.21142578125 991.372924804688 996.958129882812 993.74169921875 996.857360839844 980.40087890625 982.571105957031 977.051879882812 972.243957519531 975.223571777344 984.850708007812 999.341125488281 991.33251953125 990.992980957031 996.958984375 994.157470703125 1010.08972167969 1014.07019042969 1017.05706787109 1007.98498535156 1002.66516113281 1008.3759765625 1014.79608154297 1012.74774169922 1020.03985595703 1015.36529541016 1011.74267578125 1013.04632568359 1024.62390136719 1018.27856445312 1035.10070800781 1055.67761230469 1069.54760742188 1068.97338867188 1083.69079589844 1090.63146972656 1089.99731445312 1099.61633300781 1105.21643066406 1108.70251464844 1111.67614746094 1119.43090820312 1123.92297363281
948.258422851562 951.154113769531 957.618469238281 958.641906738281 968.330505371094 971.302795410156 973.076232910156 975.528503417969 966.136657714844 966.989196777344 960.954406738281 978.819458007812 965.077209472656 969.872619628906 975.311828613281 984.77880859375 986.15869140625 985.429321289062 979.89990234375 985.012878417969 983.155700683594 972.753234863281 978.428771972656 977.26953125 974.505310058594 974.074523925781 982.17529296875 981.152587890625 975.942687988281 970.583435058594 979.583251953125 980.018188476562 985.00537109375 976.668823242188 973.925354003906 985.656005859375 984.806396484375 989.236389160156 976.265991210938 978.901123046875 978.496276855469 985.197509765625 980.057861328125 984.266540527344 983.667602539062 978.555908203125 973.002807617188 967.63134765625 979.617492675781 972.858276367188 974.19873046875 980.355102539062 970.467590332031 975.348876953125 967.174377441406 963.531066894531 977.938049316406 971.488830566406 980.260437011719 981.734191894531 987.920227050781 983.564392089844 975.987487792969 982.822814941406 981.653076171875 976.523803710938 975.012329101562 978.420471191406 983.792419433594 973.1181640625 970.175109863281 972.899169921875 975.046630859375 971.612548828125 975.468872070312 981.59814453125 979.698303222656 975.283935546875 975.526184082031 974.367126464844 977.145812988281 978.809631347656 992.472778320312 999.550903320312 1003.19799804688 991.644592285156 996.992248535156 1000.79986572266 1004.09307861328 1000.15161132812 1003.84838867188 1012.45587158203 1003.31604003906 997.876831054688 993.960327148438 994.39697265625 995.34912109375 997.119384765625 999.885314941406 989.31298828125 986.105407714844 990.161071777344 986.373046875 992.669311523438 991.525695800781 997.229064941406 993.531005859375 991.221618652344 991.325378417969 997.133422851562 990.634582519531 1002.00201416016 1002.00714111328 995.535217285156 989.656494140625 980.633728027344 988.252807617188 992.095581054688 999.902587890625 1001.40045166016 994.088439941406 999.49560546875 1001.12060546875 1000.66845703125 1003.58160400391 1003.79931640625 1007.13140869141 1006.86975097656 1011.720703125 1011.6123046875 1015.79595947266 1012.83032226562 1025.50793457031 1024.4228515625 1023.13238525391 1023.31207275391 1025.47692871094 1042.19934082031 1057.43640136719 1069.70031738281 1063.60900878906 1082.92578125 1097.18237304688 1102.76489257812 1099.13732910156 1107.83618164062 1101.31970214844 1105.19055175781 1118.12194824219 1129.38806152344
952.415954589844 961.744018554688 965.063415527344 971.420837402344 970.919555664062 966.076110839844 974.214477539062 974.423583984375 971.528503417969 961.052734375 972.171875 975.886657714844 973.915405273438 972.097717285156 977.471313476562 990.01953125 980.446655273438 983.582092285156 986.321105957031 974.959716796875 977.19580078125 979.135192871094 980.544128417969 977.937805175781 970.452087402344 976.24609375 971.106567382812 970.604125976562 972.948669433594 969.788513183594 966.9453125 973.117370605469 978.469177246094 974.086120605469 974.229858398438 982.943176269531 983.80908203125 975.593139648438 975.629821777344 975.196411132812 972.954833984375 975.934997558594 968.495849609375 980.900024414062 982.5341796875 978.761901855469 970.911926269531 970.055603027344 971.711242675781 980.239624023438 975.002075195312 975.958923339844 978.066650390625 979.307678222656 974.240661621094 969.954162597656 971.712158203125 963.886291503906 984.514892578125 981.325378417969 979.030395507812 985.732238769531 983.239379882812 986.021850585938 989.094055175781 988.286254882812 979.4013671875 981.207763671875 971.453247070312 971.183166503906 975.718566894531 980.217590332031 969.175231933594 957.965270996094 972.054565429688 974.742065429688 971.023864746094 980.196838378906 972.54150390625 972.930847167969 971.7470703125 976.284851074219 976.699584960938 982.903442382812 986.542053222656 993.820007324219 988.640502929688 993.1162109375 996.728759765625 995.002136230469 1007.70452880859 1004.75549316406 1003.01715087891 1003.09149169922 988.321350097656 981.357971191406 984.015991210938 990.290893554688 995.267028808594 992.791015625 993.721008300781 990.54150390625 985.813598632812 987.642272949219 990.595825195312 996.092712402344 993.734008789062 993.916442871094 996.227661132812 992.709655761719 997.993835449219 1001.56781005859 1008.67883300781 1002.96154785156 994.94091796875 1000.35028076172 994.024719238281 1002.22338867188 1003.63354492188 996.503051757812 997.454284667969 998.792663574219 1001.1162109375 998.463989257812 1010.65240478516 1006.75201416016 998.139587402344 1002.64276123047 1006.45642089844 1018.37133789062 1015.96105957031 1020.26696777344 1016.64331054688 1026.05505371094 1027.33471679688 1037.63049316406 1039.10705566406 1056.26879882812 1062.6904296875 1067.42565917969 1069.33459472656 1092.63464355469 1108.92663574219 1109.96301269531 1105.86926269531 1110.60498046875 1100.44091796875 1109.26733398438 1117.94580078125 1129.20922851562
945.566711425781 965.128845214844 961.264343261719 970.848266601562 973.114807128906 970.020629882812 971.459167480469 969.888061523438 964.470397949219 969.74560546875 965.251586914062 965.143188476562 972.06396484375 969.946411132812 975.230529785156 979.322204589844 980.633972167969 978.586181640625 981.32080078125 976.628112792969 980.39111328125 981.065734863281 976.045959472656 970.118957519531 978.526733398438 971.345458984375 963.947448730469 964.400451660156 969.645324707031 965.970336914062 962.932739257812 970.290344238281 969.951171875 963.465698242188 973.451171875 981.684020996094 987.294189453125 985.455627441406 972.380310058594 970.354431152344 971.905700683594 973.383728027344 983.476379394531 976.210205078125 976.1533203125 979.400451660156 980.806518554688 976.206481933594 973.530822753906 977.429870605469 978.510620117188 978.964904785156 971.601501464844 979.154052734375 986.157470703125 978.867309570312 965.267211914062 964.078125 979.546264648438 974.809509277344 980.827575683594 976.914672851562 983.480895996094 988.297668457031 990.511291503906 991.047546386719 985.477172851562 974.276000976562 976.544921875 970.992858886719 978.138122558594 973.34228515625 964.435302734375 959.755187988281 955.22216796875 964.265441894531 962.279235839844 970.547607421875 973.4296875 979.977294921875 979.451171875 980.470703125 978.675231933594 983.414489746094 984.667419433594 989.365051269531 990.416015625 991.925415039062 996.135925292969 996.890502929688 1001.65808105469 993.636169433594 999.486389160156 996.721435546875 995.570678710938 988.191772460938 985.536193847656 994.661682128906 996.566650390625 993.380981445312 988.173950195312 992.953063964844 991.565795898438 990.231506347656 992.177978515625 998.967224121094 988.557983398438 991.188720703125 988.4765625 994.237487792969 998.839599609375 999.286376953125 1015.01428222656 1009.32843017578 998.88916015625 1001.42864990234 1002.05773925781 1003.93011474609 994.10009765625 992.667663574219 1000.36541748047 997.089294433594 997.581604003906 1008.17279052734 1011.42877197266 1003.80615234375 1002.91790771484 1007.32336425781 1024.32385253906 1029.85473632812 1022.94580078125 1021.19647216797 1018.86614990234 1017.02746582031 1028.61145019531 1040.79150390625 1053.82470703125 1057.26684570312 1071.14526367188 1079.9345703125 1084.41735839844 1087.17932128906 1109.48156738281 1114.88330078125 1113.61486816406 1103.72253417969 1109.35375976562 1115.13562011719 1117.55590820312 1133.74768066406
951.003967285156 960.997314453125 966.64990234375 972.06591796875 973.514709472656 970.602111816406 971.320983886719 962.815063476562 962.57373046875 963.684936523438 965.902282714844 965.659912109375 973.018371582031 969.18798828125 976.395751953125 980.054077148438 982.638854980469 981.132080078125 982.211791992188 986.580322265625 983.326904296875 973.547790527344 976.4384765625 969.626281738281 966.904418945312 967.29638671875 974.588195800781 969.062622070312 966.878112792969 970.26904296875 973.819519042969 984.704162597656 989.004455566406 969.849365234375 975.584716796875 972.93408203125 979.113403320312 981.109680175781 982.371154785156 973.039733886719 981.560302734375 986.506408691406 982.308654785156 982.119262695312 963.889587402344 963.755920410156 966.425354003906 965.673522949219 960.441528320312 960.644897460938 976.783874511719 974.271179199219 967.834716796875 978.672973632812 975.503540039062 977.865234375 969.744140625 972.816772460938 975.926574707031 975.173522949219 972.583862304688 976.078735351562 980.186462402344 991.309631347656 994.186401367188 993.156799316406 983.865234375 977.052368164062 971.248901367188 979.028259277344 978.474487304688 961.786926269531 954.190368652344 954.818420410156 950.657287597656 963.9169921875 963.863586425781 964.99853515625 973.826965332031 983.46435546875 994.171752929688 991.090637207031 989.210388183594 989.273742675781 986.287902832031 984.725646972656 980.327087402344 992.135681152344 983.470397949219 982.532043457031 988.11572265625 992.879089355469 994.346313476562 993.486145019531 996.920166015625 992.099670410156 988.954040527344 991.100280761719 993.322082519531 984.083923339844 989.146850585938 989.0869140625 992.622924804688 987.246032714844 988.782836914062 994.445617675781 991.90625 994.235107421875 994.118591308594 995.968505859375 997.977172851562 998.085693359375 1003.34875488281 1006.58197021484 1002.01770019531 1000.36767578125 995.784423828125 1002.65850830078 995.0673828125 984.289306640625 994.22021484375 992.119812011719 1000.69409179688 1010.83801269531 1000.59637451172 993.853576660156 1004.78674316406 1015.54364013672 1024.60375976562 1024.02709960938 1016.50848388672 1019.27117919922 1022.64617919922 1024.91870117188 1029.38513183594 1044.49621582031 1062.28344726562 1065.82946777344 1074.26867675781 1080.24523925781 1089.95471191406 1099.46594238281 1108.63122558594 1117.47021484375 1112.27294921875 1113.34143066406 1111.71008300781 1120.56457519531 1122.46899414062 1130.63757324219
961.886596679688 962.119750976562 969.645446777344 967.608581542969 973.794067382812 978.996337890625 973.905029296875 962.464050292969 958.033996582031 964.078430175781 964.133239746094 962.757080078125 968.619995117188 979.303100585938 970.728942871094 972.802795410156 974.165344238281 981.912780761719 982.918518066406 976.955749511719 977.642517089844 973.843566894531 983.441223144531 968.135070800781 975.047668457031 966.371948242188 971.370971679688 967.444213867188 969.530700683594 969.626953125 975.815185546875 978.376220703125 981.438720703125 974.456237792969 982.392333984375 980.417114257812 984.758056640625 979.734558105469 980.2587890625 981.736328125 979.817321777344 983.315734863281 968.104125976562 969.871948242188 958.177795410156 964.414916992188 962.97021484375 969.424133300781 972.583679199219 973.338623046875 970.173400878906 972.543090820312 971.613342285156 966.986206054688 966.760803222656 974.753723144531 969.638427734375 971.972717285156 981.625305175781 971.801696777344 963.133056640625 959.391052246094 966.25830078125 988.47802734375 999.251647949219 989.083251953125 988.64404296875 975.980834960938 977.778991699219 975.534545898438 975.746459960938 969.636413574219 960.633850097656 967.55810546875 964.861328125 959.663024902344 962.049499511719 968.969177246094 971.611755371094 980.705261230469 987.327026367188 984.484069824219 984.109619140625 983.562744140625 983.400207519531 985.312316894531 984.141174316406 986.126281738281 997.233764648438 986.101928710938 986.234313964844 994.141418457031 989.259826660156 993.448547363281 1000.27154541016 996.497436523438 999.746948242188 993.736267089844 992.45947265625 975.172912597656 981.506103515625 983.126403808594 982.335876464844 984.593933105469 988.1474609375 991.058959960938 991.362060546875 994.543701171875 999.544067382812 1000.85192871094 1001.70843505859 1004.56433105469 999.792419433594 994.660461425781 998.968933105469 995.517028808594 994.557067871094 1001.74645996094 1003.46459960938 994.680114746094 991.607482910156 990.20068359375 996.947204589844 996.814880371094 1001.44744873047 993.6083984375 997.91748046875 1002.98791503906 1015.33477783203 1021.92272949219 1015.26251220703 1019.05511474609 1030.41198730469 1035.14050292969 1032.70141601562 1043.25732421875 1056.65185546875 1062.73583984375 1080.23522949219 1083.07531738281 1093.48986816406 1103.8505859375 1106.90686035156 1113.54162597656 1112.92175292969 1114.02307128906 1128.01574707031 1127.57373046875 1132.47119140625 1136.78540039062
962.376586914062 958.929260253906 965.577880859375 971.566650390625 973.665893554688 967.076293945312 966.835510253906 971.020935058594 956.322143554688 959.768615722656 963.134033203125 968.2744140625 967.441955566406 959.775451660156 971.465026855469 976.1318359375 979.953369140625 979.533447265625 978.820007324219 975.666381835938 981.793273925781 972.294494628906 973.330383300781 978.44140625 969.147766113281 977.314575195312 979.064147949219 979.879272460938 968.609619140625 972.354797363281 981.532958984375 978.045654296875 986.755737304688 982.351013183594 975.250183105469 974.842468261719 979.1474609375 977.263244628906 978.117492675781 984.700805664062 977.283752441406 975.7001953125 971.028991699219 965.163208007812 959.517456054688 958.707458496094 963.330139160156 975.615966796875 975.427124023438 976.705322265625 976.595947265625 970.234985351562 971.014953613281 963.166564941406 961.159545898438 973.736328125 974.822143554688 970.699401855469 980.28271484375 974.400512695312 968.8701171875 965.922424316406 967.510375976562 975.251403808594 990.924743652344 993.445739746094 993.3994140625 985.355163574219 976.340576171875 978.120300292969 978.630249023438 965.227966308594 970.159423828125 969.035583496094 967.567199707031 964.684387207031 964.581909179688 975.240234375 976.399169921875 974.514282226562 982.225524902344 985.799011230469 981.586364746094 992.737426757812 996.213623046875 990.480163574219 987.643615722656 991.548889160156 988.724487304688 976.750610351562 976.043640136719 979.073913574219 991.402587890625 994.01513671875 986.028564453125 998.346618652344 995.724670410156 980.690856933594 991.39404296875 983.657104492188 994.297241210938 988.034973144531 985.732727050781 983.626892089844 993.42578125 990.7509765625 991.116943359375 998.262145996094 997.712097167969 1001.59466552734 999.488647460938 995.227905273438 997.019653320312 993.537780761719 991.804809570312 991.936584472656 1000.36145019531 996.297546386719 995.648742675781 994.177062988281 995.24560546875 993.299072265625 1001.037109375 998.314453125 995.469421386719 991.726684570312 1001.76605224609 1014.05224609375 1020.81909179688 1020.626953125 1017.03338623047 1020.43524169922 1023.47467041016 1027.78283691406 1028.20202636719 1047.35461425781 1055.552734375 1066.54113769531 1088.40844726562 1094.89794921875 1109.23510742188 1116.09875488281 1116.15209960938 1122.22082519531 1124.59094238281 1118.54809570312 1132.50964355469 1139.09790039062 1140.66430664062 1144.89001464844
961.202026367188 963.652709960938 959.144836425781 969.340454101562 968.394714355469 960.900939941406 958.374328613281 961.861755371094 960.061279296875 967.738220214844 975.119689941406 972.530029296875 968.219848632812 966.951477050781 973.062561035156 979.7724609375 980.488220214844 984.833679199219 983.112182617188 975.41064453125 975.390502929688 972.866516113281 967.210205078125 969.785461425781 972.983642578125 970.527404785156 972.529968261719 976.773559570312 970.521911621094 970.142517089844 978.671752929688 976.847106933594 990.747192382812 982.738037109375 983.60302734375 973.459899902344 978.121887207031 970.796630859375 976.463256835938 971.503601074219 980.464965820312 972.127868652344 971.235656738281 966.566284179688 960.164672851562 957.689697265625 962.156982421875 972.086120605469 977.876342773438 979.761291503906 979.923706054688 973.411804199219 966.803955078125 965.802673339844 966.382263183594 969.3701171875 980.158264160156 981.928161621094 971.459777832031 974.797729492188 979.116943359375 977.148498535156 973.1357421875 978.493591308594 986.538757324219 989.485046386719 987.64501953125 979.722717285156 973.731323242188 966.649719238281 965.510131835938 967.589782714844 966.08251953125 969.947937011719 969.350830078125 969.881591796875 966.352416992188 979.6435546875 976.292907714844 978.803283691406 978.716735839844 977.691833496094 976.883728027344 977.383728027344 996.138000488281 989.221374511719 986.77734375 986.259033203125 986.476318359375 981.316772460938 972.655517578125 982.056091308594 989.434326171875 988.516174316406 986.863525390625 980.907104492188 987.635375976562 978.854736328125 985.732971191406 986.403503417969 990.467895507812 982.014831542969 977.12060546875 983.250244140625 989.832336425781 981.6142578125 985.029846191406 983.328552246094 990.487243652344 987.874755859375 992.535095214844 991.970275878906 994.830627441406 993.961669921875 996.470397949219 993.196716308594 995.890319824219 998.516906738281 990.788330078125 994.256164550781 994.241455078125 997.760925292969 997.802856445312 1005.61883544922 1001.42810058594 1009.29479980469 1015.42083740234 1012.83331298828 1029.05126953125 1030.78796386719 1033.67553710938 1024.91296386719 1021.60601806641 1035.61596679688 1037.73474121094 1045.50476074219 1051.7275390625 1070.78479003906 1082.80224609375 1094.53955078125 1110.8974609375 1124.94311523438 1123.95690917969 1123.51171875 1122.77465820312 1130.22180175781 1144.43237304688 1148.40283203125 1156.27917480469 1146.30908203125
950.226867675781 957.955688476562 953.372863769531 958.726257324219 961.072204589844 952.928405761719 951.835571289062 952.657836914062 964.88818359375 968.784545898438 973.297485351562 973.608032226562 972.502136230469 978.254821777344 974.821899414062 975.027893066406 976.29345703125 977.598266601562 974.967895507812 972.089294433594 970.204284667969 969.101867675781 973.126525878906 963.286315917969 963.361389160156 970.4052734375 972.073364257812 970.505920410156 967.990783691406 969.992492675781 978.174682617188 973.295104980469 975.128784179688 989.815185546875 986.298950195312 980.512268066406 974.523254394531 976.107727050781 975.331359863281 974.730651855469 974.43115234375 972.910217285156 966.745361328125 961.368408203125 959.65625 960.197631835938 958.928527832031 971.643676757812 976.406005859375 978.805358886719 977.311218261719 981.018188476562 967.919067382812 971.982543945312 967.425354003906 974.113159179688 970.664855957031 975.72802734375 975.530639648438 975.205383300781 978.478698730469 974.782775878906 977.8017578125 987.308898925781 989.852661132812 984.39697265625 983.126525878906 981.659362792969 975.446960449219 971.938354492188 962.003295898438 961.364929199219 960.018188476562 967.827941894531 967.702758789062 966.819702148438 966.654907226562 971.904724121094 972.780456542969 974.071228027344 975.515747070312 971.665100097656 976.395751953125 981.471740722656 991.775756835938 983.761352539062 989.026428222656 983.236389160156 972.937255859375 977.785827636719 979.694091796875 992.690246582031 985.188537597656 982.698181152344 982.550598144531 981.151428222656 982.029418945312 978.663208007812 984.186950683594 983.625610351562 987.074340820312 981.012023925781 976.912292480469 973.378356933594 984.597717285156 993.8701171875 986.343322753906 984.468811035156 987.527038574219 996.696166992188 993.008483886719 987.306091308594 988.095031738281 982.828491210938 987.668334960938 995.615417480469 995.832214355469 996.7001953125 1000.78594970703 997.332763671875 992.398376464844 1001.3916015625 999.234375 1005.99688720703 1007.98767089844 1021.29595947266 1018.80816650391 1025.90783691406 1033.45178222656 1042.20825195312 1038.59375 1033.99548339844 1041.0478515625 1039.55590820312 1039.45141601562 1054.16223144531 1064.7392578125 1068.09338378906 1080.91809082031 1092.71130371094 1103.92333984375 1109.04907226562 1120.32983398438 1122.98962402344 1127.91125488281 1139.26184082031 1147.52563476562 1153.09753417969 1158.41674804688 1164.08715820312
943.350708007812 953.967651367188 947.151428222656 957.104675292969 953.747436523438 954.514038085938 954.307189941406 962.35009765625 963.994079589844 975.976013183594 975.641174316406 966.4931640625 974.333801269531 972.807312011719 971.519348144531 974.504699707031 979.641784667969 972.476379394531 974.840698242188 970.050903320312 961.885437011719 964.106628417969 973.449645996094 971.126525878906 973.421081542969 972.352661132812 967.191833496094 965.427185058594 967.414306640625 974.859191894531 980.053283691406 979.811706542969 975.631530761719 982.721984863281 976.198425292969 976.630065917969 979.368896484375 977.971740722656 975.131958007812 979.71875 973.468200683594 969.491882324219 963.823120117188 970.885314941406 967.632873535156 971.953308105469 964.620666503906 970.515686035156 971.028564453125 973.611694335938 981.265991210938 979.184204101562 976.685363769531 977.500732421875 978.299011230469 969.090881347656 968.355529785156 959.066162109375 974.061889648438 974.572631835938 976.819030761719 978.829772949219 985.432678222656 990.902648925781 976.638793945312 975.906555175781 983.819946289062 980.825500488281 973.411987304688 963.285400390625 961.32421875 964.780029296875 960.823608398438 969.623962402344 969.124328613281 977.595764160156 970.976623535156 972.158264160156 974.006042480469 974.142639160156 967.207153320312 976.715637207031 978.0595703125 984.733459472656 989.003112792969 984.64013671875 980.501037597656 982.2236328125 979.233276367188 972.720642089844 975.519714355469 984.897583007812 982.542419433594 980.425598144531 977.582458496094 986.923583984375 970.688720703125 971.125610351562 982.0263671875 981.965148925781 983.399963378906 972.597961425781 972.170227050781 978.071228027344 988.010803222656 983.069274902344 982.641479492188 981.909973144531 993.564697265625 999.902160644531 1001.40161132812 995.211730957031 984.25146484375 986.057006835938 984.525451660156 1001.99188232422 1002.82043457031 1003.49359130859 1004.5888671875 1005.216796875 999.863464355469 1006.46081542969 1009.06677246094 1012.8525390625 1019.56024169922 1028.82849121094 1031.12170410156 1033.79211425781 1035.73107910156 1045.216796875 1047.17028808594 1038.2890625 1045.40173339844 1053.72973632812 1055.62060546875 1061.57043457031 1076.58251953125 1070.44274902344 1083.67407226562 1087.41369628906 1097.56225585938 1108.33825683594 1116.54150390625 1122.71557617188 1118.75109863281 1139.87622070312 1153.92578125 1167.439453125 1164.77673339844 1168.39953613281
944.955200195312 950.461059570312 942.705505371094 953.157775878906 962.560791015625 952.344909667969 963.112670898438 966.281494140625 960.141357421875 972.974670410156 974.314208984375 979.538024902344 973.227661132812 977.253662109375 967.256408691406 975.176696777344 975.853149414062 977.769592285156 979.77392578125 977.588806152344 976.034790039062 975.222717285156 964.514953613281 969.841003417969 977.881042480469 974.84716796875 981.050659179688 967.162963867188 970.070251464844 972.647827148438 977.214721679688 980.195190429688 977.48876953125 974.395690917969 978.284362792969 974.196960449219 974.05126953125 971.582214355469 974.568298339844 976.329040527344 968.193969726562 973.945129394531 971.727661132812 971.040649414062 967.942443847656 962.440063476562 965.56298828125 958.575622558594 962.783447265625 969.005004882812 971.493896484375 971.572998046875 969.194274902344 976.622863769531 973.847290039062 967.531860351562 967.750549316406 974.151062011719 971.259216308594 980.594482421875 979.054809570312 980.583679199219 981.96630859375 978.255187988281 976.506103515625 979.117980957031 966.078979492188 969.49560546875 953.71875 953.115173339844 957.350891113281 962.670715332031 969.062561035156 974.020385742188 980.017395019531 985.66943359375 968.409301757812 974.853454589844 972.655090332031 982.570007324219 972.627990722656 976.989624023438 980.708312988281 983.777709960938 981.857543945312 981.29296875 984.406982421875 967.255493164062 975.893371582031 971.087646484375 972.817138671875 977.856079101562 970.714660644531 970.291625976562 978.339050292969 966.710815429688 967.043518066406 973.848449707031 972.306762695312 984.784545898438 980.762939453125 974.009094238281 976.646911621094 978.96630859375 984.484802246094 986.057495117188 983.557250976562 991.938110351562 991.461303710938 993.951354980469 999.9609375 991.583801269531 989.827331542969 994.131896972656 998.717102050781 1002.00714111328 1005.77789306641 1010.30499267578 1006.7392578125 995.700134277344 1000.66094970703 1007.794921875 1006.9765625 1016.70733642578 1022.93774414062 1032.08142089844 1038.59851074219 1038.283203125 1048.34375 1052.70739746094 1051.86108398438 1050.25842285156 1049.65087890625 1059.58081054688 1059.95642089844 1073.10095214844 1081.83862304688 1081.75146484375 1083.05444335938 1086.28686523438 1102.67736816406 1109.283203125 1108.35595703125 1115.57690429688 1129.56799316406 1141.42053222656 1155.91821289062 1174.19396972656 1162.50048828125 1169.71923828125
942.120483398438 944.784851074219 952.265869140625 960.691650390625 962.15673828125 958.894165039062 962.087097167969 966.820617675781 963.835021972656 967.882263183594 971.560607910156 969.205505371094 974.841125488281 980.175659179688 974.146667480469 978.505493164062 978.525085449219 977.915222167969 978.846435546875 972.19921875 980.113342285156 972.305908203125 971.495300292969 972.528869628906 967.7373046875 973.993957519531 969.738525390625 959.137878417969 967.103637695312 972.078674316406 977.714721679688 982.569274902344 977.918151855469 972.5888671875 975.300415039062 961.217590332031 964.263427734375 974.722473144531 974.34033203125 974.478637695312 969.1640625 970.032897949219 965.415710449219 962.267395019531 970.832824707031 961.0927734375 963.569519042969 962.674865722656 974.094604492188 966.057189941406 965.726684570312 968.116516113281 965.629272460938 968.250061035156 964.27197265625 951.722045898438 973.403686523438 977.876708984375 970.872863769531 979.914733886719 978.70556640625 976.198791503906 971.087646484375 979.122009277344 970.884399414062 967.088500976562 966.367309570312 959.668212890625 966.19287109375 951.758972167969 961.977966308594 967.817932128906 963.836975097656 965.498291015625 972.787231445312 981.82470703125 973.980163574219 969.141662597656 969.023376464844 971.186767578125 974.753173828125 971.081359863281 966.4638671875 983.340454101562 981.340148925781 984.953491210938 975.012634277344 964.720153808594 968.931640625 979.452026367188 979.806762695312 978.185485839844 976.145690917969 968.681091308594 972.878540039062 968.578735351562 971.572937011719 977.516784667969 978.081420898438 986.842041015625 985.13916015625 972.472290039062 980.999328613281 984.826477050781 987.997924804688 985.035034179688 982.4736328125 993.667114257812 1002.67309570312 998.347106933594 998.328735351562 995.81787109375 1000.58599853516 1008.19665527344 1010.87866210938 1010.89459228516 1010.44781494141 1014.25830078125 1013.47888183594 1004.49542236328 1005.86151123047 1015.27362060547 1013.51129150391 1019.33801269531 1016.88415527344 1028.94494628906 1039.73278808594 1042.5986328125 1045.58325195312 1051.685546875 1055.12255859375 1053.60986328125 1055.28515625 1058.76599121094 1065.04797363281 1070.6962890625 1072.69482421875 1079.15222167969 1085.71850585938 1093.17272949219 1104.27770996094 1108.72302246094 1103.9228515625 1113.46960449219 1127.22204589844 1141.08618164062 1147.13562011719 1156.37817382812 1161.53552246094 1167.23474121094
948.268615722656 953.093444824219 955.146240234375 962.821594238281 960.073608398438 963.039978027344 969.973876953125 974.039794921875 968.517700195312 970.024658203125 972.542053222656 975.152954101562 977.599548339844 972.984924316406 965.232299804688 972.09912109375 979.35107421875 985.655151367188 979.569091796875 973.156066894531 967.895324707031 962.732116699219 967.970825195312 967.645202636719 964.804748535156 969.825622558594 968.42724609375 958.048217773438 974.57177734375 970.739074707031 969.074584960938 968.153076171875 973.9970703125 976.979248046875 975.476013183594 962.522155761719 962.858703613281 970.135498046875 972.10498046875 975.7880859375 978.783630371094 973.543212890625 962.233215332031 958.636840820312 962.817260742188 965.922058105469 963.130676269531 964.403747558594 974.508361816406 972.791381835938 964.483520507812 965.384582519531 970.07958984375 965.443420410156 960.463562011719 957.893432617188 971.086486816406 967.025756835938 974.864379882812 984.359802246094 984.992858886719 978.587646484375 974.5732421875 972.590698242188 969.196960449219 969.762878417969 968.650512695312 964.311950683594 968.261108398438 957.683532714844 953.379089355469 963.132934570312 968.411193847656 964.401672363281 975.309020996094 976.647094726562 976.626831054688 974.903015136719 963.551879882812 962.10986328125 972.228271484375 972.160705566406 970.337036132812 976.58740234375 968.656188964844 970.172485351562 970.7958984375 963.275024414062 967.593994140625 974.784851074219 979.988403320312 972.432067871094 968.410949707031 963.196533203125 974.077575683594 969.729064941406 981.035888671875 974.673583984375 979.466796875 981.738647460938 976.487121582031 973.802307128906 978.797973632812 991.992309570312 991.165161132812 992.3564453125 997.149780273438 1001.11346435547 1005.78753662109 999.515930175781 995.120239257812 1001.21514892578 1001.97973632812 1008.74200439453 1013.59533691406 1018.83074951172 1013.69573974609 1014.62225341797 1005.53656005859 1007.37976074219 1009.66510009766 1016.78326416016 1021.97265625 1020.21697998047 1019.12860107422 1030.56762695312 1040.79174804688 1046.94445800781 1050.244140625 1057.33874511719 1056.31811523438 1056.48815917969 1061.85498046875 1059.22631835938 1062.44885253906 1075.15649414062 1083.12609863281 1090.06079101562 1087.71362304688 1093.44873046875 1096.93371582031 1105.30505371094 1097.79113769531 1112.98986816406 1128.71948242188 1133.98156738281 1143.98779296875 1152.09509277344 1153.64025878906 1171.0576171875
955.238891601562 958.136169433594 963.197387695312 961.994567871094 956.934509277344 964.380615234375 966.977111816406 973.276611328125 971.996276855469 977.076904296875 967.669311523438 967.882141113281 973.068664550781 974.0166015625 967.49169921875 969.431945800781 981.231628417969 984.012329101562 982.925476074219 976.284118652344 972.327758789062 966.397766113281 964.808898925781 960.47802734375 962.147827148438 963.71875 969.935119628906 964.996276855469 966.448181152344 967.286437988281 964.317810058594 970.518188476562 977.264465332031 982.937866210938 970.589416503906 967.205688476562 959.9462890625 964.546813964844 963.93017578125 970.462524414062 972.997375488281 975.740966796875 975.274108886719 957.372314453125 958.972961425781 969.304321289062 962.875549316406 967.304870605469 973.244506835938 972.713500976562 967.150939941406 971.146301269531 966.771850585938 973.383178710938 966.653259277344 957.033813476562 965.740661621094 977.348937988281 971.068237304688 971.634826660156 983.143676757812 977.75244140625 969.475769042969 969.346374511719 974.876831054688 972.289672851562 969.351440429688 966.724060058594 959.893737792969 948.630493164062 955.098388671875 956.59423828125 963.437683105469 972.457580566406 976.658874511719 974.745727539062 969.175415039062 969.886657714844 967.8642578125 964.942321777344 968.546264648438 972.581665039062 966.36181640625 967.3701171875 963.495727539062 974.153137207031 969.718872070312 978.446838378906 967.903076171875 971.035583496094 974.68017578125 972.001342773438 974.282409667969 973.694702148438 975.0732421875 979.028259277344 977.279479980469 979.00146484375 982.300842285156 982.361267089844 986.8916015625 985.755615234375 980.042541503906 992.518127441406 996.206787109375 996.440124511719 999.337280273438 994.326904296875 992.238525390625 997.80517578125 997.127380371094 1002.70648193359 1007.22937011719 1014.45953369141 1017.8271484375 1016.47973632812 1013.11560058594 1009.58850097656 1012.58605957031 1015.73913574219 1017.10833740234 1017.19232177734 1024.9794921875 1028.50500488281 1025.35021972656 1030.8759765625 1041.3447265625 1048.55920410156 1054.3740234375 1059.04260253906 1057.81005859375 1058.51452636719 1057.85083007812 1063.38854980469 1073.51208496094 1076.72998046875 1083.37341308594 1093.97839355469 1094.65759277344 1097.02795410156 1102.26525878906 1102.04296875 1101.89233398438 1108.81677246094 1117.66882324219 1129.861328125 1136.61853027344 1142.03564453125 1147.78149414062 1150.32055664062
958.884399414062 956.212951660156 956.708801269531 963.726989746094 965.366821289062 964.710998535156 967.568603515625 978.169982910156 973.614807128906 972.292114257812 967.844665527344 965.784423828125 975.5458984375 972.220092773438 967.940124511719 972.815979003906 976.360900878906 971.44287109375 974.835693359375 979.477172851562 973.702270507812 966.611755371094 969.95068359375 975.662353515625 960.760314941406 971.144165039062 966.131042480469 960.562377929688 962.568603515625 962.046813964844 964.078063964844 975.09130859375 978.875610351562 978.46728515625 979.06103515625 971.366455078125 973.503234863281 966.723388671875 968.011657714844 961.698974609375 964.33251953125 975.415405273438 975.268005371094 959.150024414062 960.953125 965.901000976562 962.040222167969 967.057495117188 968.554504394531 976.791931152344 976.79931640625 970.052124023438 972.865112304688 975.269104003906 967.31591796875 963.7333984375 966.711730957031 974.80419921875 975.806701660156 971.107177734375 973.083740234375 973.288452148438 970.361694335938 968.537902832031 972.138488769531 967.383178710938 975.424011230469 966.167175292969 965.938171386719 959.366027832031 957.615173339844 964.489379882812 975.203796386719 976.536010742188 976.763000488281 973.68505859375 970.741088867188 979.874084472656 967.78173828125 966.80224609375 966.623229980469 970.175842285156 973.703308105469 967.089538574219 976.301879882812 968.506530761719 969.882568359375 975.689575195312 965.236755371094 970.699462890625 970.985900878906 977.868469238281 976.700866699219 974.740600585938 973.990844726562 985.578857421875 982.246704101562 983.129272460938 977.986389160156 980.619079589844 993.547729492188 993.40380859375 992.74560546875 990.430358886719 992.869567871094 998.685974121094 1000.83624267578 1000.92260742188 989.131286621094 985.587280273438 994.428771972656 991.806945800781 1003.80505371094 1012.01342773438 1008.18060302734 1008.82165527344 1015.10577392578 1013.53326416016 1014.31408691406 1017.77740478516 1016.24206542969 1013.69439697266 1019.33276367188 1033.42028808594 1030.74694824219 1036.29223632812 1045.5791015625 1049.23315429688 1048.40942382812 1050.71423339844 1062.26342773438 1061.45153808594 1073.45654296875 1069.39074707031 1079.087890625 1081.1279296875 1091.25756835938 1092.65881347656 1102.20471191406 1094.75415039062 1094.65563964844 1104.69982910156 1106.22509765625 1109.73278808594 1118.61987304688 1121.34631347656 1127.23901367188 1125.57202148438 1137.95056152344 1140.873046875
