NCOLS 150
NROWS 37
XLLCORNER 7394249
YLLCORNER 4843769
CELLSIZE 30
NODATA_VALUE -9999
989.672302246094 993.993774414062 1000.77532958984 1009.27038574219 999.940124511719 1005.60272216797 1009.33856201172 1006.76202392578 1009.73266601562 1006.40765380859 1013.74090576172 1005.36322021484 1006.40802001953 1008.29339599609 1011.53265380859 1017.79064941406 1008.76818847656 1018.70684814453 1023.44903564453 1023.76055908203 1018.91345214844 1019.57427978516 1020.31848144531 1025.39929199219 1018.22344970703 1023.29357910156 1024.19067382812 1025.62561035156 1027.70959472656 1025.33386230469 1026.61791992188 1020.51336669922 1025.59704589844 1025.68786621094 1023.11029052734 1017.99670410156 1033.61071777344 1028.44067382812 1024.4951171875 1020.17950439453 1015.99615478516 1006.95629882812 1010.22869873047 1005.50122070312 1007.74682617188 1000.53002929688 1003.76867675781 986.927917480469 989.476745605469 978.570434570312 974.094116210938 980.900268554688 975.807922363281 970.129577636719 976.642333984375 967.062316894531 961.608154296875 961.152648925781 963.553100585938 964.348388671875 961.30419921875 968.731384277344 962.496215820312 961.049377441406 943.49462890625 944.157470703125 943.667541503906 945.365966796875 950.26953125 950.219421386719 945.846801757812 945.184936523438 951.177612304688 960.719543457031 957.432006835938 968.776306152344 978.186462402344 984.705505371094 989.041870117188 997.942321777344 1003.30572509766 1007.11755371094 999.243469238281 993.81884765625 987.38525390625 984.9580078125 976.336730957031 971.81982421875 954.343505859375 946.107788085938 931.675598144531 926.438415527344 921.195739746094 911.069152832031 906.614685058594 907.697998046875 905.637573242188 896.209777832031 897.095031738281 891.688903808594 892.489501953125 883.719909667969 884.057556152344 886.304931640625 878.084533691406 871.897155761719 877.488037109375 883.712158203125 871.465270996094 869.503051757812 877.993530273438 871.491638183594 883.267761230469 888.439270019531 884.200500488281 890.757385253906 903.940612792969 904.633117675781 912.524719238281 921.778686523438 924.824890136719 937.511474609375 941.261901855469 945.588806152344 948.203918457031 954.803894042969 962.835205078125 972.327270507812 979.694519042969 986.189025878906 994.662963867188 1005.54809570312 1007.62414550781 1014.48651123047 1023.10064697266 1036.53344726562 1050.05981445312 1059.044921875 1072.08044433594 1087.56311035156 1096.33386230469 1110.67041015625 1117.48217773438 1112.92077636719 1108.99157714844 1101.23034667969 1089.818359375 1076.73364257812 1075.20947265625 1063.00378417969
983.268188476562 982.813903808594 991.654968261719 1006.55047607422 1009.67169189453 1002.73071289062 1009.56353759766 1009.27990722656 1007.93603515625 1004.91473388672 1005.72094726562 1010.99499511719 1003.17614746094 1002.03088378906 1011.74304199219 1018.15057373047 1010.32934570312 1021.34094238281 1013.49957275391 1021.24353027344 1019.8837890625 1026.42041015625 1020.50366210938 1025.75524902344 1026.90832519531 1023.44482421875 1022.84210205078 1014.955078125 1016.23944091797 1010.32513427734 1019.31579589844 1019.01263427734 1009.18249511719 1018.06359863281 1023.65405273438 1024.60095214844 1028.484375 1021.02709960938 1015.21618652344 1017.24871826172 1016.31707763672 1016.85180664062 1010.86114501953 1010.95166015625 1008.57562255859 1000.53100585938 1002.35797119141 1002.52783203125 990.653503417969 983.176086425781 981.604797363281 979.988464355469 975.248657226562 982.180236816406 981.368347167969 972.447875976562 969.69140625 967.099548339844 972.040588378906 971.290283203125 964.725952148438 969.548034667969 968.365295410156 965.462951660156 955.242431640625 953.644775390625 954.660522460938 958.71728515625 963.830810546875 958.647338867188 951.965637207031 948.652648925781 956.405090332031 960.777038574219 970.688781738281 973.638061523438 983.514221191406 989.311767578125 1000.22076416016 998.095031738281 1013.33129882812 1014.07507324219 1004.20648193359 996.639526367188 992.409362792969 976.949523925781 971.945678710938 958.419189453125 957.546569824219 943.642883300781 934.326354980469 932.481262207031 923.341430664062 912.969848632812 915.853332519531 904.413146972656 902.825744628906 902.401794433594 905.606689453125 903.440246582031 900.649536132812 886.705871582031 878.011535644531 873.218994140625 871.963256835938 873.316955566406 886.562561035156 888.119384765625 871.419189453125 871.944580078125 873.158386230469 878.804382324219 877.864929199219 882.191162109375 889.187683105469 896.09814453125 906.388366699219 911.028137207031 909.231750488281 919.384704589844 930.252258300781 935.482177734375 944.689086914062 950.954650878906 956.785278320312 956.340881347656 955.119079589844 966.85107421875 976.256774902344 989.944763183594 1003.24853515625 1006.21966552734 1011.41534423828 1016.04528808594 1026.12377929688 1045.13842773438 1052.197265625 1063.28344726562 1070.48352050781 1088.05126953125 1100.83557128906 1105.67761230469 1112.59704589844 1112.14599609375 1118.74743652344 1112.10717773438 1102.115234375 1092.4140625 1082.65905761719 1076.69738769531
981.258117675781 984.811767578125 993.843322753906 1002.37481689453 1007.49285888672 1013.62628173828 1007.68078613281 1006.87939453125 997.730285644531 1009.27844238281 1009.52270507812 1007.31378173828 1010.88409423828 1005.03399658203 1001.82366943359 1002.29528808594 1013.32470703125 1015.54992675781 1012.37951660156 1011.14447021484 1022.96765136719 1022.95129394531 1018.17639160156 1013.51531982422 1016.35650634766 1019.53472900391 1015.86920166016 1011.27270507812 1011.04888916016 1008.55261230469 1014.74597167969 1019.88836669922 1020.50396728516 1021.95263671875 1026.65466308594 1030.07507324219 1030.70922851562 1017.36572265625 1021.5234375 1016.05316162109 1011.3251953125 1021.42767333984 1012.58465576172 1016.68072509766 1011.71124267578 1000.95422363281 996.38037109375 993.583740234375 990.883850097656 977.274291992188 981.203857421875 987.608154296875 983.562683105469 985.695617675781 989.614868164062 979.976135253906 969.841186523438 970.697937011719 981.297180175781 980.731750488281 974.029235839844 975.248352050781 975.259643554688 969.772644042969 967.574462890625 965.107543945312 962.140380859375 960.918334960938 959.39990234375 971.989135742188 960.96533203125 958.411682128906 949.42236328125 969.291870117188 970.021545410156 980.86083984375 990.668334960938 1001.40759277344 1000.72796630859 1009.09704589844 1013.74102783203 1009.43414306641 1022.07403564453 1008.77618408203 994.579956054688 980.324829101562 970.313415527344 952.210632324219 949.021484375 935.81103515625 930.934387207031 938.201171875 928.994873046875 921.260803222656 914.531127929688 913.636291503906 914.178955078125 902.363952636719 912.683471679688 912.277160644531 905.127319335938 888.766052246094 884.124145507812 887.546752929688 885.871459960938 886.434204101562 885.79931640625 890.277465820312 877.382934570312 871.807250976562 865.765075683594 875.999267578125 875.460632324219 887.638671875 889.404052734375 900.830627441406 900.503234863281 913.801208496094 917.146911621094 926.470336914062 932.099731445312 932.018310546875 942.998901367188 951.359802246094 953.363952636719 947.867858886719 953.672973632812 959.500427246094 970.531433105469 979.792846679688 997.592590332031 1016.16534423828 1016.69018554688 1019.7587890625 1033.53234863281 1048.23071289062 1057.5185546875 1064.17626953125 1074.36926269531 1083.87341308594 1096.13818359375 1103.42956542969 1121.06433105469 1126.11413574219 1127.42687988281 1117.64294433594 1111.76293945312 1105.83483886719 1094.48840332031 1086.18798828125
976.156066894531 978.713623046875 993.198791503906 997.15087890625 1003.16143798828 1005.33984375 1008.44842529297 1010.45422363281 1011.67987060547 1003.62750244141 1010.48895263672 1004.25799560547 1002.71661376953 998.196228027344 1001.21038818359 999.086853027344 1001.47192382812 1016.08477783203 1024.474609375 1025.12341308594 1028.31762695312 1026.30114746094 1016.96813964844 1015.07855224609 1013.59906005859 1011.71429443359 1012.13079833984 1010.72155761719 1001.66577148438 1008.30114746094 1017.73156738281 1024.20056152344 1022.32897949219 1024.0068359375 1019.61053466797 1015.24548339844 1017.673828125 1024.24755859375 1020.72039794922 1015.37567138672 1008.95770263672 1019.39794921875 1012.86791992188 1005.72088623047 1002.21032714844 997.498779296875 989.411926269531 993.321960449219 996.120544433594 987.421447753906 991.41943359375 1001.69195556641 995.91748046875 988.715759277344 991.130920410156 991.565307617188 990.917785644531 984.062377929688 993.405883789062 984.239440917969 979.014892578125 985.121337890625 983.792114257812 976.886474609375 964.75732421875 977.045227050781 972.811157226562 974.572509765625 969.133605957031 969.719055175781 973.583374023438 965.203674316406 962.836486816406 967.087829589844 968.556213378906 979.341796875 996.863952636719 1007.12683105469 1016.26910400391 1013.35424804688 1015.70245361328 1012.83709716797 1017.16583251953 1008.16876220703 989.014770507812 984.967712402344 966.9521484375 950.055480957031 937.937194824219 927.283752441406 927.690979003906 940.327270507812 929.056396484375 930.815246582031 928.626403808594 924.887023925781 912.060180664062 916.620483398438 927.271240234375 917.687133789062 910.015930175781 893.861511230469 887.017761230469 889.965209960938 888.192810058594 892.01025390625 889.477416992188 890.125427246094 887.097778320312 881.867065429688 883.00341796875 882.384216308594 886.091552734375 888.857299804688 894.466491699219 907.287048339844 909.474670410156 921.502136230469 926.85546875 925.559753417969 925.43017578125 927.953735351562 931.824768066406 941.841125488281 947.546508789062 948.177185058594 959.705871582031 963.096740722656 976.023681640625 980.95263671875 995.649963378906 1006.62225341797 1012.09338378906 1027.20239257812 1045.99462890625 1051.84265136719 1059.78820800781 1066.08728027344 1075.91564941406 1085.87731933594 1108.09851074219 1123.59851074219 1135.95349121094 1138.90026855469 1139.31286621094 1130.20275878906 1117.24841308594 1113.75061035156 1107.38671875 1098.03332519531
982.405578613281 980.163330078125 985.947143554688 1003.29382324219 1004.79998779297 1005.48828125 1010.94989013672 1016.94793701172 1018.75317382812 1003.55529785156 1000.79711914062 998.22509765625 999.779052734375 992.144104003906 1005.94927978516 998.766174316406 1008.86254882812 1016.68444824219 1021.39709472656 1015.66748046875 1015.03424072266 1015.92828369141 1016.87475585938 1013.68035888672 1002.37371826172 1006.75769042969 1004.16204833984 999.422729492188 1002.44567871094 999.282104492188 1015.00189208984 1020.59887695312 1020.07092285156 1018.17199707031 1017.17657470703 1019.74963378906 1015.88696289062 1023.33221435547 1016.01177978516 1021.55944824219 1016.58343505859 1017.36578369141 1008.63763427734 1003.23236083984 996.440979003906 997.506286621094 992.430114746094 996.063415527344 997.907287597656 1001.15563964844 1000.37524414062 1005.62579345703 1001.38641357422 984.918518066406 990.384094238281 991.531188964844 1002.47497558594 1002.5185546875 996.541076660156 992.769958496094 981.178588867188 991.787170410156 990.646606445312 987.375244140625 979.6953125 983.406860351562 981.289367675781 978.939208984375 977.673217773438 976.36962890625 970.02099609375 965.856994628906 976.927856445312 974.335815429688 976.327087402344 983.573608398438 997.85986328125 1017.25958251953 1020.69451904297 1015.16094970703 1010.93060302734 1014.96771240234 1017.18359375 1004.42401123047 989.575866699219 979.885131835938 964.601501464844 955.08349609375 937.652587890625 924.353271484375 928.144104003906 929.711059570312 918.950012207031 929.712524414062 923.512451171875 918.038879394531 911.35595703125 910.457580566406 909.955017089844 910.086975097656 900.975402832031 900.110046386719 894.970642089844 894.013977050781 889.489196777344 887.846313476562 896.545471191406 897.806518554688 896.235290527344 893.665100097656 886.282775878906 882.878234863281 895.590637207031 899.786071777344 900.097412109375 904.121643066406 911.947631835938 931.113220214844 926.475158691406 929.103149414062 929.734924316406 937.806274414062 936.348571777344 942.929443359375 944.721801757812 956.567993164062 965.290222167969 974.02783203125 975.509155273438 981.22900390625 990.241516113281 1004.74078369141 1018.88586425781 1033.61254882812 1048.58935546875 1051.01293945312 1062.69750976562 1069.37097167969 1093.49279785156 1094.22106933594 1105.73950195312 1121.5009765625 1131.70971679688 1141.69873046875 1139.49865722656 1137.16235351562 1130.92687988281 1126.08825683594 1116.46325683594 1109.87658691406
982.170654296875 989.304504394531 988.747436523438 1002.16156005859 1005.60168457031 1008.50952148438 1002.66772460938 1010.23754882812 1005.43493652344 1002.66033935547 994.799011230469 995.011779785156 995.847229003906 993.153259277344 1002.49652099609 1012.22283935547 1006.95007324219 1012.28979492188 1017.19720458984 1012.19952392578 1001.33312988281 1006.55938720703 1006.10815429688 1012.21026611328 1013.00836181641 1008.74658203125 1002.50872802734 1002.13128662109 1005.1865234375 999.615844726562 1006.52661132812 1011.11029052734 1021.27471923828 1020.10626220703 1019.99407958984 1020.50152587891 1023.640625 1022.30169677734 1019.65148925781 1011.97546386719 1008.50231933594 1007.17309570312 1006.30676269531 1001.22564697266 1004.93896484375 1003.94866943359 998.508178710938 997.964477539062 1003.44006347656 995.251220703125 998.405944824219 1004.89715576172 1002.93713378906 998.640808105469 992.225769042969 993.976867675781 1001.92687988281 1000.87469482422 1003.75463867188 1001.02392578125 993.563659667969 998.263122558594 987.736999511719 994.18505859375 997.833068847656 997.767456054688 988.961486816406 983.503051757812 986.409545898438 982.397338867188 974.424987792969 974.831909179688 977.032592773438 985.119262695312 990.356872558594 990.907775878906 1003.29919433594 1020.42340087891 1026.44519042969 1018.06237792969 1017.89660644531 1017.79858398438 1015.81939697266 1007.16571044922 1000.10382080078 982.925476074219 972.749633789062 950.483520507812 933.410949707031 927.194396972656 935.1640625 926.624633789062 926.211791992188 928.551452636719 926.69140625 926.787109375 917.1865234375 911.413940429688 905.962707519531 907.513000488281 911.794006347656 908.4931640625 904.451232910156 902.316711425781 906.684143066406 902.8017578125 894.492980957031 908.368347167969 911.254211425781 904.515258789062 901.460205078125 899.479248046875 908.74169921875 907.341735839844 908.533935546875 908.118103027344 911.222534179688 925.430541992188 924.3125 930.811889648438 941.991516113281 944.761352539062 948.886047363281 953.641235351562 962.767700195312 971.6640625 976.855590820312 982.972106933594 971.617309570312 980.784912109375 992.679321289062 1008.78326416016 1018.45489501953 1036.71435546875 1047.01013183594 1055.75476074219 1061.93151855469 1081.95776367188 1084.69177246094 1091.392578125 1105.03979492188 1125.18371582031 1132.74243164062 1142.33984375 1142.53857421875 1138.2666015625 1127.4453125 1133.3046875 1128.98986816406 1115.98876953125
982.639099121094 987.725646972656 989.58447265625 1003.94158935547 1000.85955810547 996.033569335938 998.636840820312 1005.71850585938 1000.04614257812 995.001281738281 991.455078125 986.2587890625 984.499938964844 984.856506347656 1004.33709716797 1004.60302734375 1010.72418212891 1010.39569091797 1013.69610595703 1007.25952148438 1007.48742675781 1011.78558349609 1010.49591064453 1004.74578857422 1008.71252441406 1006.98083496094 998.179565429688 997.572692871094 997.189208984375 1005.63177490234 1015.23083496094 1015.13232421875 1011.30914306641 1023.25750732422 1020.60009765625 1028.693359375 1026.55920410156 1022.47259521484 1023.84509277344 1022.38366699219 1006.14489746094 999.638366699219 1001.58215332031 1000.71295166016 1004.73748779297 1013.77514648438 1010.21411132812 1004.29833984375 1002.86938476562 1001.38537597656 1005.37487792969 1001.49182128906 1009.18499755859 1012.24700927734 1013.80187988281 997.752319335938 1002.04681396484 1003.62683105469 1011.18347167969 1008.69122314453 995.805114746094 986.928161621094 987.834228515625 990.897216796875 999.373840332031 995.7841796875 996.435913085938 994.874755859375 990.549987792969 983.2333984375 976.545715332031 981.819396972656 985.592407226562 997.0166015625 1005.28637695312 1004.69372558594 1014.720703125 1025.82849121094 1020.58642578125 1022.28948974609 1027.81884765625 1015.95629882812 1011.30969238281 1008.90100097656 998.075439453125 983.004760742188 980.790222167969 953.686218261719 939.946411132812 929.787963867188 938.37353515625 937.12255859375 935.577209472656 923.811645507812 933.826293945312 925.386657714844 918.326965332031 917.73974609375 907.952819824219 916.348449707031 915.8916015625 917.983215332031 922.021789550781 918.816650390625 913.067321777344 917.61474609375 918.560119628906 925.989501953125 915.399536132812 914.749206542969 908.691345214844 907.614440917969 913.687561035156 916.691711425781 916.048095703125 919.227966308594 924.444152832031 925.856079101562 930.7197265625 929.271484375 926.542053222656 942.548034667969 952.029602050781 963.928588867188 971.588439941406 983.363952636719 986.128662109375 979.495544433594 986.26220703125 989.642700195312 1002.11572265625 1010.28637695312 1031.86145019531 1032.26831054688 1048.57238769531 1061.05224609375 1078.62280273438 1079.57165527344 1089.84716796875 1093.07482910156 1111.162109375 1128.11865234375 1136.02575683594 1132.76806640625 1140.26281738281 1137.78820800781 1128.45812988281 1125.0390625 1121.02331542969 1123.00769042969
974.031005859375 985.592529296875 992.818237304688 996.6533203125 999.998291015625 994.330078125 986.4892578125 998.138366699219 992.437377929688 993.829040527344 992.026489257812 983.872985839844 989.19970703125 986.020385742188 998.025634765625 1001.72528076172 1010.16198730469 1012.22021484375 1012.49530029297 998.000793457031 1002.70294189453 1007.80682373047 1008.81140136719 1003.22821044922 1010.60125732422 1002.44158935547 998.899780273438 1003.57019042969 999.753540039062 999.456176757812 1010.17700195312 1009.87707519531 1014.36840820312 1013.88525390625 1021.84088134766 1023.34124755859 1018.08868408203 1017.61810302734 1021.49194335938 1015.40435791016 1009.53924560547 1006.58911132812 1009.36944580078 1011.37585449219 1012.22546386719 1017.41223144531 1013.95916748047 1014.25183105469 1010.40325927734 1003.48846435547 1007.38433837891 1005.35052490234 1006.05572509766 1011.39807128906 1015.02813720703 1005.76397705078 1009.66046142578 1017.93896484375 1013.69152832031 1009.51092529297 1005.26293945312 990.863159179688 986.339782714844 984.491333007812 990.549621582031 1007.8017578125 1010.21612548828 996.024536132812 998.618103027344 989.35888671875 977.032836914062 980.823852539062 1002.33020019531 1005.51104736328 1005.10998535156 1008.65942382812 1016.24572753906 1026.02368164062 1028.8193359375 1031.10656738281 1025.6826171875 1015.40283203125 1012.05090332031 1005.59204101562 994.439086914062 988.257446289062 977.575866699219 957.511352539062 940.243530273438 929.589660644531 946.453552246094 946.573974609375 937.83642578125 935.870239257812 934.096008300781 929.736938476562 928.008361816406 927.256530761719 921.90283203125 920.718139648438 925.691528320312 929.334716796875 932.991943359375 930.425476074219 928.256286621094 928.407775878906 933.238037109375 932.530090332031 928.243347167969 920.102905273438 926.930541992188 924.157165527344 928.990905761719 922.078186035156 921.458618164062 922.191040039062 924.568298339844 925.437316894531 930.882995605469 933.572814941406 936.425659179688 946.446533203125 961.395202636719 958.551208496094 963.640991210938 980.332275390625 989.131713867188 984.042358398438 986.997131347656 993.553405761719 1001.21209716797 1015.01452636719 1029.50891113281 1032.7802734375 1048.01794433594 1057.84716796875 1079.9658203125 1079.36669921875 1090.3857421875 1093.67578125 1116.77368164062 1114.45141601562 1121.59826660156 1133.51416015625 1132.7294921875 1125.38342285156 1126.07336425781 1129.08911132812 1119.06811523438 1117.82604980469
982.955261230469 985.687072753906 984.153442382812 989.107727050781 993.855651855469 988.938598632812 988.510192871094 991.756896972656 990.804931640625 985.344970703125 981.754516601562 977.712646484375 986.966430664062 995.26123046875 1001.41351318359 996.6826171875 1007.66760253906 1009.67413330078 1014.56811523438 1003.06604003906 996.957580566406 998.979797363281 996.359313964844 998.853088378906 997.362976074219 998.329772949219 995.717651367188 996.422973632812 1007.67510986328 1002.96563720703 1008.43939208984 1008.31945800781 1018.88427734375 1023.33801269531 1034.43884277344 1030.45751953125 1024.29418945312 1014.58215332031 1022.31506347656 1011.41320800781 1014.96099853516 1010.98748779297 1018.91937255859 1019.33465576172 1015.8427734375 1014.802734375 1017.24462890625 1016.20965576172 1005.68048095703 1002.97991943359 1010.34552001953 1014.26214599609 1008.99597167969 1008.98095703125 1016.44818115234 1021.05841064453 1017.28363037109 1013.43304443359 1013.49835205078 1011.85699462891 1004.81652832031 1002.47387695312 1003.65856933594 1000.45886230469 995.995483398438 1017.07446289062 1018.14672851562 1008.88696289062 997.079467773438 1000.13842773438 983.123840332031 988.4443359375 998.262756347656 1001.23980712891 1006.51226806641 1012.64916992188 1020.23107910156 1034.72229003906 1039.21264648438 1029.74877929688 1018.89288330078 1019.97631835938 1021.97033691406 1002.86041259766 992.007690429688 985.737060546875 970.435729980469 963.5361328125 953.857849121094 943.031616210938 945.344299316406 950.917358398438 945.489440917969 935.234375 934.077087402344 940.083435058594 939.2841796875 933.478271484375 938.920104980469 934.335021972656 942.746154785156 933.622985839844 937.574340820312 935.917358398438 945.594970703125 939.594665527344 949.2919921875 945.492553710938 940.287109375 933.032348632812 931.949157714844 936.191223144531 934.154968261719 927.071411132812 923.009643554688 914.967102050781 916.353881835938 930.641967773438 926.696716308594 927.858459472656 940.674499511719 945.122497558594 954.957275390625 964.597839355469 969.749389648438 988.966430664062 990.197387695312 989.784790039062 988.149353027344 996.584350585938 1007.77593994141 1012.69482421875 1025.52502441406 1039.18005371094 1055.099609375 1064.03796386719 1079.94738769531 1079.93823242188 1084.81237792969 1093.95983886719 1104.26123046875 1109.83898925781 1121.31286621094 1122.8388671875 1126.99194335938 1117.98571777344 1120.95178222656 1114.56970214844 1118.22766113281 1120.103515625
985.3134765625 990.261657714844 985.945739746094 983.132080078125 983.163635253906 990.916442871094 998.119018554688 991.797058105469 990.518981933594 990.981018066406 985.558776855469 976.7783203125 980.717468261719 985.237182617188 995.528198242188 992.376586914062 995.917419433594 1002.18804931641 1001.55426025391 1000.57751464844 991.031860351562 992.465209960938 995.683715820312 995.574096679688 1000.73687744141 990.749755859375 996.095153808594 1001.09497070312 1008.18676757812 1004.47998046875 1012.31982421875 1016.49700927734 1015.80560302734 1032.55859375 1034.90502929688 1037.23864746094 1030.55737304688 1029.56481933594 1029.57373046875 1024.27368164062 1023.85546875 1010.72937011719 1021.39562988281 1025.91967773438 1028.54309082031 1013.29888916016 1018.55096435547 1012.48229980469 1016.15447998047 1023.63818359375 1017.384765625 1008.16180419922 1009.95806884766 1010.93157958984 1015.36645507812 1023.42407226562 1015.04248046875 1017.52111816406 1018.26483154297 1020.95086669922 1008.95074462891 1007.71466064453 1006.67712402344 1008.41516113281 1003.04974365234 1022.50457763672 1010.14837646484 1018.85455322266 1007.32385253906 996.6591796875 991.697082519531 998.389770507812 996.702819824219 1001.94940185547 1006.80584716797 1018.01770019531 1026.49401855469 1032.11877441406 1034.21606445312 1044.42822265625 1030.25231933594 1024.00207519531 1017.97314453125 1009.38720703125 1004.81378173828 988.099426269531 977.0341796875 968.444702148438 955.424560546875 948.791625976562 944.614562988281 940.599304199219 936.248962402344 929.615051269531 937.099487304688 938.253662109375 950.716918945312 939.261596679688 951.679321289062 946.679748535156 945.77734375 938.194091796875 943.22607421875 956.525268554688 953.853454589844 955.1630859375 957.816650390625 949.503662109375 954.255432128906 947.690124511719 938.234130859375 935.883605957031 935.783142089844 928.612915039062 911.878173828125 904.155822753906 910.385864257812 921.266662597656 925.242614746094 927.24658203125 944.100524902344 956.896484375 966.24462890625 971.076049804688 974.535217285156 984.454772949219 986.563842773438 995.722229003906 992.160461425781 1003.27630615234 1018.25006103516 1021.30834960938 1032.06591796875 1043.57788085938 1051.3203125 1072.43298339844 1076.53698730469 1075.11401367188 1079.25415039062 1088.11511230469 1099.40075683594 1106.59912109375 1113.09228515625 1115.51000976562 1114.64794921875 1105.876953125 1108.00634765625 1104.72778320312 1111.7744140625 1111.27856445312
985.471252441406 985.351135253906 986.941223144531 987.256713867188 986.964050292969 991.810791015625 990.701293945312 987.326232910156 993.681701660156 990.881164550781 978.723815917969 971.313781738281 973.234008789062 970.308349609375 979.269348144531 985.973510742188 987.564392089844 993.789672851562 994.863708496094 987.779968261719 988.475769042969 994.115966796875 1002.40209960938 998.58056640625 990.61962890625 992.667297363281 994.142211914062 997.513549804688 997.63818359375 1009.72924804688 1016.76849365234 1024.83715820312 1033.68273925781 1036.14038085938 1040.17663574219 1034.80639648438 1034.96899414062 1031.19384765625 1042.16577148438 1046.36376953125 1034.08984375 1018.443359375 1022.18798828125 1027.08483886719 1029.45471191406 1026.61547851562 1024.88757324219 1015.35198974609 1018.68389892578 1015.80810546875 1017.4091796875 1019.03192138672 1011.48883056641 1006.5947265625 1009.32446289062 1015.12805175781 1020.59466552734 1015.71209716797 1018.34069824219 1017.29168701172 1010.84375 1012.48004150391 1014.82489013672 1012.25738525391 1016.70953369141 1018.29522705078 1018.62316894531 1021.31329345703 1019.06762695312 1009.62371826172 994.72412109375 998.816955566406 1004.65942382812 1013.06451416016 1014.23736572266 1026.8037109375 1030.14099121094 1035.78601074219 1038.81237792969 1035.04211425781 1027.18957519531 1019.5205078125 1023.43072509766 1007.02209472656 1007.14849853516 1003.49493408203 989.384643554688 972.218933105469 971.298950195312 960.663208007812 938.929382324219 935.9501953125 935.655883789062 932.276306152344 941.349914550781 942.779663085938 946.823181152344 950.990417480469 950.913818359375 955.19384765625 953.228393554688 954.735717773438 958.663146972656 960.897644042969 965.858825683594 971.121032714844 964.555786132812 956.422302246094 955.991943359375 960.456726074219 952.955932617188 945.74853515625 940.385864257812 929.005981445312 910.432983398438 909.971008300781 911.757873535156 919.524963378906 920.644836425781 926.284301757812 947.157104492188 965.134094238281 972.815490722656 977.321716308594 978.710083007812 984.21142578125 982.009521484375 988.252319335938 1005.43225097656 1019.65142822266 1023.76416015625 1033.14453125 1034.98376464844 1042.36022949219 1043.63171386719 1052.57409667969 1066.57641601562 1071.80102539062 1080.2744140625 1079.35729980469 1093.15612792969 1099.99548339844 1105.10620117188 1102.75463867188 1114.06359863281 1101.14465332031 1113.19592285156 1117.216796875 1113.98657226562 1097.63317871094
986.158752441406 980.177490234375 986.291015625 987.654907226562 984.499633789062 985.494079589844 984.071655273438 983.911987304688 983.994018554688 985.202514648438 970.5634765625 961.643127441406 967.100708007812 969.766845703125 971.384399414062 975.198608398438 983.443115234375 984.39990234375 990.044555664062 982.451110839844 987.52978515625 993.191833496094 999.462585449219 993.262878417969 997.489868164062 996.806396484375 997.2578125 1001.89337158203 997.415710449219 1009.00354003906 1016.01428222656 1023.29272460938 1035.33935546875 1038.58203125 1042.51538085938 1040.61682128906 1047.74731445312 1042.52770996094 1047.65026855469 1045.86096191406 1037.94958496094 1038.84436035156 1028.57629394531 1030.9296875 1033.0146484375 1030.89270019531 1021.60284423828 1016.28112792969 1014.47216796875 1017.06976318359 1016.58428955078 1017.52185058594 1007.45587158203 1007.94958496094 1008.39581298828 1007.16394042969 1010.32739257812 1016.01080322266 1023.83380126953 1026.04077148438 1013.47589111328 1025.54016113281 1025.66723632812 1023.00311279297 1018.51470947266 1019.11901855469 1031.63635253906 1027.00610351562 1025.41320800781 1016.1865234375 1000.5595703125 1006.14379882812 1011.20385742188 1010.00952148438 1014.51129150391 1023.06085205078 1027.21032714844 1023.009765625 1030.93286132812 1031.8623046875 1029.83776855469 1022.67578125 1027.59655761719 1016.42462158203 1009.17694091797 1005.67553710938 1001.89031982422 987.961791992188 977.046936035156 953.930236816406 944.298095703125 937.645751953125 942.238647460938 954.476745605469 945.499084472656 938.649658203125 942.81640625 959.146728515625 968.920837402344 961.5634765625 960.0888671875 967.501953125 962.799987792969 963.213317871094 963.712280273438 974.550903320312 976.411010742188 971.901489257812 970.228393554688 975.040954589844 972.620666503906 954.42529296875 941.451049804688 931.749084472656 916.395874023438 913.707092285156 914.581848144531 915.240417480469 930.726928710938 935.57421875 955.575134277344 957.691833496094 968.790771484375 979.672912597656 984.357299804688 986.674682617188 994.522216796875 990.646911621094 1014.00762939453 1035.44421386719 1032.46728515625 1041.89929199219 1037.93212890625 1041.89782714844 1039.12463378906 1047.24938964844 1059.84777832031 1063.689453125 1082.39086914062 1092.02758789062 1089.05859375 1094.35144042969 1103.54455566406 1110.13330078125 1110.69970703125 1107.64001464844 1113.71752929688 1117.49475097656 1103.70251464844 1099.81176757812
975.802490234375 976.1396484375 977.827026367188 987.635559082031 983.741027832031 978.677917480469 977.803466796875 977.375732421875 987.171020507812 976.44189453125 970.704895019531 966.297058105469 970.361450195312 971.30126953125 967.566650390625 971.300659179688 977.352111816406 978.620727539062 977.470031738281 978.243896484375 978.540832519531 983.674011230469 993.549255371094 986.381225585938 993.234619140625 996.769165039062 989.111206054688 1000.95074462891 997.835876464844 1005.40771484375 1013.24530029297 1019.61895751953 1032.38549804688 1042.88330078125 1051.12243652344 1050.82092285156 1052.79699707031 1057.3681640625 1043.47778320312 1041.64099121094 1038.88269042969 1037.6611328125 1034.08422851562 1028.90625 1031.34729003906 1041.33947753906 1026.74597167969 1018.16418457031 1012.72387695312 1011.62933349609 1016.00555419922 1020.36242675781 1013.90374755859 1010.66845703125 1013.88000488281 1007.92395019531 1010.90014648438 1019.0712890625 1024.85754394531 1017.88690185547 1018.52947998047 1018.98724365234 1017.35333251953 1028.20153808594 1014.98382568359 1026.21313476562 1037.15869140625 1035.63708496094 1018.5185546875 1018.42150878906 1012.68841552734 1015.13720703125 1009.63580322266 1016.54119873047 1018.8115234375 1017.12542724609 1016.03155517578 1025.88134765625 1021.96307373047 1025.98522949219 1017.58843994141 1025.04382324219 1027.7255859375 1025.30615234375 1011.66564941406 1003.67150878906 1005.39666748047 997.054992675781 984.251892089844 957.796875 956.484436035156 956.550598144531 959.256713867188 960.485534667969 959.932006835938 956.891723632812 957.886169433594 964.703247070312 965.824829101562 977.280944824219 965.133483886719 964.192321777344 962.342163085938 969.811096191406 974.6357421875 982.834411621094 986.035522460938 981.710510253906 980.316223144531 980.502319335938 973.280700683594 954.783813476562 941.106262207031 937.307861328125 921.600830078125 922.069396972656 924.911804199219 914.609924316406 940.071411132812 936.763854980469 959.73681640625 962.091369628906 972.393920898438 987.228942871094 987.794067382812 993.689453125 998.616577148438 1005.70971679688 1026.04284667969 1040.85852050781 1033.42211914062 1036.74829101562 1045.08825683594 1039.07482910156 1042.54797363281 1051.50244140625 1058.087890625 1069.41674804688 1081.00280761719 1083.96752929688 1084.24877929688 1086.40698242188 1098.853515625 1112.27954101562 1113.06628417969 1103.47778320312 1105.283203125 1106.0947265625 1097.11840820312 1097.46936035156
969.851745605469 973.094787597656 968.922729492188 983.582702636719 991.019714355469 976.87744140625 981.761535644531 978.777282714844 988.460083007812 987.525024414062 976.97314453125 971.368041992188 971.315307617188 968.253967285156 966.922180175781 972.212341308594 973.847595214844 978.232543945312 985.139404296875 977.559692382812 981.965576171875 990.269714355469 994.24169921875 988.232604980469 989.7353515625 997.572692871094 1004.07238769531 1005.81256103516 1010.57019042969 1010.90533447266 1016.81561279297 1024.10559082031 1025.53430175781 1037.60339355469 1043.39733886719 1043.89575195312 1050.962890625 1047.99645996094 1043.67541503906 1042.56115722656 1039.62268066406 1040.74670410156 1038.15197753906 1031.95678710938 1027.00341796875 1025.74621582031 1022.8447265625 1014.72998046875 1010.85498046875 1006.70190429688 1006.37847900391 1011.60455322266 1014.66174316406 1013.94061279297 1005.31793212891 1014.93743896484 1013.36328125 1018.31134033203 1027.09631347656 1023.17071533203 1017.55224609375 1017.66223144531 1018.73272705078 1022.71514892578 1016.89031982422 1026.0126953125 1022.46990966797 1031.68798828125 1030.58666992188 1025.794921875 1024.87829589844 1020.90447998047 1015.24548339844 1015.79742431641 1018.59991455078 1019.16046142578 1015.43994140625 1019.38128662109 1024.33898925781 1023.46575927734 1022.43646240234 1027.71264648438 1019.61883544922 1021.38140869141 1014.85186767578 1004.50671386719 992.831115722656 996.408081054688 983.681762695312 968.139038085938 959.406860351562 959.402648925781 958.22998046875 961.499084472656 958.900329589844 962.402526855469 971.913757324219 967.563232421875 973.9677734375 977.673645019531 972.106384277344 967.006286621094 965.208251953125 971.510498046875 981.071044921875 983.882080078125 983.736389160156 984.857727050781 980.10986328125 979.236938476562 972.260681152344 960.115051269531 946.880615234375 935.449523925781 930.953857421875 921.28466796875 924.284423828125 932.138488769531 941.789672851562 945.006713867188 957.526672363281 959.167907714844 974.427856445312 989.750732421875 994.568542480469 1005.57061767578 1008.91595458984 1018.83740234375 1018.24768066406 1024.93444824219 1037.57019042969 1038.83715820312 1048.08325195312 1047.23779296875 1049.99584960938 1056.47717285156 1065.27490234375 1065.86828613281 1070.31494140625 1073.59228515625 1077.74475097656 1084.59375 1090.78063964844 1100.49243164062 1096.13061523438 1097.578125 1095.02746582031 1094.68676757812 1098.8447265625 1097.88415527344
976.755920410156 972.16455078125 973.617065429688 973.864868164062 970.391784667969 968.46875 973.188293457031 981.913879394531 981.473876953125 981.889709472656 972.533386230469 975.269409179688 970.140991210938 966.16259765625 961.094848632812 967.154541015625 973.627014160156 972.282836914062 971.545043945312 974.742614746094 983.157165527344 980.06005859375 987.411865234375 990.310485839844 994.430297851562 997.135864257812 1005.96069335938 1003.0166015625 1010.21337890625 1018.19793701172 1020.11962890625 1018.13507080078 1025.85437011719 1021.16326904297 1031.90283203125 1036.67333984375 1047.66064453125 1043.59545898438 1043.72607421875 1042.13818359375 1046.02709960938 1037.35510253906 1037.25219726562 1025.97180175781 1023.80242919922 1028.36474609375 1017.20111083984 1010.46838378906 1007.43988037109 1005.17907714844 1002.93353271484 1010.70318603516 1004.23168945312 1004.88348388672 1002.96795654297 1004.99774169922 1009.47027587891 1021.98107910156 1025.45239257812 1027.12084960938 1020.09680175781 1023.36608886719 1019.53643798828 1019.93145751953 1028.92810058594 1028.67004394531 1030.595703125 1033.31774902344 1028.06945800781 1027.23083496094 1028.22644042969 1027.6376953125 1016.06909179688 1018.46978759766 1018.67279052734 1020.458984375 1009.57275390625 1019.95587158203 1029.53381347656 1017.18115234375 1023.67926025391 1024.53552246094 1022.74829101562 1018.93737792969 1018.05126953125 1006.22790527344 992.281799316406 991.171752929688 988.599853515625 979.733703613281 966.583435058594 959.771179199219 964.865905761719 970.318237304688 972.475036621094 970.781005859375 975.195251464844 973.634643554688 983.659545898438 977.4111328125 985.136047363281 975.801208496094 973.057434082031 981.453247070312 981.045043945312 973.295593261719 990.106506347656 977.793395996094 979.78857421875 970.330627441406 963.758911132812 959.178588867188 948.123840332031 932.247436523438 929.874633789062 930.563659667969 933.94287109375 935.497131347656 937.7841796875 952.740905761719 960.127685546875 965.575378417969 976.120666503906 986.768737792969 987.60107421875 1008.21655273438 1013.97216796875 1020.16198730469 1019.68951416016 1030.36791992188 1040.67370605469 1043.85986328125 1052.0888671875 1044.4091796875 1047.994140625 1060.73205566406 1065.35229492188 1073.42907714844 1080.28930664062 1073.7451171875 1078.13330078125 1081.22204589844 1082.0009765625 1089.31079101562 1086.65759277344 1091.57958984375 1091.4873046875 1094.47546386719 1088.59350585938 1085.45031738281
971.624145507812 976.122619628906 968.447875976562 965.670349121094 965.693664550781 972.848999023438 973.143432617188 975.414367675781 967.335327148438 972.268981933594 970.148315429688 974.103637695312 964.278747558594 953.091369628906 954.04345703125 964.791137695312 975.959594726562 976.683166503906 975.100280761719 971.2275390625 975.984252929688 984.647888183594 983.121765136719 986.9345703125 992.193786621094 1008.63836669922 1010.26586914062 1005.08850097656 1011.92541503906 1014.92590332031 1019.77081298828 1021.26690673828 1011.92199707031 1017.06256103516 1025.50402832031 1034.34509277344 1038.08251953125 1041.54418945312 1039.86779785156 1042.12145996094 1037.01086425781 1042.3369140625 1044.99670410156 1034.33728027344 1018.59124755859 1024.31762695312 1021.69317626953 1012.24444580078 1003.46569824219 1006.93377685547 1005.73010253906 998.980163574219 997.277038574219 995.454833984375 1005.47399902344 1000.85528564453 1005.77685546875 1020.36730957031 1025.65026855469 1017.00756835938 1017.01257324219 1011.29443359375 1014.05853271484 1024.91918945312 1033.32495117188 1029.00134277344 1026.09155273438 1023.16442871094 1030.51416015625 1023.96795654297 1025.94152832031 1024.49182128906 1018.84576416016 1019.03973388672 1019.03680419922 1021.20971679688 1018.88861083984 1028.01062011719 1025.78344726562 1016.82409667969 1028.49291992188 1025.19519042969 1019.99389648438 1016.83746337891 1015.65557861328 1004.82348632812 998.566528320312 994.709533691406 992.289855957031 983.7568359375 984.976196289062 977.086120605469 969.824157714844 971.810974121094 981.587890625 980.054992675781 982.489807128906 992.694702148438 989.374938964844 980.445678710938 984.060363769531 984.480651855469 987.463012695312 980.496765136719 976.103515625 974.665222167969 984.424987792969 983.109619140625 986.64990234375 971.338745117188 961.449401855469 954.143127441406 951.750183105469 941.538879394531 930.274597167969 938.7587890625 942.25830078125 947.215515136719 939.178100585938 955.678100585938 961.0458984375 971.516784667969 978.026306152344 992.367614746094 1009.18194580078 1015.9775390625 1021.49597167969 1031.25903320312 1035.623046875 1033.94213867188 1038.73962402344 1040.45764160156 1051.69470214844 1049.20654296875 1038.27392578125 1054.60400390625 1061.73681640625 1067.96130371094 1073.00939941406 1083.32214355469 1083.556640625 1081.46936035156 1092.19836425781 1090.25402832031 1084.05395507812 1075.56127929688 1086.08142089844 1088.24072265625 1083.29321289062 1082.76489257812
970.106628417969 970.250244140625 967.185546875 961.959899902344 958.072021484375 968.914733886719 975.858032226562 973.84130859375 967.353149414062 963.688720703125 965.360046386719 965.314575195312 956.8369140625 957.5947265625 959.914916992188 962.978271484375 966.080749511719 970.303771972656 970.180908203125 971.963073730469 973.628784179688 973.430786132812 974.456237792969 978.643310546875 980.492797851562 992.002136230469 1001.31463623047 1003.20343017578 1004.97204589844 1017.4296875 1016.80499267578 1014.23541259766 1006.33831787109 1021.9892578125 1026.57690429688 1024.89453125 1036.13122558594 1031.97937011719 1035.80017089844 1032.60913085938 1025.27294921875 1032.44555664062 1027.95336914062 1026.14208984375 1025.46643066406 1020.99951171875 1016.42407226562 1012.63427734375 1006.38354492188 1004.07818603516 1005.63232421875 1001.25018310547 1002.83935546875 1001.84405517578 1003.65203857422 1001.22888183594 1000.91906738281 1006.09320068359 1012.84143066406 1013.54205322266 1020.87469482422 1021.34722900391 1025.14465332031 1027.10925292969 1032.41149902344 1030.32067871094 1019.19177246094 1019.19287109375 1025.05981445312 1025.00610351562 1024.47155761719 1021.11254882812 1021.07086181641 1024.05065917969 1022.67895507812 1028.396484375 1025.82958984375 1022.92846679688 1023.88079833984 1021.48706054688 1028.80847167969 1025.2529296875 1020.4326171875 1017.31048583984 1011.75238037109 995.469543457031 1001.28704833984 996.45947265625 990.864868164062 993.219848632812 990.40185546875 990.561218261719 981.9853515625 984.128234863281 983.352172851562 988.746948242188 998.755432128906 1003.04486083984 1001.15069580078 987.035888671875 983.669677734375 983.617309570312 990.089599609375 979.341003417969 982.393981933594 979.055358886719 983.694885253906 991.361694335938 988.736022949219 974.372436523438 970.508544921875 958.649291992188 952.044921875 950.986083984375 938.424072265625 933.352172851562 944.898681640625 949.606872558594 943.69970703125 950.810180664062 973.505676269531 985.340026855469 986.749328613281 995.757629394531 1006.80578613281 1013.77276611328 1013.18634033203 1029.21545410156 1035.740234375 1044.02893066406 1048.00476074219 1046.39855957031 1050.44934082031 1052.82885742188 1055.17028808594 1053.85217285156 1057.31823730469 1057.755859375 1060.45300292969 1083.09753417969 1079.95495605469 1080.54858398438 1089.55004882812 1079.79528808594 1075.03930664062 1077.66333007812 1076.20300292969 1074.63952636719 1074.29772949219 1074.26062011719
969.007934570312 963.225402832031 968.018981933594 956.220886230469 963.109558105469 970.681945800781 973.185852050781 964.7099609375 966.774291992188 970.884399414062 973.475952148438 967.097290039062 958.348571777344 964.423278808594 964.733825683594 960.663879394531 958.623718261719 953.347717285156 965.8408203125 973.163513183594 968.820373535156 976.643005371094 975.672729492188 975.691223144531 974.098083496094 982.434875488281 996.249877929688 1001.86291503906 1001.36291503906 1000.45178222656 1005.07208251953 1009.50256347656 1012.96624755859 1013.03070068359 1021.30462646484 1035.85229492188 1035.38720703125 1033.83959960938 1032.26257324219 1025.34130859375 1021.04888916016 1026.82006835938 1032.00952148438 1024.98547363281 1025.25561523438 1014.73156738281 1009.36419677734 1004.70336914062 1004.57080078125 1005.53344726562 1000.59564208984 992.924926757812 994.922973632812 1005.69158935547 1001.36535644531 997.926635742188 1000.40502929688 1002.919921875 1003.70648193359 1017.67333984375 1030.03869628906 1029.02868652344 1027.63647460938 1028.91320800781 1033.0751953125 1029.36364746094 1017.33227539062 1020.38305664062 1022.15679931641 1027.28601074219 1030.72180175781 1026.61254882812 1014.38287353516 1022.41845703125 1023.732421875 1022.38812255859 1010.60180664062 1020.67114257812 1024.11975097656 1015.56292724609 1023.99884033203 1018.81304931641 1013.67016601562 1015.91082763672 1007.44122314453 1008.40655517578 998.637512207031 996.267700195312 988.219116210938 1003.05627441406 996.228515625 996.34130859375 1008.81188964844 1005.62451171875 1005.34637451172 1003.83776855469 1006.23083496094 1008.19641113281 991.878479003906 988.468200683594 990.197448730469 988.724243164062 990.751831054688 989.870971679688 987.972351074219 987.408508300781 988.816528320312 993.763305664062 983.761535644531 974.801818847656 972.916381835938 963.223083496094 943.822875976562 945.380187988281 947.326843261719 942.0341796875 945.754028320312 948.640502929688 956.657409667969 963.464538574219 988.857360839844 1001.45391845703 1006.36187744141 1010.70428466797 1019.04296875 1017.73553466797 1021.16064453125 1022.78704833984 1032.80651855469 1047.30920410156 1045.33325195312 1049.83154296875 1047.48693847656 1047.26086425781 1055.11584472656 1061.42687988281 1052.32604980469 1057.2666015625 1062.56579589844 1067.45300292969 1075.87377929688 1074.58715820312 1072.75268554688 1072.66003417969 1071.32995605469 1073.3935546875 1072.12719726562 1079.05444335938 1082.43310546875 1082.79077148438
968.799377441406 962.708251953125 955.067687988281 951.989990234375 965.252990722656 967.074340820312 964.780151367188 959.240783691406 948.964416503906 949.644653320312 959.651672363281 954.541564941406 954.007934570312 971.37890625 964.595703125 960.1181640625 963.161743164062 964.195434570312 961.335266113281 971.115173339844 975.796997070312 980.726379394531 973.328369140625 980.728210449219 983.793090820312 982.010925292969 982.663391113281 988.656311035156 1001.13311767578 1001.61193847656 999.978210449219 992.456237792969 1005.86041259766 1004.07678222656 1015.87487792969 1034.30212402344 1033.31921386719 1032.89953613281 1026.54772949219 1026.22082519531 1022.81915283203 1022.29064941406 1025.70910644531 1019.02124023438 1021.26806640625 1021.00256347656 1004.33923339844 997.697998046875 1000.34106445312 1000.73736572266 998.46337890625 989.232971191406 986.906066894531 1000.27551269531 998.436401367188 998.627563476562 995.741577148438 1004.39184570312 999.726257324219 1019.67730712891 1021.92199707031 1028.09790039062 1033.81701660156 1036.13330078125 1037.84643554688 1027.63781738281 1018.83355712891 1016.45153808594 1018.71051025391 1020.720703125 1021.23937988281 1021.83758544922 1022.20928955078 1018.02740478516 1008.42901611328 1011.63287353516 1014.26751708984 1012.99072265625 1021.37133789062 1008.67889404297 1014.10626220703 1014.13177490234 1011.03485107422 1010.52563476562 1008.07330322266 1013.11993408203 1001.93682861328 997.793090820312 994.195739746094 1004.64788818359 1004.58636474609 1000.37615966797 1004.51239013672 1018.54162597656 1022.15753173828 1020.78820800781 1013.81866455078 1007.16979980469 995.053039550781 991.730590820312 992.011108398438 991.480712890625 1003.58404541016 1001.21447753906 1001.48907470703 999.480773925781 999.889831542969 995.448120117188 990.458801269531 973.5478515625 962.7060546875 954.705261230469 946.509460449219 943.521179199219 941.213562011719 948.284118652344 945.775451660156 951.909057617188 964.736755371094 979.652709960938 987.785461425781 998.386901855469 1009.39331054688 1019.23822021484 1029.28759765625 1030.85961914062 1028.97253417969 1033.81787109375 1039.50085449219 1044.30322265625 1047.85668945312 1050.61437988281 1054.29541015625 1041.70690917969 1046.18713378906 1058.24572753906 1052.34460449219 1047.30932617188 1054.0595703125 1058.63464355469 1063.68933105469 1064.40197753906 1066.44921875 1079.36608886719 1081.05358886719 1082.41870117188 1083.47204589844 1090.18505859375 1090.88598632812 1087.68334960938
963.503967285156 954.346008300781 946.942687988281 948.82177734375 958.079711914062 959.077331542969 963.479370117188 951.004516601562 947.8427734375 944.265869140625 954.567749023438 959.651733398438 956.192565917969 956.626037597656 959.677978515625 957.586486816406 961.827453613281 975.390197753906 964.396911621094 965.768371582031 977.359680175781 979.809143066406 980.48193359375 978.748291015625 978.60888671875 981.952087402344 974.516540527344 989.364013671875 993.02978515625 1009.28369140625 998.075866699219 983.470153808594 994.22216796875 1008.16784667969 1011.38110351562 1020.9443359375 1022.10284423828 1030.96130371094 1027.56958007812 1019.23217773438 1011.68432617188 1014.59588623047 1015.216796875 1020.26745605469 1014.77569580078 1017.44415283203 1007.43328857422 1003.48016357422 1001.01812744141 995.687927246094 1000.1640625 986.921264648438 982.326782226562 984.836608886719 987.028625488281 990.448913574219 993.306396484375 1009.77496337891 1013.84411621094 1019.13952636719 1022.91961669922 1020.32629394531 1020.66735839844 1027.51477050781 1022.92413330078 1020.54431152344 1020.98559570312 1014.78918457031 1011.41766357422 1016.65832519531 1014.29302978516 1016.25750732422 1013.06610107422 1012.74584960938 1008.84197998047 1001.34228515625 1011.57556152344 1004.22302246094 1016.73864746094 1018.53430175781 1013.69226074219 1006.37005615234 1007.29541015625 1011.05517578125 1012.60528564453 1008.05755615234 1011.15356445312 1009.11535644531 1006.15728759766 1013.00555419922 1015.33050537109 1006.93688964844 1011.42419433594 1030.52734375 1028.85266113281 1027.32360839844 1019.37603759766 1009.05108642578 998.719970703125 992.864807128906 984.206481933594 990.939758300781 1004.98101806641 1001.83850097656 1008.54620361328 1009.09802246094 1009.85778808594 996.555419921875 987.550842285156 977.239807128906 962.469970703125 949.797790527344 946.585266113281 940.667358398438 946.30419921875 950.780883789062 950.799255371094 956.26708984375 975.476989746094 994.527282714844 992.638671875 1011.88775634766 1014.82366943359 1026.64990234375 1037.78674316406 1039.10046386719 1031.10095214844 1042.64416503906 1043.18603515625 1049.76965332031 1048.74926757812 1056.14343261719 1055.07275390625 1047.98510742188 1041.17919921875 1045.82592773438 1054.87634277344 1053.31872558594 1051.69104003906 1060.51599121094 1059.31848144531 1061.84228515625 1067.78759765625 1075.65478515625 1076.92150878906 1082.50268554688 1082.40356445312 1088.52038574219 1098.50061035156 1098.22277832031
959.067199707031 961.078796386719 945.521850585938 949.982116699219 955.570068359375 960.532592773438 953.964111328125 954.484436035156 951.426330566406 952.97900390625 947.26904296875 952.364196777344 952.497436523438 954.830810546875 956.876831054688 947.823425292969 960.971740722656 966.155395507812 966.633178710938 974.270263671875 976.468688964844 980.868408203125 980.098022460938 981.175415039062 980.457580566406 983.121398925781 985.231384277344 987.504699707031 990.172485351562 1001.16448974609 992.64794921875 985.670715332031 991.32763671875 1011.59851074219 1007.03894042969 1015.79479980469 1014.48223876953 1013.43853759766 1017.00323486328 1008.47857666016 1000.0068359375 1003.20831298828 1005.87518310547 1016.57971191406 1018.37408447266 1017.70025634766 1007.07263183594 996.393432617188 991.91064453125 995.38720703125 993.665222167969 982.338256835938 976.900329589844 976.500549316406 981.913757324219 984.666076660156 989.986999511719 999.039367675781 1011.30810546875 1017.82501220703 1022.28399658203 1015.09417724609 1030.32250976562 1028.25061035156 1027.61853027344 1019.83380126953 1021.60290527344 1019.62719726562 1016.06530761719 1017.93115234375 1013.78344726562 1005.00250244141 1011.97485351562 1006.66149902344 1005.68212890625 1002.63684082031 1004.70703125 1003.88293457031 1006.76989746094 1011.02770996094 1012.85510253906 1007.70184326172 1001.7958984375 1002.07330322266 1010.73345947266 1008.50463867188 1012.0361328125 1014.88269042969 1017.23767089844 1016.251953125 1017.69598388672 1011.52386474609 1014.12554931641 1026.78295898438 1032.4091796875 1029.767578125 1025.99548339844 1013.71411132812 1000.51641845703 992.771179199219 990.329956054688 999.330871582031 1000.57330322266 997.124816894531 1011.14440917969 1011.69921875 1012.21044921875 992.291870117188 989.830078125 969.862365722656 960.334289550781 948.905578613281 937.732360839844 939.201354980469 944.585327148438 948.072875976562 948.723449707031 959.944213867188 981.079833984375 992.778503417969 1005.62243652344 1014.90167236328 1025.13171386719 1034.40979003906 1044.05139160156 1038.53125 1037.939453125 1042.10168457031 1047.56506347656 1039.07141113281 1040.56921386719 1044.52746582031 1043.90991210938 1046.25439453125 1040.82312011719 1045.65185546875 1050.96228027344 1052.61682128906 1055.93237304688 1056.23107910156 1064.70458984375 1069.26208496094 1073.15344238281 1076.97766113281 1082.15234375 1081.14758300781 1096.46520996094 1092.271484375 1095.50427246094 1098.81921386719
958.682861328125 960.178833007812 954.483764648438 949.292297363281 954.658630371094 949.0322265625 960.983642578125 956.998413085938 960.871948242188 954.452819824219 949.696411132812 956.792297363281 958.695617675781 960.641906738281 966.077453613281 960.445617675781 965.486328125 969.889526367188 974.806579589844 978.768432617188 979.740173339844 984.239990234375 979.110290527344 981.655395507812 985.047058105469 983.071044921875 984.321899414062 980.880065917969 987.359985351562 997.699096679688 992.086730957031 995.6005859375 996.993530273438 992.740051269531 1004.03070068359 1005.72845458984 1009.34558105469 1007.81280517578 1006.51281738281 1001.46472167969 1000.44653320312 999.877502441406 1006.13708496094 1014.71295166016 1021.97711181641 1010.15289306641 1002.64996337891 994.829650878906 989.4423828125 984.142333984375 987.825744628906 988.608520507812 990.60498046875 983.067443847656 990.255676269531 988.710083007812 986.452087402344 999.510498046875 1010.67889404297 1020.01019287109 1014.66772460938 1022.2177734375 1019.48297119141 1019.36785888672 1025.21691894531 1026.72180175781 1016.095703125 1011.57348632812 1019.55426025391 1020.25860595703 1011.18481445312 1014.60919189453 1000.88073730469 994.491882324219 996.512817382812 999.38037109375 1000.14172363281 1009.08654785156 1011.48480224609 1009.28753662109 1003.89575195312 1002.61480712891 1001.97381591797 1002.24523925781 1010.60546875 1009.01495361328 1005.60675048828 1012.32263183594 1023.89044189453 1018.92138671875 1012.44970703125 1019.82885742188 1020.64135742188 1025.92211914062 1027.55969238281 1030.56689453125 1024.63488769531 1006.16223144531 1007.37707519531 999.609558105469 1002.86553955078 999.821533203125 1011.95434570312 1004.33270263672 1009.28839111328 1007.49932861328 1009.96319580078 996.082092285156 976.999633789062 970.028076171875 958.050842285156 953.359069824219 939.367858886719 948.75830078125 948.603393554688 957.908874511719 959.447692871094 972.223449707031 987.621459960938 991.176452636719 1002.79473876953 1009.63830566406 1018.45928955078 1033.8115234375 1038.6279296875 1039.8447265625 1033.49658203125 1044.97387695312 1035.60778808594 1044.15393066406 1041.20812988281 1038.92797851562 1041.50085449219 1045.49133300781 1042.49304199219 1049.29382324219 1055.14782714844 1051.98364257812 1056.01184082031 1064.87023925781 1071.5263671875 1075.61828613281 1069.79736328125 1073.99816894531 1077.71423339844 1080.75537109375 1086.90270996094 1093.0771484375 1093.17199707031 1084.62817382812
954.813293457031 952.558044433594 952.621032714844 951.672729492188 950.124938964844 955.821838378906 957.170104980469 959.786193847656 961.376708984375 952.752197265625 962.056030273438 962.693359375 970.855102539062 966.363586425781 961.3916015625 955.974670410156 963.204345703125 973.32080078125 979.74609375 986.756652832031 988.575561523438 986.183288574219 981.681213378906 983.166809082031 988.322998046875 989.003295898438 980.359191894531 988.440063476562 986.612426757812 991.502624511719 990.468444824219 996.212036132812 1000.07244873047 995.580017089844 991.507202148438 993.262878417969 1003.18707275391 998.201293945312 998.160583496094 985.044372558594 991.68408203125 997.408325195312 1004.88909912109 1010.81787109375 1012.83715820312 1002.45629882812 995.016845703125 993.089538574219 991.602416992188 999.702209472656 998.083679199219 995.140930175781 990.433044433594 990.410827636719 985.724670410156 987.032531738281 987.198303222656 998.728698730469 1005.05645751953 1017.13201904297 1014.45532226562 1022.01361083984 1019.12036132812 1016.14642333984 1020.12908935547 1017.44940185547 1015.07684326172 1011.15002441406 1008.07281494141 1007.8349609375 1004.01251220703 1005.74304199219 1002.36517333984 996.921081542969 996.7021484375 1001.66497802734 997.340087890625 998.602600097656 1000.59698486328 1006.90393066406 1001.77313232422 996.895812988281 999.856689453125 1012.29388427734 1009.22192382812 1007.89599609375 1006.81457519531 1012.30017089844 1026.79260253906 1021.03070068359 1017.02325439453 1018.33026123047 1019.98760986328 1025.69384765625 1030.68859863281 1021.74755859375 1017.44146728516 1008.11444091797 1003.72052001953 1007.56097412109 1003.35150146484 998.426574707031 998.260803222656 1006.01129150391 996.552001953125 1000.69573974609 994.812316894531 990.711791992188 980.092956542969 974.774719238281 966.454833984375 944.837707519531 943.343139648438 956.792419433594 953.603820800781 961.809936523438 969.450073242188 982.516052246094 989.512939453125 996.86181640625 1000.53247070312 1006.17749023438 1014.74621582031 1029.64343261719 1039.9765625 1037.28186035156 1038.84606933594 1037.90905761719 1038.09790039062 1042.90209960938 1042.63110351562 1035.95971679688 1046.50830078125 1048.9326171875 1039.69812011719 1046.94421386719 1060.29943847656 1055.38330078125 1062.20715332031 1074.189453125 1071.17004394531 1064.47485351562 1070.73522949219 1072.51159667969 1078.408203125 1091.13415527344 1092.53991699219 1093.79174804688 1091.12219238281 1090.96081542969
954.702575683594 952.229187011719 955.207153320312 958.403564453125 955.352111816406 965.621948242188 962.648193359375 965.528991699219 962.492980957031 963.8876953125 970.282043457031 976.114379882812 973.008911132812 975.947570800781 968.925903320312 966.536682128906 966.411437988281 983.1904296875 991.181335449219 982.203063964844 980.542358398438 979.826293945312 976.181762695312 989.607482910156 988.413452148438 995.073608398438 986.094360351562 983.669372558594 979.170715332031 984.945861816406 993.15771484375 995.989807128906 1000.18035888672 999.945007324219 993.685607910156 987.609436035156 986.684143066406 988.193298339844 996.714416503906 988.577087402344 987.71435546875 995.276672363281 997.136962890625 1001.34039306641 1007.46496582031 1010.37371826172 998.129516601562 992.301208496094 985.33056640625 983.394470214844 988.176940917969 991.669555664062 990.641174316406 990.375549316406 987.052368164062 991.28076171875 984.371704101562 994.060424804688 999.260620117188 1009.51129150391 1011.76794433594 1015.77124023438 1012.79010009766 1011.01947021484 1003.00213623047 1004.13244628906 1008.70227050781 1005.83099365234 998.264221191406 1000.53399658203 996.856323242188 1001.94464111328 1002.34454345703 996.217529296875 997.601318359375 1001.11199951172 1002.13269042969 995.099182128906 995.399597167969 991.610778808594 997.78515625 1002.10314941406 995.654968261719 1000.58746337891 1007.57049560547 1005.34124755859 1012.09649658203 1013.89544677734 1018.80841064453 1013.603515625 1023.79693603516 1024.27600097656 1028.02453613281 1031.74304199219 1026.59460449219 1021.43768310547 1016.97705078125 1009.00054931641 1000.58697509766 992.932006835938 989.591125488281 1001.32824707031 992.437805175781 995.2333984375 988.513854980469 985.764221191406 985.015014648438 985.147705078125 977.425720214844 968.425842285156 957.994201660156 957.305053710938 954.982055664062 963.349426269531 960.360961914062 963.948181152344 975.866516113281 982.860961914062 986.884155273438 993.959228515625 999.487976074219 1009.75677490234 1020.32403564453 1020.15887451172 1034.89892578125 1043.47399902344 1037.83959960938 1042.99987792969 1044.72253417969 1041.59973144531 1043.63842773438 1037.02490234375 1042.3369140625 1043.28454589844 1041.61682128906 1053.791015625 1064.44372558594 1059.5947265625 1062.9609375 1058.83264160156 1068.80700683594 1078.11743164062 1078.66345214844 1078.40515136719 1084.26086425781 1091.08251953125 1091.77478027344 1097.20654296875 1093.56506347656 1105.1787109375
946.183654785156 948.660217285156 953.605651855469 955.574523925781 960.608764648438 958.6357421875 956.503356933594 961.948608398438 961.750793457031 959.223510742188 973.351379394531 980.908813476562 979.26953125 974.713317871094 977.385986328125 977.26220703125 972.019836425781 985.613159179688 986.752685546875 984.501953125 985.398742675781 977.920959472656 980.797180175781 996.190368652344 994.747619628906 999.235717773438 989.685180664062 989.829223632812 987.393737792969 979.419189453125 993.049621582031 988.103149414062 999.034790039062 1004.84417724609 1000.33685302734 994.160888671875 979.588684082031 988.915588378906 997.325622558594 991.109619140625 986.1328125 989.737365722656 991.6005859375 989.759033203125 997.440490722656 996.815551757812 996.658996582031 994.935913085938 979.568359375 976.641906738281 981.061157226562 985.760986328125 989.467956542969 987.928894042969 992.984924316406 985.553466796875 989.570861816406 991.214782714844 999.974060058594 1007.71832275391 1005.38336181641 1013.34320068359 1011.49682617188 1008.73773193359 1007.81268310547 1001.59442138672 1001.11846923828 998.200134277344 994.615844726562 1003.12817382812 997.169250488281 1004.7900390625 998.393981933594 993.681030273438 997.1943359375 999.238342285156 1000.53002929688 999.523986816406 987.423156738281 996.897155761719 996.832885742188 995.335021972656 994.973876953125 998.175231933594 1002.19049072266 1005.45538330078 1011.33178710938 1009.11053466797 1020.14440917969 1014.85162353516 1028.04016113281 1033.2333984375 1022.98889160156 1025.66369628906 1013.41925048828 1017.86273193359 1015.60260009766 1000.94812011719 1000.47052001953 986.141418457031 984.604431152344 991.156677246094 981.598449707031 984.399291992188 996.173706054688 995.825317382812 992.073303222656 984.044128417969 981.453857421875 965.834655761719 963.393432617188 956.546142578125 961.057495117188 957.547668457031 957.265380859375 967.391662597656 975.722900390625 985.587585449219 990.0439453125 995.503845214844 1001.626953125 1018.42498779297 1018.95166015625 1036.39123535156 1025.16284179688 1035.54602050781 1039.19897460938 1037.86889648438 1037.15930175781 1037.17126464844 1031.79992675781 1032.73388671875 1035.6220703125 1036.48559570312 1041.3251953125 1044.369140625 1054.25244140625 1056.47802734375 1066.82153320312 1061.58935546875 1071.58288574219 1074.18811035156 1078.05627441406 1085.79418945312 1089.20263671875 1102.37890625 1104.14758300781 1104.12817382812 1097.74609375 1100.44104003906
947.80859375 949.003173828125 946.780700683594 949.813354492188 950.567626953125 958.854797363281 958.228942871094 956.931701660156 959.827575683594 966.312866210938 972.054504394531 987.574890136719 979.748291015625 973.378356933594 979.560241699219 975.995056152344 969.770935058594 976.366088867188 973.467895507812 982.126220703125 984.832275390625 987.657470703125 984.760986328125 994.968139648438 989.530944824219 985.624206542969 983.331970214844 991.46875 994.304748535156 993.107788085938 987.173583984375 980.388793945312 984.433898925781 997.474426269531 1000.19458007812 991.636413574219 992.179504394531 989.297119140625 989.146179199219 986.620422363281 991.306640625 992.410339355469 988.781555175781 979.552673339844 991.30615234375 993.875732421875 992.453735351562 990.437316894531 985.192626953125 973.962463378906 971.143371582031 976.434387207031 982.155029296875 984.790771484375 991.937744140625 986.635070800781 990.434814453125 994.981262207031 1001.95343017578 1004.07592773438 1006.86505126953 1008.47283935547 1008.17547607422 1004.84558105469 998.48291015625 996.038330078125 995.043151855469 991.762756347656 999.781066894531 996.063598632812 996.871643066406 1006.20867919922 1001.32061767578 1000.32464599609 1005.30041503906 996.951721191406 1000.56042480469 1000.21740722656 994.22314453125 1000.74749755859 990.1376953125 991.669677734375 997.71240234375 997.72265625 1014.99468994141 1004.85632324219 1008.27893066406 997.36474609375 1011.43029785156 1013.56256103516 1016.2529296875 1021.71484375 1018.83734130859 1022.6083984375 1006.16687011719 1014.25946044922 1008.36730957031 996.885803222656 994.663940429688 984.611633300781 982.142578125 982.685974121094 990.903564453125 986.094116210938 992.018676757812 1003.90368652344 1002.98559570312 995.927001953125 985.527648925781 972.395935058594 962.502624511719 958.004028320312 939.069458007812 942.197631835938 952.317932128906 959.843200683594 971.052856445312 981.921203613281 992.078369140625 1001.06719970703 1000.06921386719 1002.36798095703 1011.083984375 1025.83862304688 1027.64758300781 1033.203125 1037.18347167969 1036.12426757812 1029.97375488281 1023.07806396484 1030.42932128906 1029.17260742188 1029.09741210938 1027.16259765625 1037.45593261719 1036.00329589844 1045.01623535156 1048.64184570312 1063.42297363281 1066.61511230469 1062.63037109375 1068.96630859375 1074.34362792969 1074.54663085938 1091.35461425781 1097.91809082031 1105.49572753906 1104.09228515625 1098.32092285156 1106.35205078125
960.804626464844 956.050170898438 959.837341308594 962.410766601562 960.043212890625 971.024963378906 969.275756835938 963.769714355469 969.724304199219 972.011352539062 975.392639160156 989.056274414062 981.232482910156 974.085083007812 980.268981933594 980.582275390625 976.470458984375 977.954772949219 989.226745605469 990.449035644531 981.324401855469 986.040710449219 984.771545410156 991.426696777344 994.937683105469 987.038330078125 978.675720214844 990.303649902344 996.017639160156 997.064697265625 985.067749023438 983.817260742188 993.500122070312 996.185241699219 994.815185546875 987.10107421875 989.919860839844 989.837280273438 982.781127929688 982.195068359375 990.907165527344 988.66015625 985.651550292969 986.850830078125 994.568542480469 992.987915039062 988.050354003906 987.775390625 986.95068359375 973.819641113281 971.396057128906 971.658264160156 979.785339355469 984.761840820312 989.419189453125 986.894409179688 993.315856933594 994.087524414062 994.604614257812 1006.02160644531 1005.84655761719 1006.40875244141 1003.66882324219 998.788208007812 993.643249511719 981.873229980469 997.018859863281 995.780090332031 992.538696289062 998.020568847656 993.403930664062 1001.14916992188 1002.41589355469 998.468933105469 996.195922851562 997.888488769531 999.270385742188 994.596435546875 998.099975585938 999.114501953125 1003.70074462891 1007.48968505859 1004.37921142578 1005.33062744141 1014.35266113281 1014.15765380859 1002.31915283203 1005.140625 1015.11669921875 1011.25927734375 1012.02429199219 1015.45007324219 1015.97711181641 1015.6728515625 1007.32952880859 1013.31011962891 1005.25604248047 989.358520507812 983.124206542969 975.859008789062 978.950927734375 981.217407226562 989.986022949219 991.561157226562 998.058044433594 1000.73010253906 1001.09356689453 998.66845703125 985.400573730469 976.068298339844 962.757934570312 958.459228515625 945.30126953125 947.49072265625 954.069946289062 962.496154785156 962.585144042969 972.950927734375 985.695068359375 998.485778808594 1005.57879638672 1002.62835693359 1003.18481445312 1012.16973876953 1021.17749023438 1022.51550292969 1036.06005859375 1036.63842773438 1024.45568847656 1027.81433105469 1027.53796386719 1031.20837402344 1028.85266113281 1023.10778808594 1031.64514160156 1032.47863769531 1026.16589355469 1037.31677246094 1052.2705078125 1059.73852539062 1060.33740234375 1061.22253417969 1067.25622558594 1081.14575195312 1099.14453125 1099.28527832031 1100.65283203125 1101.29113769531 1098.94970703125 1098.30981445312
956.097778320312 951.761474609375 958.556640625 967.703186035156 966.516967773438 967.690002441406 967.656311035156 966.944091796875 962.696472167969 972.91259765625 975.560119628906 977.184265136719 984.743041992188 974.666625976562 976.333862304688 982.57470703125 985.235046386719 984.436645507812 987.276306152344 982.295715332031 987.361755371094 983.047546386719 982.815490722656 989.130310058594 982.239807128906 982.942077636719 975.38232421875 980.905517578125 984.839233398438 983.822143554688 985.803100585938 982.6025390625 989.601928710938 989.583679199219 988.94677734375 978.621704101562 987.034545898438 988.760375976562 983.133605957031 982.336791992188 985.023193359375 973.674011230469 984.479431152344 990.571166992188 992.206481933594 984.699340820312 983.735900878906 977.981018066406 988.933349609375 974.815124511719 974.640869140625 973.720458984375 972.147033691406 976.041015625 995.339965820312 992.36767578125 988.212707519531 987.59130859375 992.444091796875 999.209838867188 1000.61145019531 993.093322753906 999.437805175781 993.57080078125 979.365600585938 986.49462890625 996.804992675781 993.880859375 993.972900390625 991.970397949219 981.400207519531 993.262634277344 986.9130859375 987.938110351562 984.984619140625 982.77978515625 993.19580078125 996.051513671875 996.06494140625 1001.97521972656 1000.88354492188 1003.72082519531 1000.76306152344 1005.24224853516 1007.38641357422 1007.72180175781 1016.02130126953 1011.01806640625 1017.505859375 1015.76538085938 1010.02209472656 1022.076171875 1012.58380126953 1012.41882324219 1015.16015625 1005.61419677734 996.911865234375 986.68505859375 987.240844726562 978.223754882812 981.630920410156 986.16357421875 991.484802246094 1002.23541259766 1005.21960449219 1002.58972167969 1004.45037841797 991.5673828125 982.971740722656 981.645446777344 967.506042480469 956.242309570312 952.112609863281 957.939636230469 957.9677734375 952.151611328125 961.559936523438 971.397277832031 981.252380371094 988.286010742188 994.540832519531 1007.4169921875 1008.03424072266 1009.25860595703 1009.98577880859 1024.65734863281 1022.39916992188 1027.099609375 1027.81225585938 1036.62573242188 1027.94909667969 1030.20104980469 1028.66796875 1028.40319824219 1030.291015625 1029.01403808594 1020.89501953125 1029.83056640625 1043.25439453125 1053.30065917969 1055.77746582031 1064.8193359375 1068.71838378906 1076.443359375 1088.32861328125 1099.95556640625 1108.42358398438 1106.79724121094 1111.98327636719 1100.8359375
948.297546386719 959.565856933594 964.243286132812 957.868225097656 964.437866210938 966.045043945312 973.148681640625 964.478332519531 969.677917480469 974.244140625 974.765563964844 976.082214355469 982.25537109375 978.555480957031 976.721496582031 978.994873046875 987.453063964844 989.519348144531 985.537292480469 984.9638671875 983.596618652344 981.266174316406 990.021057128906 986.443420410156 981.023254394531 977.987121582031 990.043395996094 981.008117675781 976.097473144531 986.911682128906 983.229736328125 987.079772949219 995.632263183594 990.74072265625 981.138488769531 975.851379394531 970.746398925781 980.760620117188 984.017578125 979.845703125 970.42333984375 982.262573242188 984.123229980469 987.248046875 990.022583007812 983.707336425781 985.394104003906 981.470458984375 979.532531738281 975.47802734375 981.534606933594 979.816223144531 982.682312011719 971.705444335938 977.477355957031 983.410034179688 984.684753417969 986.326293945312 984.142333984375 993.982543945312 986.606567382812 990.207275390625 994.145629882812 992.234558105469 985.364196777344 988.066223144531 989.960205078125 990.591125488281 991.486389160156 988.740417480469 985.648376464844 992.607238769531 994.849365234375 987.549438476562 973.699768066406 973.952453613281 984.076110839844 984.885375976562 990.990905761719 996.135559082031 993.325073242188 992.537231445312 999.2138671875 1006.87115478516 1004.01708984375 1008.68774414062 1010.00085449219 1007.42034912109 1014.32037353516 1009.11444091797 1009.78149414062 1007.03485107422 1016.63305664062 1015.52215576172 1009.66625976562 999.381225585938 999.897399902344 994.408203125 992.755981445312 983.346862792969 985.458923339844 983.478942871094 994.580871582031 1006.1806640625 1002.71423339844 999.701171875 1003.20379638672 990.771240234375 992.078491210938 986.876220703125 974.223754882812 970.436401367188 969.8310546875 959.27197265625 956.7158203125 957.062622070312 961.611022949219 972.274108886719 980.348388671875 989.97412109375 994.814636230469 1003.92474365234 1006.77508544922 1001.66271972656 1004.74945068359 1018.61437988281 1020.89770507812 1025.1181640625 1033.88537597656 1022.85260009766 1019.80072021484 1023.34613037109 1027.11804199219 1022.69512939453 1019.14831542969 1019.29602050781 1021.51586914062 1029.83959960938 1038.38415527344 1050.10815429688 1055.28247070312 1068.81872558594 1077.31140136719 1076.43200683594 1094.42797851562 1099.798828125 1103.01916503906 1112.0439453125 1111.56787109375 1110.77795410156
942.61865234375 953.793701171875 967.210083007812 970.091918945312 976.073303222656 971.346923828125 972.343383789062 961.670104980469 964.704406738281 974.230895996094 974.475280761719 973.80859375 969.511657714844 971.432678222656 974.605895996094 968.507385253906 977.258483886719 982.415710449219 983.569763183594 981.522705078125 985.778137207031 986.771179199219 990.42724609375 992.171447753906 979.091186523438 983.533996582031 985.637329101562 980.921813964844 981.336364746094 982.354675292969 983.179626464844 989.922119140625 993.549560546875 997.748413085938 996.448059082031 982.891479492188 971.850708007812 972.009460449219 974.166015625 973.975036621094 970.353210449219 979.477111816406 977.942016601562 982.3671875 990.243347167969 989.65966796875 986.895263671875 982.34521484375 983.501098632812 979.843322753906 986.113159179688 988.931335449219 979.174743652344 968.303649902344 975.169738769531 973.606018066406 976.322082519531 978.301391601562 983.085876464844 986.624267578125 980.13671875 983.894104003906 983.855102539062 982.983337402344 989.189392089844 987.619750976562 986.308044433594 987.599243164062 986.954467773438 988.25390625 984.194519042969 989.046508789062 990.823913574219 989.964233398438 984.431762695312 978.827026367188 989.023376464844 992.401611328125 988.667175292969 994.706848144531 992.931518554688 996.663879394531 996.718322753906 997.55517578125 1005.54016113281 1012.2353515625 1014.81915283203 1009.8134765625 1009.38116455078 1002.32537841797 998.327209472656 1001.34204101562 1009.39886474609 1013.06683349609 1009.74249267578 999.930358886719 995.66162109375 1002.27972412109 997.82568359375 989.162780761719 988.730041503906 981.395935058594 996.240356445312 1002.73852539062 1000.69903564453 994.87841796875 996.529907226562 994.088317871094 994.889343261719 984.43798828125 982.712768554688 976.692138671875 969.6103515625 964.650573730469 969.121948242188 961.93798828125 965.177978515625 971.903930664062 981.032653808594 994.752197265625 996.2060546875 1001.89813232422 1005.75347900391 1004.60974121094 1012.66778564453 1021.58044433594 1017.02990722656 1017.80535888672 1027.90588378906 1013.39117431641 1005.23571777344 1023.65863037109 1023.50512695312 1019.1171875 1018.24621582031 1015.92071533203 1019.45239257812 1027.94653320312 1038.20288085938 1039.72473144531 1056.78662109375 1070.96704101562 1084.1494140625 1084.58581542969 1090.79528808594 1089.58508300781 1098.94372558594 1118.05383300781 1116.33569335938 1112.87573242188
945.275939941406 957.279968261719 961.067687988281 964.251525878906 971.360717773438 974.691528320312 967.884704589844 964.995422363281 979.714416503906 976.907348632812 971.8427734375 973.023559570312 973.229919433594 971.860107421875 970.09716796875 973.947570800781 969.345947265625 977.790649414062 982.103393554688 979.309936523438 984.449340820312 983.47314453125 991.841613769531 993.783508300781 982.003784179688 983.205932617188 984.235107421875 984.261840820312 981.113647460938 985.820922851562 986.238891601562 982.627990722656 989.677612304688 996.233520507812 990.417602539062 977.046447753906 979.867919921875 970.257202148438 976.425415039062 974.587707519531 972.387756347656 972.079833984375 971.587341308594 982.586547851562 990.056945800781 986.174621582031 985.324157714844 983.166564941406 974.765319824219 980.773010253906 983.489379882812 982.522888183594 975.723693847656 974.120849609375 975.478942871094 977.168518066406 977.024230957031 977.387817382812 980.457092285156 987.352783203125 980.660217285156 974.025451660156 985.368103027344 987.67529296875 992.432800292969 992.727233886719 987.095397949219 992.991394042969 982.1943359375 988.546142578125 995.515991210938 991.834655761719 987.049133300781 987.307006835938 985.605773925781 980.332641601562 987.777404785156 986.016845703125 989.949035644531 990.5244140625 989.339233398438 988.198974609375 990.353759765625 988.902282714844 993.039123535156 1007.26721191406 1006.02557373047 1012.65472412109 1004.97821044922 1000.06964111328 1004.37042236328 997.358215332031 995.569519042969 1009.06524658203 1002.30926513672 998.386169433594 999.68115234375 1002.20538330078 995.069274902344 993.632507324219 992.465942382812 988.936706542969 986.098327636719 999.236999511719 994.043518066406 997.777954101562 999.977355957031 998.003540039062 988.095886230469 984.944396972656 981.856750488281 984.017883300781 976.761169433594 974.161376953125 965.048767089844 968.7900390625 978.772338867188 977.181213378906 986.658264160156 993.66796875 995.138488769531 993.375915527344 1006.822265625 1014.65661621094 1008.59027099609 1025.08337402344 1014.97021484375 1009.46368408203 1021.12091064453 1011.18701171875 1009.40112304688 1016.74291992188 1021.37292480469 1016.67364501953 1013.89489746094 1008.59008789062 1017.46673583984 1022.83636474609 1030.48706054688 1037.18176269531 1048.92321777344 1066.546875 1083.70068359375 1094.384765625 1097.14196777344 1097.16259765625 1103.11340332031 1112.48620605469 1120.19165039062 1118.81359863281
949.944580078125 956.580444335938 958.637573242188 957.718505859375 973.908264160156 969.110656738281 967.536437988281 969.824340820312 976.428649902344 977.604370117188 972.443359375 972.886596679688 977.89697265625 967.408996582031 973.571655273438 971.924560546875 979.030029296875 973.538452148438 973.715454101562 979.907897949219 982.779296875 981.5751953125 981.340698242188 983.978942871094 981.831115722656 981.116760253906 980.099243164062 974.434387207031 977.512145996094 982.694519042969 987.756652832031 978.715393066406 985.230712890625 985.93505859375 981.235046386719 976.405456542969 973.547607421875 972.810302734375 984.254150390625 978.889404296875 972.405395507812 977.919311523438 982.073974609375 978.985656738281 980.524597167969 982.793701171875 982.657165527344 979.635803222656 979.5341796875 974.339050292969 982.815063476562 966.160827636719 973.763244628906 971.334838867188 969.303588867188 974.642211914062 971.958557128906 977.07958984375 982.146667480469 990.888549804688 983.930908203125 977.981140136719 988.866455078125 994.235595703125 1000.28576660156 997.275634765625 989.377807617188 985.38037109375 974.596923828125 987.309448242188 986.471252441406 987.197265625 977.905883789062 981.784790039062 983.595642089844 981.554809570312 982.324584960938 987.398498535156 984.760070800781 976.753356933594 983.18994140625 986.771179199219 996.3056640625 1000.71997070312 998.86767578125 1003.53784179688 1001.38543701172 1003.01312255859 1005.94146728516 1005.00482177734 998.948181152344 996.052795410156 1001.91387939453 997.493469238281 999.730407714844 996.332214355469 1003.97973632812 1002.54614257812 998.37109375 993.002868652344 988.313720703125 991.718322753906 988.469482421875 991.529846191406 993.461547851562 1001.73608398438 999.266418457031 999.520812988281 989.36083984375 988.675354003906 986.471008300781 986.616577148438 983.977294921875 983.217529296875 980.926208496094 985.432006835938 989.86279296875 989.576904296875 989.711181640625 995.663269042969 1001.96710205078 993.888427734375 1008.11999511719 1003.64855957031 1012.982421875 1021.56921386719 1022.29058837891 1017.4482421875 1013.25701904297 1020.01129150391 1017.10559082031 1017.15716552734 1017.22149658203 1018.07055664062 1012.05047607422 1015.87054443359 1019.50494384766 1024.232421875 1028.18469238281 1037.26733398438 1053.63720703125 1073.43029785156 1081.41967773438 1091.3291015625 1103.50329589844 1105.67529296875 1116.99987792969 1119.13842773438 1122.57177734375 1125.89025878906
939.393188476562 946.688903808594 958.900268554688 967.178527832031 965.382629394531 979.776916503906 975.992126464844 976.050842285156 974.385864257812 975.056091308594 974.448913574219 968.75830078125 968.207397460938 967.502746582031 967.223510742188 973.258056640625 982.182495117188 983.170288085938 967.368347167969 983.464721679688 983.5 984.755920410156 979.423767089844 974.784729003906 978.267211914062 978.738403320312 974.947021484375 979.422912597656 975.617553710938 975.798583984375 990.587341308594 979.775939941406 975.443237304688 979.579406738281 973.427734375 979.823425292969 984.655029296875 977.00244140625 975.444030761719 977.298217773438 977.787475585938 981.643249511719 974.271118164062 979.896118164062 985.310974121094 990.623291015625 977.58056640625 977.174682617188 981.402954101562 973.391906738281 972.454040527344 972.894409179688 967.465270996094 964.986328125 971.892211914062 967.112609863281 971.842163085938 973.303039550781 973.218811035156 981.166625976562 988.747192382812 985.418090820312 984.377075195312 991.8994140625 998.249267578125 995.699096679688 991.588012695312 980.456420898438 974.774475097656 978.244934082031 983.327880859375 982.974060058594 984.015014648438 978.421752929688 981.140991210938 980.072204589844 982.999572753906 979.904846191406 988.18017578125 980.108581542969 987.113037109375 987.505065917969 993.315063476562 999.119384765625 1002.07086181641 994.609008789062 990.679138183594 999.776306152344 1007.85943603516 1010.55310058594 1002.53125 1001.72198486328 1004.279296875 1008.65765380859 1003.85876464844 995.82568359375 1000.8359375 1001.99676513672 998.374633789062 981.050720214844 986.826049804688 986.414733886719 990.455505371094 986.457092285156 998.773315429688 996.29638671875 1004.83312988281 1002.54748535156 994.69091796875 986.084716796875 987.424255371094 991.724792480469 997.085571289062 993.389221191406 992.753356933594 989.011291503906 998.625305175781 994.784973144531 996.930786132812 998.267211914062 1008.55139160156 1012.04083251953 1009.7744140625 1008.42834472656 1013.39666748047 1014.43707275391 1022.30786132812 1023.33831787109 1015.76947021484 1019.12286376953 1007.32470703125 1008.0087890625 1021.71887207031 1012.39306640625 1012.46179199219 1017.06561279297 1017.31524658203 1028.93090820312 1037.52478027344 1044.62036132812 1062.01208496094 1076.95190429688 1093.16943359375 1109.94616699219 1111.59130859375 1119.17919921875 1121.04309082031 1124.03076171875 1126.10375976562 1135.27941894531
947.729858398438 947.85009765625 963.743896484375 970.508666992188 963.146362304688 970.750732421875 967.633605957031 963.903381347656 971.479309082031 984.308471679688 974.800964355469 965.426635742188 965.162353515625 966.13330078125 969.621459960938 967.039733886719 977.343200683594 985.097473144531 972.95751953125 977.701965332031 977.436401367188 981.915710449219 980.349853515625 971.10546875 976.247375488281 983.5419921875 973.259155273438 973.099243164062 978.747741699219 978.495971679688 977.48193359375 978.1669921875 978.048400878906 975.469421386719 975.718994140625 974.334594726562 981.536987304688 979.013122558594 979.253173828125 974.725769042969 978.742797851562 978.553588867188 974.708740234375 976.7861328125 977.512084960938 987.720031738281 982.649230957031 977.182983398438 967.570068359375 972.926635742188 980.791259765625 974.924133300781 969.077819824219 965.437683105469 963.72802734375 967.17333984375 965.908752441406 969.824523925781 971.421203613281 977.998168945312 979.394775390625 987.357482910156 983.602661132812 980.204711914062 989.749694824219 989.847045898438 981.355895996094 970.254516601562 967.820434570312 974.601745605469 973.702819824219 979.46044921875 980.334289550781 975.963684082031 971.252136230469 975.829711914062 977.977966308594 976.791381835938 983.340759277344 988.401062011719 986.705688476562 989.279846191406 988.124938964844 997.279541015625 995.5087890625 996.4912109375 996.830322265625 998.817138671875 1002.77459716797 999.741271972656 1004.49810791016 1003.65686035156 1007.23126220703 1000.87811279297 998.799926757812 989.525756835938 997.82373046875 990.660766601562 991.508056640625 984.833801269531 980.911560058594 978.9326171875 989.740966796875 988.813842773438 997.472351074219 998.626953125 1001.81610107422 996.553344726562 990.094787597656 992.98291015625 993.703002929688 994.849487304688 1005.01110839844 997.289733886719 994.133972167969 996.348449707031 1001.90783691406 1002.45385742188 1003.12524414062 1004.79144287109 1005.70489501953 1015.53845214844 1011.39587402344 1006.67535400391 1011.39489746094 1015.16589355469 1022.71850585938 1016.47985839844 1010.64312744141 1016.75183105469 1011.97991943359 1016.14825439453 1020.44476318359 1018.61083984375 1018.56256103516 1022.623046875 1018.79119873047 1031.86804199219 1051.052734375 1059.19116210938 1073.4658203125 1082.54809570312 1104.90075683594 1114.84106445312 1121.95092773438 1125.64953613281 1131.92407226562 1132.73132324219 1133.73156738281 1150.45202636719
944.950378417969 954.674682617188 955.161376953125 968.092041015625 972.677307128906 961.622924804688 960.832702636719 964.983764648438 964.657592773438 970.062194824219 965.303771972656 971.254638671875 958.515197753906 968.061645507812 967.640197753906 971.486328125 976.999389648438 974.2548828125 973.52099609375 976.109680175781 984.925109863281 982.099792480469 972.358093261719 973.040344238281 975.854431152344 979.024536132812 971.98046875 977.311157226562 978.130065917969 975.854431152344 973.314147949219 975.852966308594 987.352172851562 978.362548828125 981.841857910156 980.099365234375 980.628784179688 977.712280273438 973.218688964844 974.052917480469 974.02294921875 980.620788574219 971.168884277344 975.079650878906 974.356628417969 983.044128417969 972.665161132812 972.476745605469 957.502197265625 965.25537109375 975.799621582031 975.957763671875 973.865905761719 964.117126464844 964.560668945312 959.810913085938 962.773254394531 969.8876953125 964.770385742188 963.608703613281 977.982360839844 969.071166992188 981.847534179688 979.981079101562 986.105285644531 980.86181640625 975.497619628906 973.46142578125 973.011047363281 970.184753417969 969.800842285156 972.966735839844 977.095703125 971.929260253906 978.735412597656 981.518432617188 988.293395996094 974.651550292969 985.368103027344 983.213562011719 986.25927734375 991.872131347656 997.261535644531 986.273132324219 991.325805664062 992.01513671875 994.812927246094 1000.60363769531 1005.54779052734 992.962524414062 1001.12957763672 999.745971679688 995.415405273438 991.641418457031 995.421325683594 990.742248535156 992.583068847656 999.24951171875 996.910827636719 992.238159179688 986.719177246094 984.803527832031 988.329284667969 989.865356445312 992.137573242188 993.442443847656 999.299865722656 993.730407714844 993.717712402344 990.655578613281 997.243041992188 994.931823730469 1005.32690429688 1003.60632324219 1001.49560546875 1002.666015625 999.846618652344 1005.51385498047 999.41259765625 1012.52093505859 1013.90747070312 1010.76672363281 1012.76477050781 1007.35711669922 1003.4130859375 1017.72467041016 1006.86999511719 1014.36682128906 1006.69281005859 1014.6513671875 1021.05792236328 1021.77203369141 1025.8779296875 1027.9609375 1025.88220214844 1022.18536376953 1025.48974609375 1040.42431640625 1056.47509765625 1068.26489257812 1084.67309570312 1083.70617675781 1107.66955566406 1120.39038085938 1136.26708984375 1132.73498535156 1146.06079101562 1141.87060546875 1144.67456054688 1148.84985351562
948.841430664062 957.0673828125 965.752136230469 971.050964355469 977.448303222656 966.098937988281 967.173034667969 961.466125488281 968.122863769531 972.866271972656 965.134033203125 967.901672363281 968.204895019531 961.419982910156 972.628662109375 971.505676269531 972.758911132812 977.296997070312 982.33203125 975.103332519531 974.748046875 973.268310546875 968.654052734375 977.319702148438 979.8994140625 972.683837890625 975.658752441406 973.803527832031 969.184875488281 975.580261230469 976.417907714844 978.8486328125 985.556091308594 974.17529296875 980.422424316406 988.11376953125 989.949157714844 978.389770507812 977.568359375 975.953674316406 974.045593261719 972.318786621094 962.102905273438 970.386169433594 967.346069335938 972.598815917969 970.261474609375 973.159912109375 964.223937988281 972.176330566406 971.313781738281 972.960998535156 979.577758789062 966.822570800781 963.971984863281 962.755065917969 961.817504882812 961.319458007812 959.200622558594 960.810241699219 965.500915527344 968.207824707031 977.786743164062 984.465087890625 982.089599609375 975.651062011719 965.828918457031 967.421020507812 963.512268066406 972.651550292969 966.190002441406 967.017517089844 977.170654296875 971.693237304688 983.983947753906 977.356628417969 981.524536132812 976.959716796875 985.038696289062 981.572570800781 986.120178222656 989.944030761719 992.382446289062 985.249694824219 981.90185546875 986.344055175781 988.646606445312 995.644287109375 1003.29620361328 999.559814453125 993.173217773438 989.809631347656 991.866394042969 995.326904296875 994.7802734375 990.836547851562 986.2099609375 989.812561035156 994.124389648438 994.575927734375 992.280517578125 989.538940429688 979.558776855469 981.011962890625 983.521118164062 993.641174316406 994.21826171875 1001.09930419922 993.909362792969 998.156982421875 991.830261230469 996.713317871094 1001.69805908203 1007.12640380859 1006.37908935547 1002.49114990234 1006.20526123047 995.746765136719 994.37890625 997.41015625 1004.27911376953 1003.26281738281 1007.99267578125 1005.97552490234 1012.29901123047 1006.45379638672 1001.72082519531 1010.65197753906 1011.76470947266 1008.68609619141 1013.65264892578 1008.99597167969 1023.31707763672 1032.59252929688 1033.99536132812 1036.15173339844 1033.55834960938 1046.00708007812 1062.38037109375 1076.423828125 1090.89270019531 1099.21838378906 1117.60913085938 1124.00634765625 1133.1591796875 1143.89038085938 1145.48315429688 1147.74108886719 1146.52294921875 1149.0458984375
950.138549804688 965.170959472656 970.447692871094 969.305297851562 963.383972167969 958.077819824219 953.300170898438 964.422668457031 964.047424316406 964.627258300781 970.406677246094 972.944946289062 974.567810058594 969.566162109375 976.527282714844 978.516052246094 975.070068359375 987.465942382812 976.720397949219 973.588989257812 976.14208984375 971.440551757812 964.451538085938 970.123413085938 982.791015625 972.926635742188 968.820739746094 979.567443847656 972.380493164062 976.936645507812 972.764282226562 980.410217285156 983.765563964844 981.738525390625 979.496520996094 989.841796875 990.364624023438 974.102172851562 980.126342773438 973.033813476562 975.0205078125 969.149658203125 970.804138183594 976.010681152344 971.937683105469 973.314331054688 969.2705078125 972.434631347656 972.013610839844 971.6796875 975.81640625 969.794616699219 974.574279785156 969.622009277344 971.733215332031 968.226257324219 966.437072753906 962.264404296875 959.741760253906 963.652648925781 956.659851074219 964.236206054688 984.426818847656 979.73974609375 976.344787597656 976.987243652344 964.991577148438 963.58056640625 960.617858886719 963.879028320312 953.790588378906 963.754455566406 967.331665039062 967.376647949219 983.819763183594 986.863830566406 986.456970214844 982.347229003906 981.368347167969 983.2392578125 992.084411621094 992.638793945312 981.11865234375 988.28369140625 978.646789550781 982.051208496094 982.3251953125 983.143371582031 986.660400390625 994.003479003906 989.975708007812 981.616638183594 987.71875 989.489807128906 987.987182617188 993.301208496094 995.731140136719 989.175903320312 987.091552734375 991.669555664062 994.061279296875 989.593505859375 973.015075683594 984.933471679688 976.620178222656 988.381774902344 992.100646972656 987.839904785156 990.83056640625 991.9091796875 996.702453613281 989.600708007812 992.26708984375 1003.79266357422 1006.08624267578 1005.33312988281 998.360229492188 988.698791503906 996.815307617188 993.663696289062 995.059692382812 989.487060546875 1000.07745361328 1000.38348388672 1007.25421142578 1000.13214111328 996.292846679688 1003.99841308594 1010.60797119141 1022.02996826172 1023.57189941406 1018.81634521484 1027.69262695312 1030.9560546875 1033.93127441406 1044.708984375 1047.681640625 1057.16491699219 1066.68408203125 1078.71252441406 1092.947265625 1105.8330078125 1111.86389160156 1125.22973632812 1139.48486328125 1143.93103027344 1148.98767089844 1153.09753417969 1154.59387207031 1156.01110839844
