NCOLS 150
NROWS 37
XLLCORNER 7394249
YLLCORNER 4843109
CELLSIZE 30
NODATA_VALUE -9999
949.998168945312 953.828857421875 959.106567382812 961.335266113281 960.465637207031 961.097717285156 962.329223632812 960.805419921875 953.801879882812 969.779479980469 972.837707519531 969.358703613281 982.758605957031 969.833557128906 968.533142089844 968.850830078125 960.151672363281 971.358276367188 979.733154296875 978.165161132812 984.145324707031 982.410339355469 978.37060546875 988.489807128906 995.06298828125 991.5751953125 993.355895996094 990.54296875 989.122497558594 997.392822265625 992.793579101562 995.773315429688 983.646240234375 987.056945800781 991.443969726562 983.949096679688 988.055419921875 996.443725585938 1003.52313232422 1002.66412353516 1004.59600830078 1013.00897216797 1010.8154296875 1017.90673828125 1008.93041992188 1001.92944335938 1002.03680419922 1000.83636474609 986.529907226562 991.436767578125 989.552917480469 993.122131347656 988.81396484375 987.205261230469 984.146057128906 990.117004394531 991.035217285156 996.61181640625 1005.04968261719 1000.36260986328 999.980102539062 998.574890136719 994.450927734375 1004.82440185547 1003.603515625 1007.91943359375 1004.384765625 1021.85559082031 1019.36517333984 1018.64367675781 1012.25402832031 1010.20532226562 1004.49670410156 1010.10528564453 1006.52001953125 1005.11755371094 1003.03216552734 1003.17669677734 1002.73095703125 996.850708007812 996.751892089844 1004.57775878906 994.82666015625 996.629028320312 993.390014648438 1005.65289306641 1013.83532714844 1012.48046875 1009.19909667969 1015.20281982422 1017.72192382812 1018.64691162109 1025.19738769531 1024.01159667969 1022.77551269531 1033.78601074219 1024.26586914062 1032.69018554688 1018.40991210938 1028.23449707031 1018.61340332031 1007.01989746094 998.219177246094 1000.05291748047 1006.173828125 1008.28002929688 1008.18249511719 1006.43408203125 992.239562988281 974.384826660156 968.933898925781 962.643371582031 941.894897460938 943.153869628906 951.214050292969 953.866455078125 953.281921386719 966.382995605469 979.682678222656 992.231079101562 1002.673828125 1006.25939941406 1009.95910644531 1010.90954589844 1015.43884277344 1024.26354980469 1032.21374511719 1035.2236328125 1034.70434570312 1041.8369140625 1041.31237792969 1042.27185058594 1060.3798828125 1070.79345703125 1069.22680664062 1063.47119140625 1057.81103515625 1054.81396484375 1057.63623046875 1071.78137207031 1077.26354980469 1086.33337402344 1091.60827636719 1099.330078125 1097.03369140625 1092.35668945312 1091.86291503906 1096.21325683594 1108.52368164062 1107.43127441406
963.124877929688 956.397705078125 959.619262695312 966.100952148438 959.115539550781 964.920471191406 967.616088867188 966.726684570312 971.522827148438 964.167053222656 969.749938964844 969.633728027344 975.020385742188 974.380187988281 967.498962402344 966.569641113281 967.801696777344 968.774963378906 975.195251464844 977.318664550781 974.504516601562 981.744384765625 980.717834472656 994.270751953125 999.553039550781 989.556335449219 990.462707519531 991.358520507812 991.214721679688 987.353271484375 992.481872558594 991.7333984375 983.921081542969 986.982727050781 983.018127441406 985.188049316406 996.414855957031 999.858581542969 996.204162597656 1009.75012207031 1006.20776367188 1005.31909179688 1009.74743652344 1011.76281738281 1014.94641113281 1004.06634521484 1001.48071289062 1003.87811279297 991.199645996094 989.08203125 984.155700683594 988.622131347656 985.53857421875 978.465454101562 984.901550292969 987.430236816406 990.264465332031 996.269714355469 994.608520507812 998.102111816406 999.709533691406 996.738525390625 1003.79364013672 996.097473144531 1000.69183349609 1001.53942871094 1005.16772460938 1017.15704345703 1014.79034423828 1010.31018066406 1002.23980712891 1003.89538574219 1003.11456298828 995.398254394531 994.92578125 997.070434570312 998.488647460938 998.527587890625 995.352416992188 993.619323730469 992.274169921875 998.428588867188 983.413024902344 996.747741699219 1006.14141845703 1004.84429931641 1007.669921875 1004.74963378906 1007.31976318359 1010.17614746094 1016.12390136719 1024.0693359375 1019.97259521484 1021.87316894531 1021.05224609375 1022.40130615234 1017.75280761719 1020.10876464844 1021.39959716797 1027.94384765625 1017.42498779297 1009.0361328125 999.926330566406 998.293579101562 1001.89276123047 1005.34613037109 1014.17254638672 1011.48608398438 1000.97546386719 982.301574707031 970.679992675781 961.028442382812 956.427307128906 943.2197265625 950.751281738281 950.056640625 952.647399902344 954.227233886719 976.442749023438 997.363830566406 996.076110839844 1009.47802734375 1019.13696289062 1028.83813476562 1031.17016601562 1032.36486816406 1033.36804199219 1035.06640625 1038.28588867188 1043.03784179688 1046.13781738281 1048.16577148438 1049.29162597656 1060.84167480469 1065.72888183594 1058.13269042969 1055.97839355469 1055.74841308594 1055.8671875 1066.48608398438 1075.01440429688 1087.72216796875 1091.55432128906 1095.20361328125 1092.43273925781 1095.93908691406 1089.34802246094 1098.87316894531 1109.84460449219 1118.94555664062
957.571655273438 960.994567871094 956.496826171875 962.871643066406 953.346252441406 965.314147949219 967.322509765625 967.585327148438 968.446166992188 966.006774902344 968.172668457031 978.319763183594 982.290954589844 978.890991210938 978.219482421875 978.254516601562 967.21337890625 974.765686035156 981.602600097656 981.587280273438 989.96923828125 991.518493652344 985.140625 985.1328125 987.168395996094 982.134643554688 994.493530273438 993.580444335938 999.103332519531 985.46337890625 986.448852539062 978.612243652344 981.395385742188 981.510314941406 992.835876464844 992.036865234375 1001.68859863281 999.084167480469 989.837036132812 1002.09124755859 1001.53277587891 998.536376953125 995.142517089844 1013.17102050781 1003.82177734375 999.943359375 996.371520996094 989.361694335938 990.896484375 984.71923828125 979.484985351562 974.977905273438 974.9501953125 984.760070800781 992.326599121094 984.7841796875 983.557189941406 990.719848632812 992.60595703125 994.062866210938 995.065856933594 996.005249023438 996.154418945312 999.552917480469 991.479614257812 1001.49566650391 1004.23760986328 1013.40124511719 1009.02807617188 1003.53955078125 1001.50811767578 997.965270996094 992.226684570312 1007.53631591797 999.415710449219 993.080749511719 1000.23101806641 1001.67846679688 999.359924316406 993.044799804688 990.053344726562 992.590515136719 992.736755371094 1007.23913574219 1001.84643554688 1004.55993652344 1002.36224365234 1003.47369384766 1007.87139892578 1011.11590576172 1008.63720703125 1005.03057861328 1014.0087890625 1008.24530029297 1011.37097167969 1012.15832519531 1010.13732910156 1010.55456542969 1012.97607421875 1024.74060058594 1013.75335693359 1003.31958007812 996.940307617188 999.157775878906 1001.83142089844 1006.33215332031 1017.40344238281 1008.62945556641 990.664184570312 983.227661132812 969.746948242188 953.793762207031 959.218322753906 947.619018554688 947.156311035156 945.705322265625 955.768432617188 967.127258300781 975.551513671875 995.999389648438 997.804077148438 998.989318847656 1019.81457519531 1031.13049316406 1029.85437011719 1029.36645507812 1029.79187011719 1034.13354492188 1033.66809082031 1040.70556640625 1048.41564941406 1050.51037597656 1047.42370605469 1051.75158691406 1058.50659179688 1062.09606933594 1058.32275390625 1050.95129394531 1060.91845703125 1061.14575195312 1068.79992675781 1085.15881347656 1089.34143066406 1098.42895507812 1102.44396972656 1102.01782226562 1098.5712890625 1093.50463867188 1117.14135742188 1120.59936523438
961.914611816406 966.952026367188 966.99951171875 968.945495605469 964.443298339844 965.366394042969 962.388122558594 962.164184570312 963.544677734375 964.666015625 968.865600585938 975.545471191406 976.91455078125 983.416687011719 986.717895507812 982.1357421875 971.24609375 977.4287109375 978.401123046875 981.355712890625 986.674438476562 989.393859863281 989.506469726562 988.065368652344 982.498352050781 985.480346679688 987.399536132812 997.221801757812 1001.33923339844 987.435424804688 985.455017089844 982.266052246094 983.734802246094 996.168640136719 987.685913085938 990.584106445312 996.173461914062 989.18408203125 995.090942382812 999.862243652344 999.763000488281 990.3125 994.049377441406 996.804809570312 997.673767089844 997.921264648438 994.426513671875 980.478271484375 985.015930175781 981.582946777344 980.466857910156 980.699768066406 982.060668945312 985.469360351562 980.910766601562 988.164245605469 992.146057128906 989.256896972656 983.791564941406 989.002136230469 987.493041992188 993.583251953125 999.48876953125 995.824096679688 996.362243652344 985.730773925781 998.07373046875 1003.15301513672 1002.32366943359 1000.9482421875 1003.06188964844 994.534912109375 992.476684570312 995.85107421875 1005.96588134766 993.65966796875 999.703979492188 1001.6259765625 1002.01275634766 997.344970703125 987.645935058594 992.80126953125 993.642333984375 1007.48529052734 1010.06884765625 1008.59545898438 1003.20892333984 1004.82806396484 1014.90509033203 1015.93017578125 1008.48474121094 1010.06512451172 1013.51220703125 1013.05908203125 1015.65930175781 1011.48602294922 1015.02508544922 1022.88720703125 1020.57061767578 1018.08673095703 1011.77130126953 1010.17156982422 1001.80102539062 1005.86376953125 1005.89599609375 1006.73614501953 1014.12707519531 1013.06976318359 994.564392089844 981.806884765625 965.633544921875 957.196350097656 949.713928222656 946.185729980469 947.743347167969 945.889953613281 957.037231445312 965.872802734375 974.475646972656 985.671447753906 993.155700683594 998.929016113281 1005.40533447266 1021.12359619141 1032.34143066406 1029.521484375 1017.99621582031 1017.53002929688 1026.59899902344 1032.80261230469 1046.9765625 1047.00549316406 1041.76416015625 1044.3212890625 1058.97802734375 1056.24304199219 1046.65466308594 1051.33557128906 1053.61511230469 1059.89990234375 1062.26538085938 1079.52319335938 1103.64428710938 1102.36791992188 1099.0029296875 1107.31494140625 1106.61462402344 1104.84521484375 1110.80493164062 1117.13757324219
960.186828613281 966.593444824219 973.634338378906 965.016784667969 966.66650390625 967.159790039062 963.496154785156 965.809326171875 971.727355957031 971.32373046875 971.835021972656 978.90966796875 978.588745117188 975.016906738281 977.470520019531 974.926452636719 977.180603027344 987.453002929688 977.475952148438 976.968444824219 986.130615234375 988.928161621094 986.290771484375 987.291625976562 991.803527832031 988.366027832031 989.427368164062 995.896179199219 993.575500488281 985.513061523438 985.786376953125 983.345703125 991.307678222656 993.151489257812 988.345397949219 993.073547363281 991.437255859375 985.496215820312 985.162536621094 995.482727050781 986.598327636719 991.302978515625 993.784484863281 988.52392578125 993.539916992188 992.288513183594 996.863037109375 977.122680664062 971.775024414062 976.48388671875 978.970581054688 978.046569824219 980.668518066406 976.245361328125 982.846069335938 984.785705566406 987.454772949219 986.61474609375 978.539245605469 983.569458007812 983.151794433594 989.131774902344 994.971130371094 987.844970703125 981.857360839844 986.996459960938 989.639831542969 995.187622070312 1000.10797119141 998.389587402344 989.704528808594 993.74755859375 999.0458984375 993.505004882812 1001.14392089844 999.156433105469 995.884765625 1001.13922119141 1000.88659667969 998.9638671875 992.681518554688 999.455993652344 1001.72521972656 1002.83966064453 1000.50469970703 1001.34057617188 999.548522949219 1006.43774414062 1011.67877197266 1016.93762207031 1006.92584228516 1013.11639404297 1011.41778564453 1016.09741210938 1011.46850585938 1016.75134277344 1009.71392822266 1016.86999511719 1021.07641601562 1017.20343017578 1001.57275390625 1002.78802490234 1005.83526611328 1003.96148681641 1000.62957763672 997.047485351562 1000.42395019531 997.356018066406 990.663208007812 975.330810546875 966.478759765625 956.941101074219 952.624755859375 942.283935546875 943.4833984375 950.626647949219 958.319641113281 964.44921875 974.827697753906 989.110046386719 1004.15747070312 1012.85192871094 1010.79174804688 1013.00842285156 1026.09643554688 1032.29895019531 1025.3720703125 1011.14086914062 1026.32531738281 1042.42138671875 1048.59338378906 1039.89855957031 1036.25427246094 1035.59045410156 1041.62243652344 1035.64013671875 1047.70080566406 1048.18005371094 1050.49536132812 1050.69067382812 1057.31164550781 1082.71997070312 1090.57153320312 1094.20324707031 1103.01501464844 1107.63293457031 1104.22045898438 1113.30578613281 1114.77429199219 1120.36889648438
962.025512695312 955.712158203125 956.684814453125 963.906555175781 968.10888671875 966.262329101562 965.526000976562 961.132385253906 967.754699707031 972.161071777344 975.399719238281 976.654174804688 980.583740234375 978.868103027344 967.290832519531 969.754028320312 971.883728027344 977.472473144531 981.369201660156 982.493103027344 976.480346679688 982.269714355469 988.813781738281 980.835327148438 987.401489257812 988.528869628906 982.01416015625 993.998779296875 982.88232421875 986.944458007812 986.37548828125 986.884399414062 986.202514648438 992.693420410156 986.555541992188 992.659301757812 992.855590820312 991.20166015625 987.140747070312 987.489624023438 991.859313964844 983.324523925781 984.736572265625 981.031311035156 986.115539550781 989.904846191406 989.026977539062 981.333312988281 980.466796875 972.874328613281 977.013916015625 980.069702148438 976.707458496094 985.908630371094 983.554321289062 986.523864746094 984.022399902344 987.356201171875 983.161193847656 987.933471679688 979.309631347656 990.825988769531 985.268920898438 975.332946777344 983.330017089844 982.176940917969 985.836975097656 992.676452636719 998.126403808594 1000.44250488281 993.581604003906 993.617980957031 996.195190429688 995.62744140625 992.669494628906 995.981750488281 993.650207519531 1000.34771728516 1013.83056640625 1011.1865234375 1006.26025390625 1005.81848144531 995.634399414062 995.872802734375 1002.19763183594 1004.65008544922 1003.69586181641 999.730346679688 999.285461425781 1008.87133789062 1008.41552734375 1007.58959960938 1016.44091796875 1010.05438232422 1011.14660644531 1014.70574951172 1015.75549316406 1011.24163818359 1012.76892089844 1015.95227050781 1013.59594726562 1007.11334228516 1002.14074707031 1002.34954833984 992.287475585938 995.748840332031 995.290588378906 995.232604980469 988.88671875 974.64404296875 969.118896484375 964.275207519531 959.205078125 948.567932128906 944.890014648438 947.456909179688 957.121337890625 974.13330078125 979.823852539062 980.454956054688 994.395751953125 1009.65307617188 1012.53399658203 1019.54272460938 1020.22393798828 1021.80981445312 1029.29028320312 1029.75720214844 1025.18420410156 1033.46887207031 1031.93688964844 1036.07507324219 1034.52624511719 1035.03918457031 1030.13903808594 1025.73303222656 1036.00622558594 1041.61889648438 1049.8720703125 1040.75952148438 1058.86157226562 1074.16650390625 1085.78588867188 1095.49084472656 1097.5595703125 1105.35131835938 1115.32360839844 1108.01965332031 1119.1904296875 1121.26513671875
961.732177734375 955.528686523438 951.502624511719 969.884094238281 966.681518554688 973.785034179688 972.400329589844 969.902465820312 965.370056152344 980.398681640625 976.531494140625 979.7998046875 973.849914550781 971.209167480469 973.637512207031 979.625793457031 975.405090332031 978.293273925781 987.985900878906 990.151611328125 984.086486816406 985.317443847656 987.773010253906 982.969482421875 987.63818359375 987.609130859375 983.652465820312 987.220581054688 981.077087402344 974.562683105469 976.586181640625 988.092163085938 983.046936035156 988.07275390625 992.662048339844 991.651611328125 990.09423828125 994.131103515625 983.390441894531 978.42724609375 983.98779296875 978.735900878906 981.667602539062 985.817749023438 982.4423828125 988.219665527344 986.909912109375 980.274597167969 978.678771972656 968.310913085938 977.8525390625 978.50048828125 980.563720703125 983.118835449219 990.021057128906 979.57421875 975.187316894531 978.605102539062 982.908264160156 981.254211425781 981.685485839844 978.516357421875 974.482055664062 970.957336425781 971.325134277344 992.670532226562 983.152893066406 980.465759277344 983.039367675781 984.768493652344 988.569152832031 992.730590820312 989.244934082031 985.513793945312 989.339599609375 997.642639160156 986.886474609375 999.689208984375 1010.3740234375 1011.47760009766 1001.74450683594 1000.49395751953 998.52685546875 1000.689453125 1001.65087890625 1001.22088623047 1004.17242431641 1001.87738037109 1001.88140869141 1013.083984375 1017.21502685547 1009.93011474609 1003.26898193359 1017.29858398438 1014.99670410156 1021.36828613281 1020.65441894531 1013.73413085938 1004.20550537109 1005.96069335938 999.393615722656 999.21630859375 1003.97509765625 995.083190917969 1000.05596923828 999.045776367188 994.718322753906 1003.21765136719 995.190307617188 986.62548828125 973.954284667969 975.35302734375 968.855285644531 948.995178222656 948.614135742188 949.041320800781 960.029052734375 960.439331054688 979.217163085938 989.338134765625 993.206787109375 1007.19677734375 1009.04925537109 1018.47515869141 1018.2626953125 1014.05114746094 1023.40295410156 1020.85681152344 1011.74768066406 1023.89038085938 1021.73571777344 1030.16870117188 1029.79382324219 1024.48828125 1024.18176269531 1013.52978515625 1021.02954101562 1032.04748535156 1037.42724609375 1036.34875488281 1055.49621582031 1061.22521972656 1076.3701171875 1091.34436035156 1097.60034179688 1104.19592285156 1104.37927246094 1108.322265625 1123.78527832031 1129.75122070312
960.28955078125 956.031555175781 959.453063964844 968.668029785156 972.742797851562 975.006225585938 966.298217773438 978.118896484375 976.843444824219 979.271911621094 970.35888671875 975.17236328125 968.158020019531 965.648803710938 969.796325683594 974.817993164062 977.139343261719 977.706787109375 980.661926269531 984.334655761719 989.092224121094 994.474060058594 986.674682617188 985.95166015625 985.801391601562 988.309143066406 984.638793945312 983.098510742188 979.916809082031 976.616760253906 985.73193359375 985.830627441406 982.134521484375 981.751708984375 998.264099121094 992.599243164062 991.521667480469 975.406799316406 980.20068359375 989.222229003906 987.304016113281 980.775329589844 979.444702148438 971.98291015625 987.583923339844 981.027587890625 984.585144042969 977.175842285156 975.652709960938 979.300476074219 981.507690429688 984.298278808594 979.977294921875 978.003295898438 978.474609375 978.346557617188 981.535217285156 975.525329589844 982.460632324219 976.670166015625 984.786010742188 977.815124511719 970.404235839844 972.223571777344 977.425720214844 990.021545410156 976.823669433594 975.811950683594 977.147033691406 983.434265136719 977.83154296875 977.739440917969 991.134582519531 991.253601074219 994.356750488281 990.395629882812 992.662475585938 990.527954101562 1003.09771728516 1002.09655761719 1001.77746582031 1001.81091308594 999.497741699219 999.101684570312 1001.76049804688 1006.28985595703 1006.1171875 999.486389160156 1006.78155517578 1009.69738769531 1010.60998535156 1011.26892089844 1006.76348876953 1015.16418457031 1021.44421386719 1012.67114257812 1021.34832763672 1013.23840332031 1006.95343017578 996.951171875 985.078186035156 1002.46215820312 994.595092773438 992.093933105469 997.522827148438 986.2744140625 991.313171386719 995.026916503906 995.271057128906 992.754028320312 984.202819824219 975.135009765625 969.10009765625 965.444152832031 955.75634765625 954.12548828125 973.6201171875 975.693359375 979.14111328125 983.109436035156 996.014038085938 1001.68823242188 1006.83093261719 1010.71771240234 1012.18518066406 1018.80987548828 1030.96301269531 1023.02886962891 1020.21929931641 1009.8369140625 1012.52160644531 1007.58404541016 1012.77740478516 1016.26519775391 1018.22137451172 1014.45886230469 1020.79174804688 1020.14709472656 1023.68914794922 1027.17614746094 1058.11303710938 1062.84460449219 1076.82470703125 1090.04650878906 1102.25463867188 1106.39685058594 1109.04260253906 1113.48327636719 1126.42785644531 1138.896484375
960.998229980469 957.587951660156 960.776733398438 957.7646484375 971.3525390625 980.863464355469 977.507507324219 981.865417480469 981.985656738281 977.959594726562 974.151733398438 973.481140136719 969.154846191406 968.954223632812 974.502197265625 970.114501953125 975.801574707031 968.600219726562 973.302551269531 985.428894042969 987.984252929688 986.403503417969 989.662170410156 983.558349609375 974.435241699219 979.5869140625 986.701904296875 979.072692871094 971.425109863281 978.599853515625 992.023864746094 988.7607421875 976.93359375 988.999267578125 989.974609375 989.787719726562 982.861206054688 978.959289550781 980.409545898438 980.484619140625 988.327575683594 978.595642089844 978.907653808594 981.611267089844 985.088073730469 980.300476074219 978.979370117188 976.894714355469 969.261535644531 982.457214355469 979.703918457031 978.016906738281 973.92431640625 979.821228027344 975.651672363281 978.369812011719 973.753845214844 976.993103027344 984.268005371094 982.629516601562 973.683227539062 975.441467285156 967.862121582031 978.094299316406 983.611022949219 982.969360351562 978.102905273438 991.518432617188 992.009521484375 980.904235839844 975.267395019531 990.750366210938 988.013244628906 979.126342773438 988.378845214844 982.544128417969 990.012023925781 992.3388671875 997.120300292969 1001.91577148438 1008.70434570312 1002.28295898438 996.059997558594 1000.32592773438 1000.16748046875 1004.29699707031 1006.67364501953 1003.18292236328 1005.05010986328 999.369506835938 996.044616699219 1005.20294189453 1012.67346191406 1019.12567138672 1022.07189941406 1021.57879638672 1014.14678955078 1001.87518310547 994.729370117188 993.738952636719 989.764465332031 995.691711425781 998.183166503906 997.666687011719 993.684936523438 995.762573242188 1002.16479492188 990.196533203125 989.3408203125 990.272216796875 982.05908203125 976.194213867188 970.334106445312 972.270568847656 965.686706542969 980.714233398438 987.986206054688 980.390075683594 984.453125 992.444091796875 1001.02960205078 1002.37084960938 1008.10620117188 1012.27960205078 1017.30328369141 1023.2490234375 1031.26208496094 1016.41186523438 1008.43414306641 1008.79541015625 1007.42156982422 1003.14208984375 1007.76538085938 1017.10113525391 1014.85284423828 1025.30432128906 1031.58776855469 1028.296875 1027.98364257812 1032.8212890625 1048.23779296875 1061.06372070312 1078.84619140625 1096.17797851562 1095.2666015625 1104.04821777344 1110.376953125 1121.88317871094 1128.84350585938 1134.4111328125
955.359130859375 949.921630859375 953.448181152344 963.031921386719 974.56396484375 968.71923828125 972.4755859375 977.057373046875 974.292541503906 968.354370117188 966.36279296875 969.468078613281 968.133178710938 964.700012207031 974.163940429688 970.885681152344 970.040466308594 977.5263671875 971.747863769531 982.683044433594 977.559326171875 981.819030761719 988.321838378906 979.264038085938 975.561889648438 978.518432617188 974.538024902344 979.903747558594 977.218200683594 989.543762207031 990.184814453125 988.664184570312 978.732421875 978.799255371094 982.161499023438 977.354248046875 977.612487792969 978.601806640625 978.990844726562 978.129821777344 979.530090332031 975.754638671875 984.332336425781 982.407958984375 978.220275878906 978.814147949219 971.75537109375 974.738647460938 979.425964355469 975.616760253906 981.644592285156 970.064880371094 977.018920898438 977.939392089844 975.84326171875 975.288696289062 980.485107421875 977.489685058594 973.354736328125 973.035278320312 975.254943847656 979.155822753906 987.612976074219 984.006408691406 979.6142578125 974.062377929688 988.265991210938 991.881958007812 979.638305664062 976.083984375 980.048583984375 982.621948242188 985.806945800781 981.898498535156 988.562072753906 995.004455566406 997.709533691406 998.48388671875 1000.14465332031 1000.31652832031 1001.20831298828 988.569030761719 1003.11029052734 1001.65576171875 1004.88311767578 997.584655761719 987.617797851562 992.548950195312 990.067626953125 991.800231933594 1000.37585449219 1001.36376953125 1010.74938964844 1015.42938232422 1020.74969482422 1006.58386230469 1005.56481933594 1001.19061279297 999.961975097656 995.09423828125 999.691833496094 993.778930664062 991.431701660156 997.071472167969 1003.25012207031 1000.84265136719 992.042236328125 992.843566894531 991.923645019531 988.828308105469 992.881896972656 982.4150390625 983.0751953125 986.43310546875 979.959411621094 988.439331054688 989.692749023438 995.497802734375 996.696899414062 1005.81774902344 1000.58819580078 1003.36175537109 1003.43572998047 1014.08581542969 1011.11279296875 1011.46234130859 1011.8369140625 1005.54052734375 1009.12194824219 1005.91979980469 1005.68524169922 1007.47900390625 1002.26690673828 1012.91973876953 1027.50439453125 1026.44763183594 1033.08178710938 1038.12805175781 1040.76428222656 1040.21081542969 1047.43908691406 1062.5810546875 1078.41284179688 1096.02844238281 1104.90539550781 1118.56701660156 1115.78857421875 1129.94396972656 1125.966796875 1131.46936035156
944.083740234375 951.743896484375 961.151306152344 963.824523925781 985.250915527344 975.103454589844 969.916198730469 974.612182617188 973.693542480469 970.908142089844 963.818359375 962.133178710938 963.002746582031 974.07177734375 976.717529296875 972.170104980469 977.241394042969 976.311889648438 973.646606445312 975.339050292969 982.104370117188 982.374267578125 978.447814941406 981.558654785156 972.719421386719 971.165466308594 980.434509277344 981.829650878906 986.327209472656 994.879272460938 990.067321777344 992.684204101562 984.254211425781 975.96533203125 977.546325683594 975.3642578125 981.277282714844 975.561401367188 972.75244140625 983.870544433594 980.818786621094 975.357666015625 979.183166503906 977.961486816406 971.327392578125 968.823059082031 961.841125488281 969.458068847656 975.738159179688 972.0029296875 969.6435546875 967.918151855469 972.89501953125 964.82763671875 971.026489257812 973.634460449219 977.18798828125 978.42529296875 971.592163085938 976.813659667969 978.256713867188 987.407165527344 983.02978515625 986.240600585938 982.34375 984.067749023438 977.316101074219 982.378723144531 976.417846679688 976.595458984375 986.716857910156 981.829833984375 984.975463867188 989.433288574219 986.250854492188 988.121215820312 994.068542480469 1000.19873046875 995.70263671875 999.909790039062 998.097900390625 995.436950683594 996.375671386719 993.525695800781 1007.49584960938 997.166748046875 990.958740234375 997.69873046875 994.592895507812 991.757873535156 994.548461914062 1006.16265869141 1010.19512939453 1005.29553222656 1003.12176513672 1004.18615722656 1008.08197021484 1001.107421875 999.696899414062 997.568359375 995.113586425781 996.592102050781 982.771484375 989.631713867188 993.187072753906 990.288879394531 994.518005371094 993.900756835938 988.801696777344 986.753173828125 990.032897949219 991.456909179688 998.094909667969 997.04736328125 995.031066894531 991.515686035156 999.823852539062 999.8203125 1009.70715332031 1008.50457763672 1001.13854980469 1005.93200683594 1007.83813476562 1010.58245849609 992.774291992188 997.962951660156 1003.12823486328 1000.81237792969 1003.8603515625 1004.99975585938 1008.11596679688 1008.38458251953 1010.65411376953 1015.94140625 1018.72998046875 1020.17364501953 1016.52661132812 1028.75231933594 1045.39453125 1057.9609375 1058.35888671875 1067.29028320312 1081.86486816406 1100.27026367188 1106.49975585938 1116.25793457031 1122.26867675781 1122.01342773438 1130.8115234375 1135.1552734375
942.938842773438 948.257202148438 956.664978027344 967.512573242188 969.248840332031 977.088439941406 975.567016601562 970.64208984375 967.041931152344 968.694946289062 961.142395019531 959.981506347656 963.819213867188 968.361083984375 975.62255859375 971.710021972656 970.917175292969 974.908020019531 979.487731933594 979.885437011719 982.412902832031 984.774841308594 979.571228027344 972.891479492188 967.622375488281 974.806823730469 975.47021484375 978.266723632812 985.927124023438 991.610046386719 991.904602050781 980.486450195312 972.588745117188 974.418395996094 979.00537109375 978.982543945312 979.889587402344 970.815307617188 966.113159179688 970.785400390625 973.938659667969 978.632568359375 972.432983398438 968.230590820312 959.020874023438 966.563293457031 968.3525390625 971.141723632812 971.335754394531 966.046875 975.070373535156 967.785278320312 978.076538085938 963.635620117188 959.125061035156 958.135375976562 966.044372558594 962.539001464844 972.928894042969 976.491577148438 981.823974609375 987.250915527344 985.092712402344 981.648254394531 981.369934082031 977.873291015625 974.920959472656 975.598083496094 977.898803710938 977.447082519531 983.650451660156 985.553161621094 981.943664550781 983.922912597656 987.10693359375 989.574157714844 991.229370117188 996.33544921875 999.977905273438 995.392028808594 995.707458496094 982.057678222656 990.723815917969 983.694396972656 991.464782714844 995.098327636719 1002.77807617188 989.65087890625 992.73974609375 990.413208007812 993.225219726562 1000.77850341797 1000.95495605469 1003.80120849609 1003.48547363281 999.821838378906 990.568786621094 1001.53802490234 997.2626953125 998.093444824219 999.033081054688 996.522216796875 990.224304199219 993.574645996094 988.712341308594 996.540161132812 993.799621582031 988.671936035156 991.022888183594 989.060974121094 993.6455078125 988.655517578125 992.337585449219 998.464416503906 1006.654296875 1001.73120117188 1002.04895019531 1009.79516601562 1002.08178710938 999.843505859375 1003.79486083984 998.959106445312 1005.2158203125 1001.10827636719 994.547729492188 994.702514648438 999.891418457031 994.186279296875 993.211364746094 998.474975585938 1011.73229980469 1007.63745117188 1014.60992431641 1014.349609375 1005.7783203125 1015.08056640625 1022.93572998047 1032.95935058594 1050.9072265625 1063.81799316406 1068.5302734375 1081.47058105469 1088.68017578125 1099.54235839844 1117.39270019531 1123.73974609375 1121.30920410156 1126.2470703125 1134.70471191406 1135.68823242188
942.201477050781 944.118591308594 959.437194824219 959.831726074219 963.3701171875 977.231994628906 967.552062988281 977.722839355469 969.246398925781 967.466491699219 968.247680664062 968.101318359375 966.686706542969 966.270935058594 969.262329101562 972.816650390625 974.172058105469 975.496826171875 973.957336425781 979.099914550781 980.072814941406 978.271728515625 984.239624023438 974.130554199219 981.049865722656 977.31005859375 965.207702636719 977.383361816406 980.643310546875 982.589660644531 981.704956054688 978.480895996094 971.416564941406 972.287719726562 985.818542480469 984.198364257812 977.151000976562 974.975280761719 974.204956054688 975.757690429688 964.199279785156 974.331848144531 963.207702636719 963.830505371094 961.870544433594 961.058227539062 972.69091796875 970.6396484375 962.567504882812 966.310424804688 973.419067382812 972.376281738281 975.533020019531 973.127990722656 958.870178222656 964.182556152344 961.990905761719 959.944152832031 967.600341796875 978.330383300781 973.906066894531 972.481872558594 970.184814453125 977.553894042969 974.862670898438 970.982788085938 962.102966308594 966.018188476562 964.445983886719 973.672790527344 980.12451171875 973.337890625 972.410217285156 984.901000976562 984.013061523438 988.817138671875 989.901245117188 997.586059570312 1000.45043945312 998.148315429688 994.002502441406 991.444213867188 980.374633789062 986.731201171875 993.399536132812 991.123596191406 992.685546875 999.628601074219 993.891540527344 992.156555175781 1001.63983154297 997.943420410156 998.51904296875 1000.35809326172 997.469665527344 994.40869140625 993.2470703125 993.146362304688 991.262756347656 996.495910644531 991.045227050781 993.713806152344 992.428955078125 996.87060546875 991.744323730469 989.481201171875 990.312927246094 988.745483398438 988.042053222656 986.4150390625 984.612609863281 993.662902832031 998.438232421875 997.189331054688 1002.17022705078 997.598388671875 1000.41076660156 1011.8583984375 1005.32470703125 999.915893554688 997.98388671875 997.784057617188 994.517272949219 995.154235839844 1002.5283203125 1000.94458007812 1002.814453125 997.400329589844 999.101806640625 1003.26904296875 1015.62390136719 1011.34967041016 1017.23077392578 1024.46752929688 1015.88531494141 1009.14636230469 1022.17169189453 1043.20385742188 1056.93737792969 1070.30871582031 1069.62683105469 1081.8369140625 1094.86975097656 1110.72595214844 1117.32360839844 1128.82287597656 1130.80700683594 1140.36755371094 1135.53454589844 1130.54565429688
942.320190429688 944.65283203125 960.016906738281 956.108276367188 958.979125976562 969.45556640625 967.889404296875 969.219970703125 970.319458007812 963.836181640625 968.213928222656 970.931335449219 963.322937011719 966.003356933594 964.425659179688 971.193237304688 979.670104980469 977.913391113281 981.069885253906 974.859191894531 973.953491210938 979.966796875 979.237609863281 976.857727050781 980.352722167969 977.470092773438 972.753967285156 964.111694335938 968.455810546875 976.848876953125 979.358032226562 972.813720703125 970.248474121094 970.116333007812 976.588745117188 983.547546386719 978.603149414062 980.048400878906 978.921020507812 975.245971679688 967.56103515625 970.981567382812 957.3828125 960.405578613281 955.672607421875 960.76123046875 967.2470703125 964.054504394531 966.266662597656 973.078125 978.445495605469 972.817016601562 973.617492675781 973.048034667969 965.699462890625 962.274291992188 955.941040039062 957.357299804688 964.760131835938 963.773132324219 970.619995117188 968.459106445312 968.307861328125 971.481140136719 973.265625 972.359558105469 969.603454589844 972.830139160156 965.580749511719 972.346008300781 974.729370117188 980.833068847656 980.750366210938 973 986.726135253906 996.162414550781 996.234802246094 998.292907714844 1000.46441650391 988.086608886719 986.8408203125 989.901611328125 985.480712890625 985.659240722656 988.918884277344 993.535705566406 997.370971679688 993.935485839844 996.526672363281 997.585571289062 997.945617675781 996.134399414062 988.840270996094 994.003479003906 997.574462890625 990.218933105469 996.805725097656 998.059753417969 992.075439453125 988.577697753906 991.437194824219 992.515747070312 993.555419921875 992.836486816406 998.095520019531 985.773193359375 991.002502441406 990.546875 978.295227050781 972.200561523438 985.321350097656 994.7685546875 996.2646484375 996.37353515625 989.862731933594 990.106323242188 1000.90435791016 1002.73663330078 1010.02734375 999.505249023438 1001.87054443359 998.934204101562 992.350280761719 987.882995605469 1002.09704589844 1002.32611083984 1002.21514892578 1010.10363769531 1012.99884033203 1016.90826416016 1015.21704101562 1018.13745117188 1022.37908935547 1024.38415527344 1036.01062011719 1021.53448486328 1037.37438964844 1049.34436035156 1070.36096191406 1079.46667480469 1084.27270507812 1095.26013183594 1109.74755859375 1120.01940917969 1128.45544433594 1123.7646484375 1128.06091308594 1140.43591308594 1142.44909667969 1141.3798828125
942.831665039062 949.088745117188 955.755187988281 957.192016601562 958.65087890625 965.671630859375 971.687622070312 969.926635742188 964.52880859375 965.0126953125 966.740295410156 972.643127441406 972.006042480469 970.655151367188 973.164672851562 971.298889160156 979.323364257812 980.876831054688 973.824279785156 979.89501953125 972.418090820312 971.961853027344 969.560668945312 976.048645019531 973.434326171875 973.9501953125 968.813537597656 963.088195800781 969.100158691406 971.7255859375 973.252136230469 974.196899414062 974.777526855469 976.424865722656 977.130432128906 980.079650878906 982.958618164062 978.767639160156 975.498291015625 970.547180175781 967.49658203125 971.922729492188 970.396667480469 961.880432128906 961.800048828125 956.399047851562 961.777770996094 967.054809570312 965.408142089844 973.548095703125 978.922424316406 972.061828613281 981.107055664062 971.596374511719 972.234802246094 965.107238769531 959.599853515625 957.565246582031 966.994995117188 975.886169433594 982.824584960938 974.407958984375 971.48046875 968.837097167969 973.819519042969 974.766723632812 968.539306640625 962.938842773438 958.803039550781 965.084411621094 969.779235839844 972.114990234375 964.944274902344 964.358337402344 970.19189453125 990.943237304688 988.686340332031 1000.92761230469 984.088562011719 981.984252929688 981.624938964844 987.04443359375 991.126220703125 990.266723632812 994.718322753906 986.178466796875 991.550842285156 995.196838378906 993.822814941406 997.726440429688 994.105651855469 985.715393066406 993.29931640625 992.713684082031 990.577453613281 985.447082519531 992.855224609375 996.0009765625 992.403259277344 990.255920410156 992.341918945312 991.4609375 998.708618164062 997.606323242188 989.96435546875 988.633605957031 990.888122558594 989.957702636719 991.426513671875 985.641845703125 984.667053222656 994.239685058594 989.589599609375 994.045837402344 992.727844238281 988.950500488281 995.53515625 999.835021972656 1002.13311767578 995.973388671875 992.497436523438 998.712036132812 991.283996582031 991.418762207031 1001.02349853516 1006.65826416016 1014.25305175781 1019.20819091797 1022.24633789062 1023.42840576172 1022.52514648438 1022.96478271484 1028.92456054688 1033.03100585938 1036.96423339844 1034.24072265625 1043.78234863281 1054.857421875 1071.12719726562 1080.3896484375 1091.65966796875 1094.3486328125 1108.65795898438 1122.71765136719 1137.82238769531 1128.69946289062 1125.52563476562 1135.92175292969 1140.24682617188 1137.90661621094
951.4228515625 950.842834472656 950.366760253906 951.493957519531 957.230102539062 965.983215332031 962.782836914062 970.105407714844 964.872619628906 962.996215820312 968.071411132812 970.207336425781 979.081726074219 974.630065917969 975.461242675781 978.554626464844 977.12939453125 983.634338378906 979.264465332031 978.652709960938 973.707092285156 970.5009765625 964.610778808594 970.534362792969 975.934265136719 966.106567382812 961.494079589844 962.479919433594 963.473999023438 966.842224121094 977.591735839844 979.222900390625 973.874145507812 982.390930175781 987.182983398438 990.546875 987.451416015625 979.6357421875 980.075744628906 972.583740234375 975.449645996094 975.94970703125 967.519470214844 961.649169921875 965.157409667969 959.247680664062 963.363891601562 966.2431640625 962.794189453125 979.336120605469 972.66064453125 976.340942382812 991.667236328125 971.516296386719 975.578674316406 965.526184082031 965.729614257812 972.7939453125 975.533264160156 978.534973144531 983.78125 982.755126953125 969.527770996094 975.154296875 973.008728027344 972.13330078125 974.524291992188 964.964904785156 958.068237304688 974.31591796875 965.676513671875 965.613952636719 966.952392578125 966.174987792969 964.873474121094 977.289855957031 986.855102539062 988.550659179688 983.574523925781 975.384826660156 979.12109375 979.556762695312 981.399963378906 982.245483398438 986.143493652344 990.514038085938 990.845153808594 991.690368652344 982.060729980469 982.358825683594 997.341857910156 993.227722167969 990.250366210938 993.187316894531 999.362548828125 994.057189941406 988.543762207031 997.80908203125 994.719421386719 991.963989257812 991.407348632812 988.160766601562 988.447204589844 994.296325683594 992.762390136719 984.186218261719 987.992797851562 994.767028808594 991.231262207031 981.822692871094 987.35009765625 989.530517578125 990.359313964844 989.6748046875 984.004455566406 988.106872558594 985.344665527344 992.025146484375 990.92236328125 997.713684082031 991.812866210938 996.347961425781 997.941589355469 997.743774414062 1004.63861083984 1014.83642578125 1016.71630859375 1021.26232910156 1028.71667480469 1032.65270996094 1032.455078125 1030.8935546875 1036.47680664062 1039.09020996094 1039.34387207031 1047.28552246094 1053.5576171875 1062.537109375 1077.64318847656 1086.08532714844 1085.51025390625 1099.70739746094 1111.87548828125 1125.03723144531 1137.8798828125 1132.50537109375 1141.78149414062 1143.86413574219 1143.34436035156 1145.36364746094
954.324584960938 952.855590820312 952.654357910156 951.246948242188 949.525695800781 961.790100097656 960.7509765625 964.612365722656 964.215759277344 969.479614257812 961.688110351562 962.863098144531 977.692443847656 966.246276855469 974.97705078125 968.960205078125 972.221252441406 980.726440429688 977.002746582031 972.72265625 972.891052246094 971.042907714844 962.932373046875 962.396057128906 970.972900390625 965.392761230469 964.067810058594 962.56591796875 956.384216308594 957.177856445312 969.917358398438 970.803771972656 970.031066894531 975.77734375 988.328796386719 984.025207519531 976.478454589844 974.017517089844 981.790405273438 980.377868652344 977.082580566406 971.767700195312 966.443786621094 967.437255859375 956.337585449219 955.88037109375 963.945251464844 963.991760253906 977.738708496094 974.535278320312 976.881652832031 980.599182128906 977.19384765625 970.591918945312 971.293518066406 969.387451171875 965.747436523438 971.403137207031 976.631164550781 973.940612792969 976.985961914062 979.910583496094 980.435791015625 976.742126464844 970.468994140625 971.906982421875 971.461059570312 967.851623535156 959.396362304688 968.885070800781 963.836242675781 959.370483398438 968.396118164062 974.723083496094 967.000732421875 969.429321289062 984.125732421875 973.01171875 977.48193359375 973.050964355469 969.660400390625 974.641906738281 972.355285644531 981.591979980469 983.917724609375 989.426086425781 988.801696777344 982.642272949219 986.568969726562 991.634033203125 989.516967773438 987.402282714844 991.622131347656 997.950866699219 994.559875488281 993.339660644531 990.478271484375 992.014892578125 991.191955566406 988.72412109375 986.047119140625 973.779235839844 986.868896484375 983.051330566406 981.947570800781 985.175170898438 986.636962890625 992.178771972656 986.731994628906 986.431091308594 987.315246582031 985.81591796875 988.639099121094 987.602478027344 986.355346679688 988.79443359375 992.69873046875 990.46337890625 987.037109375 998.418395996094 1000.26953125 998.856628417969 992.332397460938 997.457824707031 1004.86993408203 1011.51043701172 1016.55834960938 1021.05078125 1026.12084960938 1033.50256347656 1036.02941894531 1033.10424804688 1042.17529296875 1049.72680664062 1056.23449707031 1054.81713867188 1063.86511230469 1065.37524414062 1067.07849121094 1077.64111328125 1089.13488769531 1102.84924316406 1116.81176757812 1122.53894042969 1129.90856933594 1140.84765625 1158.19702148438 1160.17248535156 1150.14013671875 1145.70837402344
947.248291015625 951.584228515625 948.036254882812 949.764953613281 954.294006347656 955.21533203125 959.995239257812 970.34130859375 961.388854980469 961.432189941406 965.116516113281 971.569641113281 974.549621582031 971.17431640625 975.616455078125 977.364562988281 979.918395996094 976.521606445312 975.102172851562 976.996215820312 973.488220214844 976.777954101562 970.747253417969 967.915100097656 973.180114746094 969.4677734375 969.03515625 961.942565917969 966.459838867188 971.136352539062 977.144714355469 971.189575195312 972.215759277344 974.89013671875 986.221618652344 983.66552734375 978.425109863281 980.684997558594 974.207153320312 977.71923828125 973.935485839844 966.42919921875 968.722534179688 977.706359863281 972.45263671875 966.247619628906 971.365783691406 974.27392578125 977.154663085938 980.615417480469 980.470153808594 974.154357910156 977.441162109375 970.628356933594 970.103759765625 967.152099609375 970.176452636719 976.44921875 977.101867675781 975.523864746094 976.941345214844 978.166442871094 977.771179199219 973.591430664062 977.081298828125 970.439147949219 973.963012695312 967.527709960938 964.427429199219 972.19921875 965.364318847656 969.522277832031 966.882934570312 965.596923828125 965.428100585938 964.949890136719 967.239318847656 973.131469726562 973.171630859375 965.950378417969 975.332763671875 973.544311523438 970.080993652344 976.671142578125 975.399658203125 982.32373046875 982.256530761719 979.09912109375 983.599182128906 988.444274902344 985.389831542969 985.242492675781 985.975341796875 991.821472167969 985.521606445312 987.995666503906 983.568237304688 989.041442871094 982.352172851562 990.860107421875 977.9091796875 982.801147460938 986.980285644531 982.210693359375 985.8349609375 981.474487304688 986.756774902344 987.840637207031 982.38671875 987.218994140625 982.526733398438 984.58935546875 986.428649902344 982.003112792969 983.3828125 997.608764648438 1005.00061035156 1001.87420654297 1002.00201416016 994.602111816406 997.840026855469 995.748352050781 997.447143554688 997.153564453125 1010.78698730469 1019.98748779297 1017.58715820312 1024.87854003906 1026.998046875 1037.10864257812 1046.16516113281 1051.56896972656 1057.5439453125 1062.10217285156 1064.5927734375 1077.06994628906 1077.38500976562 1072.22839355469 1078.01037597656 1089.56469726562 1100.70788574219 1105.84118652344 1129.60266113281 1126.69616699219 1135.43579101562 1138.72338867188 1148.17553710938 1163.53405761719 1158.50952148438 1147.69958496094
945.838623046875 942.201049804688 944.985107421875 951.869750976562 966.79931640625 961.634155273438 962.863464355469 967.325256347656 960.240844726562 959.433044433594 959.185729980469 969.586853027344 970.481506347656 970.865051269531 973.380187988281 978.906616210938 978.358581542969 978.203979492188 970.261657714844 975.819152832031 972.933532714844 977.258544921875 971.942565917969 967.336486816406 968.475891113281 979.19091796875 981.304260253906 964.304565429688 969.004089355469 972.314453125 975.610595703125 974.29150390625 971.278625488281 977.937072753906 981.857727050781 979.112915039062 972.320739746094 971.854064941406 967.044372558594 975.214965820312 972.392883300781 965.427612304688 973.478942871094 970.911926269531 973.506103515625 965.637634277344 974.458251953125 973.68505859375 972.977966308594 972.348937988281 971.369934082031 969.753295898438 962.651428222656 962.787231445312 969.076477050781 970.261413574219 976.42724609375 974.577087402344 989.794372558594 980.7216796875 968.252075195312 967.690246582031 969.181030273438 970.423400878906 973.431579589844 973.890563964844 973.233032226562 973.451171875 970.931640625 980.173461914062 973.511535644531 968.369445800781 967.677185058594 964.378845214844 953.633544921875 966.81201171875 971.913024902344 970.307739257812 967.277587890625 975.968383789062 970.4326171875 962.015563964844 963.868957519531 970.653686523438 968.707458496094 979.627502441406 976.979248046875 973.4609375 975.676086425781 978.838684082031 982.56689453125 979.32275390625 987.487548828125 985.371887207031 987.7333984375 984.251892089844 984.324951171875 982.966979980469 978.169921875 983.065612792969 977.345397949219 985.946166992188 983.098083496094 985.768981933594 980.623474121094 981.8671875 990.711853027344 983.87744140625 983.68896484375 991.851928710938 990.757873535156 991.57958984375 988.920471191406 993.855590820312 992.898376464844 1005.61419677734 1004.09545898438 1012.93121337891 1002.96655273438 991.190673828125 992.402404785156 996.637634277344 998.938415527344 1003.37774658203 1011.55682373047 1026.98754882812 1027.92651367188 1033.88037109375 1035.39428710938 1045.15502929688 1057.09399414062 1066.39636230469 1068.42517089844 1077.61938476562 1075.177734375 1080.09851074219 1089.04699707031 1086.42749023438 1082.81237792969 1091.24230957031 1110.37939453125 1111.01892089844 1122.85095214844 1141.08569335938 1141.51879882812 1147.16052246094 1163.92211914062 1162.4169921875 1160.85400390625 1146.95324707031
950.976623535156 946.158203125 947.0419921875 952.865966796875 958.209533691406 961.700317382812 964.716857910156 966.332702636719 964.409912109375 965.315490722656 966.952514648438 966.399841308594 964.151000976562 963.588745117188 976.323486328125 978.375305175781 976.478271484375 975.036682128906 973.330627441406 971.937866210938 972.419311523438 959.381103515625 968.528198242188 969.348266601562 978.447570800781 973.992248535156 972.155151367188 969.897644042969 978.160522460938 977.129211425781 979.658447265625 981.579711914062 976.918395996094 979.072998046875 975.466674804688 971.835266113281 974.519653320312 968.002563476562 967.464721679688 968.600280761719 970.187866210938 967.674255371094 964.392333984375 963.351013183594 965.6064453125 969.782653808594 971.210205078125 971.303405761719 973.330322265625 970.214172363281 964.545715332031 964.703369140625 968.906311035156 966.6767578125 962.470581054688 971.3583984375 974.092895507812 977.853210449219 982.590637207031 974.631591796875 972.185485839844 967.326232910156 966.807006835938 970.876953125 968.672729492188 979.7021484375 969.946838378906 971.477478027344 971.0537109375 975.540222167969 971.686584472656 970.338989257812 968.410766601562 969.764038085938 962.292236328125 969.527893066406 966.8056640625 965.390319824219 963.66259765625 963.546691894531 972.499450683594 970.289001464844 967.375183105469 973.764831542969 973.711730957031 967.98388671875 970.805847167969 974.080261230469 976.136169433594 977.303466796875 974.382629394531 974.752136230469 982.761840820312 981.874755859375 988.147399902344 980.842102050781 975.637878417969 973.403747558594 973.908630371094 976.03955078125 972.567932128906 985.775573730469 984.05126953125 985.658081054688 977.774719238281 982.634582519531 986.978637695312 985.84765625 984.949584960938 988.828369140625 989.778625488281 998.141174316406 995.589416503906 998.492248535156 1000.11114501953 1003.40625 1006.21075439453 1010.74133300781 1000.46179199219 996.883239746094 999.5859375 997.422485351562 1003.95690917969 1015.0029296875 1026.50756835938 1026.66723632812 1038.23962402344 1041.75854492188 1049.24548339844 1060.7734375 1067.18322753906 1073.86755371094 1078.60656738281 1075.83020019531 1075.46411132812 1076.66772460938 1080.16613769531 1088.07348632812 1085.08471679688 1095.49011230469 1101.47802734375 1126.4970703125 1131.78466796875 1144.91198730469 1143.68701171875 1144.98828125 1149.83068847656 1169.78869628906 1158.18896484375 1142.06420898438
955.317932128906 942.360656738281 953.275024414062 960.755310058594 956.749694824219 954.358764648438 961.272338867188 968.671264648438 974.026733398438 969.922119140625 965.162231445312 968.203125 971.337158203125 965.09619140625 974.84423828125 979.338562011719 981.633178710938 973.287231445312 970.03466796875 972.249877929688 972.164611816406 981.118530273438 979.572509765625 965.150573730469 972.585388183594 971.669738769531 970.1708984375 971.091491699219 975.307434082031 978.32568359375 981.400268554688 979.899475097656 976.648498535156 975.782897949219 975.172790527344 962.626220703125 964.289001464844 963.318237304688 965.616455078125 966.630676269531 976.087158203125 963.3525390625 965.384460449219 955.333618164062 957.071960449219 969.190673828125 965.699279785156 962.08740234375 965.587646484375 972.697326660156 973.112243652344 970.532775878906 967.492858886719 965.102722167969 969.354675292969 962.343078613281 968.432006835938 978.362670898438 968.255920410156 964.555847167969 960.190185546875 965.224365234375 970.714599609375 974.187438964844 973.326110839844 971.844970703125 969.806640625 964.862976074219 964.024658203125 967.360961914062 970.951049804688 972.026672363281 964.104370117188 973.999694824219 979.718933105469 967.245422363281 973.296752929688 964.789428710938 965.317565917969 963.562438964844 975.885192871094 977.763610839844 967.523498535156 967.5029296875 972.621765136719 969.258972167969 977.881164550781 977.649658203125 982.646606445312 977.063354492188 964.953918457031 971.252990722656 978.197082519531 984.745849609375 986.026489257812 984.083557128906 976.92333984375 973.332702636719 974.234497070312 974.296813964844 978.498596191406 981.571655273438 985.977478027344 989.880432128906 990.235900878906 986.162414550781 979.39990234375 984.010314941406 994.104614257812 988.579895019531 998.805969238281 999.302673339844 1004.84234619141 1004.46759033203 1002.87854003906 1007.77600097656 1006.17846679688 1009.53686523438 1007.53985595703 1001.84942626953 992.152404785156 999.34912109375 1008.65600585938 1018.12670898438 1029.66442871094 1040.74108886719 1043.81701660156 1047.7333984375 1056.49865722656 1067.81567382812 1077.31188964844 1073.45007324219 1079.59729003906 1076.357421875 1071.68640136719 1065.0537109375 1076.806640625 1082.333984375 1080.42944335938 1095.95654296875 1106.07067871094 1124.67492675781 1134.07653808594 1137.00659179688 1140.79943847656 1146.64208984375 1143.24584960938 1160.45349121094 1155.71081542969 1136.60144042969
941.577941894531 942.955749511719 954.033264160156 961.394470214844 960.872131347656 962.162780761719 970.599853515625 970.511352539062 969.946350097656 972.152404785156 974.449279785156 974.495971679688 971.368713378906 970.471923828125 979.167297363281 987.47998046875 980.885131835938 979.146057128906 969.885925292969 966.897094726562 964.565063476562 972.826049804688 969.6357421875 961.8349609375 969.563415527344 964.613586425781 960.664855957031 970.840393066406 966.868103027344 976.516906738281 981.832702636719 982.811706542969 979.099243164062 980.064453125 969.394348144531 963.77685546875 965.513244628906 965.331848144531 969.453979492188 959.578063964844 967.904663085938 965.3876953125 967.254821777344 961.5146484375 957.878173828125 965.4765625 966.413146972656 957.954833984375 967.39453125 961.641662597656 968.229431152344 977.265197753906 961.119201660156 963.755859375 959.326354980469 961.023681640625 960.3193359375 964.760192871094 970.649047851562 964.232788085938 957.170532226562 964.399475097656 969.734191894531 973.118286132812 966.324035644531 972.851928710938 958.057922363281 962.408996582031 962.756225585938 961.957580566406 974.536865234375 966.600402832031 967.265319824219 968.682250976562 976.216186523438 970.69287109375 963.06396484375 962.871032714844 970.658569335938 969.097717285156 968.60009765625 974.758666992188 971.279113769531 971.536499023438 962.5615234375 973.101623535156 966.946655273438 974.308410644531 970.313659667969 967.60498046875 968.432434082031 966.419799804688 976.94921875 977.747802734375 986.882507324219 977.61962890625 979.1689453125 973.64306640625 974.437622070312 976.965087890625 975.2197265625 980.736450195312 985.568725585938 991.580749511719 994.227416992188 985.572509765625 987.138427734375 995.744079589844 990.052307128906 992.899047851562 997.540954589844 989.3916015625 991.484069824219 994.622863769531 1002.10479736328 1000.63623046875 997.751953125 1001.84973144531 1000.22698974609 998.075439453125 1001.74035644531 1003.36157226562 1010.21997070312 1018.20812988281 1025.15490722656 1038.36645507812 1045.20593261719 1054.4150390625 1061.16638183594 1064.50134277344 1072.3173828125 1079.51403808594 1082.97448730469 1092.34143066406 1080.77111816406 1073.6708984375 1078.59899902344 1077.61999511719 1089.51135253906 1095.97924804688 1101.69201660156 1122.47644042969 1129.1669921875 1140.31066894531 1147.35717773438 1138.85852050781 1146.6015625 1143.07983398438 1131.67822265625 1122.92700195312
944.87939453125 943.488159179688 953.508361816406 956.160339355469 974.472900390625 966.229125976562 959.889221191406 975.993103027344 976.227722167969 972.069274902344 965.59033203125 967.5458984375 971.118041992188 979.750854492188 984.232299804688 983.332824707031 975.921447753906 977.456298828125 970.122741699219 970.355102539062 970.367248535156 959.665649414062 962.657592773438 959.964111328125 952.524658203125 960.551086425781 964.812866210938 970.254943847656 968.341979980469 975.306640625 969.295532226562 977.884155273438 976.422424316406 981.982116699219 968.172729492188 972.597229003906 962.338928222656 962.077209472656 969.193298339844 959.779907226562 962.474060058594 969.6357421875 959.9609375 959.743408203125 966.429565429688 962.938598632812 955.954956054688 960.229125976562 967.563903808594 957.685546875 968.119689941406 972.072692871094 974.05322265625 971.821166992188 959.347412109375 961.422607421875 968.268371582031 968.904174804688 965.975646972656 959.8603515625 963.995971679688 966.243835449219 964.126342773438 960.641357421875 964.418395996094 960.966552734375 958.707092285156 958.461791992188 961.66748046875 958.093139648438 969.215087890625 967.031799316406 969.850463867188 969.352294921875 967.928955078125 966.145935058594 967.828796386719 973.204162597656 966.519775390625 965.838500976562 972.907043457031 976.025085449219 966.25537109375 979.087951660156 972.130126953125 971.840270996094 966.152709960938 971.24951171875 962.20556640625 958.166564941406 961.697143554688 968.119506835938 972.308044433594 975.341674804688 979.697387695312 983.586853027344 978.444458007812 974.111022949219 968.423522949219 966.240905761719 975.506774902344 988.081481933594 996.236022949219 989.571838378906 990.609680175781 994.33203125 989.081665039062 990.116394042969 983.499816894531 988.907531738281 992.117553710938 996.398071289062 999.230895996094 987.864929199219 996.227416992188 996.976989746094 995.711975097656 1003.2958984375 1005.44299316406 1005.76049804688 1004.02581787109 1011.05474853516 1008.35931396484 1020.23382568359 1031.8017578125 1048.82043457031 1044.66259765625 1047.08264160156 1050.00219726562 1058.216796875 1065.69213867188 1073.91687011719 1084.78491210938 1087.83715820312 1083.41162109375 1083.05297851562 1081.7490234375 1092.19409179688 1091.49108886719 1095.99487304688 1103.63256835938 1118.28515625 1123.08264160156 1129.03527832031 1142.57739257812 1146.87133789062 1135.76159667969 1139.16650390625 1129.80505371094 1122.33068847656
949.83642578125 949.347961425781 947.260803222656 957.630554199219 968.323425292969 966.093627929688 967.575317382812 974.740234375 972.465026855469 973.645446777344 970.83837890625 970.247680664062 964.564819335938 982.072448730469 983.163391113281 985.084716796875 980.029113769531 976.948425292969 970.473083496094 972.601257324219 969.795043945312 966.194396972656 975.270263671875 964.131896972656 969.369445800781 964.110961914062 960.856506347656 967.576599121094 961.715393066406 968.380615234375 971.189147949219 967.696350097656 966.18115234375 975.206848144531 971.655822753906 967.188659667969 955.974304199219 962.466125488281 954.923400878906 959.174865722656 966.315124511719 964.201721191406 953.772827148438 966.345458984375 966.694274902344 964.549255371094 957.010803222656 959.543395996094 958.401733398438 955.02978515625 964.735534667969 961.127868652344 971.416198730469 964.547973632812 964.677062988281 963.208801269531 965.750732421875 962.739624023438 951.177124023438 959.887512207031 963.248596191406 967.573669433594 961.753601074219 950.605407714844 963.703369140625 959.470520019531 954.760803222656 960.065368652344 958.769775390625 962.290954589844 964.783325195312 963.7294921875 961.571960449219 978.0400390625 971.28076171875 973.803405761719 975.28271484375 978.707702636719 965.202453613281 958.093200683594 958.907409667969 975.937805175781 972.472412109375 968.436462402344 972.402160644531 967.94970703125 972.181945800781 969.376953125 962.174255371094 962.011779785156 962.957885742188 965.067016601562 967.115539550781 972.744934082031 983.463989257812 980.861083984375 980.987548828125 975.27783203125 967.426391601562 972.22119140625 984.962951660156 985.584594726562 997.537170410156 991.964538574219 988.266479492188 993.288024902344 987.485778808594 990.716491699219 981.2666015625 990.4267578125 994.229187011719 989.629760742188 990.260375976562 991.22119140625 988.995849609375 996.6728515625 996.296752929688 995.230285644531 1004.30480957031 1012.22222900391 1008.53405761719 1008.08752441406 1019.54400634766 1031.17614746094 1034.48352050781 1043.38244628906 1030.72192382812 1036.78454589844 1042.38745117188 1046.63146972656 1058.41662597656 1068.8212890625 1080.2490234375 1081.50048828125 1088.65698242188 1088.673828125 1090.59521484375 1096.8466796875 1093.60974121094 1096.74084472656 1096.09558105469 1110.03942871094 1118.296875 1129.95483398438 1127.64440917969 1137.66906738281 1127.21594238281 1120.73059082031 1125.35974121094 1114.35363769531
952.104736328125 952.795715332031 949.5419921875 966.845275878906 967.499572753906 967.380676269531 975.587951660156 967.850036621094 972.132629394531 965.688415527344 965.752563476562 965.990600585938 970.360412597656 968.993103027344 972.722778320312 982.337097167969 969.927062988281 969.440002441406 967.709716796875 967.30078125 968.162902832031 968.797058105469 960.107666015625 967.406311035156 969.473510742188 952.315185546875 953.652709960938 968.299682617188 968.0693359375 965.622985839844 971.078125 964.086364746094 970.853637695312 968.100341796875 960.481872558594 962.099304199219 960.5634765625 956.624816894531 952.175231933594 952.839172363281 958.529357910156 966.098022460938 958.149658203125 961.948913574219 965.183837890625 969.446716308594 954.937255859375 956.158630371094 956.769714355469 958.771545410156 961.791442871094 963.6298828125 966.375 971.677124023438 967.634582519531 966.764343261719 960.117309570312 954.298950195312 961.643676757812 963.452087402344 957.011657714844 960.935913085938 960.296203613281 954.486755371094 953.038330078125 952.259216308594 952.908813476562 954.14794921875 955.408020019531 956.049377441406 960.535461425781 953.658569335938 968.171691894531 979.296020507812 973.706787109375 972.561889648438 972.761352539062 973.713562011719 969.175354003906 966.741516113281 965.017822265625 970.2724609375 967.370056152344 968.607666015625 977.700927734375 967.209655761719 966.616088867188 969.663757324219 964.84326171875 968.241088867188 969.658020019531 969.0302734375 964.646484375 970.45947265625 976.379760742188 975.165466308594 980.165832519531 978.361267089844 980.35986328125 983.508422851562 986.859680175781 991.109069824219 986.015563964844 985.324768066406 987.213562011719 983.213745117188 983.606079101562 986.563598632812 985.767395019531 990.485229492188 992.643798828125 988.89208984375 982.283630371094 987.536499023438 995.7705078125 994.993347167969 997.342529296875 1004.92407226562 1013.60729980469 1004.76489257812 1015.41430664062 1020.20550537109 1026.48449707031 1034.25012207031 1036.36254882812 1039.37890625 1024.36120605469 1027.34594726562 1035.93981933594 1051.76538085938 1053.98791503906 1066.29309082031 1080.5302734375 1093.13903808594 1092.82373046875 1086.89489746094 1094.40551757812 1090.05505371094 1100.8134765625 1099.9755859375 1106.15649414062 1105.39904785156 1113.49304199219 1125.333984375 1132.67993164062 1123.92883300781 1121.75915527344 1110.41564941406 1106.10876464844 1114.02404785156
952.252136230469 957.467163085938 957.420532226562 963.815368652344 970.348510742188 967.432495117188 975.950744628906 968.538757324219 968.106872558594 972.491394042969 974.502136230469 966.872619628906 962.404602050781 965.855651855469 977.776184082031 976.788940429688 976.768249511719 972.2646484375 973.319091796875 973.475891113281 974.1240234375 977.69677734375 966.940551757812 962.488037109375 953.290466308594 953.026306152344 957.048583984375 959.68115234375 960.523010253906 961.4326171875 974.766296386719 968.613403320312 972.23388671875 971.525451660156 962.167419433594 955.958618164062 956.802917480469 954.1513671875 950.009460449219 956.926330566406 958.899230957031 963.194213867188 958.5546875 959.173034667969 963.582702636719 964.693969726562 969.248718261719 966.020690917969 961.224487304688 958.192932128906 954.901794433594 962.538024902344 967.365112304688 970.964721679688 966.273132324219 970.250793457031 962.621276855469 949.573669433594 947.195495605469 955.73876953125 956.663269042969 957.498168945312 954.454528808594 958.223510742188 950.420959472656 951.802185058594 951.493957519531 955.177429199219 953.8681640625 957.905883789062 963.893371582031 964.489013671875 960.859130859375 970.317504882812 969.444274902344 964.955627441406 969.238708496094 968.558959960938 970.912292480469 961.55908203125 967.261108398438 971.274963378906 966.400207519531 968.561340332031 979.714782714844 971.878540039062 968.251770019531 957.985534667969 964.505249023438 968.658325195312 967.29833984375 966.895141601562 976.146728515625 972.936645507812 979.795288085938 979.705627441406 975.086181640625 974.394348144531 975.973327636719 983.366760253906 990.149719238281 995.318176269531 991.278869628906 980.974731445312 975.62890625 981.495483398438 986.495483398438 978.952514648438 987.021545410156 991.045288085938 993.639526367188 985.486694335938 978.283386230469 976.352905273438 984.625610351562 995.571716308594 1001.6484375 1014.38903808594 1006.19781494141 1007.90875244141 1012.03063964844 1015.25347900391 1020.25799560547 1025.9931640625 1033.37060546875 1035.98449707031 1034.88220214844 1030.43530273438 1038.79467773438 1045.46630859375 1058.6201171875 1067.10363769531 1076.77099609375 1092.75280761719 1095.64233398438 1096.59619140625 1094.38305664062 1086.15710449219 1099.95568847656 1108.00146484375 1106.98754882812 1107.01623535156 1105.07238769531 1119.39331054688 1115.275390625 1108.40112304688 1108.26208496094 1103.84814453125 1108.98156738281 1109.38171386719
958.630676269531 969.052551269531 967.423522949219 965.152465820312 960.781616210938 970.239685058594 973.222412109375 974.772399902344 972.147521972656 978.631286621094 977.492431640625 979.849914550781 971.22119140625 967.370422363281 973.817077636719 974.114685058594 978.070190429688 975.185913085938 976.014892578125 972.334899902344 980.458801269531 978.582580566406 972.235473632812 969.863220214844 956.718078613281 956.583435058594 956.593627929688 950.950378417969 953.013671875 969.602416992188 972.222045898438 967.082885742188 966.053955078125 965.755920410156 963.189575195312 965.587219238281 958.933349609375 948.753173828125 950.687744140625 965.593200683594 962.151733398438 958.848449707031 955.507629394531 959.244812011719 966.933227539062 971.068359375 972.715393066406 965.879272460938 967.750122070312 955.090576171875 949.197387695312 954.712646484375 963.840515136719 965.7294921875 967.614807128906 964.488525390625 948.293273925781 946.355773925781 942.793518066406 943.937255859375 958.310363769531 963.570434570312 955.936828613281 955.099731445312 948.071594238281 946.105590820312 952.386840820312 949.864135742188 956.148559570312 958.909851074219 957.689880371094 966.430358886719 965.947387695312 968.654235839844 964.196105957031 961.483764648438 966.52783203125 972.684936523438 959.443359375 963.836242675781 966.504577636719 963.1767578125 972.515380859375 970.357055664062 979.722595214844 973.12255859375 964.360778808594 962.641967773438 966.320007324219 971.027160644531 972.733093261719 973.937927246094 975.083251953125 974.002258300781 977.592651367188 972.568908691406 974.314086914062 972.941772460938 971.879028320312 986.529846191406 989.924621582031 982.945678710938 979.601013183594 980.727722167969 979.265991210938 979.668029785156 981.122131347656 980.284057617188 985.378295898438 987.865661621094 988.324890136719 986.239440917969 982.354614257812 987.247314453125 990.124450683594 993.718139648438 1003.58935546875 1002.27551269531 1008.33032226562 1008.09490966797 1010.76519775391 1016.02789306641 1015.98449707031 1023.50897216797 1036.02917480469 1043.78247070312 1031.27478027344 1030.95483398438 1036.16943359375 1043.892578125 1058.54870605469 1067.00061035156 1076.84362792969 1091.61633300781 1090.95056152344 1092.47119140625 1095.35754394531 1088.35705566406 1088.04675292969 1101.91577148438 1107.84155273438 1107.48620605469 1104.39074707031 1106.96899414062 1109.95642089844 1100.689453125 1106.76123046875 1102.93701171875 1098.79235839844 1105.71533203125
962.361022949219 971.485534667969 971.676635742188 974.187194824219 969.668579101562 978.134521484375 972.290649414062 977.215393066406 977.07568359375 979.021484375 985.741455078125 972.094299316406 974.897705078125 974.106689453125 967.515686035156 972.765747070312 972.314147949219 970.788269042969 978.375427246094 980.774108886719 981.401123046875 969.747619628906 967.868835449219 967.815002441406 962.96484375 957.425415039062 961.976928710938 970.39990234375 965.587463378906 962.869262695312 966.53271484375 960.481079101562 962.984375 961.713562011719 966.939575195312 965.126770019531 964.010375976562 956.626586914062 956.910339355469 954.805847167969 958.360534667969 963.264770507812 961.202209472656 958.782592773438 965.206787109375 971.073486328125 978.374145507812 970.659851074219 970.400146484375 958.1435546875 954.444091796875 954.680786132812 963.572998046875 958.879760742188 957.850830078125 957.773620605469 950.420104980469 946.938842773438 952.0625 953.525146484375 954.6884765625 954.575988769531 962.178039550781 952.6455078125 944.31787109375 940.045837402344 950.234802246094 956.892517089844 955.355834960938 950.136047363281 957.85009765625 962.371520996094 957.242980957031 958.074768066406 945.13427734375 961.321594238281 963.881408691406 961.523254394531 958.535583496094 954.685974121094 957.477905273438 962.579406738281 967.712646484375 972.094604492188 972.703979492188 971.154846191406 968.222534179688 962.7451171875 976.328247070312 973.3837890625 975.992797851562 977.1513671875 969.712158203125 973.315673828125 970.541015625 972.5244140625 973.570678710938 964.225158691406 960.911987304688 966.287719726562 976.497619628906 968.9404296875 973.872619628906 975.761352539062 977.256469726562 973.21875 983.884155273438 977.240173339844 977.094421386719 985.759094238281 983.757751464844 989.265075683594 982.560913085938 987.09033203125 989.637451171875 990.416381835938 1006.4375 1000.26062011719 1006.94567871094 1012.47760009766 1019.79974365234 1016.60375976562 1024.45385742188 1022.96368408203 1025.66882324219 1035.52685546875 1030.61303710938 1030.82580566406 1039.23559570312 1041.34631347656 1052.9521484375 1061.91662597656 1065.30139160156 1085.224609375 1089.46472167969 1084.31799316406 1091.89025878906 1086.6513671875 1085.83081054688 1097.59143066406 1096.06005859375 1097.45104980469 1101.77905273438 1102.42919921875 1107.92590332031 1094.08947753906 1097.11950683594 1095.05419921875 1093.98217773438 1097.59460449219
965.810119628906 971.338806152344 974.504638671875 973.922241210938 970.406188964844 980.255065917969 973.036499023438 977.766479492188 972.168518066406 977.822509765625 971.052612304688 970.664855957031 963.657531738281 973.424194335938 975.840698242188 973.916076660156 967.841979980469 966.648498535156 969.984985351562 972.6279296875 976.139953613281 966.850891113281 964.980590820312 965.788696289062 963.191162109375 954.711853027344 952.255737304688 958.404296875 966.952026367188 967.638244628906 961.082580566406 961.735961914062 961.5185546875 965.280700683594 968.580444335938 967.630126953125 964.439514160156 965.744384765625 960.609436035156 955.690490722656 957.371765136719 952.787292480469 960.366271972656 958.310607910156 964.163269042969 967.528930664062 969.576293945312 968.5947265625 958.215637207031 947.154479980469 958.524169921875 959.158508300781 965.58251953125 962.921325683594 956.178344726562 949.195495605469 950.490417480469 949.643005371094 963.527526855469 962.054504394531 968.669860839844 963.716918945312 960.01904296875 955.998962402344 949.072692871094 946.146484375 953.80224609375 962.92919921875 957.473754882812 960.174438476562 963.569580078125 958.518737792969 955.635559082031 954.855834960938 950.873413085938 958.508666992188 957.7275390625 960.016723632812 950.47021484375 951.170593261719 951.24951171875 966.684143066406 967.852111816406 964.031372070312 976.659973144531 976.028503417969 972.173095703125 974.673950195312 974.553833007812 973.861755371094 972.451049804688 971.475524902344 978.259765625 964.694763183594 972.001708984375 965.380737304688 973.482360839844 964.464538574219 968.936828613281 966.673706054688 971.857238769531 970.684143066406 979.920776367188 980.2685546875 979.364562988281 987.915100097656 978.668579101562 984.679016113281 974.979187011719 977.357788085938 985.624877929688 989.22021484375 985.461242675781 984.266784667969 989.536010742188 993.452392578125 996.511291503906 1004.40148925781 1002.60882568359 1015.62640380859 1007.58685302734 1020.76580810547 1025.04943847656 1022.47711181641 1023.08880615234 1022.23712158203 1021.62084960938 1027.88134765625 1036.94018554688 1048.71215820312 1054.39147949219 1061.3525390625 1066.68994140625 1078.12878417969 1082.08483886719 1085.10119628906 1094.61511230469 1087.01684570312 1085.72583007812 1089.57983398438 1090.65600585938 1097.76135253906 1093.197265625 1089.71337890625 1097.23693847656 1096.67578125 1102.03759765625 1092.96496582031 1089.46691894531 1092.78479003906
963.677917480469 962.645446777344 969.480590820312 973.394409179688 966.515869140625 972.687866210938 977.918151855469 976.150634765625 971.458801269531 968.172424316406 967.982666015625 968.839294433594 967.670288085938 968.244689941406 971.205200195312 975.123352050781 971.021301269531 971.436096191406 971.924438476562 963.595275878906 970.191345214844 972.529296875 966.826965332031 961.095153808594 956.245971679688 951.649353027344 948.237976074219 953.924560546875 961.022521972656 966.833312988281 961.455627441406 969.565002441406 970.602783203125 965.098999023438 966.272094726562 962.745056152344 963.844787597656 956.987854003906 957.093811035156 955.54296875 959.829284667969 958.574645996094 956.372619628906 944.886596679688 953.605895996094 961.144714355469 963.076843261719 947.300659179688 955.96875 950.239624023438 950.096435546875 956.084228515625 961.857421875 958.175170898438 950.779357910156 950.192321777344 948.551574707031 950.325805664062 957.590026855469 955.683776855469 952.321044921875 953.050537109375 956.261596679688 957.945068359375 958.050109863281 954.441345214844 944.304931640625 961.531005859375 961.48046875 953.697998046875 949.552673339844 953.575805664062 949.458312988281 952.006164550781 956.451721191406 958.751098632812 961.928527832031 953.726379394531 947.237426757812 957.745422363281 962.078125 965.560424804688 964.883056640625 960.667846679688 966.890808105469 976.974060058594 969.103881835938 973.787353515625 978.365966796875 976.297058105469 971.544006347656 973.609252929688 969.786987304688 965.048706054688 967.892700195312 969.672485351562 976.299438476562 972.905151367188 965.193725585938 973.9453125 969.65771484375 979.678283691406 984.843017578125 978.914794921875 981.248657226562 987.124816894531 982.560546875 987.649963378906 984.818237304688 986.5595703125 988.663269042969 981.530090332031 984.863891601562 985.748962402344 997.288208007812 992.824340820312 1010.26892089844 1001.29730224609 1002.2734375 1011.57537841797 1019.83520507812 1019.56115722656 1012.12506103516 1011.92327880859 1019.56170654297 1018.61151123047 1024.84790039062 1033.20068359375 1033.92358398438 1046.91455078125 1051.17578125 1059.60314941406 1059.18078613281 1071.77062988281 1082.74658203125 1086.16882324219 1094.02221679688 1098.71166992188 1095.6728515625 1087.85339355469 1092.08264160156 1087.6015625 1082.31701660156 1081.27978515625 1083.35974121094 1089.3837890625 1101.21643066406 1088.87658691406 1091.86352539062 1096.10827636719
960.386840820312 964.952941894531 959.008911132812 963.916564941406 969.047668457031 983.341857910156 984.1962890625 967.939453125 966.608520507812 971.197082519531 964.704895019531 959.773376464844 965.110046386719 966.50634765625 964.595642089844 970.706848144531 973.599365234375 972.867858886719 975.489135742188 968.707580566406 964.330749511719 966.563720703125 965.195068359375 944.871459960938 942.057312011719 948.036499023438 952.959045410156 944.774536132812 955.745422363281 954.774719238281 963.701232910156 961.58935546875 965.348815917969 960.665161132812 964.155456542969 959.019348144531 951.430847167969 953.003967285156 958.675476074219 952.444274902344 956.908813476562 950.902954101562 962.629638671875 961.011962890625 952.016479492188 957.173828125 954.985534667969 954.770202636719 943.075561523438 946.657897949219 943.648803710938 956.290710449219 952.822143554688 953.445922851562 962.041809082031 953.938110351562 949.448364257812 958.186157226562 956.295104980469 940.343444824219 947.791748046875 956.479736328125 944.899597167969 953.335327148438 954.769653320312 957.905822753906 956.281494140625 960.234924316406 964.489868164062 960.721069335938 960.072692871094 957.679504394531 953.953735351562 954.776184082031 954.871215820312 957.447265625 953.590148925781 952.960510253906 955.094909667969 957.239135742188 962.806945800781 964.834411621094 970.760070800781 970.536865234375 975.375549316406 977.679626464844 972.641906738281 972.352355957031 974.830078125 976.127807617188 966.122985839844 968.349243164062 972.5283203125 972.589538574219 970.092529296875 975.859130859375 972.831176757812 971.583435058594 971.065246582031 973.608459472656 980.097473144531 983.197937011719 977.3720703125 980.153442382812 978.249328613281 984.660095214844 982.631103515625 984.379455566406 986.245483398438 994.222351074219 993.858703613281 992.365966796875 985.009155273438 985.88720703125 992.002014160156 989.998596191406 1000.61712646484 998.802429199219 1009.82543945312 1007.84631347656 1010.54260253906 1014.66809082031 1007.61041259766 1002.78656005859 1015.63812255859 1013.552734375 1026.60900878906 1032.76062011719 1031.80065917969 1036.13830566406 1047.37145996094 1052.32568359375 1052.69128417969 1077.8056640625 1082.71411132812 1085.14172363281 1097.45227050781 1095.1796875 1094.62524414062 1093.51831054688 1086.71936035156 1079.57788085938 1072.82055664062 1072.91186523438 1078.55090332031 1079.23852539062 1085.76989746094 1089.80310058594 1087.85278320312 1088.62756347656
963.8125 958.825744628906 959.989379882812 964.970886230469 972.831726074219 980.562194824219 978.462707519531 976.414245605469 972.400695800781 969.517883300781 968.717712402344 963.498107910156 961.595336914062 962.083923339844 967.400451660156 969.409851074219 968.859130859375 975.356750488281 965.256286621094 966.157836914062 957.651245117188 962.736206054688 959.176330566406 949.44091796875 951.306884765625 947.887329101562 955.153259277344 952.210632324219 953.292785644531 943.342529296875 949.42822265625 957.9423828125 953.330993652344 951.067626953125 965.561584472656 960.960083007812 959.535949707031 956.763793945312 953.330139160156 951.476501464844 945.757507324219 954.229248046875 959.199523925781 963.344482421875 955.411315917969 955.517517089844 957.845275878906 951.937194824219 954.434387207031 949.94140625 948.573120117188 944.461120605469 947.371032714844 956.671508789062 961.732788085938 961.602111816406 954.952697753906 955.235290527344 955.793151855469 945.8388671875 953.294189453125 951.307189941406 952.34619140625 954.423767089844 953.771484375 966.555603027344 956.954345703125 959.174682617188 961.965942382812 959.533081054688 960.376647949219 964.945617675781 959.862915039062 961.675659179688 953.35498046875 951.104064941406 951.596801757812 961.534545898438 958.252868652344 959.828918457031 961.971862792969 968.675048828125 972.507934570312 974.048217773438 973.564758300781 974.80517578125 967.008972167969 967.714233398438 966.894836425781 965.670776367188 959.890075683594 961.124572753906 968.541870117188 973.02392578125 974.679382324219 984.035766601562 968.573852539062 972.272277832031 975.071533203125 978.1806640625 982.235168457031 977.354858398438 974.33203125 970.100524902344 973.154602050781 986.618103027344 984.538208007812 978.954162597656 989.729797363281 994.480529785156 993.150207519531 990.532165527344 999.755737304688 999.817260742188 993.5615234375 988.476379394531 998.097778320312 1003.71710205078 1006.81768798828 1008.98217773438 1002.93988037109 1012.6474609375 1011.45721435547 1005.91009521484 1010.52667236328 1018.83477783203 1023.15045166016 1032.03173828125 1028.64514160156 1041.10424804688 1044.69982910156 1050.22985839844 1056.68762207031 1070.50366210938 1084.28356933594 1097.947265625 1096.15734863281 1091.23815917969 1086.88732910156 1089.25463867188 1076.17407226562 1068.81066894531 1063.37023925781 1068.61743164062 1063.33569335938 1075.57189941406 1073.17822265625 1085.15515136719 1085.83361816406 1082.74157714844
956.225891113281 954.609985351562 956.575256347656 962.057312011719 968.975036621094 977.283813476562 973.328063964844 972.149169921875 973.452880859375 973.666809082031 968.782470703125 964.071716308594 961.879211425781 955.400573730469 959.860778808594 956.0927734375 965.056457519531 966.283935546875 960.190307617188 954.650695800781 953.014770507812 956.442199707031 962.034484863281 955.632934570312 952.887817382812 949.229064941406 957.940795898438 945.255676269531 947.437316894531 949.2802734375 955.691467285156 957.903259277344 954.266235351562 947.199157714844 957.786437988281 962.732666015625 958.790405273438 958.018615722656 955.501159667969 954.0283203125 953.013488769531 947.607299804688 958.25927734375 963.849304199219 963.359313964844 949.959838867188 952.000183105469 954.103637695312 952.656677246094 950.798522949219 940.413879394531 945.768920898438 946.637512207031 960.176513671875 967.920959472656 954.669555664062 960.911743164062 946.328430175781 960.584228515625 952.394348144531 961.765563964844 956.535461425781 945.760192871094 957.895263671875 961.78173828125 961.259582519531 965.886474609375 959.569274902344 955.4140625 956.387023925781 961.558532714844 961.002868652344 961.761413574219 955.3583984375 950.720336914062 951.419860839844 955.791931152344 955.263549804688 966.120666503906 965.50244140625 962.676330566406 961.813598632812 971.039672851562 971.307983398438 966.635681152344 972.577758789062 972.687683105469 967.135009765625 962.862365722656 962.361206054688 956.496154785156 961.03564453125 976.524353027344 971.234252929688 980.171630859375 982.595031738281 973.237670898438 969.344421386719 978.8134765625 978.850708007812 979.335021972656 974.312622070312 978.698547363281 978.158203125 974.58447265625 980.926513671875 983.190612792969 990.97509765625 995.236389160156 989.505065917969 993.027587890625 989.421325683594 990.749877929688 997.536804199219 997.255065917969 996.852905273438 997.874206542969 1000.67150878906 1004.45056152344 992.292907714844 991.750183105469 998.279296875 1007.78656005859 1007.03881835938 1013.78363037109 1014.56457519531 1024.75659179688 1032.37854003906 1034.84399414062 1034.91650390625 1045.12145996094 1055.88159179688 1063.22253417969 1076.55822753906 1087.55651855469 1101.97412109375 1103.25500488281 1088.00415039062 1076.83581542969 1077.47619628906 1064.53186035156 1052.25024414062 1055.64855957031 1060.55712890625 1060.39404296875 1058.92443847656 1068.78198242188 1076.62561035156 1077.83654785156 1076.93469238281
955.470886230469 955.822082519531 963.68505859375 963.299621582031 958.079956054688 966.221069335938 972.559814453125 974.812805175781 962.957275390625 963.941589355469 955.301391601562 956.736694335938 959.687805175781 958.10009765625 960.661926269531 962.305114746094 973.462707519531 969.864868164062 960.365844726562 941.415344238281 938.60986328125 953.690612792969 960.560363769531 957.622436523438 954.002136230469 948.953186035156 949.389221191406 944.918823242188 955.80322265625 946.432312011719 949.291381835938 955.20654296875 949.284606933594 946.362182617188 942.297546386719 956.994445800781 955.690612792969 952.107604980469 953.811889648438 947.592895507812 951.208557128906 953.368103027344 954.683532714844 953.067993164062 947.896850585938 941.016357421875 946.826110839844 956.096313476562 952.192199707031 952.112731933594 945.743469238281 953.912292480469 954.329956054688 955.448364257812 955.815734863281 955.55322265625 949.846923828125 955.947204589844 957.284423828125 960.958374023438 961.289978027344 960.376159667969 951.363525390625 954.941101074219 957.459594726562 960.69189453125 963.611450195312 957.287902832031 961.712646484375 963.046997070312 961.422424316406 968.210632324219 963.454467773438 970.965087890625 958.091186523438 961.51904296875 967.193420410156 965.878356933594 963.918701171875 966.868530273438 964.953063964844 960.613464355469 968.948791503906 970.147338867188 974.404174804688 969.684631347656 973.690734863281 973.280700683594 970.495910644531 965.09423828125 961.855163574219 959.136962890625 973.509460449219 969.211181640625 966.576049804688 982.599365234375 976.660339355469 968.48193359375 978.039611816406 974.973876953125 967.019470214844 975.041748046875 987.030090332031 985.789184570312 980.948181152344 985.178344726562 984.855712890625 992.065551757812 991.894775390625 987.156066894531 991.243225097656 985.332397460938 992.500305175781 1002.23175048828 997.864501953125 999.658630371094 998.958557128906 1005.26977539062 1000.12878417969 993.314147949219 995.744812011719 997.636474609375 1014.89086914062 1016.89135742188 1016.36584472656 1020.67248535156 1024.56713867188 1035.74731445312 1034.6875 1041.72058105469 1053.41223144531 1058.501953125 1072.59240722656 1078.70068359375 1083.06494140625 1096.65600585938 1090.11962890625 1073.16284179688 1061.61987304688 1062.03271484375 1048.32666015625 1042.91772460938 1040.56201171875 1036.0322265625 1043.97180175781 1046.19555664062 1058.53649902344 1056.86022949219 1063.23156738281 1063.03833007812
957.690612792969 954.121826171875 960.591979980469 961.284729003906 957.201843261719 965.527770996094 967.451965332031 971.217346191406 966.801147460938 964.896301269531 959.858642578125 959.40087890625 960.765258789062 961.886169433594 967.496765136719 967.425720214844 961.488037109375 963.731750488281 957.675964355469 949.00537109375 938.456420898438 944.204772949219 959.304321289062 954.19287109375 950.945434570312 947.162353515625 950.769775390625 947.658569335938 939.482727050781 951.049865722656 950.474792480469 948.933959960938 954.044921875 948.79150390625 948.837097167969 943.62353515625 948.30712890625 949.97607421875 948.614318847656 939.766723632812 939.950012207031 949.373474121094 951.993347167969 953.591674804688 953.337036132812 945.131286621094 940.965759277344 946.002746582031 952.780029296875 955.918395996094 954.49462890625 950.161010742188 950.098327636719 960.711730957031 962.665222167969 957.259094238281 952.011779785156 957.517272949219 963.994201660156 962.200378417969 962.45166015625 959.625 956.316528320312 954.375122070312 955.513305664062 958.963745117188 964.616455078125 962.148803710938 957.755676269531 961.176574707031 964.094848632812 974.539489746094 969.921325683594 965.169372558594 968.5908203125 965.179809570312 966.74951171875 962.3583984375 971.750366210938 970.105651855469 968.155883789062 977.124694824219 979.164306640625 974.344543457031 975.962707519531 969.78955078125 972.460754394531 965.265197753906 965.789367675781 969.430419921875 966.381958007812 961.073181152344 959.718017578125 967.643127441406 969.05517578125 967.299926757812 974.446960449219 973.576171875 971.084838867188 965.231384277344 967.284729003906 964.714660644531 987.895874023438 993.029907226562 990.223937988281 988.113037109375 998.048278808594 998.302612304688 1002.02740478516 996.070861816406 1001.98608398438 994.184936523438 995.514221191406 996.635131835938 1006.00073242188 1004.54333496094 1010.17535400391 1008.67919921875 1004.14538574219 1002.69244384766 1001.98034667969 1006.62506103516 1009.47796630859 1012.51959228516 1015.09075927734 1020.09594726562 1029.50158691406 1038.2470703125 1042.18957519531 1042.15795898438 1055.29382324219 1066.482421875 1075.29919433594 1078.20397949219 1080.79260253906 1087.74060058594 1076.61010742188 1071.921875 1059.54016113281 1050.58386230469 1044.85009765625 1028.07971191406 1026.83581542969 1033.11376953125 1036.86828613281 1041.47863769531 1046.50219726562 1047.64990234375 1059.70617675781 1063.275390625
951.632629394531 956.265563964844 958.229919433594 967.217224121094 967.821411132812 970.454467773438 967.729736328125 966.033447265625 967.20556640625 969.429748535156 962.329528808594 952.859252929688 954.347900390625 958.5361328125 961.775695800781 963.651672363281 959.268249511719 957.633117675781 961.310119628906 948.694580078125 946.699829101562 943.715515136719 945.316955566406 955.503784179688 954.683898925781 945.102172851562 945.151489257812 946.52734375 949.562194824219 949.613464355469 951.00634765625 947.245849609375 948.654663085938 952.129943847656 959.095642089844 948.601806640625 938.867553710938 956.713684082031 952.438049316406 943.454345703125 949.519165039062 948.800231933594 950.492126464844 952.39599609375 957.5400390625 954.712036132812 946.648742675781 955.666137695312 958.136352539062 952.631896972656 952.399963378906 951.921508789062 963.5771484375 960.476745605469 963.663208007812 959.434509277344 959.706420898438 959.177368164062 957.536315917969 958.939758300781 966.013793945312 962.0888671875 969.297729492188 969.119934082031 968.462097167969 963.586486816406 969.412048339844 969.5078125 959.886352539062 964.810302734375 959.983337402344 967.3095703125 958.160827636719 960.734130859375 965.103576660156 964.173278808594 961.830200195312 966.607543945312 969.927001953125 972.284606933594 971.671142578125 972.932800292969 971.774291992188 965.191284179688 971.418518066406 969.7158203125 970.875427246094 979.493591308594 974.625915527344 970.426391601562 967.369018554688 963.931579589844 960.720275878906 966.509521484375 963.548767089844 966.905639648438 977.756652832031 971.649963378906 970.024169921875 967.881774902344 974.755126953125 982.312683105469 989.584167480469 993.631713867188 993.658630371094 991.231872558594 997.503112792969 997.684509277344 993.634155273438 1006.71893310547 1007.40368652344 1003.59710693359 1000.72106933594 1008.248046875 1014.96038818359 1021.79180908203 1014.22778320312 1015.43023681641 1017.7607421875 1018.50653076172 1015.93951416016 1023.3115234375 1016.12182617188 1011.38464355469 1016.73919677734 1020.15765380859 1024.66271972656 1035.78088378906 1035.37512207031 1042.29504394531 1054.04565429688 1064.33935546875 1079.56335449219 1073.33532714844 1077.69860839844 1076.81896972656 1065.67138671875 1044.93957519531 1042.3583984375 1036.9921875 1034.60339355469 1022.34350585938 1015.65893554688 1026.3564453125 1038.14233398438 1035.52526855469 1047.24365234375 1040.23205566406 1040.32946777344 1046.69018554688
954.326354980469 958.650024414062 961.548400878906 957.605712890625 958.315246582031 966.72314453125 958.486267089844 960.072448730469 960.814208984375 962.082641601562 960.309936523438 956.755065917969 949.088256835938 948.75537109375 948.43017578125 955.173950195312 954.359741210938 954.604248046875 951.003173828125 947.504150390625 940.22412109375 941.526916503906 949.033874511719 950.996704101562 947.963928222656 942.041137695312 944.763488769531 949.09765625 947.783752441406 949.306274414062 948.945007324219 953.816162109375 956.287231445312 951.413757324219 949.920471191406 944.539672851562 935.138854980469 952.656799316406 957.469909667969 955.006958007812 959.007385253906 955.306213378906 948.896789550781 952.510192871094 952.672241210938 957.810485839844 954.25390625 949.071533203125 954.400329589844 946.348815917969 936.176025390625 946.470703125 951.980529785156 960.094909667969 969.87353515625 961.605773925781 962.490905761719 955.745178222656 965.581604003906 962.654418945312 962.415283203125 968.896484375 965.68505859375 978.524475097656 968.874633789062 961.745666503906 974.10791015625 976.528137207031 970.68896484375 966.75 957.585510253906 964.722229003906 960.971557617188 961.394592285156 965.116455078125 970.909057617188 968.560180664062 972.360656738281 967.312744140625 969.494384765625 972.2890625 965.830932617188 970.44970703125 967.813781738281 967.044921875 971.836791992188 973.116638183594 978.143188476562 978.059326171875 975.718505859375 965.838684082031 960.597839355469 968.85986328125 965.780517578125 967.929443359375 964.558471679688 971.651000976562 979.890258789062 980.518310546875 978.396606445312 982.457153320312 986.978881835938 986.472290039062 984.708984375 985.151672363281 989.537048339844 994.492248535156 990.145080566406 992.86279296875 997.517761230469 999.43994140625 1003.17828369141 1019.67340087891 1022.60607910156 1023.74542236328 1030.0693359375 1025.28991699219 1025.77062988281 1022.33776855469 1022.25775146484 1022.46343994141 1022.85015869141 1021.73541259766 1022.94635009766 1022.77764892578 1020.94970703125 1031.869140625 1035.30163574219 1038.77209472656 1041.73168945312 1057.03039550781 1063.001953125 1063.1025390625 1060.69616699219 1057.79833984375 1058.69995117188 1053.14038085938 1037.83703613281 1032.32641601562 1023.3017578125 1027.02124023438 1026.21508789062 1020.02294921875 1020.89343261719 1040.34777832031 1037.02978515625 1040.60559082031 1035.31860351562 1035.63146972656 1041.04760742188
