NCOLS 150
NROWS 37
XLLCORNER 7394249
YLLCORNER 4843859
CELLSIZE 30
NODATA_VALUE -9999
1010.78442382812 1007.125 1005.60144042969 1001.201171875 1003.33453369141 1001.24487304688 1004.07537841797 1020.80895996094 1024.41357421875 1015.30224609375 1003.64776611328 1008.50537109375 1018.82104492188 1012.43322753906 1019.65551757812 1009.66326904297 1000.34063720703 1014.78558349609 1023.14660644531 1029.81518554688 1034.64099121094 1038.82666015625 1039.61047363281 1045.99267578125 1044.28430175781 1031.654296875 1035.46008300781 1033.29614257812 1035.0048828125 1031.53002929688 1023.24603271484 1041.37768554688 1035.302734375 1042.35375976562 1035.29187011719 1032.33850097656 1025.85302734375 1023.47515869141 1030.91760253906 1031.74548339844 1032.32397460938 1027.41857910156 1024.85095214844 1021.22741699219 1008.68292236328 1015.84283447266 1003.03662109375 1005.07763671875 1005.392578125 1007.22375488281 1001.75238037109 987.24658203125 970.750427246094 970.39208984375 970.43505859375 953.6806640625 953.430297851562 953.894958496094 951.442077636719 936.162231445312 942.935607910156 942.475036621094 938.197814941406 928.47607421875 920.109802246094 907.757873535156 900.239379882812 904.036926269531 908.085693359375 911.053100585938 916.669555664062 926.03515625 935.222351074219 940.660827636719 938.736633300781 942.370910644531 944.849304199219 953.082702636719 960.993896484375 972.158569335938 970.626647949219 971.398315429688 971.183654785156 967.007446289062 965.025024414062 952.66015625 952.042602539062 953.3095703125 955.018615722656 940.819763183594 946.851989746094 935.703735351562 924.724975585938 920.472229003906 914.21435546875 919.493469238281 907.498901367188 905.779602050781 901.018310546875 898.683044433594 894.830261230469 893.733581542969 891.786987304688 880.116027832031 872.621276855469 874.566589355469 863.645080566406 862.67578125 870.562622070312 865.581237792969 863.192260742188 868.056518554688 868.739868164062 878.161926269531 893.477111816406 902.603881835938 905.060668945312 909.213745117188 919.307495117188 917.193237304688 922.149475097656 931.879211425781 933.6201171875 932.290832519531 948.114624023438 944.34228515625 951.026794433594 964.091613769531 984.018371582031 989.126159667969 994.765014648438 993.991394042969 1000.66284179688 1010.21337890625 1019.92364501953 1039.04516601562 1054.1767578125 1063.08618164062 1070.05236816406 1072.97094726562 1074.31115722656 1075.44140625 1083.20629882812 1078.49047851562 1075.71899414062 1066.0771484375 1057.21618652344 1045.89758300781 1039.02294921875 1029.68078613281
1002.41497802734 1002.27667236328 999.849731445312 1002.95440673828 993.556640625 995.280883789062 998.634582519531 1018.54174804688 1018.58850097656 1012.28344726562 1012.48504638672 1011.1416015625 1010.82452392578 1007.48626708984 1008.20782470703 1012.84033203125 1005.29278564453 1011.06268310547 1021.35589599609 1039.66125488281 1040.27075195312 1038.20373535156 1035.36901855469 1035.37866210938 1032.771484375 1032.07238769531 1035.02844238281 1029.39587402344 1028.61206054688 1030.908203125 1030.40686035156 1028.82116699219 1034.75561523438 1030.35998535156 1037.73815917969 1028.32604980469 1024.67297363281 1023.4638671875 1025.56018066406 1026.11340332031 1030.30053710938 1024.28698730469 1016.17083740234 1009.28674316406 1009.24853515625 1004.04504394531 1003.93927001953 989.908386230469 998.304870605469 1002.470703125 997.198364257812 988.66015625 983.918762207031 975.134826660156 969.743408203125 959.591857910156 950.06884765625 947.343017578125 951.247253417969 940.34375 938.62158203125 948.614562988281 937.473510742188 936.002990722656 920.466064453125 919.642333984375 909.052551269531 906.895385742188 904.808471679688 904.474304199219 913.461486816406 936.751770019531 947.092712402344 951.896728515625 950.233154296875 951.766967773438 957.669616699219 971.347717285156 977.020324707031 970.893920898438 987.70361328125 984.107849121094 982.280151367188 982.117858886719 977.775573730469 969.992248535156 954.362487792969 955.539367675781 961.059936523438 952.511535644531 940.331909179688 929.96142578125 921.476989746094 914.3193359375 904.818115234375 907.353149414062 907.331848144531 898.366821289062 891.595520019531 893.524291992188 887.294677734375 891.993713378906 885.965881347656 875.995422363281 875.00634765625 874.074768066406 863.307861328125 861.882263183594 869.625854492188 863.57861328125 874.343688964844 868.080627441406 880.52685546875 879.839904785156 888.569885253906 907.280456542969 913.484558105469 923.930725097656 921.903686523438 921.978881835938 935.369567871094 935.364074707031 946.490539550781 937.2548828125 946.319946289062 942.7880859375 957.451110839844 967.850036621094 982.917663574219 992.083129882812 992.459106445312 1002.61334228516 1007.78735351562 1019.26672363281 1026.55834960938 1040.63671875 1053.54577636719 1058.53820800781 1065.6875 1071.82153320312 1073.9296875 1076.87536621094 1089.24353027344 1098.94897460938 1083.04077148438 1086.42602539062 1069.79284667969 1059.2431640625 1049.15661621094 1040.98693847656
1009.26934814453 1004.04083251953 993.716430664062 996.34765625 999.315368652344 999.560241699219 1006.24639892578 1022.85290527344 1020.30578613281 1011.54516601562 1010.63037109375 1008.54382324219 1002.34625244141 1003.68206787109 1002.95135498047 1013.77044677734 1009.06072998047 1011.23266601562 1030.9296875 1044.76843261719 1052.83215332031 1038.04333496094 1039.38427734375 1035.09594726562 1028.65185546875 1024.5341796875 1014.93414306641 1022.96209716797 1023.15240478516 1022.64581298828 1031.54150390625 1022.17816162109 1032.1591796875 1038.20178222656 1033.46020507812 1032.77807617188 1023.74365234375 1019.73474121094 1025.84545898438 1027.42590332031 1036.20068359375 1025.8837890625 1016.37042236328 1013.80096435547 1014.99700927734 1011.12103271484 1000.52117919922 991.00341796875 992.239685058594 993.278137207031 1001.23297119141 991.411560058594 982.483276367188 967.501892089844 974.429382324219 956.159729003906 953.547607421875 956.464233398438 951.728576660156 946.735107421875 942.985046386719 945.599792480469 947.166809082031 946.648803710938 925.275268554688 924.244079589844 918.528015136719 913.020141601562 908.612731933594 905.859436035156 918.928955078125 931.637451171875 950.997619628906 954.777648925781 957.956481933594 968.308166503906 984.630676269531 989.530578613281 994.796997070312 993.019165039062 995.159240722656 995.133239746094 987.773498535156 988.695556640625 981.697143554688 965.784729003906 969.372253417969 961.137878417969 961.440734863281 948.9365234375 938.029907226562 922.864990234375 907.564208984375 910.492797851562 912.284729003906 903.403869628906 895.872680664062 890.173889160156 891.450927734375 894.495056152344 883.990966796875 885.367004394531 880.298278808594 868.231567382812 869.7275390625 865.906921386719 858.573608398438 868.927978515625 873.825622558594 876.674682617188 867.976745605469 878.307922363281 884.403381347656 879.807800292969 886.957214355469 902.4501953125 904.804321289062 917.1923828125 918.115600585938 920.250122070312 930.944702148438 931.630859375 941.388549804688 949.961730957031 944.869201660156 956.265747070312 956.786193847656 965.85400390625 966.833740234375 985.489074707031 987.580810546875 999.054138183594 1013.42828369141 1026.31030273438 1030.6474609375 1050.31420898438 1057.39672851562 1066.36022949219 1070.54675292969 1075.64880371094 1079.06079101562 1096.11315917969 1108.28637695312 1111.53125 1103.57495117188 1097.33862304688 1090.51623535156 1075.673828125 1068.70239257812 1053.52307128906
1007.48913574219 1005.27947998047 993.523986816406 996.906982421875 996.416259765625 999.427856445312 1005.99627685547 1017.22509765625 1022.24127197266 1015.00042724609 1006.21856689453 1001.2099609375 991.893249511719 990.306213378906 1001.38354492188 1013.18188476562 1006.12042236328 1007.25006103516 1024.96936035156 1045.74304199219 1046.07189941406 1040.16235351562 1049.04919433594 1044.19311523438 1031.93994140625 1018.51000976562 1023.16638183594 1019.39849853516 1013.35516357422 1016.36352539062 1023.41003417969 1028.00549316406 1030.95727539062 1031.42749023438 1026.12390136719 1025.13732910156 1030.84936523438 1024.21716308594 1016.29437255859 1020.17816162109 1022.79718017578 1025.49365234375 1024.23266601562 1023.86505126953 1010.11834716797 1009.56616210938 1003.13757324219 1005.50573730469 999.816955566406 999.008911132812 1001.12420654297 998.620483398438 986.33349609375 971.297973632812 975.982971191406 969.657409667969 955.798156738281 959.440612792969 953.311462402344 949.52294921875 952.808288574219 947.089233398438 946.724975585938 948.009338378906 944.595092773438 930.375915527344 935.349548339844 918.599060058594 907.043395996094 916.442138671875 926.610046386719 936.399353027344 948.011962890625 958.659545898438 974.216979980469 981.91259765625 993.153564453125 998.966369628906 993.519226074219 1006.56103515625 1001.31854248047 1002.28765869141 997.32861328125 987.583984375 986.27783203125 977.662353515625 966.834106445312 961.944580078125 950.970458984375 943.935363769531 932.683715820312 929.788635253906 918.07080078125 917.10498046875 908.365783691406 904.99365234375 899.818237304688 903.1630859375 901.117736816406 892.243408203125 884.529296875 879.396362304688 872.296997070312 871.99365234375 862.986145019531 862.629516601562 873.704040527344 881.058654785156 879.070739746094 883.901184082031 878.819580078125 871.97900390625 873.756225585938 873.484375 890.084716796875 901.083679199219 904.1650390625 903.236999511719 911.590087890625 920.938110351562 922.798828125 927.542297363281 938.970642089844 940.15673828125 957.582946777344 955.750549316406 964.82373046875 971.7275390625 977.189392089844 982.617553710938 986.172912597656 997.115844726562 1016.68884277344 1026.89978027344 1033.84155273438 1049.74206542969 1060.74047851562 1063.27233886719 1073.59826660156 1076.21215820312 1093.43078613281 1112.57360839844 1116.51171875 1116.23962402344 1113.82458496094 1106.97399902344 1090.06787109375 1092.07934570312 1082.58459472656 1067.21545410156
1003.34527587891 1001.79827880859 997.365966796875 993.12255859375 1000.93365478516 1004.97790527344 1010.40875244141 1010.05548095703 1017.12219238281 1013.59490966797 1003.38970947266 995.797790527344 999.541931152344 996.513549804688 1000.13830566406 1009.65734863281 1009.76275634766 1017.99029541016 1032.05700683594 1029.1884765625 1029.73937988281 1034.9130859375 1043.20690917969 1039.23767089844 1027.86657714844 1024.857421875 1022.87707519531 1021.29083251953 1008.24237060547 1005.42767333984 1014.27905273438 1025.34069824219 1027.81860351562 1024.43493652344 1028.25952148438 1025.8310546875 1024.45849609375 1019.85815429688 1013.24139404297 1017.64074707031 1019.69323730469 1020.63854980469 1019.14855957031 1013.94366455078 1015.70275878906 1014.00360107422 1007.90997314453 1001.59576416016 996.846923828125 995.13037109375 1005.26019287109 1003.27679443359 995.500305175781 978.82080078125 976.041931152344 974.029968261719 961.539855957031 967.926086425781 961.695678710938 963.55517578125 958.639770507812 963.690551757812 959.499694824219 951.381713867188 948.14794921875 946.238403320312 953.585021972656 942.250610351562 926.966064453125 924.507202148438 930.25634765625 932.200439453125 949.389709472656 960.232238769531 978.849365234375 992.102111816406 1002.15496826172 998.926452636719 1013.26879882812 1016.72216796875 1007.88531494141 1013.98260498047 1012.76519775391 1001.60144042969 988.377258300781 978.561584472656 975.729919433594 959.817626953125 948.436340332031 936.45166015625 931.766662597656 925.242980957031 927.467407226562 914.349792480469 909.95556640625 910.643432617188 907.806884765625 915.316955566406 910.261535644531 898.886535644531 901.099426269531 886.955688476562 873.428161621094 874.973754882812 873.039489746094 862.919311523438 882.270324707031 891.427307128906 879.358215332031 878.483276367188 874.825134277344 875.127197265625 874.018798828125 874.127868652344 883.759460449219 900.600219726562 904.617431640625 906.332153320312 916.17724609375 921.230712890625 925.88134765625 937.642578125 934.752075195312 945.12353515625 950.444946289062 951.592102050781 964.446044921875 964.430419921875 981.087768554688 987.166564941406 986.392272949219 1013.01483154297 1022.46624755859 1026.94738769531 1032.20190429688 1055.27429199219 1070.49719238281 1076.89135742188 1078.2578125 1089.92016601562 1107.97680664062 1118.38647460938 1112.29455566406 1120.80236816406 1122.59643554688 1110.04150390625 1105.91687011719 1104.77990722656 1094.53515625 1077.62170410156
1004.72332763672 1002.04296875 994.662780761719 994.39697265625 997.165710449219 1007.43054199219 1009.95037841797 1013.72735595703 1017.70208740234 1017.53680419922 1007.90179443359 1004.85681152344 1000.30670166016 1001.68890380859 996.862487792969 1005.14117431641 1011.08471679688 1012.60174560547 1017.64898681641 1020.693359375 1025.84033203125 1029.626953125 1027.65515136719 1020.36193847656 1030.30395507812 1017.70166015625 1018.98199462891 1014.73236083984 1001.55133056641 1000.10687255859 1004.89697265625 1013.54449462891 1014.44982910156 1016.19775390625 1014.19464111328 1021.37469482422 1019.39874267578 1022.53741455078 1012.34436035156 1019.32885742188 1019.10754394531 1015.56665039062 1015.12365722656 1013.35986328125 1013.60821533203 1015.71557617188 1015.44201660156 1004.69757080078 1009.74523925781 1000.84729003906 1010.15612792969 1004.93963623047 994.534606933594 986.950317382812 990.619934082031 982.673400878906 974.104736328125 979.558227539062 980.342224121094 981.185180664062 980.929016113281 980.060791015625 975.431396484375 968.516540527344 952.384460449219 951.430358886719 949.199768066406 951.676086425781 940.005187988281 936.508117675781 936.434692382812 944.777770996094 952.609191894531 959.867553710938 980.704528808594 995.1240234375 1000.92755126953 1009.2041015625 1015.60284423828 1021.40490722656 1024.26782226562 1016.43853759766 1010.08734130859 999.803955078125 995.974853515625 985.366638183594 970.773498535156 955.63134765625 943.1923828125 938.85595703125 934.695007324219 928.833801269531 931.65185546875 924.20849609375 908.912963867188 914.296264648438 914.089599609375 916.585693359375 902.74609375 908.208312988281 904.748107910156 896.683898925781 882.124816894531 878.186767578125 874.677307128906 878.327209472656 886.040588378906 894.016418457031 885.617431640625 885.0673828125 883.464965820312 883.128662109375 877.4443359375 882.47509765625 890.4345703125 906.049926757812 910.140808105469 913.104248046875 923.59326171875 923.184875488281 923.997131347656 929.123291015625 933.516418457031 934.649230957031 950.684326171875 956.931884765625 952.366088867188 967.923767089844 983.774719238281 997.432739257812 1000.63757324219 1007.2490234375 1015.42352294922 1023.50219726562 1037.15283203125 1052.95446777344 1065.21752929688 1078.35522460938 1078.21716308594 1084.33459472656 1105.37121582031 1110.71313476562 1121.66943359375 1125.494140625 1134.69543457031 1127.37768554688 1116.4873046875 1108.173828125 1101.52160644531 1091.75146484375
998.293701171875 996.83154296875 989.310302734375 981.232055664062 987.430725097656 1005.30303955078 1014.32196044922 1017.80688476562 1016.26422119141 1011.50842285156 1004.68713378906 1006.54553222656 991.9345703125 999.639526367188 1000.51892089844 1009.62158203125 1016.2880859375 1012.08166503906 1014.66284179688 1016.08190917969 1024.25244140625 1026.30493164062 1020.88037109375 1022.07501220703 1027.16613769531 1022.85125732422 1009.04016113281 1009.83514404297 1003.04559326172 999.426574707031 1007.89947509766 1013.67218017578 1001.56066894531 1005.89837646484 1007.89813232422 1016.42767333984 1025.59094238281 1012.73889160156 1017.744140625 1008.26049804688 1005.21008300781 1011.39813232422 1006.14672851562 1012.71209716797 1017.89501953125 1024.71411132812 1013.63928222656 1008.66131591797 1010.27917480469 1016.16333007812 1001.24847412109 997.09130859375 998.2578125 1001.14190673828 1001.763671875 996.941833496094 997.02978515625 990.344787597656 997.072937011719 991.862854003906 983.762329101562 985.478088378906 983.753662109375 977.893432617188 962.6884765625 953.063232421875 954.327209472656 942.09619140625 936.903381347656 939.130493164062 948.450012207031 952.713684082031 963.646118164062 968.234252929688 969.578979492188 993.280090332031 999.779541015625 1017.71234130859 1019.06677246094 1017.82379150391 1022.62481689453 1021.68841552734 1009.40618896484 1008.79516601562 999.114074707031 986.491516113281 971.267028808594 957.659912109375 939.302062988281 930.535095214844 930.67431640625 937.370727539062 925.979614257812 926.270935058594 923.05712890625 917.804626464844 916.602294921875 911.069396972656 910.828247070312 900.377807617188 904.913269042969 898.970397949219 898.905517578125 892.0205078125 889.120361328125 892.549072265625 893.573669433594 898.326049804688 891.156494140625 891.479614257812 891.560424804688 886.235534667969 894.680114746094 891.488830566406 892.368774414062 891.76611328125 902.939392089844 912.36328125 911.24267578125 920.103515625 923.355041503906 923.988464355469 924.711669921875 939.243408203125 953.52197265625 953.054931640625 966.164245605469 968.333251953125 974.022216796875 988.764404296875 999.197204589844 1013.11486816406 1015.84582519531 1032.46472167969 1037.37316894531 1057.14367675781 1066.42419433594 1080.37939453125 1093.11499023438 1104.46667480469 1098.77233886719 1114.29541015625 1127.87805175781 1140.07592773438 1140.35290527344 1144.95593261719 1140.46057128906 1117.57409667969 1109.84399414062 1099.1640625
989.096984863281 992.618408203125 985.301513671875 978.863708496094 989.622314453125 991.173156738281 1006.82501220703 1007.30157470703 1008.42425537109 996.494323730469 998.900329589844 993.045043945312 996.026000976562 1001.33221435547 1010.82769775391 1007.33654785156 1011.30975341797 1014.42510986328 1016.44305419922 1009.82708740234 1023.29772949219 1024.77209472656 1023.52325439453 1020.73931884766 1027.46813964844 1018.61297607422 1011.75549316406 998.27685546875 1001.75817871094 1005.97576904297 1008.60333251953 1010.34460449219 1004.46038818359 1007.88842773438 1007.00469970703 1014.44830322266 1016.11395263672 1014.16192626953 1016.05725097656 1011.75341796875 1009.65356445312 1010.04077148438 1002.05621337891 1013.96295166016 1015.48431396484 1019.87872314453 1012.88159179688 1012.47149658203 1009.28521728516 1012.42889404297 1007.68127441406 1000.29028320312 1003.77563476562 1011.46771240234 1002.13458251953 1006.81457519531 1002.52197265625 1001.76135253906 1004.88128662109 994.799377441406 981.961791992188 984.869018554688 987.772399902344 975.662658691406 972.429748535156 965.129089355469 961.803283691406 953.767639160156 947.127807617188 949.841613769531 947.223999023438 959.941467285156 964.918334960938 978.52392578125 983.583068847656 1004.89593505859 1017.95666503906 1018.31652832031 1018.16882324219 1022.48712158203 1016.36291503906 1019.57513427734 1012.78479003906 1007.82720947266 1009.10479736328 997.634643554688 988.000061035156 969.255981445312 947.668395996094 937.520263671875 928.070007324219 921.593200683594 933.479370117188 932.525329589844 925.12548828125 921.084045410156 913.381713867188 910.254333496094 908.845458984375 900.218933105469 903.587524414062 904.314208984375 907.756164550781 898.048095703125 892.227294921875 897.983032226562 899.312683105469 898.875305175781 897.562072753906 902.577697753906 897.821228027344 887.0634765625 892.550903320312 893.023498535156 903.998657226562 901.332946777344 910.208923339844 925.386840820312 923.67041015625 925.4130859375 927.731079101562 935.935791015625 941.171997070312 951.989379882812 958.863464355469 964.281860351562 968.891052246094 965.101623535156 980.037963867188 980.960571289062 994.403869628906 1002.89416503906 1022.98626708984 1037.70141601562 1044.84387207031 1056.501953125 1063.25415039062 1088.99011230469 1093.99182128906 1110.26110839844 1116.85083007812 1129.48425292969 1136.29150390625 1154.75842285156 1153.83032226562 1141.45263671875 1140.63513183594 1125.77075195312 1118.36962890625 1106.15673828125
992.825744628906 993.0205078125 992.054260253906 991.376831054688 984.27099609375 985.771179199219 1004.73443603516 995.954956054688 999.473937988281 997.433410644531 1000.78466796875 997.619689941406 1001.67340087891 1004.09808349609 1010.87463378906 1010.36157226562 1008.14288330078 1003.36846923828 1007.74957275391 1007.47583007812 1007.71264648438 1015.38134765625 1011.43353271484 1017.22601318359 1012.73065185547 1013.37225341797 1003.44097900391 1002.59197998047 995.170288085938 999.305541992188 1004.75646972656 1012.46783447266 1011.64392089844 1012.34136962891 1015.97210693359 1018.61712646484 1013.60729980469 1018.44763183594 1010.90612792969 1005.00982666016 1012.65240478516 1007.10437011719 1005.32989501953 1015.06207275391 1016.89251708984 1015.76507568359 1011.39923095703 1008.54473876953 1003.29211425781 1008.72863769531 1007.45977783203 1006.56195068359 1001.79309082031 1009.23461914062 1011.82214355469 1006.48645019531 1011.39147949219 1006.50500488281 1014.14526367188 1002.62774658203 998.422790527344 995.648803710938 988.23876953125 998.298889160156 980.50927734375 972.730529785156 955.548828125 956.761169433594 957.299743652344 956.575500488281 959.443115234375 964.808471679688 969.897338867188 979.662109375 992.833374023438 1008.69732666016 1020.50067138672 1019.72174072266 1023.64617919922 1026.90808105469 1026.67687988281 1022.91790771484 1015.59307861328 1012.32928466797 1000.9794921875 994.294494628906 985.940002441406 964.38330078125 951.902282714844 941.647827148438 928.477600097656 930.922180175781 933.005859375 932.531799316406 932.8642578125 929.268676757812 923.170471191406 909.134216308594 906.023620605469 917.835083007812 917.735046386719 913.976135253906 908.2470703125 907.194458007812 914.1337890625 910.730773925781 917.043395996094 907.464172363281 906.857177734375 906.541564941406 899.8076171875 893.849426269531 896.282836914062 902.845581054688 914.221496582031 913.369567871094 908.430480957031 917.307983398438 929.117126464844 929.783386230469 942.75146484375 940.14306640625 952.655944824219 954.264770507812 955.825378417969 974.471496582031 972.277893066406 980.793151855469 977.953002929688 988.921325683594 1007.724609375 1019.38586425781 1031.06628417969 1045.24645996094 1054.10620117188 1069.84753417969 1083.77966308594 1100.37145996094 1097.39208984375 1110.43090820312 1123.45239257812 1134.46215820312 1150.35656738281 1144.53698730469 1143.34716796875 1140.43249511719 1141.85266113281 1133.82299804688 1123.6279296875 1109.25
994.137390136719 992.388916015625 990.871765136719 989.474304199219 979.868408203125 989.894958496094 996.403869628906 991.329956054688 987.377807617188 993.946166992188 993.798461914062 991.996887207031 1003.69573974609 1005.90942382812 1009.51928710938 1006.34454345703 1004.43713378906 1000.13488769531 1001.70587158203 1003.99853515625 1002.92468261719 1007.56842041016 1008.40100097656 1008.43957519531 1003.94476318359 999.570129394531 1003.51110839844 999.887145996094 1002.90679931641 1005.53588867188 1013.10845947266 1005.298828125 1015.02014160156 1019.95355224609 1019.95050048828 1027.28393554688 1022.26873779297 1013.06817626953 1010.83258056641 1007.59436035156 1013.26153564453 1008.30511474609 1013.39459228516 1018.91473388672 1020.32177734375 1015.14190673828 1014.76629638672 1013.94476318359 1010.32983398438 1006.99389648438 1013.76782226562 1014.64916992188 1010.78295898438 1013.41662597656 1013.86224365234 1010.94104003906 1008.23840332031 1010.99542236328 1009.14086914062 1009.94952392578 1001.4921875 996.19775390625 991.127502441406 999.644653320312 992.64599609375 985.418640136719 965.752075195312 965.047424316406 968.818054199219 966.14013671875 967.288818359375 974.238220214844 979.286437988281 988.920593261719 997.169006347656 1014.63940429688 1025.08215332031 1022.71905517578 1032.00476074219 1026.87255859375 1021.77569580078 1023.05523681641 1013.17681884766 1013.91931152344 1005.7861328125 998.235534667969 987.414306640625 967.842895507812 949.398864746094 936.583862304688 928.626831054688 940.79833984375 936.853637695312 944.053955078125 935.197143554688 927.70263671875 923.985290527344 918.660400390625 917.667846679688 919.515380859375 928.809875488281 922.546569824219 929.412536621094 925.423278808594 928.616271972656 925.771057128906 921.910949707031 933.234680175781 929.2158203125 917.157104492188 916.200256347656 907.270935058594 914.194519042969 925.89208984375 923.086975097656 926.966613769531 914.337219238281 924.170654296875 938.228515625 939.151550292969 941.5234375 950.956848144531 959.02978515625 958.776123046875 968.593811035156 976.947204589844 977.769165039062 985.028991699219 994.075805664062 1004.86358642578 1012.14135742188 1018.51641845703 1035.23791503906 1045.29370117188 1058.77746582031 1070.08581542969 1087.654296875 1096.71716308594 1101.94287109375 1115.36364746094 1130.08349609375 1138.11499023438 1145.1142578125 1142.66394042969 1139.5458984375 1131.13452148438 1138.62145996094 1140.11755371094 1130.92370605469 1106.54345703125
1002.80871582031 1000.82836914062 994.95849609375 980.252868652344 987.444274902344 980.021362304688 989.53369140625 991.68408203125 980.032897949219 978.063842773438 989.209228515625 991.537353515625 993.990295410156 998.322021484375 1006.06982421875 1014.55389404297 1002.02984619141 992.850036621094 988.408996582031 1004.109375 994.015319824219 1004.16979980469 1001.62384033203 997.491882324219 994.08203125 1004.40490722656 989.369140625 989.157348632812 1000.89343261719 1007.43359375 1008.48095703125 1016.89227294922 1019.49249267578 1012.86572265625 1024.21398925781 1026.29309082031 1023.88708496094 1019.53845214844 1020.49975585938 1009.78912353516 1017.35729980469 1013.05364990234 1020.44982910156 1021.2412109375 1028.39172363281 1013.23986816406 1017.81927490234 1016.03729248047 1014.14239501953 1008.52099609375 1010.451171875 1006.69470214844 1008.90997314453 1008.85180664062 1012.89709472656 1016.38824462891 1005.94250488281 1008.86492919922 1015.07989501953 1015.84576416016 1008.89471435547 1000.23986816406 1003.32098388672 1000.353515625 995.165161132812 991.710998535156 986.390502929688 982.396850585938 978.991821289062 987.565979003906 977.82666015625 987.1767578125 993.982482910156 1000.18109130859 1005.18640136719 1023.78411865234 1029.19116210938 1024.83227539062 1027.66345214844 1026.05700683594 1022.37451171875 1020.91778564453 1010.56506347656 1011.86376953125 1007.34197998047 1006.31909179688 984.713500976562 963.883972167969 948.929870605469 944.535400390625 947.141052246094 944.009582519531 939.854797363281 935.40087890625 935.061462402344 930.428344726562 931.706726074219 928.898376464844 929.236328125 932.738098144531 929.778747558594 940.233032226562 930.734497070312 935.616149902344 940.352661132812 936.673217773438 938.421020507812 941.767517089844 936.398681640625 931.044616699219 925.778625488281 931.640075683594 930.678100585938 929.303771972656 922.729858398438 918.1025390625 916.222106933594 923.025024414062 934.123291015625 932.814697265625 938.900573730469 945.911560058594 960.021423339844 962.036743164062 971.825561523438 984.84130859375 989.070434570312 991.682739257812 1002.94812011719 1029.90307617188 1026.45275878906 1035.96411132812 1043.25354003906 1054.78967285156 1068.7666015625 1077.97106933594 1090.634765625 1092.22399902344 1097.77404785156 1110.29943847656 1122.76623535156 1130.01745605469 1126.64489746094 1131.61120605469 1128.94165039062 1125.58508300781 1140.04943847656 1141.68969726562 1126.15112304688 1111.43774414062
996.608581542969 990.942443847656 999.450866699219 978.079956054688 978.4814453125 988.119323730469 990.501647949219 987.194030761719 976.676391601562 975.490356445312 978.574890136719 990.1904296875 990.137329101562 991.06689453125 1002.00469970703 992.4794921875 996.348083496094 988.221069335938 997.166442871094 993.676147460938 997.739135742188 998.518615722656 991.129699707031 993.114135742188 985.812805175781 997.140563964844 996.768188476562 994.788024902344 1003.25958251953 1015.19195556641 1009.46997070312 1010.24114990234 1011.70697021484 1018.88702392578 1017.36053466797 1021.25817871094 1026.34582519531 1024.82299804688 1023.24945068359 1012.68603515625 1023.70098876953 1019.28375244141 1017.34246826172 1023.90850830078 1024.6591796875 1020.64459228516 1022.45202636719 1014.25140380859 1014.50341796875 1005.84869384766 1009.52368164062 1005.54608154297 1016.47747802734 1010.40490722656 1008.22045898438 1015.26062011719 1009.30529785156 1014.64965820312 1017.72143554688 1026.92077636719 1004.873046875 1010.64215087891 1011.46203613281 1011.23162841797 1007.87359619141 998.323547363281 995.720825195312 993.846557617188 980.90478515625 987.891967773438 991.477722167969 993.181884765625 999.369689941406 1014.40405273438 1022.22406005859 1022.80633544922 1034.01293945312 1033.59851074219 1026.62084960938 1020.28460693359 1018.91137695312 1017.41223144531 1021.37274169922 1022.64343261719 1008.44281005859 1007.15637207031 989.385620117188 971.901000976562 962.098388671875 962.63525390625 954.711791992188 943.701538085938 942.369018554688 935.592163085938 943.312133789062 941.828979492188 939.435241699219 931.734069824219 937.813781738281 937.717102050781 934.582702636719 945.408020019531 938.152954101562 937.106872558594 946.694519042969 952.137573242188 946.239318847656 951.136962890625 943.08203125 940.155090332031 934.778076171875 937.321044921875 935.031433105469 925.619018554688 911.915832519531 913.345886230469 922.179321289062 917.124389648438 926.686218261719 936.936645507812 944.482727050781 953.416381835938 960.353881835938 983.475524902344 982.120788574219 995.550537109375 1005.31292724609 1010.79528808594 1014.53833007812 1025.80871582031 1040.59204101562 1043.20397949219 1051.41101074219 1061.72875976562 1072.56689453125 1079.59106445312 1089.95751953125 1091.79711914062 1100.96166992188 1107.34924316406 1116.30493164062 1122.90661621094 1128.30139160156 1126.21594238281 1125.66040039062 1123.70971679688 1134.02014160156 1125.60620117188 1115.33239746094 1109.43103027344
995.1298828125 989.401794433594 989.144226074219 980.119079589844 983.626892089844 992.095336914062 992.404357910156 994.176513671875 978.236389160156 974.113159179688 975.784545898438 975.645324707031 977.035705566406 986.305847167969 994.63916015625 994.964599609375 993.695373535156 993.858459472656 993.1845703125 998.263916015625 993.764709472656 992.754028320312 1000.216796875 1001.18243408203 991.604431152344 988.863464355469 990.656555175781 998.028442382812 996.234680175781 998.892822265625 1003.49652099609 1020.02398681641 1020.48992919922 1026.40930175781 1021.94683837891 1023.67761230469 1034.03686523438 1024.63562011719 1037.38061523438 1031.26318359375 1021.412109375 1023.36279296875 1019.96990966797 1013.9013671875 1012.31359863281 1023.79742431641 1021.06634521484 1013.00817871094 1009.05230712891 1017.755859375 1012.86676025391 1013.65869140625 1012.08026123047 1008.81799316406 1007.79571533203 1020.31573486328 1009.03674316406 1014.54919433594 1017.02600097656 1021.25329589844 1013.46441650391 1013.17645263672 1018.33941650391 1016.21514892578 1009.00958251953 1000.53118896484 998.82373046875 993.008422851562 985.363098144531 984.495910644531 982.293579101562 999.48828125 1017.86486816406 1022.68725585938 1027.33813476562 1028.97570800781 1026.73767089844 1044.13269042969 1035.365234375 1026.3818359375 1029.98986816406 1018.55621337891 1012.45452880859 1021.46270751953 1021.09698486328 1006.80444335938 999.638671875 978.657592773438 970.857788085938 959.315734863281 951.315002441406 943.768371582031 939.570556640625 934.619750976562 934.952331542969 935.58349609375 940.222351074219 943.510437011719 942.437561035156 937.325988769531 943.074768066406 948.168212890625 945.347045898438 937.875427246094 944.077331542969 959.145324707031 952.300537109375 954.351867675781 961.125122070312 947.268249511719 944.465454101562 942.347290039062 940.220825195312 926.771484375 926.074279785156 909.975830078125 908.989501953125 907.064514160156 926.837341308594 938.063354492188 947.67919921875 956.864929199219 969.117736816406 980.860290527344 993.11572265625 998.7294921875 1012.38562011719 1013.84252929688 1016.50280761719 1017.95318603516 1034.50268554688 1048.87060546875 1055.57836914062 1056.75 1064.99438476562 1078.29650878906 1084.47595214844 1088.84423828125 1097.75 1107.00317382812 1119.8447265625 1112.52453613281 1112.7109375 1111.86389160156 1118.71691894531 1125.20251464844 1124.77331542969 1121.70495605469 1120.38439941406 1110.4638671875
993.982055664062 984.880065917969 988.15869140625 980.762451171875 981.258666992188 988.16015625 994.634643554688 985.988525390625 981.870361328125 971.55224609375 973.177795410156 978.835205078125 975.558410644531 980.21337890625 982.220397949219 992.888854980469 997.483215332031 999.87890625 997.358520507812 992.719116210938 988.505554199219 990.700439453125 1001.10003662109 1004.73388671875 999.042114257812 989.1787109375 989.758117675781 1005.33868408203 1001.51940917969 1008.43505859375 1003.31439208984 1015.50500488281 1023.23114013672 1024.67846679688 1024.83166503906 1036.57458496094 1038.42114257812 1037.83703613281 1033.69812011719 1039.19384765625 1032.28625488281 1029.55871582031 1024.04772949219 1023.56726074219 1021.03472900391 1022.568359375 1013.98010253906 1012.19293212891 1020.9775390625 1022.55914306641 1023.93963623047 1012.00622558594 1014.92578125 1004.64953613281 999.502258300781 1011.53814697266 1012.86315917969 1004.55194091797 1010.36999511719 1013.06292724609 1015.83740234375 1012.6533203125 1018.65472412109 1011.91906738281 1010.95843505859 1008.53515625 1006.30828857422 1008.10308837891 998.438659667969 996.696594238281 993.559204101562 1000.29437255859 1003.44458007812 1018.62933349609 1026.24865722656 1024.61108398438 1021.91265869141 1025.95007324219 1028.50231933594 1022.09698486328 1023.25341796875 1026.53942871094 1018.32092285156 1031.42602539062 1021.94360351562 1015.66680908203 1011.73901367188 994.516723632812 972.135498046875 958.318237304688 957.009887695312 937.512573242188 937.919921875 935.905578613281 942.20458984375 942.657653808594 943.672302246094 942.4365234375 939.17138671875 948.431945800781 946.214660644531 949.876647949219 962.316772460938 950.705322265625 949.367126464844 960.61328125 954.012939453125 959.313415527344 968.622802734375 967.233215332031 964.115600585938 947.189147949219 940.526123046875 927.184448242188 920.379943847656 921.69091796875 918.338012695312 913.5791015625 925.098205566406 940.577270507812 951.587829589844 955.627685546875 973.137329101562 987.237182617188 989.195190429688 1001.19421386719 1017.62652587891 1022.73138427734 1016.25250244141 1021.81854248047 1032.23486328125 1053.79943847656 1050.21008300781 1053.205078125 1063.20495605469 1082.255859375 1092.13732910156 1095.34326171875 1094.19909667969 1095.6416015625 1100.78356933594 1104.96044921875 1103.08532714844 1106.18823242188 1104.80139160156 1116.21533203125 1120.50842285156 1114.39965820312 1108.07836914062 1115.39074707031
985.470703125 975.162902832031 987.186828613281 980.800720214844 980.738525390625 982.08935546875 987.250854492188 990.345153808594 988.537780761719 982.816467285156 979.825561523438 972.100952148438 971.985595703125 973.77685546875 975.205993652344 985.412231445312 990.190673828125 988.594482421875 991.363586425781 996.108520507812 1000.19421386719 993.975158691406 1014.07720947266 1009.59875488281 990.793090820312 985.553649902344 990.763427734375 998.803039550781 996.334594726562 1008.50891113281 1014.61578369141 1014.83734130859 1016.81036376953 1017.82836914062 1021.6845703125 1026.46533203125 1034.63073730469 1042.0439453125 1035.40258789062 1033.60424804688 1046.669921875 1040.35998535156 1038.03747558594 1033.29467773438 1028.41577148438 1024.51684570312 1013.76147460938 1015.02990722656 1017.98138427734 1024.33239746094 1024.21728515625 1013.11926269531 1012.11895751953 1020.96215820312 1004.49322509766 1004.72064208984 1003.76519775391 1001.26800537109 1003.95471191406 1013.04266357422 1013.18835449219 1022.72534179688 1024.61254882812 1017.82995605469 1023.30505371094 1011.62091064453 1013.49798583984 1015.31018066406 1008.09875488281 1008.97637939453 999.658081054688 1000.90350341797 1007.37176513672 1015.65222167969 1019.18719482422 1016.20825195312 1022.12506103516 1015.59332275391 1016.10681152344 1014.73529052734 1023.03704833984 1030.18054199219 1023.79876708984 1024.64367675781 1024.2158203125 1013.17266845703 1009.26995849609 999.737365722656 989.960388183594 970.926696777344 955.137451171875 936.87060546875 941.008850097656 952.442138671875 951.430480957031 956.246520996094 960.130676269531 954.044982910156 960.742797851562 955.985473632812 958.109436035156 973.384704589844 971.224243164062 965.463806152344 964.920104980469 966.468139648438 960.662292480469 973.601379394531 978.246276855469 979.104797363281 975.912963867188 955.129638671875 941.742980957031 930.015869140625 919.476318359375 916.713134765625 910.878479003906 923.595397949219 930.146179199219 947.258117675781 951.445922851562 962.314331054688 975.155151367188 981.22021484375 986.047485351562 1000.35955810547 1010.23156738281 1016.12225341797 1022.28210449219 1026.44006347656 1035.03479003906 1041.7197265625 1055.28479003906 1064.10925292969 1072.75598144531 1076.15393066406 1088.56750488281 1093.09680175781 1085.90881347656 1083.98974609375 1085.96154785156 1096.3779296875 1103.25939941406 1103.01391601562 1104.76770019531 1106.99084472656 1110.39477539062 1112.19421386719 1106.87182617188 1106.88940429688
978.470642089844 980.475341796875 980.63427734375 980.19921875 975.619140625 979.439697265625 974.046752929688 982.455505371094 983.033935546875 981.631286621094 975.10498046875 978.02783203125 975.236145019531 980.628601074219 974.781188964844 971.732482910156 982.871276855469 985.884155273438 985.360900878906 997.337829589844 1005.28314208984 1014.12866210938 1008.04870605469 998.901550292969 987.925598144531 987.344787597656 992.951354980469 992.125793457031 995.957397460938 1004.01007080078 1012.20031738281 1023.63232421875 1026.21020507812 1022.05419921875 1027.490234375 1026.26123046875 1033.29797363281 1042.83056640625 1036.716796875 1039.79223632812 1047.82580566406 1039.08947753906 1039.46081542969 1033.66809082031 1029.11584472656 1033.56201171875 1018.04614257812 1015.91021728516 1014.15594482422 1015.89813232422 1010.38787841797 1011.58209228516 1009.55419921875 1010.39331054688 1009.62274169922 1005.83734130859 1000.47979736328 1007.66241455078 1002.98815917969 1009.97235107422 1019.22088623047 1023.13122558594 1028.01452636719 1024.62854003906 1023.98645019531 1024.82556152344 1026.90234375 1024.91613769531 1016.77160644531 1019.01947021484 1009.05358886719 1007.98291015625 1023.55230712891 1021.79827880859 1016.98571777344 1017.39898681641 1017.54083251953 1011.90441894531 1001.61071777344 1006.44616699219 1010.38745117188 1022.31823730469 1023.89697265625 1026.83898925781 1018.56268310547 1015.71325683594 1012.22619628906 1000.05438232422 996.3388671875 980.690551757812 961.207885742188 947.573425292969 955.116760253906 960.070617675781 966.577331542969 968.518310546875 977.93310546875 976.133850097656 972.875122070312 980.423278808594 979.763366699219 983.470458984375 981.115173339844 977.253356933594 979.136413574219 978.361450195312 976.513854980469 980.418579101562 978.544189453125 974.036987304688 970.397155761719 951.033630371094 942.364990234375 938.5703125 933.617431640625 927.773742675781 932.880554199219 934.931457519531 934.865905761719 950.9345703125 953.079895019531 965.828002929688 978.297485351562 987.879211425781 990.65673828125 997.486877441406 1006.54138183594 1019.60083007812 1025.29516601562 1024.38928222656 1032.60668945312 1040.38391113281 1052.38879394531 1067.94079589844 1071.4013671875 1075.50866699219 1077.865234375 1084.87133789062 1080.70446777344 1081.31262207031 1090.09228515625 1090.81188964844 1098.05725097656 1106.47680664062 1105.21069335938 1114.08239746094 1109.0400390625 1110.89916992188 1111.38330078125 1113.04626464844
981.985168457031 977.089172363281 984.192626953125 975.469116210938 972.333129882812 975.361755371094 978.565612792969 983.277282714844 986.446960449219 974.817749023438 973.349914550781 971.6396484375 977.892517089844 968.775146484375 969.435119628906 965.890441894531 975.683898925781 980.539855957031 980.96533203125 985.83447265625 995.9443359375 995.715209960938 1001.87518310547 997.325744628906 995.781799316406 998.641540527344 994.796630859375 996.157470703125 998.112915039062 1010.69018554688 1010.63330078125 1020.81536865234 1019.51263427734 1024.48767089844 1028.25634765625 1025.30590820312 1031.69897460938 1035.44262695312 1043.48999023438 1043.53515625 1040.9521484375 1043.81555175781 1044.18017578125 1029.77355957031 1024.31970214844 1023.64581298828 1022.42510986328 1014.14337158203 1004.01428222656 1016.30096435547 1011.63507080078 1003.12805175781 1015.50341796875 1010.83453369141 1015.58380126953 1011.76416015625 1005.63433837891 1008.44665527344 1006.14074707031 1013.07891845703 1019.70794677734 1027.74682617188 1023.02740478516 1018.52978515625 1019.52087402344 1028.69555664062 1026.64331054688 1021.7353515625 1017.57427978516 1010.89910888672 1022.49157714844 1025.43762207031 1028.71215820312 1026.02575683594 1029.74365234375 1024.37377929688 1018.98950195312 1011.15093994141 1000.02709960938 999.55810546875 999.638427734375 1016.42504882812 1023.33441162109 1020.52270507812 1019.73999023438 1020.14636230469 1011.99835205078 1006.49438476562 1002.36401367188 982.212158203125 979.005249023438 976.180114746094 969.945434570312 964.517761230469 979.633666992188 978.24462890625 975.103820800781 975.989685058594 988.540100097656 992.835388183594 986.873901367188 1000.02697753906 994.077880859375 996.887329101562 991.3427734375 984.512023925781 989.029174804688 986.120971679688 986.924987792969 977.646057128906 969.579406738281 953.603576660156 936.130187988281 933.385070800781 943.017456054688 934.578002929688 933.578552246094 931.170593261719 940.348388671875 948.001281738281 957.796569824219 965.195434570312 976.537109375 980.187072753906 997.811706542969 1005.5205078125 1010.88830566406 1024.39379882812 1027.23181152344 1029.36499023438 1039.83142089844 1044.60925292969 1053.62219238281 1062.64453125 1065.07727050781 1070.13781738281 1073.94201660156 1072.00231933594 1071.93383789062 1079.82202148438 1086.55517578125 1086.70324707031 1093.01550292969 1100.51232910156 1097.75927734375 1103.37268066406 1105.33984375 1102.12438964844 1111.47521972656 1123.90197753906
972.493469238281 975.199584960938 971.450744628906 972.230834960938 968.991088867188 977.801513671875 981.410949707031 985.720581054688 975.785034179688 968.988464355469 973.66943359375 958.956726074219 951.698913574219 955.519836425781 979.134521484375 973.719604492188 978.148620605469 966.561096191406 977.473205566406 983.508666992188 988.047241210938 995.316162109375 999.634582519531 999.19482421875 1000.37890625 1010.61859130859 1002.55902099609 997.674438476562 1003.53656005859 1004.34436035156 1008.49255371094 1014.20172119141 1026.87854003906 1031.029296875 1039.6298828125 1036.94226074219 1037.04345703125 1043.57849121094 1047.41748046875 1041.28271484375 1041.77160644531 1041.43798828125 1033.68884277344 1028.02294921875 1020.69696044922 1020.72119140625 1014.01696777344 1010.25885009766 1002.60437011719 1006.78076171875 1001.75762939453 1007.82794189453 1019.11669921875 1021.10186767578 1026.61633300781 1026.66198730469 1015.65576171875 1004.30108642578 1004.13299560547 1014.24432373047 1019.32781982422 1025.80773925781 1022.96112060547 1023.68255615234 1021.49926757812 1027.35021972656 1029.6396484375 1027.55297851562 1013.19409179688 1010.11938476562 1021.12261962891 1021.22338867188 1025.63903808594 1021.13165283203 1018.04107666016 1019.96612548828 1017.65014648438 1013.3720703125 998.822448730469 996.510009765625 1001.08386230469 1007.78259277344 1017.93695068359 1015.66882324219 1020.77984619141 1016.92846679688 1011.71710205078 1006.09539794922 994.607299804688 991.124694824219 990.881774902344 988.812805175781 972.059509277344 971.27490234375 989.773742675781 986.972717285156 985.175537109375 975.763671875 991.857788085938 995.42919921875 1005.29626464844 1012.30181884766 1006.88836669922 1003.02038574219 994.397033691406 1001.27001953125 1000.82037353516 1000.29309082031 988.7373046875 972.761779785156 979.4990234375 969.149597167969 949.932739257812 940.475219726562 937.164184570312 935.581237792969 925.847473144531 930.943237304688 942.074035644531 943.998962402344 953.725769042969 971.853271484375 980.345825195312 992.263854980469 1002.46520996094 998.715209960938 1013.69866943359 1020.4716796875 1022.83020019531 1028.96862792969 1044.82116699219 1046.13854980469 1051.76574707031 1054.18518066406 1059.26147460938 1067.74975585938 1071.86352539062 1076.98864746094 1066.03967285156 1077.33520507812 1075.98571777344 1083.18798828125 1089.73413085938 1098.60546875 1094.203125 1105.96667480469 1105.2705078125 1111.80358886719 1111.52868652344 1104.79772949219
977.995849609375 972.495056152344 964.998901367188 959.376098632812 960.170349121094 970.374084472656 973.432739257812 970.505859375 965.787963867188 957.255004882812 953.102966308594 960.992553710938 954.595092773438 955.185119628906 970.869750976562 977.925537109375 971.905944824219 972.099670410156 976.516967773438 970.008728027344 972.104125976562 984.030700683594 992.1435546875 993.403442382812 1004.81494140625 1006.54895019531 1007.66949462891 1000.29113769531 999.829956054688 1006.35601806641 1019.61743164062 1022.22564697266 1029.03454589844 1034.17492675781 1039.57141113281 1040.74182128906 1029.91137695312 1037.26940917969 1045.34350585938 1040.98510742188 1044.849609375 1047.59130859375 1045.087890625 1032.86877441406 1018.16320800781 1020.56787109375 1019.26928710938 1006.87622070312 1016.43731689453 1003.34948730469 1006.20910644531 1008.55657958984 1017.98077392578 1014.81225585938 1026.29467773438 1022.80047607422 1018.33184814453 1019.79058837891 1010.32391357422 1025.30493164062 1014.11468505859 1024.09045410156 1031.49291992188 1037.54284667969 1032.42419433594 1031.90063476562 1028.59350585938 1027.93310546875 1012.84039306641 1009.87927246094 1011.98559570312 1024.60803222656 1020.94946289062 1023.21697998047 1016.96716308594 1009.53472900391 1013.13708496094 1001.58605957031 999.673950195312 995.141418457031 997.587036132812 1001.16662597656 1017.49127197266 1025.95043945312 1022.99444580078 1020.30639648438 1010.53753662109 995.909545898438 1000.86584472656 1004.27307128906 999.874450683594 996.18603515625 985.676452636719 996.363708496094 998.882873535156 998.38134765625 998.133728027344 997.625854492188 1004.81420898438 1013.04913330078 1010.63146972656 1008.39807128906 1002.49816894531 1003.00970458984 1002.91320800781 1007.09869384766 1004.61779785156 1001.44165039062 992.40771484375 979.591979980469 980.897155761719 978.676086425781 952.846923828125 939.218444824219 933.598205566406 930.836364746094 925.540222167969 929.345520019531 946.044250488281 949.527893066406 959.689453125 971.486694335938 981.87451171875 996.720642089844 991.867309570312 994.874267578125 1015.52069091797 1029.88195800781 1023.63690185547 1033.29125976562 1043.54992675781 1042.56042480469 1053.43835449219 1054.22412109375 1057.80725097656 1065.0390625 1063.71997070312 1068.80834960938 1068.65844726562 1071.20861816406 1074.904296875 1081.99645996094 1092.60925292969 1098.15783691406 1104.2578125 1108.43481445312 1112.03051757812 1105.53662109375 1108.01843261719 1103.87927246094
955.56103515625 956.913757324219 959.433166503906 957.822509765625 951.39599609375 955.924499511719 959.11083984375 959.853637695312 959.857604980469 955.808471679688 949.167602539062 948.544372558594 957.084167480469 961.941955566406 965.945251464844 970.484313964844 964.157531738281 974.129211425781 968.27001953125 961.565490722656 961.904174804688 980.860168457031 985.551452636719 987.505432128906 991.944702148438 1004.61810302734 1005.23645019531 1003.94067382812 1000.84643554688 1006.67108154297 1013.03338623047 1024.91149902344 1036.05737304688 1031.68774414062 1025.61303710938 1033.65856933594 1024.60668945312 1024.18151855469 1038.435546875 1044.18298339844 1043.42248535156 1052.96350097656 1047.97229003906 1034.93212890625 1027.33288574219 1022.22906494141 1021.40783691406 1024.21960449219 1015.07397460938 1005.78387451172 1001.41271972656 1002.00244140625 1005.49487304688 1013.68865966797 1019.0615234375 1017.04217529297 1010.61560058594 1021.80291748047 1030.4208984375 1025.84497070312 1024.21142578125 1024.52307128906 1030.80114746094 1034.19860839844 1031.40881347656 1020.42297363281 1026.83898925781 1024.8779296875 1031.18103027344 1021.08959960938 1021.80773925781 1014.48846435547 1009.86859130859 1012.65301513672 1013.19018554688 1015.2177734375 1011.763671875 1011.26177978516 1001.31732177734 994.90283203125 993.162475585938 999.431213378906 1017.90093994141 1022.66223144531 1021.27862548828 1018.74603271484 1011.39398193359 1007.05053710938 1008.74603271484 1016.16558837891 1014.84362792969 1002.63739013672 1005.40777587891 1005.56781005859 1008.43896484375 1002.77154541016 1009.32446289062 1009.53344726562 1012.8037109375 1011.33666992188 1011.11267089844 1010.18408203125 1003.53082275391 1000.24847412109 998.613891601562 1006.03900146484 1003.55841064453 995.9677734375 999.069702148438 985.126647949219 981.517272949219 975.88134765625 958.879638671875 947.708862304688 938.330322265625 928.000244140625 922.560485839844 933.718444824219 943.948486328125 948.578674316406 956.366760253906 967.844177246094 981.158447265625 992.192443847656 990.655029296875 1001.1201171875 1005.47454833984 1023.40899658203 1026.20581054688 1035.97106933594 1040.79724121094 1045.71740722656 1055.74523925781 1056.26025390625 1056.61938476562 1057.02075195312 1053.2587890625 1046.71569824219 1056.41552734375 1060.64111328125 1074.23876953125 1076.60302734375 1087.01611328125 1100.0107421875 1108.92260742188 1109.15234375 1102.50854492188 1096.33312988281 1095.63037109375 1107.08618164062
957.684020996094 954.25146484375 961.549011230469 954.92333984375 952.93994140625 943.047668457031 949.234130859375 952.247497558594 950.581909179688 948.828674316406 953.087219238281 956.955444335938 953.039611816406 956.876159667969 952.900939941406 962.541320800781 963.242492675781 962.326171875 961.769287109375 961.005859375 968.689636230469 980.036987304688 984.959411621094 981.881469726562 991.618103027344 994.358764648438 1004.74908447266 1003.81677246094 1005.80847167969 1009.38287353516 1015.43865966797 1019.61560058594 1020.23803710938 1021.88787841797 1021.15875244141 1023.58068847656 1027.77758789062 1021.74536132812 1035.05627441406 1040.00024414062 1040.3974609375 1038.05883789062 1036.97473144531 1026.49780273438 1021.42742919922 1019.2001953125 1014.99029541016 1010.82141113281 1009.24206542969 1011.87030029297 1002.78570556641 998.755187988281 996.322143554688 1009.99481201172 1007.71325683594 1010.14788818359 1009.01159667969 1015.76062011719 1023.96209716797 1021.43109130859 1020.56262207031 1017.51519775391 1027.27941894531 1029.04333496094 1023.77673339844 1017.59509277344 1021.49212646484 1021.29803466797 1030.03698730469 1027.51623535156 1020.48919677734 1012.80493164062 1004.57220458984 1008.87847900391 1008.21307373047 1014.09368896484 1013.06378173828 1008.62615966797 1004.15380859375 990.634094238281 997.257202148438 1010.57922363281 1017.49505615234 1020.54187011719 1016.49768066406 1011.11468505859 1008.57598876953 1003.9619140625 1017.82458496094 1016.4189453125 1016.71502685547 1011.40032958984 1021.45690917969 1017.29248046875 1020.57696533203 1021.34887695312 1016.87622070312 1021.90686035156 1020.94720458984 1023.15594482422 1022.99310302734 1012.75 1009.61547851562 993.587463378906 996.049255371094 999.060485839844 995.808959960938 1000.17279052734 994.548034667969 982.642639160156 969.264892578125 969.26318359375 956.152160644531 955.944274902344 936.259399414062 942.517150878906 934.429077148438 950.721740722656 955.247436523438 959.741882324219 971.493469238281 972.757934570312 987.8427734375 1002.54577636719 1003.28662109375 1002.57507324219 1017.52807617188 1022.52789306641 1024.91870117188 1029.80029296875 1045.32434082031 1047.03210449219 1056.5869140625 1062.27819824219 1059.20959472656 1052.76684570312 1049.60168457031 1050.00244140625 1044.05590820312 1062.88171386719 1073.05847167969 1075.83288574219 1090.03759765625 1098.72790527344 1111.12634277344 1108.94079589844 1113.48461914062 1095.48852539062 1101.32556152344 1116.59716796875
947.676391601562 950.709655761719 952.888061523438 946.174438476562 950.8515625 943.056640625 951.369140625 949.933044433594 950.61865234375 948.324401855469 953.825622558594 960.693786621094 952.968078613281 954.542907714844 953.34033203125 953.051879882812 959.729614257812 965.268737792969 966.106262207031 971.814208984375 977.746643066406 980.124084472656 986.831665039062 986.849548339844 985.783630371094 992.805603027344 994.959411621094 992.6357421875 1002.92431640625 1000.46783447266 1004.85229492188 1008.41119384766 1018.30383300781 1016.69451904297 1014.35858154297 1021.71752929688 1021.97271728516 1032.75048828125 1029.08081054688 1039.41174316406 1037.51904296875 1034.73291015625 1019.60504150391 1013.34661865234 1003.05688476562 1002.33746337891 992.271667480469 991.947448730469 1004.49206542969 1003.88336181641 1003.36224365234 998.776062011719 1003.099609375 1002.16644287109 1008.46710205078 1012.52520751953 1008.28814697266 1006.90161132812 1013.87567138672 1021.70330810547 1012.66363525391 1016.60504150391 1026.34240722656 1020.24090576172 1017.447265625 1019.74462890625 1022.21405029297 1018.93884277344 1019.88439941406 1021.95227050781 1022.37841796875 1010.36724853516 1005.78936767578 1008.55267333984 1011.84173583984 1007.14874267578 1016.92376708984 1005.97039794922 1004.96246337891 1011.28698730469 1015.55499267578 1012.90405273438 1011.30529785156 1015.09765625 1010.02709960938 1006.81134033203 1008.44354248047 1002.72314453125 1008.20233154297 1016.10174560547 1021.71917724609 1025.12976074219 1027.14782714844 1014.02172851562 1028.90087890625 1030.54187011719 1026.69787597656 1025.20361328125 1021.84301757812 1026.14978027344 1021.42095947266 1002.13732910156 998.442199707031 1001.81665039062 1000.36993408203 998.703430175781 997.391967773438 996.87841796875 986.757080078125 978.848388671875 966.276306152344 956.5458984375 953.796752929688 955.295227050781 944.947021484375 948.766174316406 948.055908203125 952.943298339844 966.662475585938 971.924194335938 970.072509765625 984.429382324219 992.917236328125 1000.85394287109 1008.10687255859 1008.36639404297 1026.82922363281 1034.39868164062 1031.60510253906 1032.82434082031 1045.99487304688 1049.2060546875 1047.78430175781 1054.05822753906 1053.16003417969 1050.19738769531 1053.06799316406 1044.38415527344 1052.67932128906 1052.98974609375 1067.61840820312 1080.69946289062 1085.314453125 1106.2646484375 1116.85986328125 1118.01550292969 1117.95971679688 1112.1640625 1103.15991210938 1104.59729003906
941.408264160156 946.0224609375 953.05810546875 950.802673339844 947.014221191406 948.012939453125 951.289245605469 947.884094238281 945.412353515625 944.788513183594 950.591552734375 958.941162109375 951.813110351562 954.449462890625 956.098083496094 961.380859375 955.659729003906 952.053771972656 963.015075683594 966.726684570312 976.530822753906 977.770141601562 990.879455566406 987.143737792969 988.726013183594 996.7177734375 991.342163085938 998.338012695312 995.532531738281 1005.87493896484 999.070068359375 1001.25964355469 1007.57922363281 1004.3955078125 1011.05346679688 1017.94445800781 1014.79162597656 1022.09942626953 1013.67596435547 1027.79174804688 1032.50073242188 1031.23767089844 1013.60375976562 1001.11999511719 988.523681640625 990.41748046875 989.067321777344 993.129211425781 989.02099609375 991.445983886719 997.102111816406 986.298889160156 993.220520019531 1001.82806396484 997.462219238281 1009.32403564453 1006.29583740234 1007.59857177734 1006.90124511719 1006.49169921875 1001.31408691406 1008.75720214844 1016.96411132812 1022.58489990234 1011.79528808594 1016.97033691406 1022.05969238281 1025.90783691406 1021.03350830078 1020.41070556641 1012.71356201172 1010.59564208984 1005.72705078125 1003.78143310547 1009.31481933594 1011.5751953125 1010.24243164062 1005.89318847656 1007.63604736328 997.18896484375 1003.8232421875 1014.75634765625 1007.57794189453 1009.92199707031 1012.13140869141 1006.14880371094 1011.41320800781 1009.74359130859 1009.01885986328 1017.58514404297 1023.27691650391 1021.61517333984 1025.22094726562 1020.05255126953 1028.2421875 1030.88818359375 1024.47082519531 1026.35510253906 1013.17028808594 1018.14416503906 1014.99743652344 1003.96350097656 1002.92816162109 1008.07562255859 1006.11590576172 1012.82293701172 1006.10461425781 993.504699707031 987.003845214844 981.533874511719 980.953552246094 953.1171875 945.959716796875 955.319641113281 948.755310058594 953.935302734375 959.39892578125 967.491333007812 971.61962890625 972.773986816406 976.175170898438 988.672607421875 1000.07830810547 1012.09936523438 1014.01477050781 1016.74676513672 1033.23852539062 1038.94897460938 1038.73413085938 1043.47863769531 1042.55895996094 1051.00842285156 1054.42956542969 1053.41418457031 1041.97863769531 1044.779296875 1053.39807128906 1058.21044921875 1056.83837890625 1060.81176757812 1066.79919433594 1087.0712890625 1094.03381347656 1099.89685058594 1105.26281738281 1115.87133789062 1110.87243652344 1117.93908691406 1110.96398925781 1105.49523925781
951.466064453125 938.55517578125 944.630432128906 944.557312011719 948.008483886719 948.792236328125 948.785827636719 946.412109375 945.286010742188 943.091064453125 947.760620117188 948.923522949219 952.969116210938 958.975219726562 964.180908203125 952.704956054688 955.496215820312 954.411743164062 956.061828613281 962.256530761719 975.484985351562 993.008056640625 995.048156738281 1000.86773681641 995.748718261719 998.014526367188 1002.24432373047 998.160461425781 1003.0146484375 998.532165527344 1001.42071533203 1003.59124755859 1002.30023193359 1002.06201171875 1005.01916503906 1008.71594238281 1016.59375 1016.05535888672 1012.65521240234 1006.08123779297 1020.31390380859 1013.00805664062 1005.84576416016 1000.47259521484 992.190124511719 990.37451171875 979.043701171875 983.216369628906 986.09423828125 996.5078125 988.864929199219 982.444458007812 985.860229492188 989.762573242188 994.948425292969 1004.70550537109 1007.15637207031 1014.74041748047 1006.13800048828 998.2705078125 1000.18829345703 1008.89654541016 1019.52337646484 1013.29089355469 1015.10491943359 1014.41094970703 1020.49786376953 1021.53820800781 1016.37658691406 1010.40380859375 1012.68402099609 1011.59887695312 1014.46752929688 1013.25915527344 1003.28387451172 1009.57287597656 1010.5234375 1004.48077392578 994.376708984375 990.177795410156 996.580932617188 1002.78509521484 997.318176269531 998.203674316406 1008.04321289062 1011.57672119141 1016.64862060547 1014.89245605469 1014.55480957031 1014.22473144531 1018.01849365234 1018.591796875 1019.61578369141 1018.18627929688 1028.87841796875 1037.60778808594 1028.13671875 1028.48962402344 1021.16937255859 1012.17401123047 1011.82287597656 1007.3564453125 996.092163085938 1008.74157714844 1012.77813720703 1013.92767333984 1009.11163330078 1000.0751953125 992.318969726562 989.274108886719 980.616577148438 958.949462890625 950.741821289062 950.496826171875 952.369445800781 953.856018066406 960.368530273438 973.396362304688 978.170593261719 984.713928222656 989.576721191406 995.592468261719 1012.94122314453 1024.41442871094 1010.84338378906 1027.52197265625 1032.94592285156 1046.37072753906 1044.927734375 1048.01794433594 1051.22937011719 1045.91870117188 1046.7900390625 1042.81921386719 1050.26452636719 1050.79357910156 1062.2373046875 1062.48779296875 1055.10070800781 1059.19409179688 1075.43139648438 1078.39538574219 1079.75732421875 1090.96801757812 1100.32141113281 1113.75915527344 1107.62841796875 1119.45288085938 1117.24182128906 1108.00170898438
951.669494628906 943.843627929688 942.860778808594 946.20068359375 944.241088867188 945.120849609375 949.689697265625 950.994567871094 942.390869140625 947.927734375 957.891052246094 958.101928710938 958.884887695312 971.115051269531 973.421813964844 961.804321289062 957.271484375 959.181213378906 957.23681640625 962.809631347656 976.503295898438 986.630310058594 993.266784667969 995.528991699219 1000.30993652344 996.2333984375 987.052551269531 991.089538574219 989.292297363281 996.652465820312 993.491027832031 992.590087890625 993.898010253906 1004.29248046875 1002.39508056641 1001.89111328125 1012.79656982422 1008.68835449219 1015.41351318359 1020.85565185547 1016.27966308594 1015.83502197266 1011.19152832031 1006.80145263672 1000.94708251953 992.323059082031 981.294006347656 981.690002441406 987.870971679688 987.682006835938 987.3310546875 988.690124511719 984.729553222656 984.262268066406 988.1337890625 1001.51336669922 1001.33569335938 1008.10919189453 1000.77648925781 1009.17974853516 1007.44030761719 1010.26470947266 1009.44683837891 1013.32806396484 1020.23968505859 1017.53924560547 1015.22723388672 1014.28076171875 1010.06158447266 1018.53430175781 1024.75854492188 1021.55798339844 1009.81640625 1006.49560546875 1001.48901367188 1001.28564453125 1005.85980224609 997.261840820312 990.05615234375 986.32421875 992.960327148438 990.8544921875 986.579223632812 988.098876953125 995.493591308594 1006.94146728516 1009.24713134766 1014.25268554688 1015.61364746094 1018.25817871094 1028.34912109375 1032.63208007812 1033.84997558594 1031.775390625 1033.61962890625 1041.96154785156 1034.59704589844 1029.23486328125 1018.17370605469 1004.92681884766 1006.43884277344 1009.79162597656 1003.60009765625 1010.21697998047 1008.24615478516 1006.73767089844 1008.37976074219 1001.65887451172 988.774719238281 986.371398925781 978.963012695312 961.794189453125 953.491577148438 947.647521972656 944.174194335938 957.64208984375 959.600769042969 969.090515136719 984.014709472656 996.63037109375 1000.99426269531 1011.19470214844 1011.42346191406 1015.99139404297 1020.69586181641 1017.98846435547 1031.1220703125 1044.45166015625 1039.96130371094 1033.57751464844 1038.70263671875 1049.3486328125 1045.40771484375 1045.98376464844 1049.77490234375 1051.08825683594 1054.72302246094 1056.80102539062 1048.13000488281 1057.04064941406 1066.57141113281 1078.33618164062 1083.65258789062 1092.12915039062 1100.95422363281 1112.73962402344 1117.37219238281 1119.06823730469 1120.56689453125 1120.72521972656
948.773681640625 941.55126953125 943.474670410156 943.930725097656 947.033813476562 953.224548339844 952.368225097656 954.272827148438 953.961791992188 959.5693359375 966.163696289062 964.068481445312 957.160278320312 967.371398925781 974.956298828125 963.274963378906 961.0791015625 967.360046386719 961.987548828125 969.231140136719 972.527648925781 972.957641601562 986.747924804688 991.341735839844 995.201965332031 987.571533203125 991.010498046875 996.217712402344 990.384826660156 992.028991699219 989.117492675781 997.031677246094 992.918395996094 999.605407714844 1003.08618164062 998.150634765625 1007.4072265625 1015.97326660156 1015.84613037109 1018.03436279297 1015.35656738281 1010.76898193359 1007.71704101562 1008.76501464844 1006.44598388672 1000.14996337891 992.102172851562 982.668823242188 996.178588867188 988.088684082031 991.261413574219 990.708679199219 986.073791503906 980.173156738281 985.557373046875 1003.08465576172 1000.99450683594 1007.91290283203 1002.66278076172 1000.09692382812 1006.05462646484 1003.01800537109 1013.13409423828 1021.09698486328 1021.33502197266 1018.703125 1013.86871337891 1012.65191650391 1012.39208984375 1013.6015625 1016.79437255859 1019.33831787109 1009.69641113281 1016.29742431641 1013.25317382812 1005.72729492188 1001.04510498047 998.623657226562 983.963745117188 986.84326171875 988.139099121094 987.271850585938 979.39794921875 993.225769042969 993.880554199219 1012.1220703125 1014.56768798828 1018.80242919922 1023.47918701172 1024.89428710938 1035.07666015625 1027.64685058594 1032.49133300781 1031.95141601562 1021.74041748047 1035.17504882812 1038.58093261719 1031.744140625 1017.61413574219 1014.81280517578 1011.14923095703 1005.71899414062 1005.3154296875 1003.85729980469 1010.02252197266 1005.36505126953 1011.98016357422 994.717590332031 977.07958984375 975.1962890625 966.180297851562 961.533081054688 956.760131835938 952.157653808594 948.540832519531 955.538024902344 952.671447753906 973.808959960938 986.033447265625 994.2021484375 1000.02728271484 1000.26336669922 1010.69000244141 1017.16943359375 1032.71472167969 1025.4384765625 1022.87249755859 1034.19311523438 1040.33874511719 1049.1787109375 1043.57360839844 1053.03564453125 1047.43798828125 1051.85900878906 1047.49621582031 1054.05505371094 1054.39001464844 1053.99926757812 1055.87744140625 1061.95678710938 1068.60119628906 1076.77526855469 1083.32153320312 1098.45080566406 1108.70812988281 1109.21228027344 1114.08740234375 1114.25354003906 1117.8466796875 1111.89086914062
941.173522949219 945.717590332031 944.57568359375 951.983764648438 955.572326660156 953.984252929688 950.0537109375 959.923217773438 964.767272949219 970.170532226562 968.843444824219 975.535888671875 975.169982910156 975.754455566406 965.000610351562 972.231750488281 966.598266601562 965.569702148438 967.663146972656 972.406188964844 973.134338378906 980.255310058594 979.966979980469 988.919738769531 990.425598144531 988.39208984375 988.971862792969 991.670593261719 992.707946777344 994.178344726562 994.937683105469 991.811096191406 992.720458984375 1001.52587890625 997.498779296875 994.98095703125 1004.32470703125 1009.58068847656 1016.23669433594 1010.91931152344 1004.85089111328 1007.71105957031 1004.90472412109 1006.44445800781 1001.79992675781 1000.51513671875 993.202331542969 999.875549316406 988.513793945312 983.835754394531 987.014404296875 992.048706054688 988.239501953125 995.987976074219 994.792846679688 999.587890625 1000.04571533203 1004.36279296875 994.461242675781 985.701782226562 987.594177246094 992.630065917969 1004.92083740234 1002.45281982422 1015.84124755859 1001.91827392578 1007.98156738281 1002.84075927734 1007.04626464844 1005.92419433594 1004.24792480469 1000.82647705078 1005.07043457031 1011.09924316406 1011.90582275391 995.786560058594 993.628540039062 990.331298828125 992.996337890625 991.189392089844 984.887023925781 996.260559082031 993.277954101562 996.72802734375 1003.40173339844 1003.01330566406 1013.15411376953 1016.02856445312 1014.50042724609 1021.39715576172 1020.38055419922 1029.55920410156 1027.69519042969 1033.50805664062 1029.67248535156 1032.8486328125 1034.03356933594 1023.99017333984 1018.74755859375 1015.20880126953 1008.55718994141 1007.01770019531 1000.33325195312 1004.84332275391 1006.68676757812 1010.88592529297 1001.91351318359 989.612365722656 973.134399414062 969.973999023438 957.450988769531 948.584350585938 955.129211425781 949.593566894531 945.078979492188 944.5908203125 951.676086425781 962.128967285156 978.879211425781 999.441772460938 1002.38983154297 1010.24243164062 1011.13287353516 1027.216796875 1025.48620605469 1027.90844726562 1021.99401855469 1035.17956542969 1043.31079101562 1043.89636230469 1057.62963867188 1047.85559082031 1044.31811523438 1047.59680175781 1053.49975585938 1044.45288085938 1041.24450683594 1048.078125 1056.40307617188 1063.94995117188 1064.18078613281 1075.08605957031 1090.74975585938 1108.12866210938 1111.044921875 1106.3046875 1118.21337890625 1110.26489257812 1112.53747558594 1113.92907714844
944.925415039062 954.837524414062 952.639465332031 955.42919921875 960.000427246094 959.951782226562 956.391296386719 961.175231933594 962.015319824219 961.93408203125 975.160888671875 975.2451171875 977.432434082031 979.321838378906 972.976135253906 975.736755371094 973.762756347656 970.871337890625 966.522644042969 973.630065917969 979.400817871094 982.461608886719 985.089477539062 983.307983398438 984.781127929688 982.521179199219 983.660888671875 992.917419433594 989.721862792969 987.392822265625 991.515441894531 980.9970703125 986.132446289062 996.41064453125 995.046936035156 992.543884277344 989.147766113281 1004.13067626953 1007.16320800781 994.698303222656 988.463012695312 994.314331054688 995.796142578125 994.440979003906 998.063598632812 1000.22247314453 994.324951171875 996.802368164062 991.612548828125 994.753723144531 989.160766601562 984.66357421875 985.569213867188 991.319946289062 996.336975097656 995.947387695312 999.743896484375 1000.18713378906 988.642883300781 989.315734863281 984.132263183594 991.928771972656 1001.56579589844 1002.22137451172 1009.81079101562 1005.43212890625 995.391174316406 1000.25830078125 995.282592773438 999.425109863281 1001.31567382812 1004.26879882812 1001.01831054688 1007.40545654297 1002.80297851562 998.081176757812 996.334045410156 991.9794921875 994.197021484375 990.938293457031 975.855590820312 987.955139160156 991.782043457031 993.756164550781 1001.37530517578 1005.81524658203 1010.97253417969 1013.82476806641 1012.92645263672 1016.73187255859 1017.86999511719 1031.36303710938 1028.70947265625 1032.87097167969 1026.38256835938 1031.12951660156 1031.60571289062 1026.783203125 1021.84094238281 1014.30871582031 1006.89721679688 1005.56182861328 1005.54943847656 1004.28338623047 997.006896972656 998.131591796875 998.761840820312 985.892944335938 962.649780273438 958.364807128906 953.142517089844 936.029357910156 942.188720703125 940.824951171875 946.858215332031 950.306945800781 953.584716796875 968.836486816406 983.696350097656 989.681274414062 999.908142089844 1009.80694580078 1013.09356689453 1024.00671386719 1024.85510253906 1026.57727050781 1029.57202148438 1035.89416503906 1044.97827148438 1051.82153320312 1056.16674804688 1056.03369140625 1056.35729980469 1056.66125488281 1053.86181640625 1043.01965332031 1040.21423339844 1045.44311523438 1053.80590820312 1065.697265625 1061.70153808594 1065.50622558594 1087.51977539062 1098.9990234375 1105.95153808594 1108.45227050781 1106.15686035156 1109.91931152344 1107.80114746094 1115.41186523438
954.784240722656 961.431701660156 962.77734375 959.229248046875 965.522094726562 958.737670898438 963.549255371094 966.041320800781 973.277648925781 968.591430664062 976.5068359375 962.196533203125 981.013977050781 980.617553710938 982.88525390625 977.464599609375 981.041137695312 973.001708984375 964.490661621094 983.189819335938 983.859191894531 979.145751953125 979.004516601562 977.312316894531 984.776184082031 981.84814453125 983.710144042969 985.889709472656 993.100341796875 988.818298339844 986.473937988281 990.531982421875 991.427307128906 1000.63757324219 1002.43774414062 987.775207519531 990.578369140625 999.592163085938 996.133972167969 994.399047851562 992.923522949219 990.363525390625 993.654357910156 990.714965820312 991.6259765625 1000.76251220703 994.283081054688 986.393371582031 995.684753417969 991.580688476562 985.577880859375 985.439392089844 989.060974121094 986.375305175781 989.593933105469 983.854431152344 989.145324707031 991.923706054688 994.708679199219 991.559875488281 987.293395996094 996.119323730469 1003.43225097656 1007.45422363281 1002.93084716797 995.546508789062 1010.10327148438 1002.24005126953 998.243896484375 991.750610351562 995.946960449219 991.068908691406 998.66259765625 1009.18634033203 1001.4765625 1003.30084228516 996.546813964844 994.279052734375 990.292724609375 984.361206054688 981.695190429688 985.983032226562 989.616882324219 998.083435058594 997.207946777344 1008.34967041016 1012.22418212891 1015.06243896484 1009.05297851562 1008.56781005859 1018.13317871094 1024.54992675781 1028.42492675781 1028.28479003906 1031.65002441406 1026.85571289062 1023.01770019531 1017.77270507812 1016.60192871094 1019.12622070312 1009.84759521484 1009.11169433594 1010.8974609375 1008.11267089844 1003.83563232422 1005.88000488281 994.151123046875 981.121520996094 964.72265625 960.746765136719 952.985229492188 945.969848632812 930.6865234375 940.143005371094 948.898132324219 952.63232421875 958.562866210938 970.068115234375 978.519653320312 993.258911132812 990.255737304688 1003.15673828125 999.799682617188 1009.19818115234 1020.88848876953 1019.95129394531 1035.75341796875 1036.11633300781 1041.40124511719 1043.05981445312 1044.69152832031 1049.26379394531 1056.13903808594 1045.66687011719 1038.64672851562 1038.21643066406 1035.35583496094 1037.9931640625 1047.2880859375 1054.46630859375 1062.31945800781 1068.09301757812 1086.17810058594 1078.88439941406 1088.66381835938 1097.17126464844 1102.51196289062 1103.8759765625 1122.55859375 1116.76477050781
970.997314453125 966.642578125 963.28173828125 965.84619140625 966.250122070312 960.836791992188 970.843994140625 968.131042480469 964.972595214844 970.460205078125 980.0390625 973.74853515625 976.532104492188 979.329284667969 980.654602050781 983.871887207031 976.296813964844 975.8681640625 977.814819335938 984.167907714844 979.364135742188 984.127868652344 981.363891601562 982.231994628906 981.991455078125 984.686889648438 980.134155273438 982.727355957031 995.47998046875 996.001708984375 990.208679199219 985.180358886719 985.524230957031 996.711608886719 992.986450195312 995.630004882812 990.253784179688 990.323120117188 985.560668945312 993.724975585938 995.610046386719 989.509338378906 988.998413085938 994.1669921875 991.352416992188 988.888916015625 988.333740234375 987.095642089844 989.535339355469 989.949890136719 987.900146484375 985.503784179688 978.979614257812 985.296081542969 978.4814453125 985.63818359375 989.032470703125 984.833862304688 984.453857421875 984.637817382812 991.760864257812 994.002502441406 999.000244140625 1001.19116210938 1001.80145263672 1004.48931884766 1000.76812744141 1001.39111328125 997.441650390625 985.90966796875 988.225036621094 998.097045898438 997.655700683594 1005.13104248047 1010.06036376953 1003.10827636719 999.399536132812 995.025268554688 988.696899414062 981.041198730469 980.458312988281 981.27392578125 982.594177246094 996.4931640625 997.370422363281 1008.15411376953 1013.97009277344 1015.99145507812 1017.77514648438 1012.30932617188 1016.13720703125 1020.61889648438 1023.15380859375 1023.07727050781 1025.6044921875 1027.8798828125 1028.744140625 1020.9423828125 1023.04125976562 1020.17620849609 1013.04406738281 1015.89294433594 1016.64208984375 1003.04583740234 1009.33905029297 1003.50073242188 999.539123535156 984.09716796875 973.487182617188 967.392333984375 955.044250488281 945.282165527344 937.442016601562 946.056884765625 947.130920410156 952.383361816406 956.245971679688 968.192626953125 985.303405761719 988.420593261719 986.545715332031 1001.97613525391 997.870666503906 1006.71551513672 1017.43579101562 1028.4619140625 1037.140625 1033.45056152344 1038.00439453125 1037.19873046875 1039.28332519531 1041.50366210938 1038.53576660156 1041.18371582031 1032.42541503906 1025.1669921875 1037.68310546875 1037.21801757812 1043.5966796875 1043.56457519531 1053.82092285156 1063.73156738281 1073.73425292969 1085.72314453125 1089.21301269531 1095.60412597656 1102.61730957031 1113.95544433594 1113.72998046875 1117.83032226562
977.458190917969 974.849487304688 968.886474609375 973.197509765625 967.904357910156 977.560241699219 975.708740234375 973.332336425781 967.100341796875 966.413635253906 977.152893066406 965.071411132812 975.327270507812 977.640686035156 979.25439453125 981.62841796875 974.383239746094 976.205749511719 979.424377441406 983.372924804688 991.415649414062 987.836669921875 988.023803710938 984.814880371094 990.475219726562 979.089294433594 984.198364257812 979.95263671875 985.891906738281 992.692260742188 989.978637695312 984.507995605469 982.341735839844 983.383117675781 985.166931152344 983.024108886719 984.76904296875 990.095581054688 992.103515625 991.644470214844 987.962951660156 986.963439941406 986.855590820312 993.862487792969 988.772033691406 980.726196289062 983.211120605469 974.769653320312 981.429748535156 983.943176269531 989.101379394531 983.751159667969 976.502868652344 978.271362304688 980.395385742188 978.000915527344 981.728942871094 985.366027832031 973.851135253906 971.637573242188 981.066467285156 990.751403808594 998.743530273438 995.000061035156 995.766174316406 990.261169433594 987.658020019531 992.008117675781 996.558715820312 992.345886230469 990.864379882812 999.892578125 994.520568847656 1000.52453613281 1008.24139404297 996.085876464844 990.134399414062 982.419006347656 986.942138671875 979.230529785156 978.481811523438 971.308227539062 976.782653808594 994.291809082031 1000.38824462891 998.633544921875 1006.810546875 1014.36889648438 1012.18188476562 1013.76324462891 1013.55938720703 1017.56530761719 1013.26336669922 1019.45709228516 1018.54022216797 1024.29797363281 1018.26702880859 1019.62335205078 1023.03753662109 1015.32189941406 1009.49084472656 1014.0078125 1009.27886962891 1017.13775634766 999.763244628906 1004.12249755859 999.456909179688 984.707763671875 974.916381835938 974.136352539062 963.656188964844 953.874694824219 946.950561523438 948.01416015625 950.686950683594 951.612121582031 952.886047363281 967.851135253906 972.594360351562 981.502990722656 990.343078613281 993.025756835938 996.185363769531 1012.25817871094 1012.04437255859 1029.93090820312 1032.33581542969 1033.25695800781 1027.42663574219 1028.80456542969 1033.63171386719 1036.76611328125 1030.25390625 1034.31555175781 1029.67346191406 1030.572265625 1037.67309570312 1041.93920898438 1040.33154296875 1062.02014160156 1052.24169921875 1059.19213867188 1072.97338867188 1073.86779785156 1091.74084472656 1097.66467285156 1108.70031738281 1117.39099121094 1122.88244628906 1125.88122558594
976.138427734375 969.356628417969 968.443298339844 972.102783203125 968.934936523438 983.380249023438 973.815307617188 977.554077148438 962.385498046875 968.844299316406 969.728698730469 978.1591796875 974.157775878906 979.251892089844 971.112670898438 970.463012695312 974.965087890625 975.926025390625 969.011840820312 982.391906738281 988.245178222656 991.697998046875 988.213989257812 990.142150878906 986.168518066406 986.131896972656 980.062622070312 979.370300292969 984.421203613281 982.765319824219 983.151733398438 985.627014160156 974.481323242188 981.684997558594 979.899963378906 974.742370605469 977.898681640625 992.083129882812 991.665222167969 981.87841796875 984.321716308594 983.949462890625 988.883911132812 988.626770019531 988.010192871094 985.776489257812 980.844482421875 974.3984375 973.854309082031 985.568786621094 988.192016601562 974.015991210938 968.96923828125 971.022155761719 971.166381835938 978.947570800781 978.797485351562 978.849670410156 990.080871582031 982.716369628906 989.455688476562 985.736877441406 986.025329589844 983.540710449219 992.244567871094 988.508972167969 988.695556640625 987.957458496094 988.70703125 996.615539550781 993.24072265625 994.526550292969 1000.67456054688 1005.06372070312 993.942504882812 987.746154785156 982.469543457031 979.373291015625 970.283142089844 968.174987792969 973.912841796875 979.754028320312 986.766357421875 999.034057617188 998.402587890625 1012.83526611328 1005.72326660156 1014.07708740234 1009.57965087891 1012.1904296875 1018.04791259766 1014.33538818359 1010.40283203125 1015.88311767578 1017.87243652344 1012.73107910156 1009.31286621094 1009.15002441406 1010.61987304688 1016.32989501953 1005.14434814453 1002.04376220703 1001.77978515625 1007.73980712891 1007.26898193359 996.97021484375 994.618591308594 996.959838867188 988.694091796875 978.961608886719 969.889526367188 969.453979492188 966.681274414062 958.904235839844 955.305847167969 957.792297363281 959.481689453125 967.282653808594 973.564514160156 985.463195800781 986.846008300781 994.486022949219 1003.20739746094 1004.638671875 1006.30969238281 1016.31634521484 1018.99896240234 1024.90393066406 1019.21960449219 1016.56585693359 1018.97857666016 1024.29577636719 1028.08581542969 1031.2431640625 1025.74560546875 1022.78399658203 1030.19384765625 1033.28515625 1038.12512207031 1052.86840820312 1051.88781738281 1063.68225097656 1071.41931152344 1088.33947753906 1093.48046875 1103.48083496094 1110.58898925781 1124.44567871094 1129.72644042969 1132.740234375
972.115295410156 966.193542480469 973.334228515625 967.072631835938 969.979675292969 971.467834472656 972.880249023438 973.34130859375 977.322692871094 980.848510742188 972.967651367188 975.018859863281 979.873718261719 977.8017578125 968.747436523438 973.678039550781 972.195922851562 973.766906738281 972.067321777344 983.657043457031 984.043762207031 987.712097167969 987.307312011719 985.060546875 981.027587890625 980.778137207031 980.618041992188 971.937622070312 973.782104492188 980.411865234375 980.91015625 981.460998535156 983.662902832031 984.166320800781 982.815185546875 980.568969726562 977.610534667969 978.963562011719 980.228088378906 977.986755371094 987.524291992188 981.771911621094 983.2109375 993.578674316406 978.956726074219 984.775939941406 982.117919921875 977.466247558594 981.862243652344 988.504699707031 982.186767578125 977.301391601562 974.290954589844 973.389526367188 975.35791015625 977.384521484375 979.474853515625 975.538330078125 986.797607421875 990.161499023438 990.48583984375 989.817260742188 990.229248046875 988.832885742188 986.508666992188 988.094543457031 991.803771972656 991.48779296875 986.283386230469 988.910034179688 990.876281738281 994.812194824219 991.613342285156 995.881164550781 994.872009277344 989.199523925781 991.812377929688 978.086120605469 969.379150390625 977.935913085938 984.386169433594 985.684692382812 990.849060058594 1002.46014404297 1004.28784179688 1008.70965576172 1004.88488769531 1009.49615478516 1008.15032958984 1015.56060791016 1008.74798583984 1009.60479736328 1004.10009765625 1008.83264160156 1006.36297607422 1010.10729980469 1003.83312988281 1011.63592529297 1019.23968505859 1006.990234375 1005.42224121094 1002.1025390625 1003.953125 1002.94940185547 1003.13568115234 995.699035644531 999.428100585938 996.0283203125 986.170288085938 985.348083496094 983.853210449219 974.041625976562 968.773559570312 964.023254394531 965.827331542969 967.207885742188 959.913208007812 965.254272460938 972.96923828125 985.049926757812 985.881896972656 989.580139160156 998.63671875 1004.55548095703 1022.01702880859 1013.1083984375 1015.48309326172 1014.67529296875 1009.21398925781 1013.72955322266 1015.03881835938 1008.654296875 1026.37548828125 1023.04656982422 1022.68762207031 1022.80694580078 1022.22497558594 1022.7021484375 1033.72155761719 1043.87341308594 1048.55334472656 1066.05261230469 1077.86511230469 1098.96948242188 1096.80688476562 1114.20568847656 1116.29333496094 1120.02600097656 1130.37756347656 1134.50537109375
967.289245605469 962.944763183594 968.628601074219 969.522399902344 965.952880859375 962.743225097656 972.524658203125 976.697570800781 972.835632324219 976.237365722656 975.84033203125 989.195129394531 979.596618652344 972.398803710938 966.823486328125 971.849731445312 973.4892578125 972.833618164062 972.399047851562 978.251708984375 976.331176757812 977.367431640625 977.086853027344 979.777038574219 973.699340820312 979.938720703125 978.979309082031 975.869323730469 977.317810058594 976.539123535156 984.715148925781 987.372131347656 994.177856445312 988.456420898438 980.925048828125 984.272338867188 973.79443359375 974.166870117188 979.637145996094 980.940307617188 984.439392089844 988.363159179688 983.242736816406 983.835083007812 976.059631347656 983.078063964844 985.523193359375 986.312194824219 979.884948730469 981.034545898438 982.656311035156 979.112426757812 978.471618652344 978.535522460938 970.856384277344 978.391296386719 976.372863769531 975.335571289062 993.049621582031 991.106567382812 990.213317871094 985.924438476562 995.040161132812 989.519653320312 984.660827636719 997.2744140625 994.575256347656 992.908203125 990.633728027344 990.102661132812 983.107177734375 987.032897949219 994.2822265625 999.635864257812 989.588500976562 988.408264160156 981.501159667969 978.782104492188 980.290710449219 984.943176269531 986.19677734375 987.593872070312 998.068420410156 999.140991210938 1002.67938232422 1006.00158691406 1015.12164306641 1004.73828125 1015.51434326172 1015.74932861328 1012.64044189453 1012.36932373047 1010.34448242188 1010.29779052734 1008.00177001953 998.729370117188 1009.67822265625 1007.33660888672 1013.34893798828 1004.38134765625 996.950439453125 993.781311035156 1004.10241699219 1002.25451660156 1005.31512451172 999.359436035156 1007.03747558594 1000.32403564453 994.396850585938 989.722290039062 989.786071777344 982.285827636719 977.746398925781 981.481140136719 975.249206542969 968.737915039062 967.7890625 972.158264160156 979.992248535156 978.672485351562 983.040710449219 989.724670410156 994.918029785156 1000.69958496094 1004.75549316406 1017.80535888672 1009.87103271484 1012.10382080078 1006.47802734375 1013.03186035156 1014.38525390625 1012.99450683594 1018.95330810547 1021.25231933594 1018.81750488281 1017.79400634766 1022.17272949219 1016.33752441406 1031.14440917969 1042.40405273438 1058.6142578125 1068.76428222656 1086.48229980469 1104.33068847656 1105.64343261719 1116.9951171875 1127.0859375 1126.04321289062 1140.51403808594 1150.22705078125
953.438598632812 964.563293457031 959.197814941406 962.176574707031 965.990539550781 963.3173828125 967.758544921875 973.671691894531 969.035766601562 977.267761230469 970.962585449219 977.478881835938 968.478576660156 967.836120605469 966.837463378906 973.328308105469 981.921569824219 973.256408691406 967.957885742188 963.036315917969 978.260803222656 979.070373535156 973.082946777344 978.789245605469 975.03662109375 975.3125 983.449584960938 980.810302734375 979.880310058594 986.242248535156 984.744079589844 982.40234375 988.770751953125 982.615661621094 982.962158203125 987.155395507812 979.722412109375 975.633239746094 981.273620605469 980.261474609375 981.128967285156 983.634094238281 986.009460449219 975.118591308594 966.673522949219 975.242858886719 977.713134765625 987.3173828125 980.2119140625 978.231506347656 978.59912109375 977.341125488281 978.802978515625 979.766723632812 975.390991210938 976.536193847656 977.624145507812 982.917114257812 986.762939453125 986.777954101562 990.560852050781 998.406860351562 994.978332519531 989.793212890625 989.921081542969 992.581481933594 996.232360839844 997.012878417969 991.871154785156 987.420349121094 989.815551757812 989.550537109375 990.220275878906 991.790649414062 988.163696289062 986.685791015625 983.602416992188 988.51806640625 981.710327148438 982.716430664062 989.739868164062 996.80224609375 1006.01458740234 998.750732421875 1000.84124755859 1006.43054199219 1004.11920166016 1005.19677734375 1007.98547363281 1012.18145751953 1005.97497558594 1008.39001464844 1007.66131591797 1008.71508789062 1010.45825195312 1003.49719238281 1010.16680908203 1003.52587890625 997.839050292969 1002.02911376953 997.282043457031 994.714721679688 996.397583007812 1000.82366943359 1003.58032226562 1009.40185546875 1003.49810791016 998.84716796875 995.392700195312 990.965026855469 986.175903320312 978.672119140625 980.122680664062 984.065307617188 985.360168457031 978.5517578125 975.547485351562 987.224914550781 991.046569824219 992.677368164062 992.222534179688 988.060363769531 978.583923339844 990.752502441406 1005.68835449219 1007.80688476562 1011.65582275391 1012.25329589844 1008.11907958984 1015.20324707031 1012.16955566406 1005.99230957031 1002.05187988281 1015.71594238281 1021.11688232422 1017.25048828125 1015.50360107422 1016.51843261719 1026.66125488281 1059.06213378906 1067.91979980469 1078.10144042969 1087.96716308594 1101.51953125 1108.53759765625 1120.66333007812 1135.64196777344 1140.99401855469 1145.22766113281 1153.32739257812
956.161193847656 956.402160644531 959.065795898438 956.045471191406 962.671142578125 955.727172851562 966.314575195312 967.303955078125 972.370300292969 967.663940429688 978.740478515625 972.852600097656 966.509399414062 968.619873046875 974.793273925781 967.963989257812 978.331237792969 978.176818847656 974.102600097656 973.313781738281 976.093017578125 976.750305175781 976.43603515625 982.806457519531 975.813354492188 973.12158203125 976.503356933594 981.442443847656 983.514953613281 981.915466308594 977.043823242188 974.537536621094 977.073791503906 980.469482421875 980.485107421875 977.356811523438 973.102600097656 973.116638183594 977.156555175781 977.063537597656 980.178955078125 981.36083984375 970.654357910156 967.454528808594 973.627746582031 975.656677246094 977.825744628906 988.643432617188 987.031433105469 979.605529785156 976.476013183594 970.996704101562 974.994506835938 975.919616699219 970.403076171875 970.199523925781 975.198974609375 979.752746582031 986.920471191406 982.890380859375 985.758544921875 1001.89007568359 996.250854492188 989.412170410156 988.753295898438 990.223693847656 995.829833984375 990.484619140625 996.908264160156 990.190246582031 976.058471679688 984.828979492188 979.984558105469 983.306396484375 990.769775390625 991.194946289062 984.681091308594 988.69384765625 988.902648925781 983.2119140625 997.083312988281 1000.16088867188 996.836242675781 997.069458007812 1005.16882324219 1000.99365234375 1012.51135253906 1016.65667724609 1016.92901611328 1009.78082275391 1003.66345214844 1004.62359619141 1001.41223144531 1010.56585693359 1005.95666503906 1007.80316162109 1008.76483154297 1003.30426025391 997.69921875 992.20751953125 997.842163085938 1005.75671386719 1000.53448486328 996.3447265625 994.0732421875 1005.11688232422 1002.74920654297 995.879516601562 989.852844238281 987.291564941406 989.435607910156 983.022521972656 994.637390136719 996.807006835938 996.80078125 988.863586425781 987.966247558594 997.0361328125 994.8408203125 995.484252929688 993.037292480469 984.619506835938 984.410461425781 986.416015625 1001.37884521484 1007.07000732422 1000.4716796875 993.458312988281 1002.4609375 1011.3154296875 1010.56127929688 1009.08880615234 1012.71765136719 1023.69305419922 1023.26617431641 1020.01837158203 1024.18017578125 1028.47485351562 1038.982421875 1056.70288085938 1065.94970703125 1081.63122558594 1093.05908203125 1102.45397949219 1112.28210449219 1123.11584472656 1142.65270996094 1141.01098632812 1148.02709960938 1157.67993164062
948.380859375 954.275695800781 956.032409667969 963.537963867188 965.316955566406 962.9970703125 960.634948730469 968.665222167969 964.834289550781 965.520263671875 970.2177734375 965.74365234375 960.63330078125 967.947570800781 976.867248535156 975.62548828125 975.141357421875 976.318237304688 971.999389648438 979.691040039062 981.081726074219 982.559020996094 983.791870117188 975.959045410156 982.676818847656 986.3154296875 973.458374023438 980.058166503906 980.479248046875 979.39404296875 976.449951171875 966.830261230469 977.580261230469 980.119689941406 983.176086425781 986.882202148438 976.570251464844 973.925903320312 971.968627929688 966.196838378906 977.70263671875 974.908386230469 965.129455566406 964.734558105469 970.18115234375 968.180786132812 976.331604003906 979.386962890625 983.803833007812 989.051513671875 978.65576171875 977.147399902344 974.584594726562 972.432006835938 971.452697753906 970.554870605469 965.927062988281 980.593017578125 990.790649414062 976.798156738281 990.871154785156 1001.26824951172 994.121337890625 988.670104980469 977.9453125 986.058715820312 996.668395996094 1002.76098632812 997.537048339844 985.476379394531 976.197814941406 977.908874511719 981.075927734375 978.389770507812 988.225158691406 989.90673828125 982.411193847656 987.705261230469 989.498168945312 988.252807617188 992.214416503906 992.662780761719 992.95556640625 1002.14508056641 1005.96130371094 1009.30822753906 1003.02685546875 1020.02081298828 1012.05621337891 1007.97918701172 1004.51690673828 994.680603027344 996.732482910156 1005.37872314453 1003.46984863281 1004.92858886719 1003.88299560547 1001.67926025391 1003.86297607422 996.909729003906 994.150756835938 996.602661132812 997.228149414062 996.225402832031 993.303344726562 997.599304199219 993.03857421875 992.707641601562 993.454528808594 985.277282714844 989.152282714844 987.179260253906 990.15478515625 1000.48706054688 996.510986328125 997.84228515625 995.63818359375 1005.68737792969 1001.15771484375 1005.51184082031 995.3505859375 993.594482421875 993.716369628906 984.610717773438 991.775756835938 997.468200683594 1005.33581542969 1001.25903320312 993.983520507812 1001.26965332031 1009.60577392578 1016.22869873047 1023.72119140625 1025.35534667969 1024.92370605469 1022.21276855469 1026.57080078125 1031.9765625 1049.95007324219 1054.27490234375 1068.96130371094 1084.84912109375 1103.77587890625 1110.18481445312 1125.09558105469 1128.15600585938 1133.67883300781 1150.23510742188 1156.18432617188 1150.85754394531
