NCOLS 150
NROWS 37
XLLCORNER 7394249
YLLCORNER 4843499
CELLSIZE 30
NODATA_VALUE -9999
980.918334960938 983.82568359375 977.882507324219 988.560363769531 974.506286621094 989.038452148438 998.828735351562 988.165161132812 996.294128417969 988.427062988281 977.425720214844 979.330505371094 983.678161621094 988.520141601562 979.347595214844 995.046081542969 987.547180175781 1002.2861328125 991.151000976562 992.361267089844 996.917236328125 998.474914550781 996.781066894531 993.817504882812 984.918212890625 989.916625976562 986.480163574219 990.049560546875 997.986877441406 1010.42315673828 1018.31469726562 1016.83190917969 1024.02758789062 1038.75854492188 1030.31506347656 1033.11840820312 1034.06640625 1032.00634765625 1030.62255859375 1035.77746582031 1023.2451171875 1021.03747558594 1020.17144775391 1024.84692382812 1018.01348876953 1008.79223632812 1016.24328613281 1012.85443115234 1010.70288085938 1011.1259765625 1005.68627929688 1011.48101806641 1013.27697753906 1010.53253173828 1019.69207763672 1015.27093505859 1011.06018066406 1016.87957763672 1018.51190185547 1015.86645507812 1017.45349121094 1021.30920410156 1024.42199707031 1011.15466308594 1002.95666503906 994.784973144531 1000.18511962891 1000.91235351562 1003.14050292969 992.767517089844 987.045104980469 991.669250488281 1003.60015869141 1012.88250732422 1013.74554443359 1019.78692626953 1033.00634765625 1032.146484375 1028.64868164062 1022.14337158203 1029.78271484375 1027.51196289062 1028.45910644531 1015.244140625 996.212585449219 987.186828613281 977.831848144531 975.356506347656 961.95361328125 953.44970703125 947.708068847656 937.802734375 927.939636230469 927.207153320312 935.940185546875 935.668579101562 935.768798828125 935.905029296875 946.790771484375 952.074035644531 958.843627929688 958.273864746094 950.277404785156 946.956726074219 929.77197265625 934.840576171875 947.336975097656 953.846801757812 958.7568359375 951.577453613281 955.016296386719 945.265991210938 948.044799804688 922.200622558594 921.853820800781 916.0390625 911.2451171875 920.118774414062 928.576904296875 940.050109863281 948.213439941406 955.71533203125 969.794738769531 972.103942871094 974.62890625 994.155517578125 1008.87481689453 1015.09832763672 1024.22216796875 1026.01354980469 1038.8974609375 1045.31701660156 1050.26513671875 1055.58947753906 1070.6201171875 1068.93469238281 1082.09851074219 1084.41174316406 1096.75183105469 1103.12133789062 1110.75634765625 1116.99145507812 1118.34252929688 1117.07531738281 1125.78820800781 1129.05517578125 1130.69958496094 1133.9677734375 1127.83447265625 1110.81591796875
980.00732421875 982.841003417969 985.300598144531 985.445556640625 978.9970703125 985.362426757812 989.737243652344 987.950073242188 995.187561035156 990.107116699219 976.00830078125 983.786376953125 985.208923339844 974.785217285156 976.38037109375 985.721862792969 988.86328125 995.724243164062 995.809753417969 990.200988769531 993.547485351562 995.157165527344 992.818481445312 989.149291992188 990.843933105469 994.008117675781 993.988464355469 991.297119140625 1005.80285644531 1022.54278564453 1020.52264404297 1026.53723144531 1022.43060302734 1029.46411132812 1029.96179199219 1032.51489257812 1032.50866699219 1033.53515625 1027.82385253906 1039.20727539062 1034.17541503906 1031.43469238281 1022.42034912109 1019.41760253906 1016.05609130859 1015.74755859375 1021.68920898438 1017.75799560547 1005.85461425781 998.023315429688 1009.45806884766 1001.88946533203 1009.06439208984 1010.78967285156 1006.92449951172 1007.26654052734 1015.17224121094 1010.14025878906 1016.61352539062 1012.86614990234 1016.46643066406 1020.50012207031 1023.51110839844 1006.63946533203 1007.25927734375 1004.94775390625 1003.58813476562 1007.30249023438 1003.05633544922 998.979614257812 989.245910644531 997.8857421875 998.993774414062 1008.12121582031 1013.47326660156 1021.97186279297 1028.43237304688 1024.59997558594 1027.03930664062 1026.51513671875 1024.076171875 1036.58642578125 1033.54541015625 1012.21636962891 1003.5439453125 993.004333496094 989.67626953125 969.932678222656 959.247436523438 949.995971679688 942.471069335938 939.87109375 937.880065917969 922.76416015625 932.602233886719 945.258666992188 945.897094726562 948.073486328125 956.963195800781 960.413146972656 963.312072753906 955.309631347656 949.489990234375 941.296508789062 945.117797851562 943.997924804688 954.054077148438 966.681701660156 966.927062988281 960.837280273438 957.344909667969 954.336059570312 941.918884277344 933.52587890625 923.294677734375 920.774475097656 916.115295410156 927.641357421875 935.313415527344 932.372985839844 943.576049804688 959.65380859375 964.67626953125 964.660461425781 978.527099609375 989.695739746094 1004.56005859375 1020.77770996094 1030.28662109375 1038.48522949219 1036.80261230469 1056.21704101562 1055.88391113281 1065.03381347656 1069.98620605469 1069.78540039062 1074.54724121094 1089.79479980469 1094.05847167969 1100.77160644531 1102.10632324219 1113.96472167969 1101.35620117188 1110.98681640625 1115.34802246094 1107.40295410156 1124.77111816406 1130.0029296875 1125.60168457031 1117.49108886719
978.163208007812 978.146118164062 986.033264160156 986.281311035156 980.511657714844 985.589416503906 986.316345214844 991.450256347656 988.836791992188 982.870544433594 972.464660644531 973.317138671875 972.401123046875 970.722778320312 974.404846191406 980.803771972656 992.704406738281 987.9765625 984.10107421875 982.52490234375 978.296813964844 979.452819824219 984.767272949219 983.150573730469 984.272155761719 991.912109375 992.237182617188 1001.75640869141 1007.58447265625 1017.00903320312 1019.75677490234 1024.26147460938 1030.65649414062 1037.15063476562 1038.87963867188 1032.76647949219 1034.85974121094 1033.5927734375 1029.37463378906 1039.29187011719 1036.04846191406 1033.67199707031 1028.79602050781 1024.71362304688 1018.27398681641 1016.47009277344 1014.23718261719 1009.18768310547 1007.07171630859 1004.61468505859 1000.13330078125 999.138244628906 999.690490722656 1012.24304199219 1006.26397705078 1006.84191894531 1017.08898925781 1024.37390136719 1016.60748291016 1016.654296875 1025.64465332031 1023.87359619141 1023.79260253906 1019.94714355469 1013.71252441406 1011.86499023438 1002.32666015625 1001.74920654297 1007.32458496094 1002.99536132812 998.282592773438 1002.24969482422 1010.10815429688 1016.11590576172 1030.53186035156 1032.56945800781 1028.90734863281 1026.08154296875 1029.38586425781 1025.71948242188 1025.30407714844 1029.41101074219 1021.55279541016 1019.55877685547 1009.44482421875 1000.06042480469 992.84619140625 983.497314453125 965.515197753906 951.006042480469 947.020751953125 941.005615234375 940.024108886719 943.589965820312 939.106201171875 943.610595703125 947.996887207031 963.969055175781 972.461730957031 967.109008789062 961.897277832031 956.859008789062 949.447509765625 945.364318847656 953.64013671875 955.909484863281 962.794006347656 977.701538085938 967.695739746094 961.736755371094 967.886962890625 957.510437011719 948.628173828125 939.230163574219 929.057312011719 924.658203125 935.873962402344 936.045593261719 948.5322265625 946.883728027344 956.482055664062 963.237487792969 965.083251953125 970.286987304688 977.567565917969 982.246826171875 1005.31616210938 1017.71545410156 1030.92529296875 1031.37609863281 1042.91613769531 1060.83679199219 1060.44750976562 1064.68188476562 1067.74755859375 1067.43090820312 1065.86352539062 1073.33374023438 1087.93237304688 1093.72021484375 1100.41418457031 1100.63879394531 1106.3046875 1109.82629394531 1113.86889648438 1110.38439941406 1110.91027832031 1121.92993164062 1120.74047851562 1123.78112792969
975.932189941406 982.854248046875 986.626403808594 988.257080078125 987.069213867188 984.241882324219 989.525756835938 986.299621582031 984.759338378906 982.065246582031 979.46337890625 972.507019042969 970.9970703125 975.998046875 961.248840332031 970.872802734375 983.391784667969 981.321533203125 974.051330566406 976.750854492188 978.470703125 964.502258300781 969.764282226562 972.372131347656 975.608764648438 980.175537109375 989.992309570312 997.585815429688 996.834411621094 1003.69201660156 1020.98510742188 1029.22473144531 1032.46044921875 1028.96630859375 1039.7890625 1035.98913574219 1040.30261230469 1042.36242675781 1040.16577148438 1047.28125 1040.06433105469 1033.50366210938 1022.58856201172 1022.06561279297 1021.98260498047 1019.20483398438 1016.64959716797 1014.19873046875 1012.65264892578 1010.38104248047 996.192810058594 994.067016601562 993.894348144531 1005.73956298828 1008.05133056641 1016.85601806641 1026.70727539062 1028.21447753906 1021.16967773438 1010.44732666016 1016.53039550781 1023.287109375 1032.23962402344 1025.86950683594 1021.05535888672 1023.24224853516 1010.51208496094 1005.35064697266 1006.25891113281 1006.35241699219 1013.0458984375 1009.67266845703 1028.27111816406 1029.81909179688 1032.21105957031 1037.05700683594 1028.66845703125 1019.74353027344 1023.03460693359 1035.87329101562 1029.98315429688 1028.90698242188 1028.28637695312 1022.62689208984 1006.39373779297 993.199279785156 990.205322265625 991.160522460938 975.441284179688 956.2060546875 949.020690917969 944.615661621094 948.377807617188 956.383911132812 967.336303710938 961.66796875 964.422180175781 971.143737792969 977.744323730469 979.481201171875 971.375122070312 962.299682617188 967.685424804688 967.643737792969 964.896667480469 970.784729003906 977.096862792969 978.322875976562 973.325073242188 972.954895019531 978.024047851562 964.6328125 955.944091796875 936.373962402344 932.820922851562 931.237548828125 943.918090820312 945.291381835938 956.076843261719 956.334411621094 957.2333984375 957.937744140625 972.344360351562 970.201904296875 986.276123046875 993.637023925781 1008.99255371094 1018.58148193359 1021.93872070312 1029.36560058594 1038.81176757812 1056.75915527344 1054.27600097656 1055.10949707031 1055.419921875 1060.12634277344 1061.02038574219 1073.81164550781 1078.24670410156 1087.24951171875 1095.36145019531 1106.86950683594 1103.63537597656 1109.98596191406 1105.35522460938 1109.42004394531 1109.23571777344 1114.56884765625 1118.2392578125 1123.36157226562
971.657043457031 978.664489746094 979.69189453125 980.15869140625 988.522277832031 984.483703613281 979.494689941406 985.918273925781 984.614501953125 986.677185058594 986.255004882812 971.967346191406 964.962768554688 973.438049316406 968.096374511719 970.003234863281 972.755493164062 979.706237792969 977.316528320312 983.39990234375 977.904235839844 972.4912109375 975.361877441406 968.407653808594 974.028869628906 991.520141601562 1002.35913085938 997.144836425781 994.53125 1006.88482666016 1023.27154541016 1024.54187011719 1022.30407714844 1031.759765625 1040.66552734375 1034.57482910156 1037.72314453125 1041.55261230469 1041.44177246094 1044.60009765625 1040.96838378906 1036.92321777344 1027.92883300781 1021.78948974609 1026.69897460938 1020.66876220703 1023.16497802734 1023.56597900391 1013.615234375 1007.14007568359 1003.95104980469 1006.78308105469 1001.04522705078 1003.86975097656 1006.9892578125 1018.26672363281 1026.5205078125 1020.80987548828 1025.41809082031 1013.39282226562 1016.21057128906 1027.42163085938 1018.91528320312 1024.00695800781 1023.46368408203 1023.76171875 1023.37365722656 1021.70007324219 1016.04595947266 1009.79248046875 1014.57916259766 1018.56439208984 1022.5283203125 1027.23815917969 1025.8310546875 1023.68865966797 1022.05926513672 1021.33868408203 1025.419921875 1026.01086425781 1027.53979492188 1024.51794433594 1018.48272705078 1010.42529296875 998.186584472656 994.432312011719 991.537536621094 986.260314941406 981.45458984375 966.543884277344 955.933532714844 953.184020996094 959.596496582031 970.339416503906 970.825500488281 970.024841308594 974.22998046875 982.654968261719 992.430114746094 989.186767578125 977.161010742188 976.418518066406 983.382690429688 978.119079589844 980.986938476562 981.361450195312 983.547912597656 977.705200195312 977.501953125 979.602722167969 973.870361328125 967.32861328125 951.877746582031 941.294250488281 941.352600097656 936.927062988281 934.066284179688 943.400817871094 950.601989746094 949.425476074219 958.399719238281 969.074157714844 972.575805664062 987.482055664062 978.908142089844 992.757263183594 1015.09020996094 1022.99450683594 1027.31982421875 1036.82653808594 1044.01806640625 1050.72058105469 1050.22229003906 1051.8076171875 1059.43115234375 1058.96557617188 1056.29370117188 1065.37622070312 1074.60461425781 1084.6005859375 1092.26293945312 1101.27172851562 1100.52551269531 1103.12939453125 1109.16845703125 1104.6904296875 1114.8427734375 1121.798828125 1122.67614746094 1126.16918945312
966.058837890625 975.110473632812 976.07958984375 968.432495117188 972.27587890625 972.1669921875 983.225402832031 982.643005371094 986.181945800781 983.291320800781 981.530822753906 979.523681640625 971.441101074219 975.237426757812 976.67138671875 966.531677246094 977.13720703125 978.580200195312 984.547058105469 978.038696289062 978.412353515625 976.121276855469 971.805114746094 974.543090820312 984.8349609375 994.31494140625 1003.15020751953 999.208862304688 997.746215820312 1005.03680419922 1022.64404296875 1019.26641845703 1019.67956542969 1033.67358398438 1036.5908203125 1031.98168945312 1033.18518066406 1045.56921386719 1040.18176269531 1036.43811035156 1037.70727539062 1037.82507324219 1035.69677734375 1028.52270507812 1025.14001464844 1018.53314208984 1025.00244140625 1015.86810302734 1011.55767822266 999.925537109375 999.781188964844 997.021301269531 1002.60559082031 1008.0390625 1007.81079101562 1008.73626708984 1017.46514892578 1023.93841552734 1017.83245849609 1019.00073242188 1022.21636962891 1021.92767333984 1019.33068847656 1022.72961425781 1029.08715820312 1027.50122070312 1028.73852539062 1026.50476074219 1024.13513183594 1018.89562988281 1017.72906494141 1010.25476074219 1027.38232421875 1027.21533203125 1024.4404296875 1025.92993164062 1016.84436035156 1017.46527099609 1014.36657714844 1023.05413818359 1019.859375 1024.57409667969 1017.51672363281 1008.65771484375 996.899353027344 988.623229980469 986.649108886719 986.920471191406 988.038879394531 985.060546875 981.702575683594 970.103759765625 979.270812988281 977.819885253906 985.287231445312 989.307189941406 988.419982910156 995.8837890625 989.623596191406 987.274108886719 984.4677734375 984.993530273438 985.168212890625 982.474670410156 983.062561035156 988.519348144531 989.691955566406 988.324401855469 981.359985351562 978.407470703125 979.037292480469 970.596740722656 951.478454589844 942.825988769531 934.947937011719 932.582641601562 937.811950683594 946.067138671875 941.272033691406 959.361022949219 960.564697265625 971.198547363281 977.869506835938 981.847900390625 984.755310058594 997.557006835938 1010.01623535156 1025.90197753906 1030.60229492188 1043.62414550781 1040.07824707031 1048.52014160156 1050.63342285156 1055.26330566406 1058.12854003906 1056.17321777344 1060.98095703125 1065.00744628906 1069.56652832031 1081.67504882812 1084.98754882812 1090.38757324219 1096.03637695312 1106.15710449219 1100.69079589844 1110.08752441406 1113.24975585938 1127.48449707031 1124.12377929688 1126.75988769531
969.199279785156 975.731750488281 961.124267578125 961.184509277344 952.549865722656 960.925659179688 960.96337890625 968.312194824219 968.841186523438 974.265625 971.559448242188 971.161193847656 969.122192382812 963.283081054688 972.597412109375 971.982360839844 976.865478515625 980.219116210938 981.725524902344 980.714477539062 980.161254882812 975.151184082031 974.0263671875 982.675964355469 998.719299316406 994.015869140625 1003.12677001953 1000.53765869141 1005.37573242188 1001.68627929688 1017.01989746094 1018.26885986328 1024.34216308594 1028.45886230469 1029.06787109375 1036.35925292969 1036.53649902344 1044.92541503906 1038.63366699219 1032.45751953125 1040.22619628906 1037.14685058594 1041.43322753906 1029.47521972656 1022.20764160156 1008.04223632812 1015.91467285156 1010.43713378906 1006.01373291016 1002.91223144531 1007.85516357422 996.629211425781 994.014282226562 1005.24353027344 1008.84704589844 1009.17828369141 1014.90496826172 1013.83367919922 1011.57702636719 1010.58038330078 1018.37951660156 1022.15576171875 1011.49438476562 1013.45477294922 1028.25769042969 1034.88696289062 1031.29174804688 1025.43811035156 1020.47924804688 1016.07934570312 1018.89349365234 1023.67260742188 1030.73388671875 1023.70855712891 1018.56292724609 1018.49230957031 1009.95385742188 1008.23712158203 1013.37414550781 1019.18017578125 1018.02697753906 1012.71044921875 1008.62164306641 1006.37042236328 996.681396484375 999.47900390625 991.750671386719 989.769409179688 991.4765625 996.188171386719 998.038024902344 992.807189941406 983.467529296875 991.681335449219 1000.96002197266 1005.47393798828 996.735656738281 997.953430175781 1006.37353515625 1000.53015136719 1002.14129638672 997.916748046875 985.992370605469 988.434875488281 993.764343261719 987.617004394531 996.226867675781 994.816345214844 979.31298828125 982.027954101562 976.354675292969 959.638793945312 950.512145996094 942.055908203125 940.329956054688 938.763427734375 941.137145996094 939.181945800781 944.682739257812 949.301696777344 962.241516113281 973.617309570312 971.890197753906 986.12060546875 993.335510253906 1005.59210205078 1018.69067382812 1022.576171875 1027.95556640625 1036.28991699219 1042.43310546875 1045.36584472656 1054.86242675781 1054.28051757812 1058.66674804688 1066.39001464844 1067.83154296875 1066.87951660156 1057.83374023438 1062.31823730469 1066.44250488281 1082.57861328125 1089.35852050781 1100.62915039062 1108.21594238281 1111.74914550781 1117.99780273438 1118.60266113281 1117.40368652344 1124.80993652344
969.947631835938 965.605407714844 951.200744628906 952.394714355469 949.882507324219 960.304565429688 957.593017578125 961.001892089844 957.380676269531 961.488098144531 961.196350097656 956.832702636719 964.377563476562 966.052734375 965.9091796875 971.643127441406 973.313781738281 968.686157226562 973.215209960938 972.927856445312 973.159301757812 975.730773925781 977.112243652344 978.171997070312 991.500549316406 989.210205078125 992.675659179688 994.344116210938 1004.79455566406 1001.13165283203 1016.31842041016 1019.57940673828 1034.87097167969 1021.70318603516 1028.87829589844 1023.80926513672 1028.27465820312 1034.30517578125 1039.28527832031 1035.49926757812 1028.9609375 1022.90991210938 1033.47424316406 1028.14709472656 1019.65447998047 1018.498046875 1005.00347900391 1010.51684570312 1013.40765380859 1002.806640625 1002.45788574219 1001.09600830078 991.383850097656 1002.84057617188 998.480895996094 1002.59405517578 1017.16851806641 1010.49151611328 1021.66278076172 1013.61907958984 1014.84899902344 1021.10400390625 1021.27935791016 1022.73638916016 1027.19128417969 1023.8154296875 1024.78662109375 1026.63439941406 1023.47424316406 1020.52545166016 1021.15161132812 1023.76953125 1032.90368652344 1021.61572265625 1010.19360351562 1008.96667480469 998.093383789062 996.946044921875 1011.20050048828 1015.98986816406 1011.62103271484 1015.67755126953 1003.67767333984 1009.81762695312 1003.51733398438 996.032409667969 1000.30944824219 986.838806152344 993.478271484375 1001.05218505859 998.799987792969 991.493469238281 996.252197265625 1003.68383789062 1003.00347900391 1005.70727539062 1009.95660400391 1007.84704589844 1017.20385742188 1011.51770019531 1006.38110351562 1003.31866455078 1003.85998535156 992.172180175781 997.416931152344 994.732788085938 998.887451171875 1001.66107177734 985.711242675781 976.909484863281 973.249572753906 955.62109375 946.545471191406 937.599670410156 938.635314941406 939.040344238281 937.115905761719 946.199157714844 946.019592285156 953.344360351562 967.359924316406 972.113342285156 985.536499023438 990.511047363281 998.121765136719 1009.73266601562 1025.19323730469 1029.75537109375 1032.02612304688 1043.64477539062 1041.890625 1042.73400878906 1052.54235839844 1057.5205078125 1057.25207519531 1062.5224609375 1060.42590332031 1070.45263671875 1069.27453613281 1063.00451660156 1069.84362792969 1079.48474121094 1094.24694824219 1098.0712890625 1106.98486328125 1116.04931640625 1116.78503417969 1122.17517089844 1126.35473632812 1119.33337402344
957.724548339844 954.599182128906 945.362426757812 949.650024414062 946.229370117188 948.295227050781 949.660766601562 949.464965820312 947.348754882812 954.687805175781 961.034484863281 960.212463378906 955.623291015625 962.925109863281 962.912780761719 961.777465820312 976.123168945312 972.110717773438 971.745666503906 972.269104003906 974.385437011719 976.771301269531 969.436279296875 973.205871582031 975.795104980469 981.166137695312 987.666442871094 993.04833984375 998.211242675781 1009.49829101562 1009.58837890625 1016.08679199219 1023.462890625 1021.59106445312 1025.46789550781 1023.65081787109 1025.33044433594 1025.00280761719 1024.85925292969 1039.92102050781 1026.74230957031 1020.31091308594 1016.33203125 1026.28540039062 1025.37463378906 1019.17120361328 1006.98828125 1011.91888427734 1004.2265625 1013.59869384766 1004.81335449219 998.687316894531 997.424011230469 997.844787597656 999.340515136719 1006.04534912109 1016.31091308594 1016.29132080078 1014.96984863281 1025.25793457031 1022.42175292969 1017.30749511719 1022.90106201172 1023.89465332031 1021.77117919922 1021.68725585938 1021.71765136719 1014.48553466797 1025.02917480469 1024.537109375 1021.07458496094 1018.31909179688 1014.2216796875 1024.01013183594 1009.85400390625 1012.23150634766 1010.85809326172 1001.79736328125 1006.72827148438 1003.49774169922 1004.68762207031 1011.60363769531 1003.60943603516 1005.48553466797 1010.80529785156 1005.55725097656 1005.02655029297 1003.76647949219 996.144409179688 1003.03771972656 998.685729980469 994.71337890625 1009.74389648438 1009.09411621094 1013.45556640625 1023.03674316406 1029.36608886719 1018.76446533203 1019.03283691406 1019.56567382812 1010.28430175781 1015.91723632812 1003.55224609375 999.767517089844 991.142150878906 994.442260742188 1000.89971923828 1003.89434814453 998.795776367188 981.698181152344 971.062805175781 959.622802734375 952.211059570312 952.882446289062 942.430236816406 942.481384277344 938.911804199219 944.901794433594 947.261840820312 962.611999511719 979.951110839844 979.98291015625 995.519409179688 1001.16284179688 999.067626953125 1002.45098876953 1016.77801513672 1028.35754394531 1037.66735839844 1046.43103027344 1047.68273925781 1050.94421386719 1046.85998535156 1049.42700195312 1052.53662109375 1058.39721679688 1067.24194335938 1066.48608398438 1071.45703125 1067.12890625 1069.07092285156 1088.34887695312 1099.04699707031 1103.45654296875 1109.67565917969 1113.11755371094 1112.84729003906 1117.57946777344 1116.87731933594 1121.32922363281
957.002380371094 962.071533203125 944.707336425781 943.335754394531 945.776428222656 946.438659667969 947.692443847656 943.4140625 954.360412597656 959.655700683594 957.825561523438 955.575073242188 949.829467773438 954.473388671875 959.41943359375 961.005004882812 959.974731445312 969.480346679688 976.169921875 971.610107421875 979.021301269531 975.416076660156 972.728271484375 974.282043457031 976.258605957031 979.178405761719 993.786682128906 1001.42669677734 1003.45233154297 1002.66851806641 1005.59197998047 1006.61334228516 1012.26208496094 1010.11633300781 1010.85290527344 1016.86694335938 1019.51751708984 1026.92614746094 1021.14819335938 1026.9638671875 1019.5458984375 1019.39959716797 1022.06945800781 1020.79711914062 1020.78393554688 1018.15380859375 1016.43829345703 1000.56927490234 1004.65026855469 1006.74206542969 1006.65289306641 992.638427734375 987.726989746094 991.499938964844 1004.13433837891 1006.98156738281 1020.38787841797 1015.68548583984 1016.49542236328 1021.33349609375 1018.50592041016 1014.85430908203 1017.14440917969 1027.70874023438 1026.58752441406 1020.93743896484 1019.08203125 1021.51623535156 1018.69061279297 1020.98553466797 1015.65850830078 1012.12579345703 1011.52996826172 1010.52673339844 1015.76916503906 1011.54016113281 1014.51672363281 1003.77172851562 1009.6572265625 1013.96228027344 1002.41070556641 1007.20520019531 1016.26629638672 1015.6806640625 1010.73901367188 1014.25744628906 1000.80920410156 1005.76501464844 1002.81030273438 999.2578125 1003.40716552734 1007.68627929688 1010.55963134766 1018.12725830078 1023.30230712891 1036.68664550781 1029.13745117188 1028.77001953125 1020.55023193359 1019.68359375 1012.33502197266 1010.72406005859 1013.63836669922 1003.79638671875 1001.55975341797 997.999389648438 1003.05657958984 1012.90338134766 991.589477539062 977.202087402344 965.419006347656 955.8623046875 946.324645996094 942.912231445312 942.640380859375 944.307800292969 939.048889160156 949.293579101562 949.763916015625 969.943420410156 974.651672363281 990.505249023438 1005.49835205078 1007.1435546875 1018.60748291016 1010.21160888672 1020.23791503906 1029.05151367188 1046.00805664062 1043.240234375 1046.73388671875 1042.64025878906 1037.96948242188 1053.34716796875 1052.49072265625 1054.21105957031 1055.93811035156 1068.8759765625 1071.34533691406 1071.65478515625 1074.65368652344 1098.95092773438 1104.14233398438 1106.6611328125 1103.58056640625 1110.5673828125 1119.28137207031 1112.03674316406 1122.83154296875 1120.92346191406
951.438598632812 953.931945800781 945.995483398438 946.973205566406 950.116943359375 953.88720703125 953.185302734375 949.508361816406 955.24951171875 952.227111816406 953.98681640625 959.03662109375 948.9169921875 952.146728515625 956.784851074219 955.124084472656 958.626831054688 971.516540527344 970.634094238281 977.031066894531 974.869384765625 972.703430175781 962.31396484375 966.920959472656 974.681213378906 984.026489257812 985.780883789062 997.206604003906 997.450317382812 1003.06311035156 1000.07775878906 1000.08117675781 1003.70855712891 1008.10327148438 1011.12127685547 1013.69006347656 1014.04638671875 1025.34997558594 1021.75646972656 1019.57836914062 1025.67443847656 1017.68872070312 1017.84454345703 1018.47106933594 1015.17590332031 1012.94995117188 1011.85205078125 1004.42431640625 1005.39947509766 1004.38226318359 996.671020507812 987.25341796875 989.100219726562 990.564697265625 991.997253417969 1013.91339111328 1019.41070556641 1018.75805664062 1022.78662109375 1023.25238037109 1013.99847412109 1016.13061523438 1014.71759033203 1021.33325195312 1025.71179199219 1016.08526611328 1017.11596679688 1015.3623046875 1016.31616210938 1012.62982177734 1014.89654541016 1018.20446777344 1015.474609375 1013.88452148438 1009.98974609375 1005.79998779297 1001.61486816406 1001.96380615234 998.432067871094 1003.73767089844 1009.27801513672 1010.18035888672 1014.69891357422 1021.41400146484 1020.29968261719 1012.65386962891 1012.33355712891 1009.06628417969 1010.14959716797 1008.48132324219 1013.5751953125 1015.30364990234 1015.38726806641 1017.75231933594 1023.45513916016 1029.63171386719 1035.81884765625 1028.10534667969 1022.64605712891 1024.61413574219 1011.97821044922 1013.61376953125 1020.16418457031 1012.40454101562 1003.21069335938 1010.04486083984 1009.06268310547 1010.01190185547 984.887573242188 973.487487792969 968.391235351562 959.712646484375 951.007141113281 947.564636230469 943.79248046875 935.215942382812 954.647399902344 956.43896484375 964.762390136719 982.390563964844 989.494506835938 1008.99810791016 1014.02728271484 1017.92944335938 1024.08471679688 1022.61206054688 1033.48303222656 1041.69409179688 1031.73803710938 1033.74401855469 1039.49780273438 1045.34399414062 1050.90466308594 1048.82287597656 1052.94897460938 1050.740234375 1051.91540527344 1062.7109375 1071.31225585938 1072.73779296875 1083.44409179688 1099.02893066406 1103.634765625 1113.47839355469 1108.05187988281 1104.76306152344 1120.46105957031 1121.64794921875 1134.21569824219 1132.27331542969
945.130859375 949.995422363281 943.533264160156 941.978271484375 951.775146484375 953.786499023438 966.338623046875 958.9140625 961.788757324219 961.843566894531 959.005554199219 961.786071777344 959.637573242188 948.612670898438 951.41015625 952.762268066406 963.959289550781 962.447937011719 963.189880371094 982.688659667969 981.239807128906 978.809143066406 975.831787109375 966.257934570312 970.738037109375 978.981689453125 989.741638183594 997.618469238281 997.560668945312 998.21435546875 1004.703125 1006.06121826172 1007.24481201172 1005.46228027344 1009.74548339844 1014.5810546875 1019.05017089844 1015.20690917969 1019.205078125 1021.67150878906 1019.41931152344 1015.68389892578 1013.05841064453 1020.85614013672 1020.53570556641 1001.06396484375 1002.76538085938 999.393493652344 1005.59149169922 996.978088378906 982.472839355469 989.339721679688 985.522277832031 983.796813964844 989.518005371094 1006.00823974609 1005.14801025391 1012.48699951172 1007.068359375 1005.48742675781 999.879943847656 1001.99389648438 1011.39208984375 1019.21417236328 1020.1845703125 1014.39477539062 1015.08386230469 1007.78399658203 1007.47692871094 1016.72204589844 1017.37683105469 1009.97772216797 1016.03680419922 1014.64984130859 1004.09698486328 1003.50219726562 999.829162597656 998.939575195312 999.836791992188 1005.73608398438 1007.96459960938 1006.11657714844 1017.29486083984 1017.86663818359 1012.66986083984 1011.00262451172 1018.27648925781 1008.51348876953 1019.40686035156 1015.09887695312 1016.09606933594 1019.50817871094 1025.44982910156 1021.26788330078 1030.15295410156 1023.27954101562 1031.98876953125 1027.46008300781 1029.90588378906 1027.5263671875 1013.15148925781 1003.57940673828 1005.58764648438 1004.47186279297 1009.27478027344 1013.53601074219 1010.16137695312 1000.74017333984 986.551574707031 971.052734375 963.004028320312 949.244873046875 954.064819335938 948.605102539062 930.733215332031 942.805297851562 962.607299804688 966.77978515625 971.145141601562 987.754699707031 999.694946289062 1001.35772705078 1016.74090576172 1017.97930908203 1022.00628662109 1034.25964355469 1041.654296875 1048.81164550781 1040.431640625 1048.61682128906 1050.40991210938 1049.12341308594 1040.82580566406 1042.07666015625 1051.05908203125 1042.103515625 1048.77062988281 1062.04504394531 1052.2158203125 1065.03137207031 1084.57275390625 1108.50646972656 1109.28210449219 1117.18286132812 1098.65258789062 1106.74584960938 1113.94409179688 1123.0458984375 1136.46655273438 1129.00646972656
960.70556640625 953.593200683594 937.841979980469 938.351928710938 945.520812988281 961.482482910156 970.411865234375 971.998718261719 962.837219238281 966.243774414062 965.452453613281 964.681884765625 955.492736816406 954.447082519531 962.278381347656 957.80224609375 952.043518066406 960.249267578125 974.815246582031 988.378051757812 991.609252929688 982.682067871094 980.059020996094 977.639343261719 974.598510742188 980.167236328125 988.545166015625 1001.69409179688 994.297973632812 992.615905761719 1000.73547363281 1004.32556152344 1002.65545654297 1006.28955078125 1008.01318359375 1002.26135253906 1010.75384521484 1020.17163085938 1020.19677734375 1012.60705566406 999.909118652344 1010.85620117188 1013.04089355469 1016.86975097656 1011.58685302734 1001.41473388672 999.101501464844 999.547729492188 1006.16351318359 987.941589355469 975.8017578125 985.080810546875 986.203247070312 984.748596191406 985.60205078125 989.818542480469 997.586853027344 1001.61138916016 1003.75506591797 998.107604980469 994.853881835938 993.100830078125 1007.69201660156 1019.44342041016 1013.63342285156 1014.94769287109 1013.15496826172 1007.69763183594 1007.12054443359 1014.62298583984 1007.02471923828 1007.52392578125 1018.55102539062 1015.12634277344 1007.95819091797 1003.45440673828 999.724975585938 1009.03753662109 999.551696777344 998.034118652344 1000.39532470703 1004.14337158203 1006.78314208984 1003.11157226562 1015.66320800781 1013.34552001953 1011.82287597656 1014.35864257812 1011.787109375 1014.07391357422 1015.70446777344 1023.84716796875 1028.57543945312 1031.44421386719 1027.7236328125 1020.25042724609 1022.08538818359 1024.20556640625 1028.45104980469 1030.36291503906 1016.32641601562 1013.59344482422 1006.06793212891 999.52099609375 1008.41540527344 1009.68048095703 1000.17907714844 994.221984863281 985.426452636719 970.896423339844 962.251708984375 952.395874023438 946.97802734375 942.802673339844 938.843200683594 948.348876953125 959.310302734375 967.955078125 978.137390136719 992.745971679688 996.782531738281 1004.9794921875 1015.01202392578 1024.98791503906 1032.89660644531 1041.28955078125 1038.49963378906 1045.53015136719 1053.93615722656 1044.78356933594 1044.81665039062 1048.48876953125 1049.828125 1041.36511230469 1037.61474609375 1038.236328125 1043.37512207031 1055.9794921875 1071.10681152344 1071.34484863281 1086.24426269531 1107.12854003906 1107.1474609375 1113.37890625 1109.89733886719 1109.03771972656 1112.8974609375 1117.12072753906 1124.92309570312 1127.12451171875
951.689636230469 944.596862792969 939.040649414062 943.559326171875 949.052062988281 963.500122070312 967.651428222656 963.943481445312 972.457763671875 975.54931640625 975.436218261719 967.215576171875 960.555053710938 968.734069824219 958.619506835938 960.604187011719 957.948303222656 971.830627441406 976.582153320312 989.4775390625 990.791015625 986.343688964844 985.31982421875 974.197082519531 976.968688964844 974.773071289062 985.416076660156 991.283325195312 993.272827148438 995.212097167969 995.681640625 996.340393066406 1006.08911132812 1004.43548583984 1001.77673339844 998.013366699219 1007.62756347656 1009.77990722656 1021.44488525391 1010.24163818359 1011.94274902344 1013.4013671875 1007.66369628906 1011.06683349609 1007.41778564453 999.932312011719 1001.49060058594 999.620849609375 988.995788574219 986.367065429688 985.432189941406 988.961975097656 981.390625 982.559509277344 982.865539550781 994.120727539062 996.038696289062 992.860412597656 987.087280273438 989.874389648438 990.855651855469 998.434204101562 1005.16461181641 1003.90911865234 1003.56604003906 1001.69134521484 1007.60864257812 1006.59429931641 1011.48400878906 1005.23303222656 1000.86956787109 1001.10827636719 1002.73083496094 1004.86462402344 1008.39495849609 998.838500976562 1009.79486083984 999.281066894531 992.564208984375 996.026733398438 1001.32116699219 1010.44024658203 1007.06042480469 997.343322753906 1006.25158691406 1022.00787353516 1015.30059814453 1007.51220703125 1011.88677978516 1009.62585449219 1014.55145263672 1034.04357910156 1033.05541992188 1035.6875 1036.8740234375 1029.8203125 1023.92578125 1022.53405761719 1019.62683105469 1017.04949951172 1018.203125 1012.22631835938 1007.78497314453 1007.08807373047 1016.88757324219 1004.15228271484 993.221801757812 978.297668457031 979.463623046875 978.46826171875 967.483703613281 956.349914550781 951.968139648438 951.704406738281 954.405395507812 951.812805175781 958.545043945312 975.062927246094 985.182067871094 996.932739257812 995.52734375 1005.60833740234 1010.58544921875 1017.71527099609 1029.56652832031 1042.34045410156 1038.21118164062 1044.51416015625 1041.74243164062 1041.64025878906 1039.25012207031 1046.17126464844 1044.04931640625 1047.41284179688 1042.69250488281 1034.12780761719 1040.43859863281 1053.74353027344 1065.70971679688 1078.15808105469 1089.451171875 1099.34680175781 1107.98120117188 1105.62890625 1116.55346679688 1115.11059570312 1111.1103515625 1118.0224609375 1124.55993652344 1131.65185546875
950.092956542969 946.664123535156 948.442626953125 947.224304199219 946.812316894531 955.81396484375 958.96533203125 965.209045410156 974.6318359375 974.473999023438 974.093383789062 972.676025390625 969.509765625 972.4658203125 974.936340332031 976.551086425781 968.269897460938 982.8935546875 983.68798828125 986.127990722656 989.399536132812 984.9111328125 989.104309082031 983.59228515625 986.173278808594 981.211791992188 985.623107910156 997.141418457031 987.75 993.625854492188 995.549072265625 998.370178222656 997.9873046875 991.2998046875 999.528747558594 1003.13732910156 1003.71545410156 1011.1357421875 1010.25036621094 1002.00885009766 997.970153808594 1003.26300048828 998.508239746094 999.82861328125 1003.0302734375 1005.34320068359 999.997131347656 997.006103515625 983.853759765625 979.750671386719 984.466613769531 985.785827636719 982.137451171875 992.760314941406 993.487854003906 998.630676269531 987.542236328125 982.128662109375 983.6416015625 986.876831054688 985.528442382812 991.154968261719 995.250854492188 1001.39825439453 997.400634765625 994.523010253906 1005.46624755859 1004.7548828125 1005.68475341797 1008.02227783203 1002.93231201172 999.615600585938 1000.2099609375 991.059692382812 1001.71624755859 998.837646484375 991.045593261719 988.590087890625 989.537475585938 989.686645507812 995.834106445312 991.536315917969 998.723937988281 1004.7451171875 1008.0224609375 1011.27746582031 1010.86682128906 1012.1376953125 1014.91802978516 1018.38818359375 1015.82806396484 1027.19421386719 1021.94384765625 1021.51678466797 1031.09558105469 1031.97900390625 1030.30236816406 1020.259765625 1015.88067626953 1013.11871337891 1011.4150390625 1016.64593505859 1019.42053222656 1013.90667724609 1010.04949951172 1002.44519042969 995.756713867188 985.281616210938 974.729125976562 976.057373046875 965.410766601562 962.955322265625 951.085815429688 952.428161621094 952.363098144531 949.967346191406 958.531555175781 974.638000488281 991.2255859375 992.594665527344 992.988464355469 1009.22106933594 1018.42541503906 1020.73431396484 1031.36120605469 1038.48742675781 1044.83361816406 1045.87475585938 1039.82177734375 1034.78332519531 1037.44921875 1031.61877441406 1038.62084960938 1041.85180664062 1043.75378417969 1042.47265625 1041.34643554688 1052.81274414062 1064.99206542969 1082.44958496094 1090.57092285156 1101.30822753906 1103.67028808594 1107.53857421875 1118.26745605469 1115.87377929688 1107.01232910156 1115.69982910156 1123.09826660156 1122.33825683594
949.02587890625 955.059265136719 953.909606933594 953.086669921875 948.366882324219 953.276611328125 960.0166015625 961.923889160156 964.34912109375 969.484069824219 966.635314941406 967.3623046875 970.905395507812 976.921997070312 974.342163085938 981.257202148438 988.627746582031 979.387634277344 981.288024902344 985.203186035156 986.835021972656 986.416015625 994.370056152344 991.618225097656 987.938049316406 983.968933105469 991.751831054688 992.310791015625 993.002197265625 991.215270996094 989.531127929688 997.509338378906 994.35400390625 990.449829101562 998.510559082031 998.460754394531 999.945861816406 1000.65112304688 1009.29846191406 994.916137695312 996.255004882812 989.394470214844 983.8671875 985.073913574219 992.661926269531 992.202209472656 991.039733886719 986.346557617188 979.226257324219 977.416198730469 979.402587890625 994.054748535156 995.200622558594 999.055297851562 991.101318359375 991.918212890625 988.169494628906 984.831604003906 978.403869628906 986.609191894531 989.728454589844 987.260375976562 992.142456054688 988.007202148438 988.847473144531 1004.53704833984 1006.77368164062 1001.26934814453 1002.14660644531 1005.84130859375 1007.5615234375 1003.95654296875 1002.17791748047 986.27734375 996.665100097656 992.480529785156 986.927734375 987.138122558594 987.287841796875 981.102661132812 993.768859863281 992.952941894531 988.886535644531 996.776550292969 992.438720703125 1000.28033447266 1005.18511962891 1010.30035400391 1010.91815185547 1015.90655517578 1019.30126953125 1021.15582275391 1027.41247558594 1016.17785644531 1019.23394775391 1024.24829101562 1023.34106445312 1019.21826171875 1013.2451171875 1010.39343261719 1015.66943359375 1019.31427001953 1021.80987548828 1022.80358886719 1018.38348388672 1005.82037353516 1000.58294677734 983.036071777344 980.821105957031 969.522888183594 956.966552734375 950.523193359375 945.992553710938 939.469970703125 940.382507324219 945.887390136719 955.208435058594 976.404296875 984.83642578125 989.476684570312 998.033935546875 1017.39929199219 1025.66845703125 1024.73840332031 1033.77673339844 1029.80883789062 1036.59118652344 1035.78430175781 1041.24670410156 1026.79040527344 1037.95434570312 1038.10595703125 1033.73168945312 1042.98095703125 1037.44470214844 1040.341796875 1046.31225585938 1046.58239746094 1057.3857421875 1066.39208984375 1079.29626464844 1094.91735839844 1099.11962890625 1094.05004882812 1114.08740234375 1112.34924316406 1115.60070800781 1112.71606445312 1121.00402832031 1133.35046386719
950.150146484375 961.005432128906 952.768310546875 960.999145507812 955.315612792969 958.558044433594 958.884155273438 965.923889160156 966.57373046875 957.867370605469 961.921875 965.241394042969 973.452575683594 973.038391113281 976.082946777344 980.135437011719 983.194396972656 985.897277832031 981.041137695312 986.376525878906 992.447509765625 997.320434570312 991.420776367188 994.252868652344 986.954711914062 981.370300292969 993.92919921875 987.720031738281 984.508605957031 992.055969238281 984.280944824219 991.088500976562 985.565002441406 989.697021484375 992.525634765625 993.738159179688 990.486694335938 992.7275390625 999.707763671875 995.752014160156 990.1826171875 989.021118164062 989.330932617188 989.601989746094 992.9794921875 987.740661621094 989.995056152344 988.985107421875 980.540405273438 982.940612792969 983.741394042969 990.393981933594 991.756225585938 984.144958496094 991.527709960938 984.44287109375 989.246276855469 985.402954101562 987.060485839844 987.303588867188 985.919677734375 989.882263183594 988.142456054688 980.358764648438 996.28369140625 1003.44250488281 995.497192382812 1002.55413818359 1004.26684570312 1009.32037353516 1014.99462890625 1004.74401855469 990.748413085938 990.126159667969 993.55078125 990.985656738281 974.684997558594 986.971923828125 988.089904785156 986.547607421875 985.7216796875 992.113952636719 998.941528320312 1000.45745849609 1001.35241699219 1003.14935302734 997.672607421875 1009.67669677734 1015.33825683594 1018.02062988281 1022.14916992188 1017.76605224609 1034.771484375 1011.62609863281 1008.25604248047 1016.45001220703 1023.97955322266 1020.28985595703 1013.953125 1007.60369873047 1014.20227050781 1019.21685791016 1030.46667480469 1019.52166748047 1016.69232177734 1007.32391357422 1000.03350830078 989.199279785156 977.049743652344 970.393127441406 949.714965820312 943.515563964844 938.901916503906 939.046691894531 945.919982910156 948.117004394531 958.828552246094 965.510437011719 986.294494628906 1003.28155517578 998.142395019531 1004.32305908203 1012.16607666016 1016.44165039062 1019.02716064453 1025.439453125 1030.05200195312 1037.14245605469 1035.97326660156 1042.20886230469 1032.24877929688 1031.47668457031 1028.08544921875 1038.00805664062 1035.60180664062 1040.07153320312 1041.19787597656 1037.11889648438 1048.48608398438 1057.92248535156 1067.77734375 1085.26611328125 1088.50207519531 1086.91748046875 1109.34680175781 1111.31884765625 1115.09387207031 1118.39953613281 1123.14709472656 1142.07348632812
950.57958984375 954.183227539062 951.168395996094 962.84765625 968.911865234375 963.821594238281 960.462768554688 962.089172363281 975.460266113281 966.908630371094 961.010559082031 958.909240722656 965.347045898438 965.002990722656 968.721130371094 977.067932128906 976.201049804688 984.300537109375 985.027465820312 983.686157226562 991.501892089844 991.53564453125 990.314331054688 981.605102539062 979.972839355469 974.382873535156 991.185729980469 981.256774902344 986.654724121094 984.158325195312 982.09375 986.61181640625 995.848205566406 995.380615234375 987.399353027344 991.886657714844 994.722106933594 996.846740722656 1004.67651367188 994.668518066406 991.726745605469 983.087158203125 989.831176757812 990.682739257812 996.569763183594 988.070434570312 986.448181152344 992.798828125 990.861755371094 991.987670898438 990.73486328125 988.010375976562 984.415161132812 989.967163085938 997.099243164062 1003.61706542969 994.982055664062 990.386657714844 986.693664550781 977.476989746094 979.64306640625 992.040771484375 991.708312988281 986.506774902344 997.995422363281 1007.39080810547 1005.63861083984 1002.48413085938 999.585327148438 1005.77313232422 1004.00561523438 996.139404296875 985.581298828125 978.883666992188 985.555786132812 985.356201171875 983.381042480469 981.55322265625 988.864624023438 977.620300292969 984.363159179688 991.807678222656 993.945617675781 999.724487304688 1007.70983886719 1006.59466552734 1003.24444580078 1009.48986816406 1016.96868896484 1025.29418945312 1029.01403808594 1017.11761474609 1020.28088378906 1018.7119140625 1015.68914794922 1020.75463867188 1012.978515625 1021.45684814453 1019.77093505859 1019.65106201172 1002.38861083984 1019.74938964844 1024.64343261719 1013.00329589844 1007.74621582031 1009.91540527344 994.732299804688 994.046997070312 983.219299316406 973.61181640625 960.612182617188 948.144287109375 945.942687988281 942.695007324219 950.90283203125 951.730712890625 953.284851074219 964.985107421875 983.210144042969 995.520690917969 1003.34527587891 1003.90802001953 1013.52587890625 1017.23443603516 1020.52545166016 1026.06750488281 1028.93347167969 1032.15490722656 1029.49047851562 1037.57873535156 1035.12854003906 1028.11779785156 1020.44396972656 1028.78820800781 1031.83239746094 1031.65698242188 1036.29919433594 1042.86206054688 1040.59704589844 1050.00134277344 1063.73413085938 1076.85925292969 1077.99108886719 1086.1640625 1098.19006347656 1103.15124511719 1115.68957519531 1122.19848632812 1131.9375 1146.11938476562
949.737182617188 950.503234863281 956.174011230469 962.530822753906 968.350891113281 974.041625976562 974.645385742188 978.526672363281 970.017639160156 966.684020996094 970.166442871094 968.0810546875 967.815307617188 963.784912109375 970.169982910156 971.976196289062 974.95947265625 977.659423828125 982.947998046875 986.082458496094 993.198425292969 983.337768554688 982.878112792969 986.1259765625 980.023254394531 980.739685058594 985.971740722656 980.388305664062 990.3837890625 973.632263183594 977.169860839844 984.59375 986.449340820312 982.007507324219 986.935363769531 995.85498046875 998.910400390625 995.508911132812 989.667663574219 980.280944824219 985.19580078125 984.910705566406 983.6328125 982.910522460938 991.591064453125 989.540405273438 982.305297851562 986.40576171875 992.347290039062 989.154052734375 985.021789550781 979.926086425781 971.721984863281 983.884826660156 989.142395019531 991.517272949219 995.429077148438 992.818115234375 994.249816894531 979.866455078125 984.934692382812 990.674255371094 996.703308105469 993.827453613281 998.071533203125 1004.82739257812 1007.80816650391 999.891296386719 993.775268554688 994.368041992188 995.238952636719 981.898010253906 978.65869140625 973.513732910156 979.466064453125 985.459838867188 995.053466796875 986.11376953125 987.141784667969 990.660827636719 991.277221679688 988.577392578125 989.238159179688 998.548461914062 1010.025390625 1000.27276611328 1014.77026367188 1011.44927978516 1017.26342773438 1015.71569824219 1025.96301269531 1015.47119140625 1013.35900878906 1024.34069824219 1015.78155517578 1015.58923339844 1012.68762207031 1005.77777099609 1015.89965820312 1011.73291015625 1014.69201660156 1021.37524414062 1017.7939453125 1012.58239746094 1009.63018798828 1005.51678466797 995.874084472656 991.309204101562 983.503540039062 977.777709960938 960.914245605469 955.462280273438 955.131408691406 951.259033203125 953.912902832031 945.418273925781 957.47900390625 964.461730957031 981.18115234375 991.39111328125 1002.31188964844 1006.61108398438 1001.79632568359 1008.97692871094 1013.244140625 1024.81970214844 1030.130859375 1030.583984375 1030.26232910156 1026.86059570312 1030.76940917969 1021.86547851562 1022.76208496094 1025.40002441406 1026.08154296875 1023.49047851562 1028.23547363281 1039.10876464844 1041.78894042969 1045.33532714844 1056.42883300781 1069.10278320312 1075.8876953125 1088.61181640625 1106.27941894531 1117.17578125 1122.419921875 1125.39868164062 1140.47778320312 1142.31506347656
942.768371582031 946.500122070312 958.060668945312 963.096130371094 966.209411621094 972.984252929688 981.934936523438 974.822692871094 971.010192871094 972.8818359375 966.618225097656 981.655639648438 978.119201660156 970.053833007812 974.513854980469 970.933715820312 975.737060546875 970.524169921875 980.9306640625 978.725402832031 993.888671875 990.647705078125 986.365905761719 980.500427246094 981.819396972656 979.286682128906 972.860900878906 981.879272460938 982.59423828125 976.108032226562 972.670104980469 976.621032714844 976.455322265625 976.343688964844 975.193725585938 989.102905273438 991.027587890625 981.752746582031 979.244079589844 984.846313476562 986.207885742188 982.577758789062 983.57470703125 987.718322753906 988.174682617188 974.999145507812 983.462646484375 983.726806640625 991.931579589844 983.9365234375 978.120300292969 978.993835449219 965.024353027344 976.476379394531 986.140686035156 987.539184570312 988.907165527344 984.965270996094 984.245483398438 982.62255859375 982.277587890625 989.20068359375 997.014831542969 994.660400390625 1008.29425048828 1009.10675048828 1008.01641845703 1009.408203125 998.742553710938 988.852355957031 984.8134765625 983.410095214844 976.447143554688 977.940979003906 989.117431640625 988.234130859375 997.929748535156 991.55810546875 991.342712402344 983.941467285156 989.306884765625 984.748168945312 996.60400390625 999.2373046875 994.314392089844 993.6201171875 1002.94415283203 1006.82531738281 1013.26080322266 1012.07086181641 1009.53009033203 1010.65148925781 1019.27728271484 1019.16949462891 1020.72741699219 1014.72784423828 1013.26239013672 1007.75201416016 1003.62835693359 1012.3564453125 1016.95379638672 1021.12030029297 1019.12481689453 1010.39868164062 1005.59545898438 998.844848632812 992.304748535156 988.944091796875 985.823120117188 977.535705566406 963.552978515625 958.979858398438 964.912658691406 965.018188476562 958.862243652344 953.147216796875 962.614013671875 972.596313476562 986.484130859375 988.108642578125 998.622619628906 1003.52697753906 998.925964355469 1015.79998779297 1016.90258789062 1023.94262695312 1016.83929443359 1028.56420898438 1020.83551025391 1018.86145019531 1022.21209716797 1014.35241699219 1020.376953125 1010.04852294922 1021.87139892578 1024.12121582031 1021.75152587891 1033.12353515625 1043.5615234375 1048.33752441406 1062.248046875 1070.00646972656 1082.66357421875 1090.09826660156 1108.31677246094 1116.19311523438 1129.10546875 1141.51196289062 1144.77575683594 1143.35278320312
950.430236816406 953.075256347656 965.061767578125 963.660400390625 967.911437988281 979.061096191406 974.361572265625 976.151550292969 966.907470703125 964.401489257812 968.610107421875 967.682189941406 966.807250976562 964.971557617188 981.5595703125 970.231567382812 980.064392089844 982.498229980469 979.888427734375 984.153381347656 988.278991699219 988.383728027344 995.615417480469 985.644104003906 984.7958984375 985.994079589844 985.173217773438 982.880920410156 979.365051269531 979.066223144531 976.4345703125 976.683288574219 977.824279785156 978.431091308594 972.325378417969 978.209350585938 974.888977050781 976.066101074219 984.505493164062 990.538635253906 984.76025390625 982.813903808594 986.419250488281 994.283264160156 991.927612304688 993.227600097656 981.541931152344 984.26416015625 989.13623046875 980.625610351562 976.9765625 973.549011230469 972.017517089844 974.641540527344 981.104553222656 984.782531738281 984.057067871094 985.607788085938 982.4970703125 977.884826660156 983.171264648438 989.940002441406 992.993225097656 990.850219726562 994.965698242188 996.840637207031 993.530395507812 1000.15490722656 1000.03430175781 993.308410644531 979.810546875 979.315856933594 972.125427246094 978.342346191406 990.635620117188 1002.81494140625 1000.94500732422 994.965148925781 982.80517578125 983.112426757812 989.479919433594 983.14599609375 998.69677734375 1001.35980224609 997.614868164062 999.684387207031 1001.22338867188 1004.03131103516 1018.94281005859 1005.16363525391 1004.93420410156 1001.53479003906 1009.32629394531 1009.19488525391 1010.43273925781 1006.45104980469 1010.23986816406 1010.61157226562 1010.11499023438 1003.81976318359 1018.20220947266 1016.2763671875 1007.94635009766 1006.27514648438 999.0283203125 980.629638671875 1001.19946289062 992.807312011719 990.763366699219 979.191833496094 965.518981933594 966.1240234375 961.504211425781 959.273681640625 965.491333007812 964.17041015625 974.086975097656 978.101623535156 992.168151855469 993.880859375 1003.69958496094 1007.36047363281 1001.44934082031 1014.07281494141 1020.94860839844 1025.67614746094 1019.46276855469 1013.67053222656 1018.06994628906 1017.19116210938 1012.11370849609 1016.65325927734 1013.24389648438 1011.28875732422 1015.02850341797 1017.51513671875 1016.90826416016 1025.23120117188 1036.28430175781 1049.35754394531 1050.82531738281 1069.38684082031 1077.99731445312 1091.00158691406 1108.1142578125 1117.16857910156 1125.17346191406 1141.01989746094 1141.16760253906 1136.98181152344
966.720886230469 963.836059570312 969.696472167969 965.570922851562 963.676391601562 975.854309082031 982.035339355469 976.811767578125 972.880310058594 973.981262207031 972.898315429688 971.502990722656 977.054321289062 970.701354980469 976.44873046875 977.429931640625 982.113342285156 980.40771484375 981.32666015625 983.717041015625 988.08544921875 992.0322265625 990.998657226562 989.946411132812 982.456237792969 980.170288085938 986.23974609375 978.385681152344 977.332092285156 976.123962402344 979.193115234375 985.546325683594 983.656860351562 981.441284179688 983.502990722656 989.116394042969 974.420654296875 980.937438964844 970.44775390625 979.846984863281 974.573303222656 975.681518554688 983.912353515625 991.773193359375 991.415771484375 989.680847167969 993.143859863281 988.062683105469 988.023864746094 978.320739746094 974.605895996094 973.359313964844 975.433227539062 975.778076171875 975.481079101562 979.274169921875 989.270324707031 980.975280761719 978.020751953125 980.423278808594 988.902587890625 995.575622558594 987.444396972656 982.245422363281 980.967407226562 979.512573242188 990.109497070312 985.769836425781 989.516357421875 982.763366699219 983.657104492188 978.389709472656 976.77685546875 980.209838867188 991.094299316406 991.296936035156 997.122741699219 989.884826660156 985.831787109375 983.046264648438 991.053344726562 991.577758789062 1004.28765869141 1002.46820068359 1008.59790039062 995.99658203125 996.592224121094 1011.33361816406 1010.54473876953 1009.11822509766 1009.62072753906 1000.52239990234 997.791931152344 1000.64019775391 1003.64996337891 1006.63586425781 1005.46374511719 1006.93530273438 1007.90545654297 1006.57818603516 1008.7685546875 1010.22302246094 1003.09008789062 992.148254394531 997.493041992188 998.236145019531 1000.18957519531 998.232238769531 992.805297851562 985.161682128906 981.425842285156 971.282348632812 971.184143066406 974.978393554688 968.108337402344 974.456481933594 980.632141113281 981.336853027344 992.368835449219 999.698303222656 1005.85754394531 1002.86901855469 1006.07659912109 1003.43743896484 1018.24969482422 1019.03228759766 1014.87457275391 1015.39904785156 1006.30853271484 1008.17407226562 1008.71002197266 1017.23797607422 1014.17846679688 1018.94055175781 1022.71649169922 1025.83642578125 1026.74096679688 1032.93090820312 1035.33190917969 1048.01940917969 1055.07189941406 1064.13684082031 1083.30493164062 1097.56494140625 1107.78283691406 1116.64306640625 1120.10668945312 1130.69030761719 1136.29260253906 1138.04614257812
951.972961425781 955.592895507812 952.888671875 959.740234375 967.461975097656 964.2265625 974.105224609375 975.595886230469 972.929016113281 972.993591308594 977.677062988281 970.999084472656 968.351501464844 964.735107421875 974.258117675781 972.411315917969 975.101989746094 971.723510742188 981.478698730469 984.176940917969 986.067565917969 986.451782226562 985.96875 984.191833496094 978.953002929688 980.308532714844 978.843688964844 982.706970214844 984.838500976562 978.638671875 985.744018554688 985.605407714844 984.450622558594 982.465881347656 987.227416992188 989.575134277344 975.484191894531 973.542785644531 976.898559570312 977.144592285156 974.224243164062 982.936279296875 985.485412597656 988.258850097656 987.713012695312 988.989990234375 979.770385742188 984.598754882812 978.361633300781 979.709655761719 979.260803222656 978.049987792969 973.833312988281 967.369201660156 974.640380859375 978.837036132812 981.370056152344 977.61669921875 981.23388671875 985.133422851562 986.648681640625 984.132690429688 982.878173828125 975.918823242188 963.731384277344 966.041320800781 978.04638671875 977.96240234375 976.280700683594 982.62353515625 978.911987304688 979.10986328125 965.2587890625 975.068237304688 984.54736328125 998.191101074219 999.281127929688 989.44775390625 992.064270019531 985.541442871094 995.208435058594 1004.48583984375 1005.17651367188 998.564575195312 999.939331054688 1000.74255371094 1002.64001464844 1010.09375 1010.35797119141 1013.48419189453 1009.18896484375 1006.41857910156 999.173095703125 1000.12042236328 994.006103515625 1000.67578125 999.1796875 1000.78375244141 999.584533691406 998.385192871094 988.663208007812 994.092468261719 999.411254882812 998.97265625 993.973815917969 998.145568847656 1004.29412841797 992.917602539062 989.562194824219 990.186218261719 987.847290039062 984.992004394531 989.380798339844 985.074462890625 986.232849121094 992.342224121094 981.797058105469 981.380798339844 982.459838867188 989.979675292969 995.997192382812 1009.90258789062 1010.14178466797 1006.3388671875 1014.005859375 1014.12683105469 1017.23034667969 1014.46008300781 1010.61688232422 1006.92913818359 1011.32135009766 1016.47180175781 1018.30493164062 1020.79754638672 1024.087890625 1031.58435058594 1031.66711425781 1030.85607910156 1034.44921875 1047.61608886719 1058.58032226562 1072.57690429688 1089.65246582031 1102.02978515625 1109.98095703125 1117.13647460938 1127.14208984375 1120.14880371094 1131.0390625 1149.45642089844
948.363464355469 954.557250976562 957.152160644531 954.015808105469 961.32470703125 962.244812011719 966.6181640625 970.341613769531 970.914916992188 968.24169921875 967.564575195312 971.472900390625 962.362365722656 960.449523925781 968.196166992188 975.234008789062 975.253356933594 983.638610839844 988.053649902344 984.694519042969 988.416931152344 985.501953125 978.880004882812 969.383850097656 971.735290527344 982.286560058594 978.118591308594 981.706298828125 993.594482421875 985.856140136719 990.697448730469 991.691772460938 981.730895996094 982.471252441406 983.495971679688 981.246398925781 987.198608398438 974.56884765625 971.416748046875 970.286743164062 982.139892578125 984.383728027344 979.093505859375 977.641662597656 990.180603027344 985.1708984375 975.39794921875 973.5068359375 973.398010253906 981.459350585938 980.710083007812 982.1357421875 974.061889648438 974.680786132812 968.65625 974.826171875 975.59814453125 969.975708007812 977.529174804688 986.173645019531 980.344848632812 981.572021484375 988.821838378906 977.070373535156 978.072692871094 969.173706054688 971.973876953125 973.0537109375 968.312377929688 971.753967285156 981.05859375 976.293518066406 977.824829101562 971.574401855469 985.252014160156 985.858825683594 993.8798828125 988.915954589844 989.106384277344 990.351013183594 998.715087890625 1000.20977783203 1006.76531982422 1007.95672607422 1000.22595214844 1003.98345947266 1007.30908203125 1001.71813964844 1010.58929443359 1007.71875 1011.76861572266 1011.29095458984 999.695190429688 1003.76861572266 994.960693359375 1005.30029296875 1001.07092285156 997.593933105469 998.056396484375 1004.71215820312 1003.49151611328 1000.84423828125 991.388854980469 1000.21429443359 989.192260742188 996.031494140625 999.060913085938 990.6513671875 990.987365722656 988.385681152344 981.615112304688 980.052429199219 992.450012207031 998.421813964844 993.184753417969 992.937561035156 994.982971191406 996.200561523438 987.117431640625 995.471435546875 997.256530761719 1001.42022705078 1004.89770507812 1007.10528564453 1000.83843994141 1000.42303466797 1011.4501953125 1017.18908691406 1010.84747314453 1010.46911621094 1004.93786621094 1002.21130371094 1021.90783691406 1021.72393798828 1022.13140869141 1020.34765625 1034.68957519531 1037.2060546875 1032.00927734375 1051.61206054688 1055.99291992188 1077.376953125 1092.06848144531 1110.46740722656 1113.58081054688 1116.28393554688 1115.41735839844 1128.45812988281 1136.42053222656 1153.00476074219
947.429260253906 949.934020996094 958.962341308594 956.622802734375 961.47314453125 965.945007324219 963.389221191406 964.228271484375 964.905822753906 977.612182617188 974.138244628906 971.519470214844 966.807312011719 963.269470214844 968.162048339844 971.272399902344 970.481262207031 980.648254394531 988.283874511719 986.469604492188 980.657165527344 977.413269042969 971.837646484375 972.153991699219 966.954772949219 968.332885742188 978.405517578125 984.538330078125 984.497619628906 984.079162597656 992.777160644531 990.640686035156 994.02880859375 993.004516601562 988.011901855469 976.069213867188 982.62890625 979.226867675781 975.314331054688 974.529663085938 976.955932617188 970.453063964844 972.6982421875 977.699768066406 979.412475585938 976.118530273438 972.53955078125 978.569641113281 975.784851074219 988.286865234375 986.779541015625 981.50146484375 980.418212890625 975.400817871094 965.971435546875 969.243408203125 972.848876953125 971.997375488281 975.9501953125 986.055847167969 987.7392578125 993.935241699219 984.453308105469 977.605651855469 983.576354980469 972.778259277344 969.2216796875 965.956481933594 966.599670410156 975.170959472656 977.625671386719 973.606018066406 977.89208984375 974.373901367188 976.81494140625 983.942749023438 990.374572753906 991.334777832031 990.110412597656 984.77880859375 993.535278320312 1005.83453369141 999.89111328125 997.380676269531 1002.31146240234 1000.74310302734 998.665710449219 999.818786621094 1004.29229736328 1003.65905761719 1014.43267822266 1002.55670166016 1000.07019042969 1005.0380859375 997.990661621094 1001.38830566406 997.301940917969 994.31640625 997.76025390625 996.004943847656 994.806640625 998.552429199219 997.428161621094 993.463256835938 994.299194335938 998.488586425781 996.323791503906 995.770141601562 990.536987304688 989.217529296875 987.795654296875 984.718933105469 991.081787109375 1000.35375976562 1005.88165283203 1001.12530517578 1002.22235107422 997.569763183594 1001.84484863281 998.091186523438 996.923767089844 1003.63598632812 1001.27117919922 1008.16204833984 1005.84240722656 998.889587402344 1007.37109375 1004.15087890625 1012.78619384766 1010.06634521484 1008.61834716797 1013.97839355469 1017.49609375 1027.78112792969 1024.12426757812 1031.72998046875 1029.12084960938 1039.28637695312 1039.71740722656 1046.79614257812 1066.33312988281 1078.75903320312 1093.94677734375 1105.59802246094 1106.67565917969 1113.23754882812 1131.29577636719 1130.50207519531 1138.92016601562 1150.12536621094
946.204345703125 946.358215332031 963.588195800781 965.12548828125 967.036315917969 973.93017578125 968.010925292969 959.710876464844 959.530578613281 968.92626953125 971.928466796875 968.034851074219 964.809020996094 971.496826171875 969.094970703125 977.159973144531 982.352416992188 982.048461914062 989.679382324219 984.025817871094 982.983459472656 979.271484375 973.546447753906 968.226745605469 968.692687988281 972.345764160156 976.133178710938 970.869689941406 981.143920898438 975.123291015625 979.19384765625 988.013732910156 989.26953125 989.583801269531 988.634826660156 980.717895507812 975.893493652344 974.893737792969 984.735229492188 974.274475097656 965.070190429688 961.093627929688 970.643676757812 968.906860351562 968.478210449219 967.098754882812 972.792236328125 974.117370605469 971.405700683594 981.089782714844 979.705749511719 985.954650878906 974.503295898438 966.893859863281 966.2666015625 973.363952636719 973.01904296875 979.09619140625 975.029113769531 979.8466796875 981.872192382812 984.740844726562 981.65478515625 992.274475097656 979.562438964844 978.77197265625 973.711975097656 962.440734863281 964.078125 969.773498535156 975.463989257812 973.486328125 982.832702636719 981.47802734375 985.138244628906 979.287475585938 981.445922851562 989.794677734375 989.661865234375 981.9345703125 989.368957519531 993.623229980469 988.833190917969 997.522644042969 994.513610839844 990.182006835938 995.293762207031 992.984619140625 991.443908691406 1000.62231445312 1008.16949462891 1009.31915283203 1005.53546142578 996.51953125 990.269714355469 996.959411621094 990.804016113281 996.509582519531 993.61083984375 997.020690917969 995.182861328125 991.581787109375 992.698059082031 993.984619140625 998.607971191406 999.225708007812 999.128234863281 1002.21887207031 997.613891601562 985.914184570312 987.9736328125 989.356628417969 991.942443847656 996.309997558594 995.846618652344 1001.26898193359 998.16845703125 999.293640136719 1001.47338867188 999.146118164062 1002.00036621094 1014.80596923828 1007.302734375 1007.50244140625 1001.96942138672 1008.22888183594 1006.05578613281 1004.53436279297 1015.82556152344 1022.90374755859 1017.5419921875 1021.93682861328 1022.13916015625 1020.48596191406 1035.13488769531 1040.92810058594 1035.20129394531 1049.39672851562 1050.69494628906 1065.55029296875 1081.33728027344 1094.20532226562 1104.48474121094 1106.23645019531 1111.84643554688 1121.81201171875 1130.67102050781 1132.62707519531 1143.26062011719 1150.2822265625
944.514221191406 961.945617675781 959.881774902344 968.841186523438 968.910705566406 969.719055175781 974.379760742188 966.081970214844 962.926940917969 966.111206054688 965.705627441406 966.338134765625 969.061462402344 975.275695800781 975.579895019531 973.573608398438 978.801574707031 973.667846679688 972.301208496094 979.072631835938 975.758605957031 970.984741210938 972.163940429688 969.45703125 967.236206054688 971.61669921875 972.96533203125 977.961059570312 977.079040527344 972.458557128906 976.8916015625 974.691467285156 979.795104980469 982.492065429688 986.225219726562 982.722290039062 966.054260253906 977.590393066406 970.577270507812 973.412658691406 968.361572265625 962.783630371094 962.571411132812 971.724975585938 977.258056640625 967.572509765625 966.614562988281 970.178649902344 973.946716308594 980.039916992188 981.624389648438 984.278991699219 979.37939453125 974.014282226562 967.066650390625 969.361694335938 970.984069824219 980.010986328125 981.186950683594 984.070373535156 977.831115722656 976.061157226562 978.428649902344 995.923217773438 980.681823730469 984.958618164062 979.936889648438 967.912719726562 969.077941894531 974.77099609375 981.799438476562 982.828491210938 978.827270507812 970.528747558594 976.869506835938 983.578308105469 987.516662597656 995.415161132812 990.609680175781 981.44189453125 983.91455078125 989.917602539062 990.452880859375 1002.44226074219 996.5166015625 992.46875 992.678955078125 997.541564941406 992.922607421875 994.960083007812 1000.67779541016 1006.99597167969 1008.05889892578 1004.23681640625 997.492980957031 989.701232910156 991.373779296875 993.906921386719 988.139282226562 993.8671875 991.602233886719 990.125549316406 989.509216308594 1001.025390625 997.973022460938 998.577209472656 995.009460449219 999.889282226562 1004.15075683594 997.561401367188 993.933959960938 996.530334472656 995.77587890625 997.459838867188 994.141052246094 994.7060546875 999.060729980469 1003.21612548828 994.294982910156 999.665161132812 996.641906738281 997.626525878906 997.618347167969 996.464111328125 1008.20373535156 1009.72100830078 1011.37237548828 1006.60943603516 1019.8359375 1024.02282714844 1032.498046875 1031.36352539062 1036.08679199219 1041.19091796875 1044.2919921875 1045.30871582031 1040.14575195312 1039.74658203125 1049.18493652344 1069.36584472656 1086.51440429688 1106.70324707031 1118.15441894531 1115.6630859375 1115.70446777344 1131.63537597656 1141.93444824219 1140.36840820312 1153.03039550781 1155.40319824219
945.12548828125 953.082153320312 971.254028320312 969.22705078125 962.722045898438 959.051025390625 964.934875488281 964.275939941406 957.358337402344 966.194763183594 963.672180175781 963.268981933594 961.965576171875 966.082214355469 972.955505371094 976.608337402344 976.916198730469 977.515686035156 971.699951171875 973.079467773438 976.292297363281 971.39404296875 971.634887695312 966.943603515625 972.7314453125 970.887573242188 966.854797363281 965.543640136719 974.533264160156 972.7109375 978.971069335938 976.303039550781 974.953857421875 979.832641601562 990.240661621094 978.5263671875 965.659362792969 973.159484863281 974.19482421875 967.151794433594 962.542663574219 962.850219726562 970.810180664062 970.521423339844 969.800598144531 977.019958496094 959.394714355469 964.47216796875 963.114013671875 975.877258300781 977.763732910156 978.09228515625 982.653076171875 976.975708007812 970.760925292969 968.702819824219 966.260192871094 983.550537109375 969.533142089844 981.345092773438 972.291687011719 973.84375 973.437683105469 983.75341796875 987.993041992188 982.207092285156 978.012023925781 970.546325683594 969.562194824219 967.695739746094 980.060363769531 980.146362304688 978.710876464844 969.415222167969 976.142944335938 975.936340332031 984.541748046875 984.046569824219 989.679016113281 984.251586914062 984.281433105469 988.445617675781 988.086669921875 992.772766113281 987.877746582031 993.606994628906 990.168701171875 994.182861328125 998.599792480469 993.894958496094 998.047729492188 1009.01550292969 1007.94866943359 1003.51684570312 998.194030761719 994.529296875 984.81884765625 990.360473632812 988.41162109375 988.567687988281 977.538024902344 983.289916992188 989.404602050781 997.420776367188 1000.71734619141 1001.59399414062 1000.89892578125 1001.76092529297 993.846313476562 998.225158691406 995.220764160156 996.121154785156 999.231140136719 997.666442871094 990.368469238281 993.284973144531 994.216064453125 998.141845703125 999.471923828125 992.970153808594 990.624267578125 1000.47540283203 1004.16638183594 997.671569824219 999.160034179688 1012.77258300781 1013.98529052734 1013.68597412109 1025.93139648438 1025.267578125 1031.041015625 1036.8623046875 1041.96435546875 1050.95849609375 1051.35314941406 1053.79736328125 1046.97448730469 1051.82739257812 1059.16369628906 1077.86657714844 1091.33898925781 1112.51000976562 1121.08654785156 1122.28039550781 1129.5615234375 1134.5361328125 1140.99963378906 1150.4482421875 1160.74572753906 1168.66186523438
939.3349609375 955.814331054688 960.833374023438 962.656188964844 960.986877441406 959.580871582031 957.489318847656 960.792114257812 964.324890136719 977.647033691406 973.737731933594 968.227416992188 959.980590820312 965.438171386719 971.493408203125 975.196105957031 977.44970703125 984.127807617188 965.9677734375 970.857482910156 974.590759277344 965.232971191406 965.150146484375 970.360534667969 976.374694824219 978.448486328125 973.92236328125 971.013427734375 968.853210449219 976.337097167969 981.704162597656 979.409912109375 987.227661132812 995.656066894531 983.742370605469 989.505554199219 984.290100097656 979.233154296875 979.67626953125 965.679565429688 960.435119628906 966.442932128906 970.8310546875 968.017700195312 978.941284179688 976.166931152344 974.414733886719 964.294494628906 962.620971679688 973.69140625 976.155517578125 978.932373046875 978.660095214844 962.035400390625 963.146606445312 967.127014160156 970.514770507812 967.4423828125 969.352355957031 965.2626953125 975.987182617188 980.278503417969 983.703369140625 983.207092285156 978.923461914062 987.938720703125 979.106872558594 982.806823730469 980.581604003906 971.838439941406 975.469177246094 981.340515136719 973.146728515625 971.68310546875 974.560913085938 968.393981933594 978.104125976562 984.230590820312 985.647216796875 979.868408203125 981.728515625 984.868896484375 982.565551757812 987.424682617188 986.562316894531 992.084838867188 995.911193847656 995.14453125 1000.93438720703 992.706726074219 997.210876464844 999.106384277344 1000.58087158203 998.014343261719 999.314086914062 995.285949707031 985.265686035156 980.938232421875 981.073059082031 976.812927246094 979.68505859375 989.427917480469 989.574035644531 995.6171875 992.979675292969 987.135681152344 989.884826660156 995.119079589844 997.152099609375 995.474853515625 994.076049804688 999.67626953125 993.627990722656 993.827758789062 993.91259765625 996.973815917969 990.453796386719 996.53125 994.857116699219 989.287170410156 990.3701171875 999.370239257812 1003.28167724609 997.728881835938 1001.48870849609 1018.98150634766 1022.56311035156 1020.26959228516 1022.30645751953 1022.63946533203 1026.30993652344 1035.60925292969 1048.26538085938 1053.69775390625 1051.08947753906 1046.41040039062 1059.74584960938 1061.51879882812 1072.33410644531 1081.658203125 1098.81604003906 1113.75891113281 1119.91101074219 1123.52917480469 1138.35034179688 1146.61645507812 1144.27893066406 1154.65930175781 1154.55737304688 1159.65173339844
940.848815917969 948.865661621094 959.162109375 950.784545898438 955.895812988281 956.98046875 951.602416992188 959.029357910156 971.855224609375 974.285766601562 972.391906738281 969.520629882812 969.195678710938 975.637573242188 969.458435058594 974.957641601562 983.545349121094 979.311462402344 978.310119628906 972.065002441406 971.065185546875 965.436645507812 963.409545898438 966.2978515625 974.237243652344 974.666137695312 969.440612792969 979.820373535156 979.289123535156 981.974731445312 986.769104003906 988.429077148438 987.012939453125 986.644958496094 979.865539550781 981.743408203125 983.089782714844 978.162902832031 973.164001464844 965.934692382812 965.014709472656 970.672485351562 961.594116210938 958.08544921875 961.379089355469 976.403198242188 973.623352050781 970.493225097656 965.208984375 974.291748046875 978.603210449219 970.187683105469 974.213256835938 977.246215820312 967.067810058594 973.64794921875 971.156982421875 967.403137207031 972.299255371094 971.470336914062 978.216430664062 983.727844238281 982.959594726562 986.968444824219 984.076599121094 988.087524414062 986.519897460938 977.289733886719 963.216430664062 965.546569824219 971.674987792969 970.849670410156 974.234252929688 970.634338378906 972.012023925781 974.762512207031 973.978149414062 982.243896484375 983.204467773438 982.087036132812 978.482666015625 980.331176757812 978.5205078125 984.209106445312 990.230407714844 986.839660644531 989.758117675781 982.793701171875 992.589965820312 989.290283203125 992.871459960938 988.605224609375 996.515686035156 1002.11090087891 989.089904785156 995.227355957031 979.112121582031 972.75146484375 981.411804199219 975.203491210938 979.421325683594 982.589172363281 986.123352050781 983.365295410156 987.187683105469 981.50048828125 996.50439453125 992.137756347656 995.272399902344 996.887084960938 993.103393554688 994.95751953125 986.772583007812 989.310913085938 989.164306640625 984.334167480469 991.845336914062 982.86767578125 989.148315429688 993.152404785156 998.866027832031 999.310302734375 1001.30615234375 1010.41613769531 1017.17852783203 1021.57531738281 1021.37341308594 1027.19873046875 1028.00048828125 1032.82958984375 1032.45751953125 1038.31555175781 1050.55639648438 1063.22985839844 1049.93139648438 1057.5078125 1060.9521484375 1073.94677734375 1076.52966308594 1084.3125 1100.07922363281 1112.1884765625 1127.31506347656 1136.65209960938 1146.5048828125 1153.55139160156 1158.61950683594 1172.96606445312 1167.98474121094 1162.572265625
946.815185546875 946.989074707031 941.973205566406 952.838256835938 950.000854492188 953.801025390625 960.722534179688 963.20849609375 970.221374511719 973.667419433594 969.779418945312 975.602722167969 973.145629882812 977.748657226562 975.141479492188 976.732666015625 976.763122558594 981.810668945312 975.709045410156 978.332824707031 978.204223632812 974.200927734375 958.037109375 964.765869140625 974.556823730469 969.037536621094 969.149291992188 982.591674804688 976.958190917969 973.221923828125 984.462036132812 988.662231445312 975.3125 979.674499511719 974.416564941406 966.300109863281 967.548583984375 973.712829589844 977.737548828125 964.28173828125 967.510864257812 968.334289550781 963.28369140625 951.435180664062 966.173217773438 968.0302734375 961.78857421875 968.79296875 975.744018554688 982.357604980469 974.726379394531 964.753662109375 968.641052246094 967.763244628906 969.028503417969 968.394653320312 964.570861816406 970.98828125 974.64697265625 972.759765625 978.991577148438 980.996215820312 991.049194335938 983.611572265625 986.358032226562 984.774169921875 980.944519042969 968.375366210938 960.071044921875 969.101440429688 961.748168945312 963.361022949219 957.730773925781 968.584411621094 965.573608398438 968.289184570312 975.700317382812 969.715148925781 972.533569335938 981.391845703125 976.327514648438 976.636474609375 983.004943847656 985.427001953125 980.702026367188 986.363464355469 992.548400878906 986.710205078125 987.798461914062 993.381713867188 992.723693847656 991.526428222656 995.513610839844 993.736083984375 990.459045410156 990.69091796875 982.407592773438 984.606994628906 974.9580078125 977.379821777344 979.541564941406 979.258239746094 979.411071777344 977.02490234375 976.859191894531 978.728393554688 983.435607910156 984.170471191406 983.517578125 986.846557617188 990.388488769531 989.116577148438 991.741394042969 982.307189941406 982.106323242188 989.187072753906 997.064453125 1003.76379394531 992.707885742188 992.467712402344 990.855895996094 995.387573242188 1002.72564697266 1003.47143554688 1008.76672363281 1020.916015625 1028.81726074219 1027.32678222656 1033.77453613281 1038.14282226562 1037.91870117188 1043.91943359375 1048.78967285156 1059.07751464844 1061.11987304688 1063.72912597656 1066.00842285156 1072.04968261719 1076.78039550781 1080.19738769531 1096.98193359375 1108.59399414062 1116.35986328125 1139.85229492188 1152.70056152344 1153.33190917969 1168.38256835938 1178.25061035156 1177.15502929688 1166.00512695312
940.831359863281 950.026611328125 947.600280761719 948.098510742188 950.652648925781 954.527587890625 969.958374023438 964.687255859375 965.314208984375 974.190734863281 971.881103515625 973.170227050781 973.8623046875 970.8369140625 968.239868164062 976.714782714844 978.188659667969 987.357116699219 983.307067871094 977.095642089844 974.474487304688 977.270080566406 967.156799316406 963.486145019531 978.679931640625 974.334777832031 971.244323730469 971.3974609375 970.105834960938 972.208190917969 982.794982910156 982.954650878906 983.243774414062 973.511352539062 973.316101074219 955.239135742188 960.212219238281 966.822692871094 977.904907226562 973.867065429688 970.994140625 963.751770019531 969.046081542969 963.806213378906 966.711975097656 966.620056152344 965.546081542969 962.365295410156 964.626037597656 970.957580566406 975.310546875 974.272155761719 971.353393554688 972.174926757812 974.407409667969 972.610290527344 973.940734863281 970.787719726562 971.088623046875 973.185852050781 971.801635742188 980.857116699219 978.645263671875 979.259033203125 980.2724609375 970.680725097656 973.254760742188 958.517639160156 952.516357421875 959.037475585938 956.010192871094 962.504455566406 962.301940917969 963.11474609375 962.514587402344 978.541015625 971.967224121094 971.485900878906 972.781860351562 974.270629882812 977.61083984375 979.881408691406 988.297119140625 983.68701171875 989.533752441406 981.143676757812 975.661315917969 982.682250976562 983.941223144531 985.479125976562 990.797546386719 992.498107910156 992.293090820312 990.671752929688 993.96875 982.857116699219 982.347412109375 982.763610839844 974.47314453125 979.953979492188 976.755310058594 972.382995605469 971.551025390625 978.479553222656 974.525939941406 981.935668945312 981.220336914062 979.601806640625 985.991821289062 994.460388183594 996.141845703125 999.085388183594 994.317321777344 987.881225585938 993.341003417969 995.934265136719 1001.87170410156 1001.05694580078 1000.73614501953 996.399536132812 990.714111328125 996.625061035156 992.640686035156 1001.28839111328 1004.37023925781 1016.30706787109 1022.03576660156 1038.951171875 1042.54907226562 1049.36572265625 1040.62963867188 1043.138671875 1061.41967773438 1060.08923339844 1070.06115722656 1072.76110839844 1071.0576171875 1082.79040527344 1080.76440429688 1084.16125488281 1104.32592773438 1105.9150390625 1116.30920410156 1130.41235351562 1138.15551757812 1146.71044921875 1165.82507324219 1179.45593261719 1189.16931152344 1174.3486328125
959.463562011719 950.331604003906 949.148742675781 955.977111816406 961.357116699219 962.853820800781 965.553894042969 961.547973632812 969.294311523438 968.386596679688 964.974426269531 973.355041503906 974.05859375 974.358093261719 976.448364257812 972.250061035156 976.490783691406 985.246520996094 976.857116699219 980.477111816406 985.257385253906 978.642211914062 962.994140625 971.105895996094 978.807067871094 972.204711914062 971.492004394531 969.401306152344 973.996765136719 973.036254882812 978.736633300781 983.568969726562 979.660766601562 968.774475097656 965.975402832031 967.110046386719 964.649291992188 967.598083496094 981.240661621094 971.840637207031 972.870727539062 973.004638671875 968.009216308594 966.507995605469 961.244506835938 959.271850585938 970.954040527344 965.494934082031 966.465515136719 971.097534179688 972.136047363281 976.443237304688 974.02001953125 971.031555175781 968.792297363281 959.955810546875 975.076354980469 973.995788574219 971.955200195312 966.321594238281 970.568237304688 975.416198730469 978.270263671875 973.884338378906 964.728881835938 968.224853515625 971.585144042969 952.917663574219 953.018432617188 948.155639648438 956.441162109375 959.622985839844 964.917724609375 970.803955078125 977.099304199219 966.050964355469 972.021118164062 973.737426757812 978.602722167969 981.675354003906 973.856567382812 978.864929199219 984.251159667969 990.972839355469 991.923645019531 982.25390625 980.503723144531 972.33740234375 970.363037109375 978.211669921875 977.723205566406 982.109497070312 984.681396484375 987.914428710938 985.945678710938 986.525634765625 984.196594238281 982.452087402344 979.703186035156 978.735534667969 971.004089355469 966.109130859375 965.166870117188 978.5908203125 985.86572265625 989.332153320312 980.497497558594 983.661254882812 991.064697265625 993.703491210938 999.543518066406 1000.68359375 1004.00524902344 995.029846191406 993.692321777344 1004.47515869141 1008.64819335938 1004.77874755859 995.17822265625 998.262878417969 993.224487304688 998.394104003906 997.453552246094 1001.70635986328 1007.67547607422 1021.97662353516 1034.5576171875 1043.26770019531 1046.61242675781 1042.73059082031 1040.45935058594 1057.96398925781 1066.44677734375 1070.2841796875 1072.00378417969 1073.58972167969 1079.33508300781 1083.46472167969 1080.26550292969 1090.8623046875 1097.51062011719 1105.66174316406 1115.85534667969 1127.30639648438 1133.64575195312 1141.74780273438 1154.66125488281 1174.24975585938 1183.3447265625 1169.00183105469
953.21533203125 957.791076660156 951.524597167969 955.555297851562 961.015747070312 960.299621582031 955.019287109375 958.895751953125 961.703735351562 956.267822265625 963.209106445312 965.631713867188 965.294921875 963.193908691406 975.393737792969 977.676391601562 979.021240234375 973.30322265625 982.29345703125 985.382202148438 978.815368652344 980.851257324219 972.067565917969 972.724304199219 974.165649414062 970.697082519531 968.855163574219 970.052185058594 969.67529296875 969.706909179688 975.091003417969 974.599182128906 978.269409179688 970.716735839844 965.903503417969 966.861511230469 968.718505859375 976.360595703125 972.367126464844 971.002685546875 963.987182617188 969.002746582031 966.396545410156 971.268493652344 956.827514648438 961.102905273438 972.9814453125 971.964782714844 961.395263671875 964.6357421875 964.527282714844 962.768005371094 967.462341308594 968.685913085938 962.487060546875 957.513305664062 960.457702636719 966.65625 969.710266113281 967.645568847656 973.021606445312 971.74365234375 967.520202636719 971.450622558594 971.532043457031 969.678649902344 968.991271972656 963.617248535156 957.177429199219 962.261108398438 959.457092285156 962.263854980469 958.11669921875 966.259155273438 970.974365234375 968.070251464844 974.750671386719 975.88916015625 980.815795898438 978.909790039062 971.827209472656 970.133911132812 981.093688964844 984.513977050781 989.933837890625 993.430480957031 982.046630859375 967.407104492188 965.908874511719 971.194152832031 974.777526855469 969.5087890625 975.641235351562 984.641845703125 978.570068359375 979.93408203125 977.994812011719 980.3603515625 985.989074707031 983.702758789062 971.650573730469 965.435607910156 968.761108398438 981.07861328125 995.853088378906 986.774841308594 985.638000488281 987.423522949219 992.706420898438 993.487731933594 999.090515136719 1005.58093261719 1006.97857666016 1003.00982666016 1001.01995849609 1003.82507324219 1006.61578369141 1011.74468994141 1003.34313964844 1003.34881591797 995.500427246094 1004.17510986328 1002.48077392578 1007.41906738281 1009.25024414062 1019.62530517578 1036.85046386719 1038.83996582031 1034.87365722656 1040.31604003906 1049.2607421875 1062.23522949219 1070.28820800781 1080.04650878906 1079.59558105469 1077.51208496094 1098.08203125 1091.54064941406 1090.04248046875 1093.49401855469 1098.40368652344 1104.78991699219 1108.79138183594 1116.73791503906 1137.36206054688 1142.63195800781 1159.05700683594 1165.39111328125 1166.03930664062 1159.73107910156
957.729919433594 961.330749511719 952.639709472656 958.721313476562 959.693786621094 963.514465332031 960.858276367188 962.941650390625 964.230346679688 957.714416503906 957.389282226562 965.757873535156 968.132568359375 968.202209472656 974.57373046875 976.670227050781 969.424255371094 973.280456542969 977.240112304688 977.995422363281 969.964965820312 967.866821289062 967.375671386719 962.714294433594 968.772827148438 972.98974609375 968.5419921875 969.486511230469 968.638427734375 969.225463867188 975.639343261719 972.693542480469 974.214965820312 971.158935546875 965.579528808594 967.548950195312 960.631896972656 961.331848144531 951.73828125 959.349548339844 960.41357421875 966.524230957031 959.113220214844 961.069946289062 959.639343261719 961.937683105469 958.8984375 965.175109863281 968.105224609375 966.246398925781 967.762634277344 971.032043457031 961.465087890625 962.20458984375 964.446105957031 964.828308105469 965.894165039062 974.571044921875 970.300903320312 968.830322265625 972.650573730469 974.03173828125 971.092590332031 968.494384765625 971.526062011719 975.5322265625 971.057739257812 960.81640625 965.599975585938 960.041137695312 956.981262207031 960.78369140625 962.941284179688 966.195678710938 963.441040039062 971.227722167969 971.412231445312 976.760620117188 969.709533691406 970.32568359375 970.792053222656 967.072204589844 970.035278320312 991.305786132812 985.146911621094 975.311401367188 968.220642089844 963.855529785156 963.490844726562 970.432800292969 972.536987304688 974.787719726562 977.967529296875 978.853088378906 977.955383300781 981.893920898438 980.617858886719 980.142395019531 977.932556152344 974.109985351562 970.34912109375 971.873046875 968.99072265625 983.614501953125 987.853942871094 988.678466796875 989.849975585938 994.606567382812 992.532592773438 1002.33776855469 1001.0400390625 1003.5439453125 1011.40795898438 1009.62640380859 1009.68487548828 1010.33648681641 1002.00616455078 1008.91583251953 1002.05908203125 1005.25189208984 998.882690429688 999.990417480469 1005.34899902344 1005.53289794922 1016.55065917969 1026.75854492188 1038.39379882812 1039.98229980469 1040.6435546875 1044.97509765625 1057.216796875 1069.72509765625 1085.65380859375 1084.35168457031 1085.72387695312 1084.75256347656 1099.54443359375 1095.60815429688 1097.99108886719 1097.00183105469 1113.01477050781 1103.99670410156 1112.80212402344 1122.40856933594 1129.49963378906 1141.30285644531 1144.89880371094 1156.98779296875 1150.60437011719 1147.65393066406
957.433410644531 955.470947265625 951.813171386719 969.208557128906 969.209167480469 972.90087890625 964.102783203125 966.1533203125 962.774047851562 966.118835449219 963.156127929688 972.272521972656 972.647766113281 971.31396484375 979.822387695312 980.360168457031 978.204223632812 975.013488769531 981.003723144531 968.836853027344 970.412292480469 957.7158203125 955.505676269531 960.500427246094 962.615173339844 963.152404785156 962.025512695312 981.334716796875 976.517028808594 976.475952148438 975.53857421875 972.784362792969 969.654907226562 973.826232910156 970.249328613281 965.546875 958.681030273438 954.477355957031 954.596374511719 951.885192871094 951.775024414062 956.689697265625 961.283996582031 956.824462890625 963.952392578125 962.024475097656 955.734069824219 960.232421875 960.594116210938 971.746459960938 983.677978515625 982.117248535156 968.666564941406 960.367980957031 966.265808105469 960.626525878906 963.332763671875 969.335266113281 979.100952148438 968.746887207031 972.564819335938 976.096069335938 967.261779785156 969.98681640625 973.427368164062 972.783508300781 971.013000488281 967.179565429688 959.795227050781 959.106201171875 968.099426269531 967.122192382812 969.358764648438 969.610046386719 974.723327636719 969.049377441406 973.148376464844 977.406311035156 975.369506835938 974.5791015625 973.419250488281 963.194763183594 963.180541992188 974.039428710938 974.695434570312 965.013549804688 967.795837402344 967.017944335938 965.372924804688 963.937805175781 966.270385742188 971.983337402344 974.822143554688 980.05078125 986.65380859375 984.077392578125 980.154968261719 975.578735351562 975.694580078125 980.734741210938 975.942016601562 978.523559570312 983.351135253906 982.966552734375 979.723083496094 998.9345703125 994.361328125 990.536193847656 987.350036621094 1001.81262207031 1006.51300048828 1014.38336181641 1010.55676269531 1002.9228515625 1004.72698974609 1011.25189208984 1004.21612548828 1006.72570800781 1006.783203125 1006.96075439453 999.037048339844 1003.45764160156 1013.49499511719 1015.02838134766 1014.17938232422 1026.85070800781 1040.07299804688 1041.85729980469 1052.06909179688 1055.42687988281 1071.61901855469 1088.22326660156 1095.32104492188 1093.69396972656 1095.67492675781 1098.28881835938 1112.15234375 1101.94140625 1098.42541503906 1100.64660644531 1105.45703125 1105.18615722656 1100.35815429688 1115.80993652344 1131.673828125 1134.57641601562 1141.41711425781 1140.05493164062 1142.83288574219 1139.07788085938
954.352416992188 954.625854492188 952.257080078125 960.733459472656 965.347351074219 962.56005859375 965.556457519531 965.852661132812 964.405456542969 970.547790527344 968.846374511719 966.154541015625 970.059509277344 971.968566894531 980.782348632812 975.510375976562 977.531616210938 977.171325683594 975.951843261719 973.923522949219 954.869750976562 949.662719726562 955.564147949219 956.292846679688 957.701904296875 965.504760742188 968.647521972656 968.811279296875 975.961486816406 975.025146484375 978.004577636719 971.265014648438 964.636535644531 968.208190917969 970.18896484375 963.080627441406 955.535217285156 959.34228515625 965.680908203125 958.550170898438 959.02294921875 960.403198242188 959.853820800781 959.338134765625 956.349792480469 963.223815917969 962.61328125 960.862548828125 969.426574707031 972.770446777344 977.897583007812 973.577453613281 969.4658203125 958.835876464844 964.539672851562 968.345764160156 963.543395996094 967.356994628906 975.368408203125 964.400085449219 961.107727050781 961.198059082031 968.200012207031 975.022216796875 975.13720703125 975.048400878906 966.354370117188 965.666625976562 959.178527832031 951.736267089844 960.059020996094 969.931701660156 959.268127441406 964.531066894531 962.725219726562 967.195922851562 974.237670898438 973.544006347656 976.008483886719 972.364624023438 964.725646972656 965.398010253906 968.962890625 970.314086914062 979.614013671875 975.643432617188 967.187377929688 967.75146484375 965.787048339844 962.643737792969 965.140258789062 969.711242675781 969.693115234375 976.705505371094 975.163452148438 976.29248046875 980.566040039062 981.957946777344 973.24755859375 980.620666503906 975.181030273438 978.347839355469 988.565612792969 985.166931152344 987.04541015625 991.837524414062 994.314331054688 989.820983886719 991.161193847656 992.896057128906 1012.94116210938 1006.7236328125 1001.31616210938 994.122924804688 1004.36511230469 1005.15350341797 1002.17077636719 1008.29125976562 1008.58703613281 1004.47064208984 1002.73950195312 1002.33020019531 1008.47021484375 1020.59320068359 1017.74957275391 1033.322265625 1043.06628417969 1038.54699707031 1047.103515625 1056.51672363281 1080.45568847656 1101.15368652344 1094.71166992188 1093.90051269531 1090.68920898438 1105.72863769531 1103.99719238281 1099.17785644531 1092.02978515625 1093.16101074219 1098.47778320312 1097.53576660156 1101.44360351562 1107.56787109375 1128.96032714844 1133.91748046875 1123.96472167969 1132.82458496094 1132.0302734375 1131.56140136719
