NCOLS 150
NROWS 37
XLLCORNER 7394249
YLLCORNER 4842989
CELLSIZE 30
NODATA_VALUE -9999
975.021728515625 972.745178222656 961.923950195312 966.854248046875 968.461059570312 963.676635742188 959.681518554688 955.211608886719 966.3525390625 966.154846191406 972.6083984375 980.294982910156 972.3173828125 976.841735839844 978.814453125 976.562622070312 973.266540527344 972.736877441406 977.8798828125 981.801940917969 979.676696777344 984.26611328125 982.8896484375 987.847534179688 988.419677734375 988.09765625 988.052185058594 985.261352539062 983.258972167969 988.320251464844 991.205993652344 983.532470703125 985.132263183594 987.897521972656 995.121704101562 995.876770019531 990.775024414062 1003.07336425781 988.521423339844 992.085632324219 996.990356445312 990.28662109375 987.184326171875 989.406372070312 988.860656738281 989.924987792969 980.821655273438 982.836486816406 986.251647949219 977.036071777344 971.502685546875 984.404968261719 979.0830078125 979.023315429688 985.668273925781 991.792663574219 985.448120117188 997.326110839844 996.447082519531 992.229797363281 989.920349121094 994.288269042969 1001.25708007812 999.699645996094 1002.14227294922 1000.87048339844 1006.60388183594 1003.59167480469 1004.38421630859 1008.04357910156 1004.26068115234 1001.34112548828 1001.22393798828 993.824401855469 995.178894042969 992.513366699219 990.787475585938 992.10791015625 986.906982421875 992.5546875 987.540832519531 998.669311523438 1006.31561279297 998.957336425781 1003.25067138672 1009.0458984375 1009.12432861328 1022.77734375 1017.23876953125 1011.89855957031 1009.20056152344 1009.55432128906 1009.04449462891 1018.51672363281 1018.49908447266 1023.03900146484 1014.68707275391 1007.79229736328 1008.35552978516 1008.64190673828 1005.04583740234 997.288269042969 1006.54290771484 1001.75 1003.97399902344 1009.28985595703 994.046630859375 994.697814941406 993.353210449219 982.856567382812 976.42578125 966.765747070312 954.067687988281 943.978332519531 943.425048828125 947.360168457031 956.8544921875 977.310424804688 993.23876953125 1001.84112548828 1001.615234375 1005.88421630859 1007.44299316406 1022.82153320312 1021.8447265625 1018.736328125 1031.17248535156 1026.96997070312 1033.76062011719 1030.71081542969 1030.74719238281 1028.73071289062 1038.60852050781 1028.75256347656 1031.65100097656 1024.77807617188 1037.29919433594 1034.94152832031 1044.95837402344 1056.53308105469 1065.869140625 1062.50256347656 1064.82299804688 1065.599609375 1077.64978027344 1089.32507324219 1096.87438964844 1110.34045410156 1114.21069335938 1110.1552734375
960.665832519531 964.171752929688 958.844665527344 968.046447753906 968.423889160156 965.964111328125 971.915466308594 970.096923828125 968.940368652344 973.673156738281 981.349365234375 981.826110839844 972.780883789062 971.393127441406 966.747802734375 978.880554199219 971.778381347656 975.349609375 976.373596191406 981.888549804688 981.050476074219 985.793640136719 985.934448242188 980.780700683594 983.671203613281 983.758422851562 977.927185058594 976.868774414062 977.874267578125 988.734619140625 985.270080566406 988.050476074219 987.9404296875 989.3515625 988.205505371094 991.138977050781 994.704650878906 995.141723632812 989.664855957031 986.616821289062 988.701171875 988.715393066406 990.437927246094 988.167907714844 984.102416992188 990.480895996094 980.356079101562 987.904052734375 974.260375976562 971.757995605469 973.157653808594 978.109375 975.453002929688 972.054504394531 983.0615234375 990.680236816406 985.02099609375 986.53564453125 983.886901855469 988.647521972656 988.226318359375 992.178405761719 992.9521484375 994.862060546875 997.301086425781 994.851318359375 999.182373046875 995.6650390625 998.452514648438 996.558044433594 995.174438476562 994.150695800781 987.042541503906 989.910949707031 995.578491210938 994.359069824219 983.73046875 986.029479980469 988.523742675781 988.061950683594 994.428405761719 1004.75079345703 1011.53460693359 1007.25158691406 1006.94702148438 1008.34893798828 1008.68218994141 1011.32000732422 1012.98138427734 1011.49627685547 1012.64074707031 1003.72833251953 1012.90734863281 1019.62683105469 1016.38818359375 1010.89794921875 1013.22778320312 1001.98950195312 999.6767578125 999.042785644531 995.73486328125 990.995666503906 995.049255371094 1000.33502197266 994.058898925781 996.052917480469 995.038269042969 1007.51544189453 1001.41485595703 982.537170410156 983.6376953125 969.916137695312 959.054016113281 954.074340820312 955.087158203125 949.355712890625 962.401306152344 981.638122558594 995.618835449219 1003.97735595703 1006.16760253906 1009.37274169922 1019.86706542969 1018.29827880859 1019.93249511719 1020.40881347656 1024.99462890625 1025.58129882812 1025.76538085938 1027.75500488281 1023.64227294922 1025.73107910156 1027.91394042969 1037.84240722656 1034.517578125 1031.14965820312 1031.38354492188 1027.10290527344 1037.23901367188 1052.06091308594 1056.96313476562 1062.78686523438 1060.66918945312 1067.77111816406 1081.09289550781 1096.67944335938 1101.68444824219 1108.8857421875 1118.7197265625 1117.97595214844
947.7880859375 938.599670410156 955.859497070312 971.430603027344 968.82470703125 967.137451171875 973.344543457031 966.707458496094 967.529479980469 978.338317871094 978.313415527344 982.953552246094 980.54833984375 975.636596679688 968.404846191406 976.527526855469 981.777221679688 968.726928710938 969.208435058594 980.673828125 990.033813476562 990.311645507812 991.317077636719 978.039855957031 979.914184570312 995.640808105469 984.650390625 980.262939453125 985.715087890625 984.980712890625 986.747619628906 990.992736816406 994.696472167969 987.004638671875 981.148071289062 988.516418457031 985.718078613281 985.751831054688 987.316711425781 981.865051269531 977.860717773438 986.998840332031 986.862182617188 993.358825683594 994.287353515625 993.870849609375 984.929626464844 979.551696777344 972.181335449219 973.215942382812 971.766967773438 976.0419921875 972.63134765625 970.956115722656 977.614013671875 980.4287109375 973.957885742188 989.371337890625 986.567321777344 981.349792480469 992.072937011719 989.6884765625 1001.28796386719 993.712219238281 1002.97589111328 998.773986816406 987.156921386719 991.964233398438 989.546020507812 984.198547363281 982.812377929688 993.328308105469 986.261352539062 988.420104980469 987.832641601562 986.371154785156 986.728820800781 990.786071777344 984.628540039062 988.042724609375 991.448608398438 999.529846191406 1012.78918457031 1013.44268798828 1014.76025390625 1023.35034179688 1013.06512451172 1012.12335205078 1016.56359863281 1015.31677246094 1016.69677734375 1005.64715576172 1016.95721435547 1016.24383544922 1007.73492431641 1015.77185058594 1008.98309326172 1007.43725585938 1000.19836425781 996.676391601562 991.341430664062 992.958984375 992.559997558594 997.460998535156 996.526428222656 995.808410644531 998.303588867188 1006.9375 999.475952148438 993.400695800781 989.579772949219 977.701293945312 964.598815917969 957.796813964844 960.729064941406 951.416442871094 967.655456542969 984.988647460938 993.700561523438 1001.78680419922 1008.58111572266 1013.46459960938 1021.09631347656 1022.69909667969 1023.54479980469 1025.02697753906 1027.87951660156 1030.19799804688 1023.32110595703 1026.38952636719 1028.25952148438 1019.01593017578 1018.82489013672 1019.82080078125 1019.95489501953 1025.74169921875 1024.71069335938 1027.81762695312 1041.0048828125 1041.76550292969 1050.32421875 1056.12890625 1071.630859375 1078.77905273438 1087.61291503906 1095.92272949219 1101.05114746094 1114.38928222656 1113.28857421875 1121.75012207031
943.624755859375 948.336181640625 954.106079101562 966.818298339844 966.14599609375 970.8056640625 968.7177734375 963.627807617188 966.279357910156 975.737548828125 982.120056152344 977.593994140625 980.255187988281 974.016540527344 968.235961914062 974.420288085938 974.096435546875 966.556518554688 974.517883300781 984.939758300781 988.458923339844 985.486328125 973.400512695312 975.227966308594 983.615112304688 980.791381835938 985.148010253906 984.578491210938 986.569580078125 983.764465332031 986.088195800781 992.242736816406 991.754821777344 988.176940917969 985.994750976562 977.735412597656 984.005187988281 986.401611328125 988.618041992188 983.206115722656 973.689331054688 984.01123046875 984.251098632812 988.342468261719 990.781982421875 989.94140625 986.251159667969 973.724487304688 976.198486328125 972.345092773438 972.138793945312 975.675903320312 973.352722167969 969.476318359375 970.551513671875 971.115234375 977.283874511719 983.030517578125 985.870544433594 984.208679199219 980.500244140625 990.472900390625 994.535949707031 985.843627929688 995.742736816406 998.724426269531 993.361633300781 988.905334472656 991.046936035156 983.6923828125 982.058715820312 985.133850097656 981.975952148438 969.654174804688 989.260864257812 993.288024902344 984.045654296875 994.894287109375 986.866149902344 988.247131347656 987.76025390625 998.294921875 998.968872070312 1013.94427490234 1016.07354736328 1022.49279785156 1020.66766357422 1016.17028808594 1015.78460693359 1011.67456054688 1010.94982910156 1019.43408203125 1020.40112304688 1022.23480224609 1020.53546142578 1017.38586425781 1009.92742919922 1009.44342041016 995.798767089844 992.497863769531 990.670593261719 993.381469726562 991.921875 992.456665039062 997.216369628906 993.380554199219 996.447082519531 1001.05541992188 988.610717773438 992.481872558594 990.830200195312 988.743530273438 979.56298828125 965.382995605469 961.310729980469 959.113708496094 977.189208984375 986.697509765625 995.173645019531 996.488586425781 997.431213378906 1015.6728515625 1019.26556396484 1024.17736816406 1020.42523193359 1022.62609863281 1025.23278808594 1028.83447265625 1025.09777832031 1022.51489257812 1021.62127685547 1016.48034667969 1012.71417236328 1011.49786376953 1007.18200683594 1011.74047851562 1014.76849365234 1033.95520019531 1038.04443359375 1046.82629394531 1057.60717773438 1064.4765625 1082.78112792969 1087.94006347656 1093.82238769531 1102.24523925781 1108.57238769531 1120.19714355469 1124.56066894531 1125.89245605469
947.034423828125 948.570068359375 961.258483886719 968.896911621094 963.191711425781 969.453125 962.467224121094 961.811584472656 966.331665039062 975.396240234375 982.005126953125 985.538696289062 979.925109863281 978.221862792969 974.702514648438 977.667419433594 974.3935546875 971.949401855469 977.130859375 987.376647949219 984.184204101562 978.079772949219 979.747863769531 968.605102539062 971.005737304688 976.235412597656 981.701477050781 987.175170898438 985.773071289062 981.386779785156 982.864929199219 985.989562988281 989.7216796875 992.747619628906 990.595275878906 988.172973632812 979.949340820312 989.412902832031 991.151489257812 983.990905761719 970.352233886719 980.015380859375 986.366516113281 988.366821289062 989.254455566406 994.735107421875 989.158996582031 979.372009277344 977.120239257812 978.617614746094 983.106262207031 975.182922363281 979.223205566406 977.6591796875 971.652954101562 980.327880859375 979.513549804688 983.003356933594 984.690795898438 986.638732910156 986.215942382812 982.0205078125 985.999816894531 979.734558105469 991.010620117188 1000.69244384766 987.222412109375 982.255004882812 989.509521484375 984.124633789062 973.774475097656 977.422912597656 977.316040039062 983.356811523438 991.063171386719 990.619934082031 987.9365234375 997.068542480469 987.772827148438 984.934631347656 993.671142578125 987.312561035156 994.621215820312 1005.57672119141 1006.22796630859 1012.47894287109 1014.90521240234 1007.90484619141 1009.72290039062 1016.48211669922 1020.2724609375 1015.4501953125 1020.6328125 1023.27142333984 1021.27093505859 1022.82757568359 1010.95007324219 1004.24176025391 1005.73956298828 995.572692871094 994.553527832031 995.113586425781 993.108703613281 996.545654296875 994.213317871094 999.073364257812 994.078552246094 999.411010742188 990.083374023438 990.444702148438 996.021484375 989.213195800781 985.216918945312 973.837768554688 973.933898925781 970.667724609375 983.679077148438 988.565979003906 1001.18499755859 993.141357421875 1004.35845947266 1008.00122070312 1011.58520507812 1015.09130859375 1017.84539794922 1012.34423828125 1014.66998291016 1025.60498046875 1019.76940917969 1016.55462646484 1019.89855957031 1018.34686279297 1016.72979736328 1016.07080078125 1021.69305419922 1021.83349609375 1018.19616699219 1030.97424316406 1046.38391113281 1052.98547363281 1072.58972167969 1073.00048828125 1075.82629394531 1073.78454589844 1092.97204589844 1109.50927734375 1104.90686035156 1117.20422363281 1123.93347167969 1125.97180175781
949.162292480469 952.410095214844 958.500122070312 962.613830566406 965.176452636719 966.552062988281 974.023193359375 971.925659179688 971.616088867188 979.419799804688 984.005981445312 981.787353515625 975.003662109375 968.466796875 978.210876464844 969.390441894531 974.05810546875 969.810668945312 980.477661132812 989.5078125 993.411193847656 986.727844238281 984.046875 979.229125976562 975.426879882812 974.480285644531 973.101196289062 967.984680175781 970.078186035156 975.485961914062 982.973205566406 989.629455566406 989.896911621094 988.944152832031 987.087097167969 988.502807617188 984.608459472656 988.96875 986.810180664062 969.929748535156 976.014587402344 982.878967285156 985.1513671875 983.117004394531 989.6298828125 987.1767578125 976.068664550781 975.526000976562 975.845092773438 979.244018554688 981.14794921875 971.298156738281 979.312683105469 976.514770507812 972.622802734375 972.123962402344 973.274108886719 980.975891113281 980.060791015625 976.861572265625 979.237548828125 978.741333007812 981.840515136719 980.17822265625 980.5419921875 988.457397460938 991.632263183594 981.360717773438 981.843505859375 982.6455078125 982.900756835938 975.531921386719 982.452697753906 982.529968261719 975.540832519531 980.082641601562 990.61376953125 990.818786621094 985.400024414062 989.507202148438 998.768981933594 995.20361328125 998.656799316406 1003.50799560547 1009.32958984375 1019.36120605469 1011.40612792969 1003.93188476562 1007.16497802734 1018.32305908203 1015.99932861328 1009.74908447266 1009.41546630859 1018.42114257812 1015.53790283203 1022.51092529297 1015.43536376953 1002.54113769531 1004.63012695312 1001.80889892578 997.1552734375 989.869750976562 998.201721191406 1002.21807861328 999.670532226562 989.976501464844 990.645446777344 993.151428222656 989.93701171875 995.465698242188 996.347351074219 989.03173828125 989.663513183594 986.193176269531 984.872192382812 977.563659667969 984.242980957031 996.221801757812 1009.32269287109 1006.63287353516 999.981201171875 998.020629882812 1005.96759033203 1011.57019042969 1013.65313720703 1021.92413330078 1022.13586425781 1024.09826660156 1023.01513671875 1013.75732421875 1019.13128662109 1017.29486083984 1020.08081054688 1015.60095214844 1018.98004150391 1020.31903076172 1022.77764892578 1045.77355957031 1049.23815917969 1056.95288085938 1072.74499511719 1079.31176757812 1071.33117675781 1078.07495117188 1096.38073730469 1105.20654296875 1104.62902832031 1112.1884765625 1118.3212890625 1122.59765625
956.888427734375 954.416625976562 959.419555664062 953.88525390625 967.954162597656 971.413696289062 967.232727050781 969.611328125 975.205200195312 983.9267578125 980.153137207031 980.605895996094 975.093994140625 968.9677734375 973.001770019531 975.161315917969 970.183227539062 968.992370605469 980.874084472656 990.576538085938 984.302551269531 985.309936523438 982.948486328125 972.664001464844 967.611022949219 969.480712890625 974.443298339844 969.182678222656 977.427124023438 969.663940429688 976.437133789062 983.480773925781 986.823486328125 988.840942382812 991.423400878906 987.516052246094 981.587097167969 981.702026367188 979.7373046875 975.913269042969 969.591369628906 979.655700683594 973.535522460938 975.701049804688 981.729248046875 978.416137695312 978.677612304688 968.900756835938 973.261779785156 976.958435058594 986.993591308594 975.4033203125 969.903686523438 965.388000488281 974.016235351562 976.03515625 977.381408691406 978.038024902344 977.347778320312 975.320251464844 987.555297851562 985.0224609375 985.089172363281 981.262023925781 978.065612792969 987.679748535156 977.407897949219 983.139221191406 983.3525390625 986.586853027344 983.770751953125 980.383544921875 978.363464355469 969.62353515625 972.529968261719 983.788330078125 977.818054199219 987.479553222656 987.9560546875 994.569030761719 993.648254394531 1004.46417236328 996.268310546875 1001.08416748047 999.015258789062 1003.80010986328 1006.31640625 1002.5400390625 999.604187011719 1001.28747558594 998.1064453125 1009.16516113281 1002.01098632812 1005.47827148438 1009.61840820312 1010.8310546875 1012.80474853516 1000.49066162109 997.473571777344 997.869995117188 991.277770996094 995.976684570312 996.584167480469 994.58984375 993.934020996094 992.503051757812 998.493347167969 986.212036132812 990.194091796875 992.783752441406 994.552734375 991.21337890625 991.28662109375 994.613525390625 992.764099121094 988.764038085938 994.689086914062 1000.26605224609 1000.00958251953 1000.826171875 1005.14343261719 999.092224121094 1001.16723632812 1005.21954345703 1018.50140380859 1021.50628662109 1019.77917480469 1018.58660888672 1029.29345703125 1016.49609375 1008.58612060547 1017.92974853516 1026.73547363281 1026.63708496094 1030.51989746094 1024.62854003906 1024.61352539062 1042.48767089844 1057.93713378906 1068.21301269531 1069.0244140625 1080.9755859375 1080.31494140625 1082.48217773438 1096.30529785156 1101.74450683594 1113.04931640625 1119.21252441406 1128.41394042969 1132.85693359375
950.571166992188 949.173645019531 955.940002441406 959.278869628906 965.890380859375 970.564758300781 968.047607421875 967.504455566406 974.559814453125 981.941772460938 980.958923339844 975.421997070312 975.482055664062 971.612854003906 965.889709472656 971.487487792969 970.332092285156 970.608032226562 977.630004882812 979.035095214844 981.271179199219 978.451477050781 977.694580078125 972.47509765625 973.026245117188 974.010986328125 972.142761230469 977.139587402344 972.721557617188 976.126342773438 971.690002441406 982.396789550781 987.852416992188 992.921997070312 999.982543945312 994.546936035156 988.534240722656 978.405639648438 974.469604492188 978.503601074219 974.745788574219 981.141662597656 974.475219726562 973.484436035156 974.833251953125 975.926574707031 979.630920410156 980.310424804688 975.276916503906 975.879638671875 974.468200683594 974.318054199219 963.893493652344 972.787048339844 972.42724609375 968.806701660156 975.791870117188 972.435729980469 975.605590820312 979.507507324219 995.982482910156 988.902221679688 985.549255371094 982.443603515625 977.333801269531 976.974365234375 973.596801757812 984.515686035156 978.148803710938 977.533874511719 971.90673828125 976.160827636719 967.766479492188 969.369384765625 976.870483398438 978.982788085938 987.25439453125 991.547790527344 996.005065917969 997.587036132812 996.71923828125 988.086303710938 990.108825683594 991.197570800781 989.578735351562 990.681213378906 989.292236328125 993.739624023438 1003.10760498047 993.719909667969 991.662414550781 1006.67236328125 1005.71984863281 998.637878417969 1006.81286621094 1003.35009765625 1011.15081787109 1000.40423583984 995.547546386719 997.37744140625 999.121154785156 1001.42572021484 992.259033203125 982.383911132812 984.692199707031 990.664184570312 992.096923828125 993.630187988281 990.747497558594 989.164611816406 994.353576660156 996.695373535156 1002.77624511719 998.489440917969 997.671630859375 997.668273925781 999.782836914062 995.766235351562 993.940185546875 996.960083007812 997.22265625 1003.54064941406 994.089660644531 1002.78436279297 1009.71411132812 1016.43450927734 1010.28021240234 1010.93438720703 1018.43695068359 1018.09411621094 1009.27380371094 1010.93383789062 1020.19329833984 1033.89953613281 1033.86303710938 1028.64294433594 1033.72790527344 1047.30419921875 1053.86706542969 1070.77905273438 1074.13525390625 1086.43298339844 1082.64123535156 1090.44653320312 1095.08386230469 1103.60229492188 1110.96459960938 1121.53405761719 1130.59631347656 1132.68286132812
946.812744140625 951.893005371094 960.014953613281 969.502685546875 975.081787109375 979.776062011719 966.290283203125 968.095642089844 971.320861816406 975.634704589844 976.502380371094 970.84912109375 973.151794433594 967.270812988281 974.955505371094 974.859375 979.134643554688 973.759338378906 981.238952636719 978.981262207031 976.989807128906 981.977294921875 973.249755859375 969.734497070312 976.631652832031 969.736267089844 959.949645996094 970.56787109375 969.701049804688 973.6669921875 967.979858398438 981.892639160156 991.248413085938 989.008728027344 992.590270996094 990.547790527344 984.963134765625 976.983093261719 979.929016113281 979.630615234375 973.281860351562 966.673400878906 973.717468261719 977.160949707031 970.603271484375 973.074157714844 978.156372070312 974.914001464844 964.0869140625 971.034362792969 976.365295410156 977.352111816406 971.455261230469 970.950805664062 974.653564453125 966.142028808594 968.051086425781 971.317993164062 975.494445800781 977.868835449219 987.780029296875 989.496826171875 990.75634765625 981.387817382812 977.859741210938 975.664916992188 981.061584472656 979.707458496094 973.409912109375 971.569885253906 961.430786132812 970.424499511719 971.028930664062 967.955505371094 975.057739257812 983.619323730469 991.3525390625 988.035400390625 989.094787597656 984.765991210938 984.970825195312 991.593688964844 984.336791992188 981.651550292969 982.801330566406 989.290649414062 997.122863769531 990.567504882812 998.351135253906 997.450256347656 991.9794921875 996.263366699219 991.519470214844 993.939270019531 997.683654785156 996.960632324219 1000.30670166016 998.808898925781 994.054138183594 1000.26879882812 1000.44421386719 996.974609375 985.360656738281 983.294860839844 984.345397949219 985.120056152344 989.549865722656 990.822570800781 985.06591796875 992.964233398438 990.633483886719 1002.28332519531 1004.21832275391 1003.04290771484 1001.35845947266 998.866149902344 999.336059570312 1010.22351074219 1002.50091552734 998.585571289062 997.602233886719 993.830261230469 988.934020996094 1004.55975341797 1011.93841552734 1001.18206787109 1002.91845703125 1014.19757080078 1023.046875 1023.72686767578 1014.78588867188 1013.41082763672 1023.400390625 1030.88952636719 1032.05224609375 1027.84582519531 1033.22497558594 1048.6982421875 1059.97827148438 1073.66271972656 1081.66040039062 1083.48474121094 1091.41931152344 1102.86145019531 1106.71179199219 1115.021484375 1120.20275878906 1121.9140625 1122.78930664062 1135.43481445312
946.557067871094 952.433288574219 950.994140625 957.980224609375 960.9404296875 971.386657714844 968.613342285156 961.727661132812 964.427551269531 964.948425292969 968.149719238281 973.595397949219 975.138671875 972.870666503906 972.292175292969 975.65771484375 980.26708984375 972.729064941406 977.450134277344 984.282531738281 987.534362792969 983.327941894531 970.746337890625 980.611755371094 980.250549316406 978.519104003906 973.87353515625 985.132690429688 977.358459472656 975.78173828125 973.671142578125 977.388610839844 991.067626953125 992.769348144531 983.367919921875 979.186218261719 981.713500976562 980.134826660156 977.048889160156 972.192504882812 978.177917480469 970.834838867188 977.816650390625 976.355895996094 966.402221679688 973.051391601562 971.366577148438 964.812255859375 970.26708984375 970.239685058594 965.088134765625 969.802490234375 968.660400390625 969.680297851562 973.535766601562 972.169189453125 968.716186523438 972.315612792969 966.290161132812 975.572937011719 988.240295410156 987.422119140625 987.456298828125 976.535461425781 972.825927734375 981.067077636719 985.998840332031 981.798889160156 974.646301269531 971.078491210938 962.534240722656 965.223815917969 969.440002441406 965.099365234375 967.901489257812 980.045227050781 979.600708007812 983.216186523438 989.642150878906 985.034545898438 985.825256347656 988.422241210938 985.636840820312 980.132507324219 989.816223144531 989.623474121094 993.579223632812 998.240661621094 998.924682617188 990.771484375 988.553344726562 983.5966796875 997.0380859375 990.781127929688 996.907531738281 997.963317871094 992.945922851562 998.134460449219 1003.01477050781 997.23681640625 1001.77655029297 999.178344726562 996.027893066406 980.947998046875 980.354431152344 978.415222167969 973.169677734375 981.179016113281 990.1181640625 986.679809570312 998.371398925781 1002.51574707031 1003.22955322266 997.878295898438 997.304260253906 997.024780273438 1006.08978271484 1007.62280273438 999.520874023438 1000.86047363281 997.800170898438 988.028381347656 994.139221191406 993.773132324219 1000.68865966797 1000.97698974609 1009.15087890625 1008.75061035156 1017.02917480469 1016.56030273438 1011.7470703125 1016.34967041016 1017.62976074219 1022.25006103516 1024.96362304688 1026.86865234375 1046.92932128906 1056.44616699219 1056.14050292969 1071.97692871094 1087.77062988281 1093.49560546875 1103.7158203125 1104.50012207031 1119.82983398438 1115.77124023438 1122.44519042969 1127.40930175781 1133.8173828125 1131.83752441406
948.240173339844 958.310974121094 952.61572265625 956.07568359375 959.418579101562 964.322875976562 964.43017578125 955.535522460938 956.966369628906 962.094970703125 966.709167480469 967.646484375 967.077209472656 972.157287597656 972.931335449219 965.866333007812 975.421081542969 973.075256347656 973.264831542969 990.407836914062 985.787414550781 982.446105957031 984.522277832031 971.511291503906 970.55322265625 978.348876953125 985.400207519531 986.595031738281 983.440856933594 983.109497070312 978.230407714844 979.184997558594 982.014404296875 988.993530273438 985.339660644531 978.556457519531 977.274169921875 974.64306640625 974.252014160156 981.343688964844 979.495056152344 969.228881835938 973.850646972656 972.031616210938 967.999816894531 973.023010253906 963.572570800781 965.993713378906 960.162902832031 973.287963867188 970.138122558594 972.235290527344 974.050109863281 970.802429199219 974.284484863281 968.573669433594 972.775329589844 965.457153320312 968.555908203125 975.300048828125 984.393981933594 988.37353515625 987.57568359375 974.664123535156 968.727355957031 974.333801269531 973.987182617188 979.107177734375 971.267700195312 961.92431640625 959.994384765625 967.171936035156 968.711242675781 963.307434082031 968.260375976562 975.752868652344 982.067016601562 987.619506835938 990.240173339844 989.372375488281 980.711303710938 978.77685546875 988.949096679688 979.831237792969 980.123596191406 990.529174804688 988.860107421875 998.936950683594 989.540893554688 978.992431640625 981.522583007812 985.320434570312 989.699951171875 984.583984375 981.799560546875 987.556213378906 997.154052734375 997.595947265625 993.241333007812 999.88427734375 997.249572753906 1000.13708496094 985.983764648438 983.731018066406 986.931823730469 978.079406738281 982.272705078125 985.605773925781 985.163879394531 985.197021484375 992.901611328125 988.334228515625 994.284545898438 999.099182128906 996.051147460938 1002.59912109375 997.154907226562 993.622253417969 1000.01708984375 998.130920410156 999.748168945312 999.7451171875 1001.35308837891 993.9833984375 998.365356445312 1003.28857421875 1011.52398681641 1015.21112060547 1014.21105957031 1019.72387695312 1019.55548095703 1023.32110595703 1023.48352050781 1018.22662353516 1028.85314941406 1026.73303222656 1042.94763183594 1052.00842285156 1060.92272949219 1076.95263671875 1083.14331054688 1087.26708984375 1100.22912597656 1103.98315429688 1114.56494140625 1113.85668945312 1125.85949707031 1137.70971679688 1135.71813964844 1132.26501464844
951.808837890625 948.673583984375 953.877014160156 952.307434082031 957.569091796875 945.742553710938 952.170715332031 955.547180175781 951.629333496094 961.574645996094 963.257385253906 964.335327148438 971.956726074219 971.079528808594 975.309814453125 974.202331542969 971.5224609375 970.944580078125 971.886535644531 974.632873535156 977.662292480469 983.146362304688 981.659851074219 974.226257324219 967.780395507812 976.38671875 987.447692871094 980.989624023438 984.741333007812 980.7158203125 980.811157226562 985.1962890625 982.259887695312 982.697021484375 983.12890625 975.607849121094 968.765441894531 973.237182617188 980.490173339844 979.492858886719 972.082214355469 974.842956542969 967.32177734375 977.000366210938 968.534240722656 970.623657226562 965.1005859375 963.347900390625 969.384216308594 978.717529296875 975.334228515625 978.514465332031 980.230102539062 978.626770019531 975.702575683594 973.780883789062 975.391723632812 968.148498535156 971.948974609375 971.64404296875 983.264282226562 980.369323730469 980.56689453125 971.929321289062 968.646179199219 974.6171875 973.290100097656 968.196166992188 972.137573242188 969.153747558594 969.960205078125 973.942932128906 963.028503417969 971.7431640625 971.642395019531 982.520690917969 976.90869140625 981.530456542969 985.551574707031 981.997680664062 975.722717285156 980.6689453125 983.958679199219 980.894958496094 989.024597167969 980.98095703125 987.739501953125 991.164306640625 992.278259277344 982.975646972656 985.144775390625 985.130187988281 980.253051757812 974.797546386719 981.509338378906 988.4033203125 989.666809082031 996.344360351562 997.560363769531 1000.01470947266 987.753356933594 989.69091796875 987.305053710938 983.1552734375 986.21044921875 988.964721679688 981.091125488281 991.356628417969 984.91943359375 982.760375976562 987.114074707031 985.520080566406 987.672607421875 995.029724121094 998.761535644531 1000.71435546875 1000.12145996094 996.824523925781 999.838806152344 991.206909179688 1000.95104980469 1004.07989501953 1002.09661865234 1001.99884033203 998.844909667969 1009.30047607422 1005.54370117188 1016.04113769531 1024.71643066406 1020.88684082031 1024.16235351562 1021.44653320312 1019.51477050781 1021.50891113281 1036.12194824219 1045.88745117188 1046.1376953125 1060.64172363281 1058.00634765625 1075.36840820312 1088.30700683594 1098.78015136719 1111.85534667969 1103.40258789062 1111.99658203125 1115.74267578125 1127.79748535156 1141.20751953125 1141.04455566406 1138.27954101562
949.830261230469 944.982604980469 950.907592773438 952.453002929688 955.043518066406 949.00439453125 945.020812988281 957.912780761719 949.331787109375 955.519897460938 955.226806640625 963.847106933594 970.756286621094 974.832702636719 980.799682617188 976.226867675781 968.252014160156 973.948486328125 967.6181640625 978.883056640625 976.04052734375 985.9404296875 980.178344726562 969.665344238281 965.275207519531 977.621215820312 981.778930664062 989.171447753906 986.273376464844 982.846557617188 977.350708007812 976.710693359375 972.973205566406 979.972595214844 976.474975585938 974.07666015625 970.913269042969 973.89208984375 980.226867675781 982.207824707031 969.004455566406 974.526672363281 970.029479980469 970.68603515625 964.646545410156 964.0478515625 962.3525390625 968.387084960938 975.492126464844 977.319519042969 970.864135742188 979.29443359375 971.991333007812 973.793884277344 975.689392089844 977.628723144531 971.839050292969 974.399658203125 972.553283691406 974.856201171875 980.130859375 970.992919921875 966.430236816406 964.792602539062 966.131530761719 973.928955078125 967.771728515625 970.846374511719 977.104919433594 979.459594726562 976.992614746094 968.25439453125 969.400268554688 967.470764160156 962.408264160156 966.313781738281 976.269592285156 974.364501953125 972.086608886719 973.869750976562 967.579345703125 983.140502929688 989.305908203125 989.784912109375 994.603088378906 992.411499023438 987.675415039062 989.267700195312 997.842468261719 984.115234375 978.742797851562 992.031677246094 988.200073242188 978.057983398438 988.175903320312 984.935241699219 982.828796386719 981.902770996094 981.472045898438 988.803344726562 980.883605957031 986.032958984375 984.379089355469 982.640380859375 983.406311035156 990.225341796875 988.250122070312 986.361267089844 979.300964355469 978.275207519531 984.265197753906 985.732421875 991.163940429688 989.993713378906 994.016174316406 994.705749511719 995.118957519531 1001.64166259766 992.343078613281 997.456176757812 996.456726074219 992.977233886719 1002.99102783203 999.684814453125 1005.72375488281 1017.0849609375 1018.53143310547 1027.50537109375 1031.40673828125 1023.65490722656 1030.171875 1036.29260253906 1036.89086914062 1033.26330566406 1040.28869628906 1061.81066894531 1055.68041992188 1063.74865722656 1061.02746582031 1075.00012207031 1086.7158203125 1102.32165527344 1113.65295410156 1118.51721191406 1116.30895996094 1127.40673828125 1136.62634277344 1143.20361328125 1137.62634277344 1139.00231933594
946.78955078125 949.955139160156 951.067443847656 955.160705566406 961.914367675781 955.166931152344 960.393920898438 965.358276367188 955.443420410156 959.235046386719 964.103332519531 976.862182617188 970.035705566406 966.551635742188 966.771545410156 970.54931640625 975.639892578125 972.342407226562 974.37255859375 982.038269042969 977.002868652344 974.23583984375 980.3447265625 983.783386230469 966.456665039062 969.31689453125 981.694152832031 987.635620117188 992.381225585938 988.119567871094 976.192504882812 976.173156738281 972.820556640625 974.321960449219 964.642211914062 973.610656738281 964.988159179688 969.377685546875 975.982971191406 971.755004882812 970.525390625 972.961181640625 964.210998535156 967.371154785156 960.352233886719 965.821960449219 961.740966796875 967.527099609375 975.402648925781 974.596374511719 973.147216796875 970.746032714844 972.410888671875 967.642944335938 970.086059570312 972.259094238281 975.039489746094 982.957824707031 979.385559082031 988.291931152344 980.630249023438 971.567687988281 974.283264160156 962.468933105469 968.619995117188 974.396057128906 972.993469238281 977.254089355469 983.768127441406 988.195434570312 980.281005859375 971.354431152344 971.254455566406 962.743103027344 960.567993164062 959.716979980469 976.325378417969 975.851257324219 970.543762207031 973.46044921875 973.651123046875 977.330749511719 982.814514160156 986.922119140625 986.260070800781 986.621337890625 985.284240722656 982.716186523438 985.000305175781 974.466369628906 982.600708007812 989.9794921875 985.526062011719 981.845092773438 987.833801269531 993.291076660156 979.30322265625 973.645080566406 980.620239257812 987.6943359375 988.388122558594 986.676208496094 988.894409179688 980.525695800781 981.307373046875 982.64404296875 994.690185546875 986.091430664062 988.380554199219 984.869140625 979.994567871094 988.804992675781 994.767578125 992.540893554688 991.845886230469 999.557678222656 995.936462402344 996.896789550781 987.902099609375 1004.60778808594 999.010437011719 1002.02160644531 999.652709960938 1001.12573242188 1010.51770019531 1021.33666992188 1019.56988525391 1031.7939453125 1036.83898925781 1025.38830566406 1033.3408203125 1039.150390625 1050.86462402344 1039.93981933594 1048.13879394531 1075.35632324219 1069.85095214844 1073.37121582031 1084.16223144531 1088.89135742188 1090.736328125 1110.04504394531 1120.34008789062 1120.96118164062 1115.60791015625 1129.43933105469 1143.64111328125 1145.40087890625 1142.18127441406 1144.33569335938
954.109619140625 958.102233886719 957.485473632812 965.581665039062 966.902587890625 960.270141601562 961.079406738281 958.521545410156 964.042175292969 966.5439453125 954.538024902344 968.684326171875 971.450561523438 969.743896484375 965.731079101562 974.643798828125 975.860717773438 970.578796386719 972.239929199219 975.201965332031 976.73095703125 968.16015625 979.402770996094 967.132080078125 967.047790527344 972.406433105469 974.344543457031 984.350830078125 985.983764648438 985.768005371094 977.232604980469 975.793518066406 975.292236328125 963.259460449219 976.038940429688 969.770690917969 965.836669921875 966.296752929688 962.2861328125 970.619201660156 968.574279785156 966.799560546875 961.410583496094 964.297973632812 969.539428710938 961.103088378906 961.152282714844 963.063171386719 968.01513671875 970.9091796875 975.542175292969 969.190063476562 960.322631835938 960.833740234375 959.478942871094 975.671569824219 975.258666992188 972.908203125 983.153442382812 976.419677734375 974.840270996094 979.545654296875 978.741455078125 974.447814941406 980.617919921875 977.471801757812 972.513732910156 981.548522949219 979.57861328125 982.553955078125 978.438049316406 970.664245605469 964.641723632812 957.619812011719 955.717712402344 957.954956054688 969.356811523438 975.255737304688 971.206787109375 974.401306152344 971.705322265625 974.32373046875 978.49560546875 977.679626464844 974.530395507812 981.056762695312 977.055969238281 978.084411621094 981.905517578125 973.982360839844 977.05517578125 978.08154296875 976.837463378906 976.317260742188 982.892456054688 983.587097167969 979.561706542969 971.747497558594 978.124328613281 991.644592285156 987.040954589844 982.1552734375 986.941772460938 978.931030273438 977.72314453125 983.807495117188 989.90283203125 986.581604003906 990.917175292969 988.417114257812 984.574645996094 986.080017089844 994.853576660156 995.514404296875 999.010803222656 1001.07250976562 999.847839355469 994.269897460938 986.60400390625 996.895385742188 1002.51361083984 999.345947265625 995.064025878906 1001.52545166016 1011.55505371094 1030.91809082031 1024.75903320312 1032.0283203125 1040.35888671875 1038.2666015625 1041.26135253906 1044.08837890625 1051.4755859375 1049.20812988281 1064.74499511719 1076.35290527344 1077.4228515625 1075.10266113281 1088.61071777344 1086.42553710938 1095.11657714844 1111.56359863281 1111.408203125 1124.06958007812 1123.01293945312 1134.04699707031 1154.20239257812 1152.73571777344 1152.85559082031 1154.59826660156
951.981628417969 954.424865722656 960.280334472656 970.745483398438 966.062133789062 968.284484863281 959.182373046875 961.214965820312 967.380310058594 963.143432617188 958.876220703125 961.991516113281 969.1298828125 972.590026855469 979.590148925781 970.783630371094 976.42529296875 972.812255859375 971.69921875 968.691955566406 978.120849609375 978.006530761719 978.770874023438 971.747314453125 970.314208984375 971.768737792969 970.695739746094 976.579833984375 977.199462890625 979.325622558594 978.936096191406 983.879455566406 972.633117675781 976.207336425781 978.806640625 975.021423339844 967.03466796875 962.798828125 970.20947265625 973.464538574219 972.091979980469 968.86669921875 964.268493652344 969.489440917969 959.383117675781 959.271179199219 961.515258789062 977.579345703125 971.364440917969 971.861328125 967.297546386719 961.182739257812 956.332275390625 968.840026855469 959.792419433594 966.792358398438 980.655578613281 975.799865722656 971.935424804688 981.7939453125 972.635559082031 975.868774414062 974.068908691406 974.20263671875 976.587219238281 981.107238769531 966.805114746094 974.930358886719 971.453125 970.850158691406 966.005554199219 973.094604492188 963.398071289062 957.052551269531 955.436706542969 964.0537109375 972.755798339844 965.886047363281 969.240905761719 960.115844726562 964.429992675781 969.140319824219 964.138427734375 969.125 976.954711914062 976.947448730469 974.263549804688 978.481506347656 977.27099609375 981.795166015625 972.002807617188 972.696166992188 968.598388671875 971.442993164062 973.784057617188 972.426635742188 978.562683105469 976.084350585938 985.479370117188 993.792663574219 993.513732910156 993.684509277344 975.977661132812 975.73388671875 980.246215820312 994.007690429688 997.050170898438 1001.26458740234 999.269409179688 997.6015625 993.197998046875 986.973266601562 997.488464355469 1002.37414550781 998.867980957031 996.445068359375 1000.61883544922 999.788940429688 984.463562011719 993.487976074219 1002.45330810547 1010.18243408203 1006.50408935547 1000.17767333984 1011.01123046875 1025.29870605469 1033.97875976562 1036.8681640625 1038.06787109375 1040.23486328125 1036.6259765625 1049.07995605469 1050.29223632812 1062.93762207031 1067.01513671875 1074.67810058594 1079.57177734375 1076.68676757812 1083.701171875 1087.03137207031 1094.16235351562 1095.68762207031 1106.43884277344 1123.01220703125 1123.83984375 1141.61853027344 1154.5537109375 1169.29724121094 1161.9130859375 1165.46606445312
946.934020996094 958.108093261719 957.846557617188 966.587829589844 959.397155761719 962.996276855469 969.948364257812 962.5234375 965.773803710938 964.014587402344 970.396179199219 971.015197753906 967.670593261719 973.032409667969 981.835693359375 977.707092285156 970.866149902344 984.329650878906 971.612609863281 974.706420898438 974.149841308594 974.870727539062 970.58349609375 975.25244140625 976.423950195312 964.730529785156 963.750061035156 964.715698242188 977.366088867188 980.640197753906 967.70458984375 973.06298828125 984.106506347656 968.952758789062 970.151306152344 970.505676269531 967.886779785156 966.427734375 972.2109375 968.412231445312 968.22509765625 964.781188964844 961.739685058594 962.55322265625 966.311157226562 961.987487792969 961.639770507812 973.762023925781 977.901794433594 970.82861328125 970.146423339844 971.746032714844 972.443237304688 962.986877441406 963.458129882812 970.668823242188 971.417846679688 972.325317382812 977.413513183594 978.148010253906 979.537292480469 976.157287597656 973.262817382812 964.568542480469 969.319641113281 972.709899902344 964.106994628906 958.786865234375 966.432495117188 965.9287109375 965.5009765625 962.100952148438 959.206665039062 964.370727539062 961.614685058594 967.984680175781 968.099975585938 969.448303222656 970.251342773438 976.631408691406 968.060852050781 966.5419921875 959.185119628906 962.531921386719 971.942443847656 975.406982421875 975.400512695312 982.661376953125 985.892639160156 986.84033203125 981.3564453125 978.865112304688 970.684692382812 968.931884765625 974.135620117188 976.874450683594 974.5615234375 980.047302246094 980.56201171875 989.325744628906 977.900634765625 974.133728027344 984.566955566406 986.015686035156 986.680419921875 993.975341796875 994.198913574219 1000.02386474609 996.441955566406 996.895263671875 1002.78692626953 997.411437988281 1002.24963378906 1002.31164550781 1005.21899414062 1001.71514892578 1005.47595214844 1003.29364013672 1003.61517333984 1005.85144042969 1017.62963867188 1017.52764892578 1020.05688476562 1015.13153076172 1021.58636474609 1027.33532714844 1033.74353027344 1036.87219238281 1045.07116699219 1051.55578613281 1045.01098632812 1046.921875 1049.80041503906 1057.59753417969 1075.62353515625 1079.462890625 1083.52209472656 1086.79235839844 1091.98583984375 1100.169921875 1095.78076171875 1101.501953125 1105.87683105469 1115.40441894531 1122.61779785156 1138.25 1150.42163085938 1166.37060546875 1167.04162597656 1164.65026855469
956.890625 957.070251464844 953.290649414062 963.512939453125 956.724853515625 960.681701660156 962.957336425781 962.320495605469 969.274353027344 966.357849121094 973.288513183594 970.398132324219 967.106506347656 969.432922363281 979.086669921875 978.302062988281 976.435546875 978.668273925781 979.047241210938 975.319030761719 964.021850585938 975.379272460938 980.456665039062 969.907836914062 968.275573730469 964.97119140625 969.923645019531 970.155883789062 972.810180664062 985.977783203125 975.260498046875 965.954833984375 973.989929199219 972.496948242188 971.334655761719 967.889221191406 966.575256347656 971.904602050781 962.855407714844 973.3916015625 960.234191894531 958.640991210938 958.718627929688 959.88818359375 955.340209960938 964.791320800781 962.194946289062 968.834594726562 964.209594726562 970.398498535156 970.23779296875 968.749450683594 969.90576171875 967.147705078125 963.097717285156 967.160827636719 966.508605957031 966.329467773438 969.380310058594 976.220031738281 976.493041992188 972.513244628906 960.290405273438 963.645935058594 971.802612304688 972.715454101562 971.731262207031 960.227966308594 965.545959472656 964.287292480469 964.539611816406 961.476928710938 965.748779296875 965.456420898438 970.371032714844 975.099182128906 974.818908691406 966.514282226562 961.69384765625 970.217834472656 964.546020507812 966.23046875 959.028198242188 968.7841796875 969.913208007812 968.868041992188 963.622131347656 971.584350585938 980.294555664062 987.227783203125 982.977294921875 970.717102050781 977.242126464844 976.345336914062 976.063049316406 981.405700683594 975.508972167969 984.976135253906 987.663146972656 977.409484863281 980.849609375 982.454223632812 984.422668457031 989.959350585938 990.545471191406 991.082397460938 987.453796386719 998.6875 996.455505371094 998.380310058594 1001.26019287109 1003.21954345703 1001.06317138672 998.129577636719 998.277770996094 999.645812988281 1010.81408691406 1013.60125732422 1005.43841552734 1019.8466796875 1018.49200439453 1022.87738037109 1022.91143798828 1020.26171875 1032.56872558594 1040.44909667969 1048.52783203125 1044.60180664062 1049.380859375 1055.1015625 1051.13354492188 1051.00170898438 1061.61865234375 1070.01599121094 1072.17211914062 1088.88891601562 1096.76440429688 1095.27355957031 1096.43518066406 1093.00219726562 1096.77331542969 1098.64721679688 1112.72668457031 1108.07238769531 1124.28454589844 1136.13500976562 1141.40405273438 1154.5830078125 1161.98559570312 1161.27661132812
949.372924804688 951.469421386719 949.71728515625 955.656005859375 960.037231445312 962.101623535156 962.506042480469 967.201843261719 963.142883300781 964.14501953125 967.954895019531 970.527282714844 970.031616210938 973.137145996094 977.551330566406 980.051818847656 979.143493652344 981.977905273438 973.902038574219 975.325134277344 969.306518554688 981.147827148438 978.171447753906 976.819274902344 970.378479003906 965.507629394531 965.814208984375 963.242797851562 971.385009765625 985.201049804688 989.259643554688 974.381408691406 971.572143554688 974.883056640625 968.859375 970.53662109375 968.137512207031 974.754516601562 972.6640625 971.962097167969 960.285583496094 967.7666015625 957.075988769531 960.608337402344 962.120483398438 972.161437988281 977.219360351562 969.394470214844 966.724365234375 965.960266113281 969.004760742188 965.238220214844 969.964965820312 971.295837402344 964.136108398438 975.637390136719 967.024963378906 974.634643554688 970.803344726562 979.481506347656 983.400085449219 972.588073730469 963.694030761719 963.063049316406 969.755004882812 974.766906738281 973.990539550781 964.911804199219 964.088623046875 964.50146484375 968.109069824219 964.089233398438 973.299560546875 971.381713867188 974.638427734375 970.828063964844 967.431396484375 968.54296875 975.903564453125 962.845886230469 952.606262207031 972.343383789062 971.80859375 970.83740234375 969.428466796875 969.190185546875 971.117492675781 970.48046875 976.854187011719 980.27783203125 977.601196289062 979.618774414062 982.759643554688 980.748962402344 987.564147949219 985.507446289062 980.870056152344 978.597961425781 981.203674316406 979.074462890625 977.009338378906 973.505981445312 983.795104980469 989.863037109375 993.943481445312 989.993286132812 986.454162597656 985.301513671875 999.095275878906 994.555053710938 1000.39990234375 992.763610839844 999.352294921875 995.555908203125 1001.96807861328 996.540466308594 1004.24481201172 1014.73248291016 1012.6201171875 1024.22778320312 1030.39453125 1029.69860839844 1030.56677246094 1027.84045410156 1034.57971191406 1043.95715332031 1051.33679199219 1049.46362304688 1053.81115722656 1056.06103515625 1057.978515625 1057.74560546875 1066.76818847656 1079.74243164062 1078.83203125 1091.29382324219 1097.421875 1092.29809570312 1094.36291503906 1101.17980957031 1098.22338867188 1106.22595214844 1105.60070800781 1107.62487792969 1117.73974609375 1136.15002441406 1133.7763671875 1143.69604492188 1146.11315917969 1150.35400390625
960.040832519531 953.970703125 953.049560546875 949.241149902344 957.476257324219 962.867736816406 968.046752929688 972.260620117188 964.415161132812 967.349365234375 969.945190429688 973.499328613281 973.004760742188 979.660766601562 974.891479492188 977.179748535156 979.868896484375 976.563842773438 974.755737304688 982.52880859375 979.708801269531 970.711059570312 965.288879394531 971.49560546875 972.765991210938 972.508728027344 963.363098144531 963.552185058594 964.750244140625 970.084228515625 986.376037597656 976.631591796875 968.757934570312 972.197082519531 971.432861328125 968.90185546875 960.922424316406 959.83544921875 968.063232421875 966.140441894531 965.135803222656 962.985534667969 954.484985351562 963.56298828125 965.855834960938 970.394897460938 973.954406738281 968.963684082031 965.968078613281 966.251892089844 968.166748046875 978.465087890625 974.949584960938 972.455139160156 966.983093261719 968.16015625 966.089172363281 970.915405273438 969.676574707031 983.239501953125 967.524291992188 963.966125488281 962.005737304688 965.333862304688 971.982421875 961.540954589844 967.625122070312 962.256958007812 963.736938476562 968.21630859375 975.238464355469 968.822387695312 976.410278320312 979.342956542969 965.579833984375 957.885192871094 964.653076171875 969.075927734375 969.606750488281 964.909362792969 969.868591308594 974.174865722656 973.46923828125 978.464477539062 978.176208496094 973.145446777344 964.603576660156 974.458984375 970.847717285156 970.983337402344 973.733459472656 985.30322265625 987.850830078125 982.028442382812 980.863830566406 985.354187011719 979.786071777344 985.259216308594 980.044494628906 974.841369628906 978.465881347656 978.544982910156 976.942504882812 992.228454589844 994.077880859375 991.281188964844 986.826782226562 985.053405761719 993.839050292969 991.653076171875 993.394470214844 991.152770996094 988.503173828125 992.683044433594 989.266174316406 996.242004394531 1004.46142578125 1005.53869628906 1008.25872802734 1017.76861572266 1027.291015625 1024.77612304688 1016.11212158203 1023.49475097656 1034.68591308594 1041.59484863281 1053.68859863281 1051.57543945312 1057.095703125 1054.91125488281 1056.06579589844 1062.13317871094 1073.27709960938 1073.23120117188 1076.82543945312 1080.00927734375 1089.24011230469 1092.4775390625 1096.86328125 1092.09765625 1092.19897460938 1102.36730957031 1107.35217285156 1105.34387207031 1124.31530761719 1123.43408203125 1127.51440429688 1132.84362792969 1131.29431152344 1136.23754882812
966.9853515625 951.676086425781 954.472534179688 955.596496582031 964.311767578125 965.568481445312 973.599182128906 972.990478515625 968.4990234375 964.72119140625 963.50537109375 968.147216796875 975.398315429688 979.233825683594 977.661315917969 983.449157714844 977.463073730469 973.782470703125 976.099670410156 977.15234375 981.3037109375 977.61572265625 972.021850585938 963.362854003906 962.943725585938 958.660705566406 957.884399414062 952.001037597656 953.285705566406 952.509765625 974.335388183594 971.813537597656 980.429443359375 978.978881835938 975.96044921875 966.402954101562 958.751403808594 956.266723632812 960.146728515625 967.063354492188 961.504455566406 958.840698242188 961.046875 956.10302734375 961.204956054688 965.299560546875 967.243835449219 968.221069335938 969.292663574219 968.11865234375 968.567260742188 972.013610839844 971.05712890625 965.734252929688 967.711120605469 963.168518066406 969.931823730469 968.712097167969 975.549499511719 975.30810546875 968.383422851562 960.392822265625 963.473510742188 965.318664550781 964.1767578125 969.0390625 970.494445800781 966.05908203125 964.828430175781 975.177001953125 965.900634765625 970.443420410156 970.351989746094 977.624755859375 969.679077148438 963.217224121094 956.864685058594 959.778686523438 964.923767089844 969.804504394531 968.753479003906 971.034729003906 968.667358398438 975.622253417969 979.298645019531 979.387451171875 970.6142578125 968.852600097656 965.598327636719 967.870727539062 972.885192871094 976.477905273438 987.8330078125 980.700317382812 977.799499511719 977.565612792969 982.21923828125 980.189025878906 980.118591308594 974.166381835938 973.311767578125 979.124755859375 980.067626953125 987.602661132812 989.151611328125 986.35888671875 983.7978515625 989.978515625 992.980407714844 989.667663574219 989.673767089844 998.951721191406 999.934997558594 993.444580078125 992.180725097656 991.632995605469 1007.87268066406 1007.21142578125 1009.58654785156 1025.67114257812 1025.35998535156 1024.09741210938 1016.44293212891 1021.54547119141 1027.93566894531 1038.65588378906 1042.19409179688 1052.22717285156 1044.65258789062 1052.07177734375 1061.39318847656 1060.83996582031 1066.29528808594 1080.59399414062 1081.7080078125 1088.314453125 1091.59130859375 1096.92639160156 1095.07775878906 1091.2587890625 1093.89233398438 1105.75830078125 1107.19677734375 1111.20288085938 1116.32141113281 1111.56433105469 1115.75671386719 1125.18103027344 1127.5498046875 1129.62145996094
971.035278320312 960.077514648438 961.256469726562 966.429504394531 966.058288574219 969.534240722656 976.4990234375 973.412719726562 970.774169921875 966.270080566406 963.521423339844 976.354858398438 970.973388671875 970.308654785156 977.321838378906 977.611572265625 978.595642089844 979.186889648438 974.49462890625 988.129943847656 979.948181152344 978.278381347656 968.644287109375 969.545959472656 960.688293457031 959.381469726562 952.982604980469 946.849426269531 957.079895019531 966.693603515625 981.086120605469 980.591613769531 982.993896484375 980.018981933594 978.06591796875 965.533752441406 967.505798339844 958.980895996094 960.001159667969 955.496215820312 962.865661621094 959.495483398438 957.112365722656 958.198486328125 964.916320800781 963.032104492188 971.100341796875 969.331787109375 966.439147949219 964.446228027344 969.590637207031 958.40966796875 970.357055664062 965.892456054688 967.613464355469 969.186645507812 969.606323242188 968.626586914062 971.246154785156 969.529724121094 961.735290527344 962.776428222656 964.733764648438 954.666931152344 959.089172363281 961.280517578125 968.464233398438 968.245056152344 963.554382324219 962.317565917969 966.572814941406 961.138244628906 961.681762695312 960.552185058594 968.635925292969 965.340759277344 958.797668457031 969.026062011719 962.543579101562 964.08984375 964.9296875 965.89794921875 964.673767089844 969.039611816406 972.425415039062 971.809387207031 967.257141113281 980.159240722656 973.272766113281 974.690856933594 971.802185058594 970.690795898438 979.01171875 978.616638183594 977.509155273438 972.55810546875 976.495788574219 980.796020507812 976.041687011719 977.953491210938 978.072448730469 981.074768066406 971.499267578125 978.773803710938 982.625793457031 978.34228515625 978.404907226562 984.474182128906 986.333129882812 977.30419921875 984.65673828125 993.770202636719 997.679504394531 999.606689453125 994.142456054688 995.205261230469 1003.38055419922 1006.48016357422 1010.52166748047 1009.87945556641 1016.0703125 1013.79364013672 1024.44873046875 1027.56762695312 1031.24951171875 1043.38500976562 1046.22546386719 1037.09155273438 1047.04125976562 1049.65979003906 1057.11096191406 1062.09118652344 1074.16845703125 1088.71069335938 1085.36730957031 1082.205078125 1089.74389648438 1099.73547363281 1097.52795410156 1092.38903808594 1096.95654296875 1107.41235351562 1104.02746582031 1093.25085449219 1094.16259765625 1091.5380859375 1107.37048339844 1111.98950195312 1117.50854492188 1125.23901367188
972.013122558594 959.908020019531 967.179260253906 967.410705566406 967.903564453125 960.954528808594 972.730712890625 974.036071777344 969.210205078125 970.7587890625 968.532165527344 972.608337402344 976.049865722656 971.640625 983.625854492188 974.408142089844 983.000061035156 980.279296875 983.433227539062 976.650207519531 980.474914550781 984.151611328125 972.132873535156 969.909973144531 957.852233886719 960.199035644531 952.706726074219 955.075622558594 955.872802734375 962.421875 969.201049804688 977.592041015625 975.389404296875 971.069458007812 969.36669921875 969.579772949219 966.35791015625 961.824584960938 959.672424316406 954.97607421875 961.1025390625 960.404052734375 974.411254882812 959.179077148438 966.21923828125 962.465576171875 966.136352539062 963.490661621094 965.122253417969 965.796020507812 962.400756835938 960.959899902344 966.901123046875 970.43017578125 971.639343261719 966.52197265625 964.7041015625 967.637817382812 964.106384277344 965.766296386719 966.3212890625 964.076232910156 959.503845214844 958.8154296875 961.619384765625 963.257141113281 962.743103027344 960.480529785156 952.181579589844 957.424011230469 960.934692382812 961.755615234375 960.352294921875 961.494689941406 966.093200683594 970.101684570312 962.674987792969 966.369079589844 963.446533203125 969.16259765625 965.7421875 970.171630859375 963.928466796875 969.105712890625 968.564331054688 966.866760253906 963.124206542969 970.609619140625 966.498779296875 972.339782714844 976.349670410156 970.299987792969 974.100769042969 985.739501953125 981.461059570312 982.085510253906 970.707946777344 973.688293457031 975.492919921875 969.375671386719 982.46923828125 989.021850585938 981.12060546875 981.31591796875 978.784851074219 978.227844238281 968.535278320312 980.994812011719 979.100646972656 980.538696289062 979.588195800781 981.493591308594 984.348327636719 986.402404785156 987.364685058594 992.282409667969 1000.78625488281 1006.15478515625 1016.19396972656 1010.22143554688 1010.73968505859 1016.99291992188 1025.78540039062 1028.92932128906 1028.43505859375 1041.74182128906 1038.69396972656 1035.82678222656 1039.55432128906 1051.62744140625 1051.04235839844 1066.67724609375 1075.14672851562 1092.49255371094 1085.53503417969 1086.13159179688 1082.51037597656 1094.68469238281 1104.03820800781 1096.47021484375 1087.48901367188 1087.05151367188 1084.27160644531 1080.36267089844 1083.8525390625 1095.70129394531 1098.62023925781 1107.00415039062 1107.11657714844 1113.51940917969
969.125061035156 961.447143554688 967.035278320312 965.887878417969 964.957275390625 967.278686523438 971.798950195312 975.570739746094 971.012756347656 970.661376953125 975.281799316406 974.489990234375 970.989013671875 973.530578613281 981.779846191406 972.516052246094 968.403625488281 976.342346191406 982.322265625 974.368713378906 976.468505859375 955.821472167969 962.424072265625 968.656616210938 961.364074707031 965.73583984375 958.9072265625 963.562316894531 965.032958984375 962.967895507812 967.642761230469 974.878356933594 974.660217285156 968.525756835938 968.686462402344 966.838073730469 976.732666015625 969.54150390625 954.648071289062 958.53369140625 963.034423828125 952.278381347656 957.964294433594 960.690795898438 969.787414550781 963.904052734375 966.00439453125 968.394287109375 962.479370117188 961.814025878906 961.345336914062 973.043823242188 965.942443847656 960.655456542969 958.064514160156 956.725524902344 957.983947753906 955.894287109375 955.969360351562 955.069946289062 964.817321777344 956.523498535156 953.53564453125 953.976623535156 956.566711425781 955.914123535156 956.857177734375 957.022766113281 955.006286621094 953.381713867188 957.083679199219 965.0556640625 959.542907714844 968.362731933594 967.676635742188 963.098449707031 962.720092773438 960.385070800781 966.865112304688 957.753540039062 958.664428710938 969.515808105469 970.828857421875 970.602355957031 964.888366699219 969.905212402344 968.762451171875 967.320129394531 969.895690917969 970.848754882812 978.466979980469 975.119140625 977.85986328125 978.671325683594 975.330322265625 970.443786621094 967.749572753906 974.405334472656 978.90234375 977.911743164062 979.693786621094 985.464233398438 977.151489257812 973.151733398438 974.518615722656 980.252990722656 978.138732910156 979.707946777344 982.313537597656 985.449523925781 979.157531738281 979.696533203125 991.657653808594 986.088928222656 990.207885742188 993.660949707031 996.766052246094 999.149536132812 1003.96246337891 1016.23376464844 1014.59906005859 1019.48706054688 1017.95928955078 1028.4580078125 1033.5361328125 1039.12463378906 1034.40063476562 1035.04113769531 1039.32458496094 1047.54626464844 1057.02990722656 1068.853515625 1077.09375 1089.77221679688 1087.57958984375 1084.69787597656 1088.84362792969 1096.72045898438 1096.35876464844 1087.52258300781 1081.66162109375 1078.5029296875 1071.3720703125 1063.56665039062 1067.94946289062 1081.61157226562 1088.16918945312 1095.02673339844 1100.36682128906 1105.25280761719
964.272766113281 966.802612304688 962.433166503906 967.172912597656 967.142883300781 973.879455566406 972.505920410156 973.861877441406 977.608215332031 977.792236328125 970.344970703125 970.049133300781 972.956909179688 978.436584472656 973.828063964844 965.564086914062 978.915710449219 969.377746582031 974.739807128906 965.5927734375 957.256591796875 962.071838378906 962.722473144531 959.849975585938 958.598083496094 961.9169921875 961.104370117188 962.7490234375 963.281494140625 962.829956054688 962.364318847656 965.643859863281 962.703247070312 965.093505859375 962.756042480469 962.102966308594 966.351684570312 966.078796386719 959.972229003906 956.602294921875 954.749877929688 948.796997070312 957.114013671875 958.587829589844 964.450256347656 963.415100097656 964.82275390625 962.745422363281 952.210998535156 958.66064453125 964.661071777344 970.293273925781 972.836364746094 964.331665039062 951.1416015625 957.027648925781 951.501831054688 938.656982421875 951.133056640625 955.305847167969 961.057556152344 958.41748046875 953.678100585938 949.896484375 956.669921875 961.761535644531 954.742858886719 948.81005859375 948.607299804688 946.231384277344 958.461242675781 958.164611816406 965.775573730469 963.839965820312 967.8291015625 947.474670410156 954.121459960938 958.324584960938 952.940063476562 958.179809570312 964.240478515625 975.095336914062 968.920104980469 965.939270019531 960.7763671875 960.429138183594 962.952392578125 969.797424316406 970.0419921875 970.698059082031 973.610046386719 975.474243164062 978.768249511719 974.465209960938 971.465759277344 965.979553222656 961.7666015625 969.042297363281 980.536743164062 975.619262695312 973.462890625 977.206176757812 976.741088867188 977.309631347656 976.552917480469 970.858764648438 986.020141601562 984.963562011719 985.854919433594 981.275451660156 983.851318359375 989.120910644531 994.196960449219 1000.38702392578 995.674377441406 995.099304199219 993.990966796875 1000.18524169922 1004.10400390625 1001.64996337891 1016.00219726562 1017.70349121094 1016.41534423828 1022.25054931641 1029.04162597656 1029.96984863281 1025.10046386719 1025.43896484375 1031.9658203125 1041.75134277344 1051.30126953125 1062.65771484375 1080.125 1084.3359375 1088.91247558594 1082.5576171875 1095.04565429688 1085.0517578125 1089.4189453125 1086.90734863281 1085.20617675781 1076.38159179688 1069.39416503906 1065.27734375 1061.73974609375 1069.85864257812 1081.43286132812 1082.95495605469 1091.76794433594 1105.90686035156
960.532104492188 958.471984863281 958.972961425781 971.659851074219 975.43408203125 974.961730957031 973.105346679688 971.768920898438 970.069580078125 970.363830566406 971.630676269531 966.379333496094 959.125671386719 963.082641601562 968.632507324219 974.138793945312 976.019836425781 963.5244140625 970.631103515625 963.989440917969 961.770751953125 963.303894042969 953.959899902344 957.440979003906 958.697631835938 960.225341796875 958.13134765625 957.298767089844 958.638549804688 957.791381835938 954.122680664062 955.860229492188 951.667419433594 952.164916992188 959.776428222656 964.254577636719 957.748168945312 967.972778320312 955.158081054688 952.27783203125 950.642639160156 956.868835449219 956.423767089844 962.83984375 959.709350585938 961.626403808594 964.299499511719 957.331481933594 948.738403320312 951.946105957031 957.641967773438 963.155151367188 963.999389648438 957.976440429688 946.798278808594 945.161437988281 950.549255371094 944.928833007812 944.275024414062 944.781127929688 948.92138671875 953.490783691406 955.847473144531 956.255187988281 954.336181640625 957.917114257812 953.002075195312 941.595642089844 945.4482421875 952.945983886719 958.38916015625 959.319641113281 960.827270507812 959.21826171875 952.432373046875 954.90234375 951.195495605469 966.004455566406 966.068664550781 959.803283691406 958.606689453125 973.01513671875 971.337829589844 968.352111816406 958.501770019531 960.8310546875 966.673034667969 969.823120117188 972.182189941406 974.836486816406 971.6748046875 976.545532226562 980.8818359375 973.066467285156 973.257751464844 966.970520019531 974.408813476562 968.490966796875 977.607421875 975.930419921875 982.462341308594 973.390014648438 976.726440429688 966.136596679688 970.532897949219 981.634216308594 981.438110351562 978.523559570312 980.928283691406 982.7353515625 986.3134765625 994.047729492188 983.098571777344 990.7509765625 987.548522949219 990.523803710938 995.255920410156 998.093383789062 1000.78112792969 1001.40582275391 1006.83911132812 1013.76184082031 1011.68664550781 1024.76281738281 1022.64520263672 1019.65710449219 1025.82800292969 1027.47338867188 1035.75280761719 1046.68859863281 1049.34558105469 1057.11938476562 1068.60095214844 1078.97216796875 1092.62341308594 1087.89099121094 1084.82275390625 1086.84313964844 1094.94799804688 1083.82885742188 1080.00769042969 1078.46862792969 1068.33569335938 1067.40283203125 1061.27307128906 1069.91235351562 1074.07995605469 1071.064453125 1074.29284667969 1086.68054199219
943.388916015625 956.982604980469 963.920715332031 964.920471191406 972.461853027344 983.193481445312 973.612854003906 974.845092773438 967.854736328125 966.137023925781 965.998596191406 963.980163574219 959.405944824219 966.102722167969 971.075927734375 966.735412597656 976.497009277344 969.128112792969 963.254638671875 969.358581542969 966.731811523438 963.967529296875 956.421752929688 949.24462890625 957.239868164062 946.884582519531 948.032958984375 958.724365234375 953.325073242188 949.722778320312 943.032348632812 944.124816894531 955.761657714844 950.844421386719 955.808715820312 968.778198242188 963.504333496094 962.979064941406 958.769104003906 951.846496582031 958.418518066406 954.682739257812 959.729614257812 965.408325195312 956.952453613281 956.52685546875 952.616455078125 965.208679199219 954.257263183594 953.560974121094 956.472717285156 956.992614746094 953.993041992188 952.328002929688 955.494262695312 951.601379394531 949.94677734375 958.524780273438 951.767639160156 953.101379394531 955.112426757812 955.849853515625 950.487548828125 955.444519042969 956.28662109375 957.9912109375 958.726196289062 955.967895507812 946.952941894531 949.42529296875 957.561157226562 955.351867675781 957.7490234375 962.185119628906 951.536926269531 953.449279785156 957.736022949219 960.84814453125 958.844665527344 954.716064453125 961.761108398438 970.84912109375 959.265014648438 969.131042480469 965.423034667969 957.326171875 963.804260253906 963.902893066406 972.208190917969 966.594787597656 968.477416992188 973.194885253906 976.755065917969 980.427917480469 975.615539550781 969.28662109375 966.261657714844 979.705322265625 974.074951171875 975.946899414062 981.709228515625 986.483276367188 984.721374511719 974.681579589844 972.303771972656 984.726257324219 985.343872070312 980.649658203125 982.74462890625 979.398803710938 991.232055664062 993.148803710938 985.184265136719 987.966552734375 993.262268066406 991.98876953125 995.086486816406 998.644836425781 999.87353515625 1004.05474853516 1003.28076171875 1012.73968505859 1014.61639404297 1027.69812011719 1023.94055175781 1020.39276123047 1025.9580078125 1026.47082519531 1035.478515625 1044.99865722656 1050.75305175781 1051.580078125 1068.76171875 1078.69506835938 1091.29724121094 1089.95581054688 1091.2353515625 1088.19885253906 1085.3076171875 1079.38134765625 1077.54931640625 1067.60217285156 1066.85534667969 1060.16235351562 1056.62866210938 1058.64233398438 1068.28723144531 1066.45703125 1064.82897949219 1066.31140136719
961.699523925781 959.255187988281 968.93408203125 977.640502929688 971.083312988281 977.371948242188 970.19189453125 965.011840820312 970.649780273438 965.935119628906 968.638549804688 959.688110351562 952.140930175781 962.338623046875 970.14013671875 973.731262207031 969.675476074219 965.382019042969 970.618469238281 964.272705078125 964.96923828125 959.582641601562 952.088562011719 952.894348144531 949.31298828125 947.353881835938 935.23193359375 956.631958007812 950.421813964844 953.423889160156 951.190612792969 947.627563476562 951.100219726562 951.062255859375 948.307800292969 959.454711914062 959.190063476562 959.826782226562 954.804016113281 954.115295410156 951.500122070312 958.821533203125 951.83642578125 955.815490722656 953.754028320312 959.952514648438 957.884948730469 960.285461425781 962.484985351562 958.273376464844 953.026000976562 952.597839355469 953.593078613281 958.90625 958.091430664062 956.418334960938 955.757873535156 960.015869140625 969.096557617188 962.312316894531 959.126037597656 958.157897949219 950.528747558594 953.928405761719 958.981994628906 955.160705566406 962.466125488281 960.615600585938 951.93359375 946.797119140625 955.617065429688 957.455078125 962.667785644531 961.044860839844 960.804870605469 961.279541015625 963.010620117188 960.58837890625 964.111145019531 962.141540527344 966.948852539062 962.151916503906 958.698303222656 968.567932128906 958.448425292969 956.708374023438 965.596740722656 967.810241699219 968.236511230469 969.080017089844 968.604309082031 970.328430175781 974.901733398438 979.841125488281 978.161560058594 972.295166015625 962.142211914062 968.805419921875 979.384338378906 982.019958496094 991.044250488281 984.019165039062 986.041564941406 990.876220703125 983.619750976562 982.120361328125 985.680969238281 988.084777832031 987.395080566406 984.630065917969 992.555419921875 997.902221679688 995.052551269531 989.495422363281 990.200622558594 987.338134765625 997.25390625 991.232727050781 1009.56317138672 1003.54254150391 1007.85589599609 1004.41339111328 1014.2568359375 1009.74658203125 1018.37518310547 1016.90948486328 1019.38262939453 1014.74865722656 1026.07116699219 1033.80102539062 1048.03369140625 1055.58630371094 1067.0556640625 1075.13024902344 1075.61743164062 1089.39440917969 1078.65209960938 1083.46655273438 1078.72106933594 1073.29724121094 1064.25244140625 1054.69506835938 1059.85717773438 1056.17260742188 1043.66162109375 1041.92553710938 1048.18713378906 1053.80395507812 1052.87048339844 1057.25048828125
962.625122070312 961.392211914062 969.016967773438 970.109375 972.189636230469 973.211364746094 970.839599609375 964.248107910156 965.671325683594 968.205139160156 965.064086914062 958.681213378906 955.784545898438 956.966003417969 965.027770996094 962.779907226562 962.460144042969 961.084289550781 957.65869140625 955.246032714844 960.081604003906 964.481689453125 962.48974609375 957.181884765625 943.3173828125 939.916809082031 939.456787109375 950.183776855469 956.013122558594 958.592895507812 955.89697265625 958.804382324219 959.34326171875 953.580261230469 953.257385253906 952.647216796875 956.230895996094 957.348815917969 955.700744628906 949.225830078125 949.608642578125 956.510314941406 959.43359375 961.750122070312 959.582946777344 960.701416015625 957.710327148438 959.411010742188 952.962280273438 952.4267578125 948.894165039062 949.349853515625 952.658630371094 958.628601074219 955.185607910156 957.51171875 954.329528808594 965.144653320312 966.881408691406 960.002807617188 955.494934082031 959.737487792969 961.107482910156 954.510681152344 958.307373046875 954.831848144531 963.969970703125 962.483093261719 948.541870117188 955.434509277344 960.222961425781 958.408264160156 960.220153808594 955.103576660156 953.354614257812 966.695617675781 969.132446289062 963.466552734375 958.433227539062 959.79443359375 963.146423339844 962.912475585938 969.266845703125 964.1826171875 964.679992675781 961.745056152344 968.501708984375 968.035583496094 969.653503417969 971.180236816406 974.190734863281 967.663940429688 970.070617675781 976.089294433594 976.29150390625 977.457336425781 971.295288085938 970.007019042969 971.770324707031 981.528991699219 981.496765136719 989.343872070312 987.096069335938 985.392578125 984.099243164062 986.475219726562 990.3466796875 994.88671875 996.874755859375 995.695922851562 993.277648925781 987.129333496094 993.333679199219 989.762390136719 1002.50201416016 1002.56018066406 1001.03857421875 1002.74084472656 998.001159667969 1008.55456542969 1010.50341796875 1009.50622558594 1014.12530517578 1006.68621826172 1017.00030517578 1019.40411376953 1019.7451171875 1017.3232421875 1022.537109375 1038.20092773438 1052.19079589844 1054.5888671875 1056.48522949219 1065.61499023438 1078.31298828125 1086.10241699219 1080.83325195312 1071.37084960938 1064.16979980469 1063.55163574219 1063.72619628906 1044.74072265625 1043.48974609375 1045.4150390625 1038.49487304688 1037.62255859375 1042.2138671875 1047.97204589844 1040.8037109375 1041.07019042969
963.757995605469 973.659912109375 967.622680664062 971.846008300781 970.399108886719 973.58984375 970.289123535156 966.492797851562 959.779174804688 969.631164550781 961.038024902344 961.692565917969 963.486145019531 959.002319335938 966.200439453125 971.070678710938 960.736022949219 954.70751953125 960.823791503906 953.012817382812 949.504577636719 954.523803710938 956.374877929688 951.864196777344 945.907653808594 940.349975585938 938.030578613281 938.858215332031 955.660583496094 955.659057617188 952.746948242188 955.549011230469 952.825378417969 954.830261230469 956.693603515625 954.974609375 954.3671875 952.606323242188 959.495544433594 952.902465820312 951.238830566406 952.214721679688 957.877624511719 957.924011230469 961.423400878906 958.256042480469 951.353210449219 958.969543457031 954.826354980469 952.1416015625 950.02734375 947.3203125 951.145263671875 954.383361816406 958.131896972656 958.840454101562 958.830749511719 965.164672851562 966.310729980469 960.5 956.877319335938 960.539001464844 959.823791503906 958.688354492188 964.749816894531 965.577026367188 965.299865722656 958.3173828125 955.432983398438 954.8046875 965.973083496094 969.533569335938 961.503234863281 956.2685546875 961.029174804688 976.569702148438 968.541625976562 964.708251953125 960.945983886719 960.284240722656 951.596557617188 969.800903320312 958.969665527344 972.522705078125 971.232604980469 972.236938476562 975.100524902344 967.117065429688 970.198364257812 967.462707519531 968.773803710938 961.290771484375 963.221313476562 968.398803710938 971.467956542969 977.116394042969 973.795166015625 972.434509277344 969.084655761719 977.562255859375 981.57373046875 973.09326171875 977.327941894531 987.239013671875 992.674987792969 985.099548339844 994.054504394531 1002.26275634766 1002.19738769531 1005.21765136719 1003.09851074219 998.094848632812 992.247314453125 994.178833007812 1000.51544189453 1009.31677246094 1008.16046142578 1003.97253417969 1004.66003417969 1010.09851074219 1007.94146728516 1016.21228027344 1020.81134033203 1025.44079589844 1017.39636230469 1021.35284423828 1016.53424072266 1019.66058349609 1031.61499023438 1038.37463378906 1046.03540039062 1051.38647460938 1058.9560546875 1068.35913085938 1067.27392578125 1065.27990722656 1067.14379882812 1053.58642578125 1054.46203613281 1046.17407226562 1041.34838867188 1039.52429199219 1039.4462890625 1038.90087890625 1036.822265625 1034.99963378906 1040.58142089844 1046.20776367188 1045.88562011719 1047.29479980469
971.666625976562 976.496765136719 980.191650390625 980.738647460938 982.8271484375 975.567443847656 970.920471191406 973.025268554688 964.575256347656 966.359619140625 960.278137207031 959.812866210938 956.416076660156 961.030456542969 956.281860351562 951.546630859375 950.59130859375 946.648864746094 955.470825195312 946.919921875 947.833129882812 952.489440917969 958.172180175781 946.480163574219 946.508361816406 942.901916503906 946.885620117188 945.408813476562 949.558166503906 955.364135742188 948.882629394531 947.798278808594 952.576538085938 952.429626464844 952.296936035156 944.274291992188 948.11328125 951.698669433594 951.6875 951.512878417969 951.06103515625 956.902404785156 958.387817382812 959.187622070312 952.578430175781 961.227966308594 960.427612304688 953.237365722656 957.733093261719 955.995056152344 951.516479492188 952.515441894531 955.757873535156 956.9638671875 954.126525878906 953.157287597656 961.569152832031 954.7353515625 962.770629882812 962.788879394531 959.088500976562 952.427307128906 963.485229492188 962.698608398438 960.419555664062 971.612365722656 968.247375488281 961.353759765625 958.177734375 953.59033203125 967.025695800781 967.444030761719 968.349426269531 962.583862304688 956.584899902344 964.087768554688 960.989929199219 971.227600097656 960.640991210938 954.145324707031 958.184631347656 974.7900390625 975.974548339844 968.401916503906 976.871520996094 975.429565429688 972.688171386719 961.063781738281 967.704711914062 964.173645019531 961.083923339844 963.750549316406 951.176635742188 959.584533691406 962.837341308594 983.167907714844 971.496704101562 973.8193359375 973.33935546875 977.761901855469 975.562927246094 984.872375488281 982.373718261719 995.922485351562 1003.23559570312 998.482482910156 999.076782226562 1002.56988525391 1004.56689453125 1006.39215087891 1006.21984863281 1009.23931884766 1004.90509033203 1001.10363769531 1007.69921875 1017.20629882812 1013.36096191406 1010.69317626953 1010.50091552734 1016.77685546875 997.135681152344 1014.09771728516 1025.95837402344 1026.56506347656 1014.4501953125 1013.83508300781 1026.98901367188 1031.96813964844 1025.35168457031 1033.90515136719 1035.75366210938 1052.04638671875 1053.41174316406 1058.45483398438 1053.640625 1055.34289550781 1046.86596679688 1051.04895019531 1048.08386230469 1043.79504394531 1037.32739257812 1034.34985351562 1025.78442382812 1025.18188476562 1035.47094726562 1032.66906738281 1035.52880859375 1047.11352539062 1039.12939453125 1050.10119628906
974.332885742188 983.880310058594 985.434020996094 984.615234375 976.9755859375 964.105163574219 974.895935058594 976.585754394531 968.473815917969 966.41845703125 965.723449707031 957.552490234375 953.781677246094 945.128173828125 945.4140625 941.512573242188 947.219543457031 942.264465332031 952.682922363281 950.877990722656 950.822448730469 944.816650390625 948.664184570312 949.791137695312 939.038696289062 941.283752441406 941.379150390625 944.977355957031 945.081176757812 945.920593261719 949.938293457031 951.577026367188 953.878662109375 950.852966308594 953.043518066406 946.950927734375 948.578979492188 951.706787109375 950.848754882812 949.976684570312 949.604431152344 951.344970703125 953.233276367188 952.973815917969 952.365234375 956.742919921875 951.414245605469 954.126159667969 952.181274414062 949.974182128906 956.604187011719 959.172668457031 962.490295410156 960.413696289062 951.036376953125 955.230407714844 963.373291015625 967.734008789062 963.908386230469 963.207153320312 957.532165527344 961.409606933594 955.705200195312 958.004455566406 963.22509765625 971.144470214844 961.807922363281 956.38671875 952.283142089844 960.485900878906 963.235595703125 972.183044433594 963.341613769531 963.5693359375 965.04150390625 957.192199707031 962.916320800781 966.843933105469 959.148742675781 955.21826171875 961.732482910156 973.491516113281 972.007019042969 979.716613769531 970.984924316406 970.275939941406 973.19189453125 969.105529785156 970.187072753906 967.796264648438 968.01318359375 963.636474609375 962.3955078125 963.210876464844 968.4736328125 972.344299316406 969.366027832031 981.9580078125 971.731384277344 973.711547851562 971.106201171875 977.063781738281 983.962890625 991.224853515625 1000.76623535156 1004.25177001953 1000.86700439453 1001.33392333984 1003.66363525391 1006.52862548828 1014.28540039062 1019.13098144531 1013.54943847656 1014.23773193359 1011.05804443359 1014.97064208984 1010.78015136719 1006.45355224609 1010.86688232422 1017.99395751953 1012.69451904297 1011.05786132812 1014.36407470703 1018.88446044922 1020.52410888672 1012.86242675781 1022.5537109375 1014.43811035156 1022.93780517578 1035.08435058594 1040.78259277344 1048.43994140625 1048.08312988281 1047.37109375 1046.24609375 1051.54406738281 1034.73254394531 1044.76245117188 1042.45849609375 1042.14001464844 1033.81140136719 1019.92242431641 1023.40130615234 1015.11663818359 1021.36456298828 1029.17749023438 1048.37072753906 1043.26452636719 1037.72387695312 1034.54748535156
977.949157714844 978.595397949219 978.0205078125 977.934326171875 973.399597167969 964.080017089844 973.789001464844 967.347900390625 957.660034179688 960.432189941406 960.606750488281 957.670043945312 956.459167480469 947.22900390625 939.666381835938 936.015686035156 940.982971191406 940.343688964844 943.223754882812 944.856323242188 947.828063964844 948.871276855469 949.288696289062 945.732971191406 943.112182617188 938.925903320312 936.872619628906 934.570434570312 933.086975097656 934.077697753906 935.85400390625 951.728820800781 958.114624023438 955.940063476562 953.215698242188 936.223999023438 942.882873535156 948.865844726562 949.829162597656 948.366271972656 959.007141113281 947.158935546875 950.314025878906 954.033264160156 951.62060546875 948.625854492188 952.781494140625 959.147888183594 949.013549804688 951.537902832031 967.441589355469 964.098327636719 963.064758300781 953.88232421875 958.16845703125 958.646240234375 960.495361328125 967.8388671875 966.14892578125 966.842895507812 967.931091308594 967.1826171875 955.493286132812 958.346801757812 957.124633789062 959.219909667969 963.969848632812 960.560791015625 956.839782714844 969.840454101562 968.519104003906 980.409851074219 968.321228027344 967.324523925781 966.129577636719 965.090393066406 963.008422851562 968.703002929688 971.338012695312 963.528137207031 971.598999023438 971.365966796875 975.166198730469 983.47216796875 981.314270019531 982.919555664062 977.191162109375 972.830383300781 970.064086914062 962.96875 965.217346191406 969.812255859375 962.826721191406 972.040771484375 980.572692871094 978.6171875 985.221801757812 978.570251464844 976.098876953125 973.299499511719 973.710632324219 983.004516601562 977.739562988281 982.930969238281 997.996520996094 996.855773925781 1005.47399902344 997.898742675781 997.429260253906 996.139892578125 1009.02203369141 1016.07171630859 1022.39440917969 1018.35668945312 1022.5166015625 1023.68176269531 1017.6611328125 1005.21673583984 1003.27667236328 1022.60998535156 1022.72613525391 1013.55926513672 1024.69226074219 1025.88403320312 1018.93188476562 1017.09899902344 1022.26940917969 1020.9072265625 1025.84338378906 1038.66870117188 1044.94311523438 1051.0078125 1045.0244140625 1047.53796386719 1043.66027832031 1043.43908691406 1032.37060546875 1041.86303710938 1034.37927246094 1033.345703125 1030.23022460938 1019.58508300781 1017.44458007812 1013.40808105469 1019.29479980469 1021.39666748047 1032.44934082031 1027.86181640625 1030.85522460938 1024.81909179688
973.690856933594 969.321960449219 966.907958984375 966.54443359375 973.722229003906 971.580810546875 969.189636230469 966.434753417969 957.811706542969 957.069702148438 963.686218261719 957.2890625 952.301391601562 951.978820800781 940.001708984375 934.780517578125 940.532287597656 951.940551757812 942.070129394531 940.689819335938 943.002136230469 946.276916503906 948.232360839844 942.315795898438 939.328491210938 943.308471679688 943.041015625 939.065307617188 934.001586914062 935.520080566406 932.738952636719 948.737854003906 955.149536132812 948.353454589844 938.586730957031 937.436584472656 943.024353027344 944.709533691406 948.11279296875 950.218017578125 953.86376953125 947.525634765625 948.096862792969 946.405944824219 947.948791503906 957.54541015625 953.565795898438 957.761291503906 955.817199707031 956.384399414062 960.552429199219 966.583251953125 964.488098144531 954.6845703125 954.267211914062 963.135437011719 965.550964355469 970.674438476562 970.41552734375 966.641845703125 965.745483398438 971.051391601562 961.130920410156 950.82421875 956.24462890625 959.384460449219 959.049072265625 962.251342773438 952.598571777344 975.969970703125 976.585998535156 971.227905273438 970.325744628906 972.366638183594 975.478637695312 966.778381347656 972.576049804688 964.927001953125 969.378051757812 967.075439453125 971.317993164062 969.184265136719 980.5322265625 978.756958007812 980.488830566406 982.907287597656 972.833435058594 978.614440917969 981.099853515625 964.777282714844 969.520812988281 965.850891113281 971.588806152344 975.604309082031 980.923400878906 980.873413085938 976.469116210938 978.308715820312 976.027954101562 978.05419921875 979.005065917969 981.118469238281 978.080993652344 988.740234375 1000.72503662109 994.432067871094 998.954711914062 999.943542480469 1007.45025634766 1011.76086425781 1016.06768798828 1015.79010009766 1021.82373046875 1024.14770507812 1028.6845703125 1023.11218261719 1018.81225585938 1012.35021972656 1004.23803710938 1011.22863769531 1015.11114501953 1018.58856201172 1018.38586425781 1026.28674316406 1023.80718994141 1014.44702148438 1018.68090820312 1017.45483398438 1021.78247070312 1038.111328125 1040.94580078125 1039.38684082031 1036.88745117188 1035.404296875 1040.0859375 1033.62817382812 1039.59997558594 1035.70031738281 1037.93469238281 1024.76403808594 1027.88049316406 1028.62048339844 1023.10949707031 1016.93695068359 1013.65173339844 1019.31494140625 1025.54650878906 1024.79248046875 1022.87609863281 1016.21099853516
960.426879882812 960.722351074219 954.540832519531 962.93310546875 960.294982910156 968.117492675781 964.862487792969 960.412109375 958.605346679688 950.925048828125 960.176208496094 954.138061523438 947.708679199219 949.099975585938 944.696228027344 939.817260742188 942.019165039062 951.437438964844 945.303283691406 943.905151367188 946.171875 941.001525878906 950.777893066406 940.873474121094 942.403137207031 942.674499511719 935.065856933594 950.36328125 938.136901855469 927.778259277344 931.646606445312 945.903076171875 945.846923828125 948.103637695312 945.475830078125 940.619750976562 942.234069824219 948.703125 952.704895019531 950.232666015625 959.902648925781 954.600646972656 945.432495117188 944.47705078125 954.894958496094 954.573425292969 959.050048828125 967.837951660156 965.21728515625 970.635681152344 967.144104003906 963.482177734375 963.653991699219 961.259643554688 962.036804199219 963.928466796875 969.069152832031 970.944702148438 969.835266113281 969.119995117188 961.290832519531 971.10791015625 960.9130859375 959.70751953125 957.525756835938 958.556823730469 957.034606933594 956.486450195312 958.767700195312 965.201232910156 965.069641113281 978.280151367188 977.644226074219 968.7236328125 965.043579101562 970.422302246094 978.00390625 971.08642578125 972.002563476562 970.259338378906 974.610900878906 970.09228515625 978.929504394531 971.048583984375 984.033996582031 985.559997558594 980.062805175781 979.569763183594 972.675720214844 970.190673828125 968.635375976562 961.791442871094 971.517578125 968.06396484375 974.110534667969 973.361450195312 978.668273925781 983.503173828125 972.065551757812 977.667175292969 974.831237792969 980.507263183594 980.501525878906 994.612854003906 1000.94708251953 997.539916992188 1003.48480224609 1009.21508789062 1008.45104980469 1009.85607910156 1020.81591796875 1023.36071777344 1025.20886230469 1020.55529785156 1022.09112548828 1034.52160644531 1020.30645751953 1013.15826416016 1013.58923339844 1017.63110351562 1023.92974853516 1016.50238037109 1022.02893066406 1026.57043457031 1017.77746582031 1017.27325439453 1017.77728271484 1017.45977783203 1029.53894042969 1043.18322753906 1043.49060058594 1043.98095703125 1045.37109375 1043.80236816406 1036.63195800781 1044.55639648438 1035.64709472656 1037.21484375 1033.67956542969 1028.93249511719 1029.16821289062 1033.20324707031 1027.5546875 1025.38842773438 1016.43530273438 1011.86767578125 1019.76104736328 1022.60479736328 1010.71734619141 1014.06176757812
953.774475097656 955.990905761719 951.623046875 959.556091308594 954.336547851562 954.52587890625 948.6982421875 963.190307617188 961.730651855469 958.037353515625 954.030822753906 949.455078125 939.255310058594 943.627990722656 941.076293945312 944.581359863281 946.025695800781 945.536254882812 951.661682128906 950.973266601562 945.769592285156 942.923522949219 944.926391601562 938.881896972656 942.965026855469 941.736206054688 944.722229003906 947.920043945312 944.910949707031 943.316223144531 943.541259765625 942.800964355469 942.868835449219 943.490600585938 944.8037109375 948.003967285156 955.716918945312 962.808288574219 957.063110351562 958.792114257812 954.336730957031 957.730346679688 951.581298828125 951.856872558594 954.837280273438 959.879150390625 960.898498535156 972.968139648438 974.92041015625 969.072143554688 965.199035644531 975.548522949219 973.030151367188 967.305236816406 968.590942382812 972.332763671875 975.67431640625 974.798156738281 978.528137207031 962.227783203125 969.541687011719 971.307373046875 966.402893066406 962.174072265625 961.572265625 960.743713378906 961.88232421875 961.518432617188 967.302917480469 967.239379882812 963.405883789062 972.189819335938 977.044067382812 969.954528808594 961.166931152344 968.253601074219 983.160339355469 984.114685058594 974.073852539062 976.579406738281 976.94873046875 981.295654296875 978.187927246094 972.530639648438 979.83837890625 985.58447265625 992.8369140625 984.942687988281 971.436706542969 969.484130859375 974.035705566406 968.916931152344 971.791076660156 974.483581542969 974.634033203125 969.380249023438 980.289916992188 982.100769042969 973.826843261719 977.517028808594 980.241027832031 989.853393554688 984.613891601562 993.931518554688 1000.34423828125 998.394775390625 1005.82189941406 1009.87109375 1012.84222412109 1009.73712158203 1014.19097900391 1016.77795410156 1029.02014160156 1019.03497314453 1026.51135253906 1033.24682617188 1033.56408691406 1024.82434082031 1029.03479003906 1024.80639648438 1023.40075683594 1030.04760742188 1037.91857910156 1031.94384765625 1021.0361328125 1019.33728027344 1018.68505859375 1023.39770507812 1031.9462890625 1041.33605957031 1039.03625488281 1043.52404785156 1034.20141601562 1040.06787109375 1033.962890625 1033.65466308594 1032.37194824219 1035.15393066406 1034.39733886719 1030.63488769531 1025.56726074219 1031.181640625 1026.54174804688 1023.59167480469 1016.90686035156 1009.37677001953 1018.32751464844 1017.18243408203 1007.71545410156 1006.18408203125
957.524108886719 947.392761230469 947.005554199219 947.463745117188 943.037048339844 945.767761230469 953.426452636719 948.096130371094 948.740173339844 948.612976074219 948.64306640625 947.125183105469 942.867980957031 946.750061035156 954.050964355469 949.647155761719 948.004821777344 945.877319335938 948.368347167969 948.896179199219 951.469787597656 935.413146972656 946.246398925781 946.616394042969 947.171020507812 941.207397460938 942.4326171875 950.882385253906 947.683837890625 956.856384277344 944.654235839844 947.072814941406 945.365173339844 942.91943359375 951.524047851562 946.793395996094 944.451599121094 951.911071777344 960.039672851562 965.006103515625 959.606262207031 960.624389648438 955.61474609375 952.014221191406 957.686218261719 967.393371582031 970.921081542969 972.510192871094 974.564758300781 981.122985839844 974.714965820312 971.257751464844 980.436950683594 974.615295410156 980.381408691406 982.683959960938 985.435852050781 987.495849609375 970.153564453125 971.5556640625 967.610900878906 976.519592285156 975.849243164062 971.119812011719 963.317199707031 964.219116210938 955.621215820312 966.775817871094 963.755737304688 973.063659667969 975.014770507812 979.450561523438 977.079833984375 973.997375488281 965.740844726562 982.305480957031 982.359497070312 983.37353515625 973.703125 980.930969238281 974.629760742188 968.820678710938 974.215698242188 983.90869140625 981.349487304688 985.801574707031 990.407104492188 982.167724609375 982.883666992188 978.891235351562 976.890075683594 974.874694824219 985.292175292969 991.176696777344 987.766723632812 980.227905273438 980.136413574219 979.208435058594 982.700256347656 983.500793457031 978.338684082031 991.671081542969 988.78564453125 997.340148925781 1002.53179931641 1000.52197265625 1002.93371582031 1001.08624267578 1006.70147705078 1018.11157226562 1009.55310058594 1007.31567382812 1023.00396728516 1025.61352539062 1019.24450683594 1036.15454101562 1032.49792480469 1035.29138183594 1034.91577148438 1034.10095214844 1028.00720214844 1041.38830566406 1045.91101074219 1033.58911132812 1018.67565917969 1024.22814941406 1024.06164550781 1030.78894042969 1042.3916015625 1045.78564453125 1033.70910644531 1039.63598632812 1042.09558105469 1047.33288574219 1046.42004394531 1043.52758789062 1031.884765625 1030.93713378906 1030.271484375 1023.99230957031 1021.00366210938 1019.37866210938 1015.29449462891 1016.77911376953 1018.81311035156 1012.89849853516 1019.52172851562 1012.29656982422 1009.15246582031 1002.45141601562
