NCOLS 150
NROWS 37
XLLCORNER 7394249
YLLCORNER 4843679
CELLSIZE 30
NODATA_VALUE -9999
995.647888183594 989.636596679688 990.468322753906 999.690979003906 994.167419433594 993.414245605469 1000.20953369141 1008.52008056641 1014.30780029297 1001.064453125 1008.69836425781 1010.21197509766 1003.36828613281 994.888244628906 1000.48370361328 1010.03601074219 1007.43743896484 1014.04803466797 1018.48425292969 1023.15588378906 1029.70043945312 1026.74377441406 1031.22119140625 1025.73828125 1021.86395263672 1016.93328857422 1011.66204833984 1011.04077148438 1006.24755859375 1021.93011474609 1021.20635986328 1012.96057128906 1019.94085693359 1022.17419433594 1018.73297119141 1018.52130126953 1013.54174804688 1018.31768798828 1007.22930908203 1013.689453125 1000.49243164062 1001.58929443359 1000.35290527344 994.063842773438 998.593322753906 1000.27990722656 999.478515625 997.480895996094 1009.56341552734 1004.39544677734 993.739562988281 988.314208984375 990.539367675781 988.257995605469 987.640625 984.098388671875 985.856872558594 986.7958984375 985.067687988281 990.015380859375 982.22119140625 986.015625 988.642639160156 991.709411621094 979.852905273438 971.972106933594 976.250549316406 972.948974609375 975.061340332031 971.668518066406 958.372009277344 961.12841796875 963.204162597656 969.073974609375 981.199829101562 995.455139160156 1003.68664550781 1008.61590576172 1015.02941894531 1020.27331542969 1034.98681640625 1030.62292480469 1025.89465332031 1015.56134033203 1014.85083007812 1011.59649658203 999.598449707031 987.35205078125 962.16015625 941.221862792969 932.7333984375 922.403076171875 919.467590332031 916.107482910156 910.945739746094 912.595520019531 919.821228027344 915.808288574219 900.513061523438 892.418640136719 895.719177246094 897.491638183594 895.190673828125 895.9267578125 889.516540527344 885.048522949219 894.5576171875 891.871520996094 893.199645996094 886.286865234375 889.443603515625 898.218811035156 903.214721679688 901.902160644531 901.303100585938 909.113647460938 903.909301757812 909.837280273438 914.893432617188 924.715087890625 930.830749511719 934.51611328125 944.705688476562 941.127380371094 946.681335449219 945.212280273438 959.33740234375 971.394165039062 973.831665039062 980.476684570312 993.982971191406 1005.57598876953 1021.38067626953 1042.56884765625 1052.2734375 1061.2119140625 1069.70666503906 1084.42541503906 1097.42175292969 1107.32348632812 1120.80126953125 1127.50817871094 1132.48596191406 1135.56274414062 1139.68518066406 1135.47961425781 1130.38305664062 1113.87341308594 1118.72814941406 1101.96740722656
993.023986816406 1002.42352294922 984.066284179688 977.908752441406 985.031860351562 986.196411132812 1001.14410400391 999.835266113281 1003.97766113281 1000.59063720703 1003.48272705078 1000.82550048828 991.395324707031 997.202697753906 994.406372070312 1010.55731201172 1008.80773925781 1006.22625732422 1014.0986328125 1016.05780029297 1018.70306396484 1023.89837646484 1020.58673095703 1013.07904052734 1012.21258544922 1011.28424072266 1011.77972412109 1003.84008789062 1001.05041503906 1009.31732177734 1012.71636962891 1014.62048339844 1010.81127929688 1010.43011474609 1021.42639160156 1011.01232910156 1021.21337890625 1020.43725585938 1018.48052978516 1012.68963623047 1010.04418945312 1004.24353027344 997.159240722656 993.867797851562 999.019470214844 1004.17346191406 1007.3076171875 999.875122070312 1003.34155273438 1001.37994384766 1001.35388183594 1001.54187011719 1001.22680664062 1000.05505371094 994.5146484375 996.325073242188 1008.25115966797 997.067321777344 990.047973632812 1000.39044189453 999.282531738281 989.00048828125 994.484252929688 991.568115234375 985.928405761719 978.822448730469 979.141418457031 974.138977050781 977.605407714844 972.644470214844 963.126525878906 963.365051269531 971.155517578125 979.469177246094 981.861511230469 999.096618652344 1002.63928222656 1022.24487304688 1018.26782226562 1032.16674804688 1033.50036621094 1029.29223632812 1018.45452880859 1024.07336425781 1015.205078125 1017.76721191406 998.697326660156 976.530822753906 952.798217773438 934.368591308594 927.703918457031 923.8486328125 920.100402832031 920.761962890625 919.861206054688 913.489379882812 922.48486328125 914.782409667969 906.359497070312 903.394409179688 905.65087890625 903.707702636719 906.132873535156 903.805603027344 895.824523925781 900.962768554688 902.896057128906 904.257080078125 898.251892089844 895.251220703125 894.275390625 897.390319824219 900.010803222656 901.715698242188 908.64453125 914.107360839844 909.947204589844 906.022644042969 921.859558105469 925.038391113281 936.652038574219 934.148254394531 946.033447265625 939.090148925781 946.095397949219 955.315063476562 968.054138183594 981.659606933594 983.310974121094 984.001220703125 996.79638671875 1023.60516357422 1024.9892578125 1034.67858886719 1051.42407226562 1068.08605957031 1071.03979492188 1089.98559570312 1095.70397949219 1119.58825683594 1122.6240234375 1124.04077148438 1135.16040039062 1135.4580078125 1147.1796875 1142.14318847656 1141.87707519531 1122.90478515625 1117.98229980469 1112.41296386719
994.888610839844 997.848815917969 992.03515625 986.496887207031 992.891540527344 985.88525390625 988.336853027344 1000.49816894531 999.892211914062 1000.31921386719 996.475952148438 997.898193359375 989.153564453125 993.890502929688 1002.01892089844 1012.72790527344 1009.82653808594 1006.02825927734 1015.27581787109 1008.48962402344 1012.98937988281 1013.44287109375 1006.76098632812 1008.71960449219 1011.90533447266 1012.50286865234 1005.90026855469 1010.61022949219 996.195190429688 1004.6953125 1009.01678466797 1016.38903808594 1012.46264648438 1012.62322998047 1015.22235107422 1013.32794189453 1016.16156005859 1026.9091796875 1019.34826660156 1011.97583007812 1000.28118896484 998.621704101562 1005.24060058594 996.184509277344 995.714111328125 1000.34112548828 1003.52526855469 1007.96875 1001.95721435547 1003.74652099609 1000.89874267578 1010.51232910156 1008.99261474609 1004.53051757812 1010.09509277344 1000.52581787109 1004.94055175781 993.713134765625 1005.00695800781 1005.17761230469 1001.62335205078 998.483703613281 988.093383789062 992.2255859375 981.269836425781 976.523376464844 970.8193359375 971.387817382812 966.929565429688 970.113037109375 961.379272460938 967.307495117188 979.866394042969 988.620727539062 996.875854492188 1002.55065917969 1008.23162841797 1021.08013916016 1022.14672851562 1028.79760742188 1034.96447753906 1036.50366210938 1027.57470703125 1023.35186767578 1021.35009765625 1009.95025634766 994.566467285156 972.789733886719 955.874694824219 936.522583007812 933.456481933594 922.369934082031 923.294006347656 918.268127441406 923.139282226562 928.247375488281 914.788818359375 909.283630371094 908.348205566406 910.935424804688 913.931823730469 910.620910644531 901.894897460938 899.48046875 892.993591308594 905.040222167969 912.743469238281 908.469421386719 905.315185546875 907.171264648438 903.403259277344 905.4287109375 908.944702148438 909.416625976562 912.46875 916.647399902344 912.882690429688 909.098815917969 920.172607421875 929.934387207031 940.759521484375 949.421508789062 941.756591796875 941.441650390625 949.446044921875 957.986511230469 970.544921875 983.972351074219 990.833557128906 996.417419433594 1008.53826904297 1032.56970214844 1040.44274902344 1047.78759765625 1055.7646484375 1070.67224121094 1082.0263671875 1089.95556640625 1103.96691894531 1108.93383789062 1118.47241210938 1131.55822753906 1134.17224121094 1131.48168945312 1140.05554199219 1152.71081542969 1142.84851074219 1132.697265625 1125.19104003906 1122.06958007812
1001.42193603516 1010.78961181641 1004.01647949219 998.419372558594 996.557800292969 989.38037109375 994.419799804688 1000.26959228516 996.24609375 993.644775390625 994.316162109375 994.119750976562 990.5986328125 988.901245117188 1001.99621582031 1012.58666992188 1012.85473632812 1004.61273193359 1008.83807373047 1000.61145019531 997.190246582031 993.594177246094 1000.58581542969 1006.23095703125 1005.90270996094 1003.14483642578 1004.7890625 1004.50231933594 1004.46868896484 1006.10406494141 1016.73181152344 1016.63842773438 1020.09381103516 1026.87829589844 1017.82867431641 1013.27703857422 1014.36090087891 1021.28247070312 1018.25463867188 1010.09851074219 1008.01062011719 1006.41125488281 1001.03778076172 997.197448730469 997.477600097656 1008.296875 1005.40386962891 1001.21545410156 1006.40478515625 1011.61602783203 1006.52862548828 1009.16040039062 1004.14398193359 1002.27874755859 1004.07672119141 1006.45104980469 1004.86584472656 1005.69476318359 1005.75769042969 999.696533203125 1008.80517578125 1013.14678955078 1001.69268798828 989.562255859375 988.77783203125 981.458557128906 971.364624023438 972.228088378906 972.869506835938 971.532897949219 970.211547851562 976.70654296875 985.685607910156 992.708618164062 1004.04522705078 1014.02630615234 1011.28686523438 1022.16094970703 1024.77282714844 1039.65637207031 1040.96606445312 1033.6689453125 1024.73754882812 1024.16687011719 1024.34997558594 1012.81823730469 993.644958496094 971.158508300781 962.432800292969 944.428344726562 933.409790039062 932.438842773438 936.073852539062 927.017272949219 931.030151367188 939.2265625 927.074768066406 916.14697265625 927.940063476562 923.037536621094 922.488342285156 918.85791015625 908.524963378906 902.957397460938 905.377685546875 907.4658203125 917.901916503906 923.474670410156 922.728881835938 913.89306640625 912.605224609375 903.47265625 921.21044921875 915.381103515625 919.866516113281 915.941345214844 912.849670410156 915.217346191406 926.449340820312 934.293151855469 946.733825683594 941.9833984375 941.414489746094 949.497985839844 954.9794921875 965.394165039062 975.691528320312 992.083129882812 1004.07153320312 1012.32983398438 1021.81237792969 1034.30700683594 1046.34094238281 1058.97180175781 1077.41479492188 1080.48986816406 1089.22290039062 1098.76770019531 1103.38073730469 1112.92919921875 1120.63598632812 1122.27856445312 1119.50598144531 1124.60424804688 1132.234375 1135.03393554688 1138.10571289062 1131.02954101562 1127.81396484375 1118.85595703125
1006.18280029297 1006.55328369141 1000.80181884766 997.076782226562 990.773315429688 990.5478515625 992.310729980469 990.921203613281 989.817993164062 994.031311035156 993.311462402344 991.727294921875 987.667114257812 979.570495605469 1001.78594970703 1008.51135253906 1000.10571289062 1009.90887451172 1008.54931640625 1002.97485351562 999.173156738281 994.125244140625 1003.08850097656 997.911254882812 997.385070800781 1005.04718017578 1000.00823974609 995.016357421875 1001.63946533203 1003.55444335938 1016.01000976562 1013.36883544922 1016.16015625 1017.57501220703 1024.92736816406 1012.61895751953 1013.38897705078 1014.35052490234 1016.35400390625 1008.54559326172 1020.35333251953 1010.82476806641 1018.5517578125 1008.81304931641 1000.54205322266 1005.98425292969 1003.99029541016 1009.16418457031 1009.66052246094 1018.26098632812 1019.86889648438 1018.48999023438 1009.06353759766 1007.43927001953 1004.28717041016 1003.92517089844 1011.37359619141 1017.76934814453 1003.89141845703 1004.15740966797 1002.59442138672 1015.08941650391 997.906982421875 993.912841796875 991.850891113281 992.305358886719 981.6796875 983.805297851562 978.834411621094 979.825500488281 984.519653320312 981.346130371094 995.811828613281 998.872436523438 1010.78729248047 1016.19171142578 1024.00610351562 1025.31628417969 1030.94030761719 1035.54748535156 1028.16516113281 1032.77856445312 1024.38110351562 1017.46276855469 1017.48986816406 1005.01348876953 992.253723144531 976.085998535156 955.421630859375 953.894958496094 951.392272949219 950.550170898438 938.748229980469 935.470642089844 937.981689453125 933.458435058594 934.377563476562 932.907653808594 936.226013183594 937.777404785156 930.639770507812 926.118957519531 927.543395996094 923.612548828125 921.847900390625 919.798645019531 930.605651855469 936.092956542969 927.484741210938 924.588012695312 922.6025390625 925.402648925781 931.374694824219 922.88916015625 918.6650390625 921.674438476562 914.796264648438 915.040771484375 925.44482421875 943.711853027344 947.353637695312 945.325622558594 947.089416503906 957.147094726562 957.521606445312 971.476440429688 986.185363769531 995.05517578125 1006.27856445312 1023.41662597656 1030.38330078125 1036.6669921875 1048.45349121094 1062.3349609375 1075.68591308594 1087.05493164062 1094.18811035156 1097.40393066406 1105.47973632812 1107.41064453125 1110.69763183594 1109.44543457031 1121.53637695312 1116.77954101562 1125.13122558594 1131.48254394531 1129.45397949219 1124.26647949219 1125.8798828125 1116.67980957031
1000.56127929688 1000.89752197266 998.122741699219 983.880310058594 986.840759277344 987.313293457031 991.957397460938 990.412658691406 990.022766113281 989.918762207031 988.17431640625 984.9130859375 983.325439453125 983.552368164062 996.378845214844 1009.22534179688 994.834167480469 1010.18920898438 1007.23413085938 1004.80151367188 993.859375 991.216186523438 1000.40545654297 992.427978515625 989.030212402344 993.892272949219 989.514465332031 996.897399902344 996.741088867188 999.611572265625 1009.31024169922 1006.17309570312 1001.900390625 1009.62322998047 1022.86767578125 1015.93841552734 1011.57818603516 1026.71716308594 1022.92077636719 1026.14416503906 1028.60900878906 1020.55609130859 1018.00512695312 1019.29437255859 1011.47161865234 999.890930175781 1006.28723144531 1012.92034912109 1016.29937744141 1015.21032714844 1012.30462646484 1010.99096679688 1006.39678955078 1010.84655761719 1011.21801757812 1004.41052246094 1009.154296875 1013.35760498047 1019.91430664062 1003.78076171875 1012.96789550781 1017.54125976562 1005.99090576172 999.662170410156 1000.85406494141 988.275146484375 987.226745605469 993.160949707031 987.622192382812 986.934387207031 991.541442871094 990.474609375 1002.00250244141 1003.00891113281 1010.62316894531 1025.6640625 1030.81311035156 1035.5771484375 1033.04260253906 1029.31713867188 1027.14562988281 1021.45544433594 1022.26684570312 1023.54809570312 1021.95385742188 1001.87835693359 984.834106445312 971.174133300781 960.079772949219 955.598693847656 951.283020019531 948.114196777344 945.653381347656 943.89599609375 944.117614746094 942.192565917969 945.679016113281 946.96240234375 942.011291503906 944.496826171875 939.98193359375 928.8828125 923.313537597656 929.12890625 935.796081542969 936.931762695312 937.131958007812 943.107421875 939.773376464844 938.336791992188 936.524475097656 932.726501464844 941.875671386719 934.813598632812 924.113708496094 912.346740722656 914.050720214844 924.81640625 930.94970703125 940.720886230469 943.137329101562 953.8642578125 956.007568359375 958.185363769531 960.401123046875 970.75439453125 981.567810058594 995.7412109375 1006.40325927734 1013.42553710938 1025.01672363281 1041.09631347656 1051.84204101562 1064.59460449219 1082.69079589844 1092.92761230469 1100.40942382812 1113.52172851562 1111.46252441406 1115.79907226562 1107.58508300781 1106.48461914062 1110.65625 1107.96752929688 1124.25646972656 1126.63525390625 1130.98059082031 1121.38134765625 1118.95190429688 1110.3603515625
1002.81628417969 1004.16571044922 991.3896484375 988.044860839844 972.58837890625 974.970703125 977.98876953125 978.681091308594 984.202514648438 982.490051269531 983.496948242188 977.102294921875 972.968444824219 986.934326171875 992.164733886719 996.136474609375 999.852966308594 1002.27331542969 997.70166015625 996.786376953125 988.09326171875 987.021362304688 987.959167480469 984.391174316406 979.351867675781 988.051879882812 991.759155273438 992.460571289062 998.190551757812 1001.44244384766 1005.56756591797 1006.1513671875 1004.25054931641 1020.94421386719 1023.57006835938 1024.85900878906 1022.75170898438 1034.54895019531 1039.7646484375 1034.8251953125 1028.45495605469 1025.83435058594 1020.95172119141 1015.32867431641 1015.67639160156 1014.10394287109 1003.53216552734 1009.79162597656 1009.31646728516 1009.19989013672 1002.67742919922 1004.96240234375 1012.37719726562 1013.19165039062 1008.16528320312 1014.71350097656 1016.17230224609 1015.36175537109 1023.40142822266 1017.31726074219 1023.15100097656 1016.30609130859 1007.69207763672 1007.45397949219 1003.9921875 997.335083007812 1002.80084228516 1004.59613037109 994.975646972656 991.038391113281 992.019409179688 989.094116210938 999.890014648438 1009.68725585938 1014.44256591797 1024.75915527344 1029.31420898438 1029.18493652344 1029.04943847656 1032.64709472656 1024.75378417969 1029.10473632812 1029.4853515625 1021.80334472656 1014.38568115234 999.416381835938 979.2373046875 962.125549316406 964.447937011719 949.573547363281 945.802307128906 944.108032226562 935.733581542969 945.920593261719 951.437622070312 953.150146484375 960.562316894531 952.448486328125 957.338073730469 955.116577148438 946.852416992188 949.648071289062 946.716491699219 939.359313964844 949.713012695312 947.67724609375 950.453918457031 955.990356445312 947.930786132812 952.971435546875 953.626953125 942.928466796875 943.807556152344 934.103454589844 922.512084960938 914.306518554688 906.515869140625 917.998779296875 934.052429199219 946.169738769531 946.148315429688 948.49609375 956.592407226562 957.833679199219 975.016296386719 985.065856933594 988.438720703125 994.367980957031 1005.59619140625 1013.65655517578 1020.99407958984 1042.22424316406 1054.3408203125 1069.80981445312 1081.70495605469 1087.79992675781 1101.34020996094 1110.71923828125 1109.12353515625 1104.26599121094 1109.53552246094 1105.59875488281 1107.12084960938 1105.81884765625 1126.31469726562 1131.12768554688 1120.42639160156 1126.20874023438 1130.88549804688 1117.07373046875
996.82177734375 993.305358886719 996.170593261719 984.325744628906 981.42236328125 978.83056640625 978.382934570312 986.666748046875 987.558227539062 978.255004882812 973.218872070312 974.4794921875 977.619873046875 987.552429199219 985.088500976562 990.040161132812 990.602783203125 992.280212402344 985.704772949219 992.706298828125 984.941589355469 985.731567382812 981.212768554688 987.702026367188 976.634094238281 989.380065917969 980.750732421875 990.596557617188 997.945983886719 1005.91528320312 1011.67388916016 1016.79870605469 1014.25256347656 1025.49096679688 1037.20581054688 1029.20581054688 1028.90771484375 1037.50036621094 1041.84020996094 1045.14233398438 1040.58666992188 1031.87890625 1027.69616699219 1032.412109375 1025.67468261719 1013.97979736328 1018.59582519531 1010.89929199219 1008.11169433594 1008.51245117188 1011.34771728516 1010.05053710938 1014.29528808594 1009.18969726562 1005.34484863281 1008.49700927734 1021.23681640625 1016.9580078125 1023.08935546875 1015.52294921875 1013.59893798828 1019.47009277344 1009.47393798828 1016.34985351562 1007.57098388672 1005.89599609375 1009.24652099609 995.1484375 991.823669433594 996.965026855469 992.435607910156 990.671325683594 998.231201171875 1009.52642822266 1018.91613769531 1028.20959472656 1026.60070800781 1030.59533691406 1031.28771972656 1029.92272949219 1033.58349609375 1027.29138183594 1018.61279296875 1024.83666992188 1011.74853515625 1009.86944580078 989.047790527344 975.876647949219 959.93115234375 950.174926757812 945.216491699219 946.756286621094 944.562805175781 948.769836425781 952.313842773438 962.454223632812 960.173278808594 969.456848144531 964.605590820312 968.540893554688 961.74951171875 951.559387207031 959.718994140625 951.004577636719 953.407653808594 960.059692382812 958.783142089844 957.566162109375 961.088745117188 964.280639648438 967.652465820312 956.035217285156 951.147155761719 934.183166503906 923.494873046875 917.785278320312 912.490417480469 918.094421386719 936.126892089844 947.625366210938 950.294189453125 952.520568847656 960.105773925781 957.071472167969 975.505676269531 991.182006835938 992.141967773438 1005.93536376953 1018.54742431641 1009.69787597656 1026.10278320312 1036.37829589844 1046.87915039062 1065.06115722656 1076.49682617188 1084.75537109375 1099.263671875 1102.24560546875 1103.47326660156 1106.53393554688 1104.65319824219 1105.48132324219 1112.56237792969 1111.86682128906 1115.98425292969 1112.70922851562 1114.45434570312 1121.58203125 1133.08654785156 1126.74389648438
984.077575683594 982.742797851562 986.563354492188 983.87255859375 981.90869140625 975.529418945312 979.741516113281 985.497741699219 989.390991210938 982.996215820312 974.985168457031 972.17138671875 969.390686035156 971.756164550781 980.619262695312 991.963623046875 983.957946777344 987.535705566406 983.926330566406 988.890319824219 986.099060058594 985.836791992188 982.117065429688 983.46484375 976.0732421875 988.689575195312 986.553649902344 1000.40698242188 1001.46405029297 1004.53088378906 1010.21307373047 1016.96820068359 1019.99450683594 1033.39343261719 1040.67944335938 1039.50537109375 1032.39807128906 1039.11682128906 1041.65808105469 1046.14929199219 1042.39953613281 1037.08654785156 1034.94250488281 1027.29516601562 1018.35546875 1019.58355712891 1015.02862548828 1016.51843261719 1011.90655517578 1012.52697753906 1008.91870117188 1007.3828125 1015.53448486328 1015.25396728516 1008.33184814453 1006.06030273438 1021.04852294922 1019.66741943359 1021.49182128906 1021.65356445312 1017.60229492188 1013.98669433594 1020.80731201172 1024.58996582031 1020.18811035156 1019.44964599609 1007.30596923828 995.903747558594 999.13427734375 1001.68951416016 1001.49407958984 1001.40277099609 1005.93774414062 1010.00793457031 1023.62365722656 1022.54382324219 1024.44604492188 1034.48168945312 1033.20361328125 1028.92834472656 1031.27502441406 1033.47741699219 1024.97021484375 1026.892578125 1024.37390136719 1015.57531738281 1000.70727539062 983.0673828125 978.510375976562 960.911193847656 949.626159667969 944.97021484375 946.809814453125 958.365783691406 959.904846191406 966.178833007812 973.625793457031 976.875122070312 975.046997070312 970.5478515625 966.377319335938 961.518798828125 968.030700683594 964.077453613281 954.732055664062 959.376220703125 964.184936523438 972.576293945312 971.564270019531 972.732177734375 960.834228515625 957.387817382812 948.279296875 944.293884277344 927.795104980469 916.779907226562 920.402526855469 924.425354003906 936.465148925781 951.105407714844 950.540222167969 968.850280761719 967.362670898438 968.921752929688 977.275939941406 989.22705078125 996.166931152344 1009.7294921875 1017.18658447266 1025.69775390625 1033.67358398438 1048.384765625 1056.86608886719 1065.13818359375 1076.88415527344 1083.33239746094 1096.54919433594 1101.71411132812 1097.07666015625 1099.17407226562 1092.23449707031 1094.58227539062 1098.87927246094 1097.35974121094 1104.12475585938 1109.11096191406 1121.65856933594 1129.94897460938 1130.24243164062 1131.87927246094
975.483215332031 974.642822265625 972.835632324219 983.184387207031 978.414978027344 984.68017578125 976.0283203125 989.878173828125 987.330383300781 984.430603027344 974.93310546875 980.0322265625 965.722778320312 971.905700683594 976.116455078125 982.953002929688 978.940795898438 982.915893554688 994.250183105469 990.695617675781 984.176696777344 983.523254394531 986.438903808594 986.490478515625 987.389831542969 991.139770507812 996.205749511719 1004.89953613281 1003.66467285156 999.483642578125 1010.98663330078 1018.57025146484 1028.19213867188 1034.57067871094 1039.79516601562 1035.92419433594 1046.27221679688 1038.85864257812 1039.02673339844 1042.70581054688 1051.47192382812 1042.98449707031 1036.67102050781 1028.34387207031 1020.31976318359 1017.96398925781 1018.20153808594 1028.80676269531 1017.22973632812 1011.38269042969 1005.48577880859 1010.07257080078 1010.35241699219 1021.98895263672 1021.84197998047 1022.69866943359 1017.39562988281 1023.64697265625 1019.57147216797 1022.40826416016 1023.96057128906 1020.38128662109 1022.263671875 1029.11462402344 1031.3935546875 1021.93786621094 1014.52404785156 1013.59045410156 1003.53240966797 1005.51336669922 998.289855957031 1003.07800292969 1006.08221435547 1016.83575439453 1026.25793457031 1029.4365234375 1030.3037109375 1024.43176269531 1019.30462646484 1023.62677001953 1026.6416015625 1026.21142578125 1024.49243164062 1030.064453125 1033.40930175781 1016.80084228516 1001.13262939453 991.013000488281 988.965881347656 965.219848632812 954.3564453125 961.124572753906 958.012634277344 960.795043945312 964.349609375 971.414489746094 972.359436035156 974.795471191406 974.716918945312 979.264282226562 964.952880859375 959.746704101562 973.406005859375 964.652282714844 968.340148925781 969.736938476562 980.367248535156 983.943725585938 988.052185058594 978.172241210938 962.162841796875 960.115600585938 952.856567382812 944.75390625 934.097290039062 920.856628417969 917.121276855469 925.606994628906 935.234497070312 941.101989746094 948.989990234375 958.033386230469 968.335327148438 975.258239746094 973.116821289062 982.437377929688 997.300720214844 1001.82891845703 1021.32061767578 1032.68298339844 1043.08459472656 1056.35522460938 1061.18835449219 1071.51953125 1071.36950683594 1075.60339355469 1081.49035644531 1083.47180175781 1092.86950683594 1091.70190429688 1082.70227050781 1091.50720214844 1092.74365234375 1103.15380859375 1109.18103027344 1120.37084960938 1127.43859863281 1127.62963867188 1134.94909667969 1142.54504394531
974.0703125 979.721801757812 972.969604492188 978.922607421875 971.41845703125 977.7431640625 981.065002441406 987.066772460938 989.100769042969 980.877197265625 977.4912109375 975.722717285156 963.351501464844 965.511596679688 971.664428710938 975.247192382812 981.264831542969 990.875122070312 993.225952148438 985.594177246094 980.41845703125 980.613098144531 981.342529296875 990.26708984375 994.737976074219 1003.52783203125 1000.15063476562 1002.12762451172 997.96337890625 999.6669921875 1018.05731201172 1025.09484863281 1028.37121582031 1042.91577148438 1044.30615234375 1036.52722167969 1040.50927734375 1042.05200195312 1033.9599609375 1041.55261230469 1041.92590332031 1038.46228027344 1041.59057617188 1033.57800292969 1029.87060546875 1027.08422851562 1019.87982177734 1016.71545410156 1014.80560302734 1007.35491943359 1004.21478271484 1007.51177978516 1011.80151367188 1016.43322753906 1013.90142822266 1013.02490234375 1014.64733886719 1013.44219970703 1019.30841064453 1021.83978271484 1020.21350097656 1023.48046875 1025.82177734375 1027.92724609375 1030.06530761719 1019.96466064453 1020.95501708984 1016.64190673828 1006.9736328125 1005.41906738281 1007.84851074219 1014.00274658203 1019.85516357422 1020.01776123047 1025.56909179688 1021.51379394531 1021.50921630859 1022.49407958984 1012.50146484375 1025.11083984375 1025.59069824219 1032.5576171875 1023.77490234375 1019.22100830078 1023.10858154297 1021.73522949219 1009.98107910156 996.901062011719 991.795471191406 972.360107421875 972.132202148438 970.389831542969 960.984375 967.1337890625 966.777282714844 976.038330078125 973.062377929688 985.541320800781 983.902282714844 979.709838867188 973.948486328125 967.562438964844 978.215698242188 974.220825195312 978.786010742188 979.249694824219 993.925231933594 989.354187011719 995.547790527344 980.428894042969 973.705688476562 966.978454589844 953.320983886719 948.368469238281 929.016174316406 928.001037597656 927.698547363281 926.884765625 929.163696289062 933.189575195312 945.505493164062 959.408203125 970.86767578125 975.952453613281 983.840942382812 983.288391113281 988.973388671875 998.55908203125 1013.82586669922 1040.68359375 1049.90856933594 1055.8984375 1059.80139160156 1074.29565429688 1077.02612304688 1075.16943359375 1073.35925292969 1072.017578125 1081.68505859375 1089.09997558594 1079.58935546875 1085.03784179688 1097.68420410156 1099.55615234375 1113.73779296875 1120.82836914062 1124.55737304688 1136.0478515625 1143.69750976562 1137.41906738281
969.205871582031 972.563232421875 965.94921875 970.328186035156 965.550659179688 973.13134765625 979.364196777344 978.473205566406 978.883544921875 981.471496582031 976.940856933594 962.043151855469 961.937805175781 958.867919921875 964.419799804688 979.049072265625 975.796203613281 984.932189941406 984.54296875 975.019409179688 972.030883789062 975.398376464844 977.4443359375 993.491638183594 1000.59210205078 1003.50579833984 1005.58148193359 1009.52624511719 1001.47314453125 1012.14605712891 1022.48638916016 1028.51416015625 1035.91394042969 1039.37390136719 1041.42102050781 1043.47814941406 1049.33410644531 1036.68664550781 1040.61389160156 1046.75842285156 1029.65490722656 1039.6865234375 1042.31140136719 1037.78369140625 1035.95092773438 1023.10327148438 1014.08953857422 1019.52032470703 1015.09783935547 1003.11688232422 1004.77239990234 1001.29669189453 1007.66882324219 1012.37420654297 1010.02862548828 1006.68151855469 1026.29223632812 1025.17321777344 1017.42932128906 1011.86529541016 1014.14892578125 1026.54577636719 1028.69519042969 1037.09887695312 1028.90026855469 1027.00708007812 1027.28527832031 1017.54248046875 1004.87786865234 1003.19378662109 1009.75360107422 1019.91430664062 1026.21936035156 1011.90142822266 1018.9765625 1016.78216552734 1019.021484375 1009.96551513672 1009.14086914062 1023.32147216797 1019.81085205078 1021.29180908203 1023.37615966797 1016.56402587891 1023.46887207031 1014.2998046875 1001.89501953125 998.469360351562 986.966430664062 980.064819335938 974.219055175781 981.828430175781 974.988403320312 970.852416992188 976.984375 978.520080566406 983.548034667969 985.993591308594 987.535705566406 988.554382324219 985.69140625 979.533386230469 973.539672851562 978.365051269531 980.577453613281 984.530883789062 990.813049316406 989.212158203125 991.342041015625 988.117492675781 972.511108398438 967.721557617188 954.9169921875 941.32763671875 935.187255859375 924.874572753906 930.02685546875 930.923461914062 933.731811523438 941.343078613281 954.505859375 960.928344726562 970.014526367188 976.695495605469 984.064392089844 992.099731445312 988.565490722656 1008.49847412109 1026.93115234375 1041.49353027344 1057.9658203125 1048.96337890625 1058.95617675781 1065.95239257812 1080.83752441406 1068.02795410156 1077.53515625 1075.59326171875 1077.94592285156 1088.70349121094 1086.75183105469 1086.00354003906 1096.40686035156 1098.96301269531 1107.53393554688 1113.50268554688 1121.40710449219 1131.39721679688 1134.47082519531 1123.69494628906
964.182006835938 965.087829589844 973.948425292969 966.958618164062 966.809753417969 969.173156738281 967.060241699219 966.13427734375 972.373474121094 970.411376953125 961.163391113281 958.988952636719 956.911254882812 961.098083496094 961.021179199219 969.435180664062 974.416870117188 982.152038574219 975.502197265625 972.561401367188 972.669555664062 976.784790039062 972.720581054688 972.851013183594 986.529296875 1001.03234863281 1006.78149414062 1005.57830810547 1010.92132568359 1017.55572509766 1022.23419189453 1016.39453125 1031.62109375 1037.67504882812 1042.63073730469 1042.56884765625 1036.14465332031 1041.35363769531 1034.62084960938 1031.55395507812 1035.71533203125 1036.35546875 1044.19921875 1042.51318359375 1038.01550292969 1026.20031738281 1020.55828857422 1021.25714111328 1012.169921875 1005.45574951172 1000.91229248047 999.625427246094 994.677612304688 1004.15533447266 1007.57202148438 1007.90673828125 1018.06427001953 1022.62725830078 1018.95764160156 1019.91064453125 1022.47692871094 1028.89282226562 1032.08703613281 1033.13171386719 1026.96118164062 1019.71697998047 1030.53759765625 1024.96801757812 1013.27282714844 1010.94537353516 1019.87896728516 1024.6611328125 1025.47412109375 1020.69647216797 1014.64904785156 1017.298828125 1016.25061035156 1006.33386230469 1019.39874267578 1019.24078369141 1013.77709960938 1018.97857666016 1019.62530517578 1013.11529541016 1016.60290527344 1014.69085693359 1003.16339111328 996.022277832031 988.921875 993.061340332031 983.005432128906 988.522521972656 990.877990722656 989.083740234375 989.792724609375 995.7490234375 996.115234375 991.608825683594 996.880126953125 993.963256835938 992.876708984375 985.138671875 980.445190429688 986.89208984375 979.604797363281 988.389526367188 988.439086914062 987.136840820312 986.555969238281 980.781311035156 978.950012207031 964.958862304688 946.682861328125 933.10888671875 936.406066894531 931.839660644531 933.688049316406 930.6689453125 931.257507324219 938.720581054688 961.888610839844 965.328979492188 970.481079101562 979.907470703125 980.078979492188 982.168518066406 995.886047363281 1009.13000488281 1026.46533203125 1036.77465820312 1042.10791015625 1055.22473144531 1049.10510253906 1059.24133300781 1064.92163085938 1064.10473632812 1058.38354492188 1071.4306640625 1079.80041503906 1089.70825195312 1089.93676757812 1083.68933105469 1089.40063476562 1091.45324707031 1096.72790527344 1102.34838867188 1118.42297363281 1129.7724609375 1118.16650390625 1116.57177734375
964.623474121094 963.199829101562 956.784362792969 961.453674316406 956.852783203125 963.970642089844 954.696655273438 959.446228027344 960.415405273438 960.710632324219 963.131713867188 958.558898925781 953.420532226562 951.593139648438 955.659057617188 966.440246582031 970.390686035156 966.441223144531 978.860473632812 965.633728027344 968.773376464844 972.134826660156 974.984985351562 973.121704101562 982.873901367188 995.332763671875 1001.67132568359 1007.37750244141 1007.16357421875 1005.66778564453 1010.67559814453 1018.4833984375 1027.95629882812 1028.11462402344 1024.78479003906 1031.18762207031 1030.45336914062 1037.01831054688 1032.09631347656 1031.79113769531 1035.478515625 1030.7734375 1030.43688964844 1033.23608398438 1035.14147949219 1026.4384765625 1014.53002929688 1011.71221923828 1010.99670410156 1006.20233154297 1004.39947509766 1001.35186767578 1001.89318847656 1007.11364746094 1008.21124267578 1011.93316650391 1025.63464355469 1026.19714355469 1030.04711914062 1024.81481933594 1020.55908203125 1027.28784179688 1024.13708496094 1031.044921875 1031.09692382812 1035.41687011719 1018.88562011719 1020.17303466797 1020.60443115234 1016.62097167969 1019.56573486328 1025.26708984375 1025.20654296875 1026.6845703125 1016.95788574219 1007.68920898438 1015.16851806641 1010.74664306641 1024.61450195312 1027.43786621094 1012.82928466797 1009.70385742188 1014.60687255859 1019.69976806641 1016.50164794922 1008.79931640625 1006.53558349609 999.096984863281 992.923217773438 998.043640136719 997.272216796875 1002.40759277344 1010.54730224609 1003.61865234375 1011.33966064453 1011.34210205078 1013.03302001953 999.694702148438 990.88427734375 996.973022460938 999.301330566406 984.955444335938 985.979736328125 986.481384277344 988.948547363281 995.367919921875 997.706665039062 987.336975097656 985.765869140625 979.156433105469 964.936462402344 955.734069824219 954.474243164062 945.473571777344 945.653198242188 941.241271972656 937.763366699219 934.369201660156 940.774597167969 950.128112792969 960.309631347656 961.843383789062 966.730041503906 982.412780761719 985.023864746094 993.979125976562 1006.89288330078 1017.80981445312 1033.20385742188 1038.21154785156 1053.19775390625 1043.05590820312 1056.3203125 1053.63012695312 1051.80615234375 1053.73657226562 1060.7578125 1070.28649902344 1072.43933105469 1088.57946777344 1085.75830078125 1089.01867675781 1095.66821289062 1093.66015625 1092.48156738281 1105.84790039062 1116.50793457031 1120.85339355469 1115.90759277344 1115.06176757812
960.763000488281 963.786499023438 958.457580566406 957.563171386719 949.821533203125 951.440063476562 946.751220703125 954.39892578125 947.141479492188 955.743103027344 960.260986328125 958.325988769531 952.432495117188 950.153442382812 957.187377929688 968.350769042969 970.4990234375 975.231506347656 975.2509765625 973.020751953125 966.046264648438 969.551452636719 971.85107421875 973.439331054688 991.63916015625 993.907470703125 1004.08819580078 1004.38745117188 1002.34838867188 998.14208984375 1008.41705322266 1014.38317871094 1016.67437744141 1015.24285888672 1015.15826416016 1016.64318847656 1022.32067871094 1019.27374267578 1021.78588867188 1020.34729003906 1021.083984375 1025.869140625 1025.95629882812 1021.68408203125 1019.77526855469 1022.18524169922 1021.22253417969 1012.00744628906 1010.83343505859 1005.87298583984 1000.33288574219 1005.97723388672 1004.8720703125 1006.03521728516 1011.22772216797 1008.89666748047 1012.82312011719 1022.23638916016 1025.212890625 1020.93591308594 1022.619140625 1021.47271728516 1021.18664550781 1029.81091308594 1029.19555664062 1036.01293945312 1033.57470703125 1030.84643554688 1033.69885253906 1033.96911621094 1018.13043212891 1023.28161621094 1023.60595703125 1021.75866699219 1015.67083740234 1018.95251464844 1025.21020507812 1013.92529296875 1015.90362548828 1021.75500488281 1016.84887695312 1003.05633544922 1006.59802246094 1012.57061767578 1016.61853027344 1015.42919921875 1014.84313964844 1002.68402099609 1001.19128417969 1005.51055908203 1010.90454101562 1006.94250488281 1014.75915527344 1011.99523925781 1018.96160888672 1021.17700195312 1015.25286865234 1002.72979736328 993.741577148438 1001.89532470703 995.993041992188 996.177062988281 996.722595214844 995.162109375 996.599548339844 1002.7919921875 998.595031738281 997.061584472656 978.6669921875 978.444702148438 971.0390625 967.187255859375 959.951416015625 952.105224609375 944.696594238281 939.243530273438 939.029113769531 938.906127929688 950.97705078125 957.904724121094 973.077941894531 977.514587402344 974.239624023438 995.563537597656 1000.04681396484 1009.44177246094 1016.73858642578 1023.03088378906 1035.30712890625 1041.01708984375 1047.70385742188 1057.03332519531 1053.73669433594 1055.79406738281 1047.26403808594 1047.95678710938 1051.02587890625 1063.46105957031 1072.33032226562 1083.29028320312 1085.76818847656 1081.70434570312 1089.87866210938 1090.47644042969 1096.53051757812 1098.89770507812 1112.71728515625 1114.77612304688 1114.333984375 1107.88745117188
964.111938476562 955.101379394531 954.404235839844 956.415405273438 948.72412109375 952.428649902344 953.956176757812 957.94677734375 953.461547851562 963.7177734375 962.314147949219 959.774536132812 947.943237304688 951.616882324219 960.219299316406 962.76708984375 963.762634277344 968.234313964844 982.308715820312 980.174865722656 970.5693359375 961.527893066406 979.44140625 990.823669433594 994.80419921875 1001.06964111328 1001.10388183594 1010.5849609375 1005.19396972656 996.123474121094 1007.38494873047 1012.11059570312 1011.57244873047 1013.92657470703 1020.62457275391 1016.18829345703 1018.22998046875 1017.13262939453 1021.71051025391 1018.02294921875 1012.76141357422 1017.89184570312 1017.677734375 1019.86236572266 1017.72009277344 1024.02197265625 1016.88439941406 1008.06799316406 1006.57409667969 999.592590332031 1009.01489257812 1004.47351074219 1009.87261962891 997.449035644531 1000.25030517578 999.839050292969 1004.65460205078 1014.86810302734 1020.41070556641 1020.54858398438 1020.20275878906 1018.28546142578 1022.07470703125 1030.80029296875 1028.80053710938 1031.03308105469 1033.39306640625 1035.43371582031 1029.49145507812 1018.80987548828 1016.70837402344 1021.66790771484 1021.83923339844 1017.01281738281 1014.92199707031 1014.73126220703 1015.93695068359 1007.85955810547 1006.6669921875 1014.01892089844 1003.55450439453 995.680053710938 999.314270019531 1006.72735595703 1011.15838623047 1012.17895507812 1012.03991699219 1017.51525878906 1018.50177001953 1009.13391113281 1011.90148925781 1023.15155029297 1025.21862792969 1019.14379882812 1022.86755371094 1029.53491210938 1028.07592773438 1006.51959228516 1005.42535400391 1002.00250244141 999.281005859375 999.927307128906 1004.18865966797 1012.59704589844 1003.98400878906 1005.94927978516 1006.04675292969 1004.43218994141 994.404541015625 977.526428222656 968.3349609375 976.827392578125 972.477416992188 949.122436523438 945.381958007812 945.305786132812 936.609497070312 944.369506835938 953.746948242188 970.097900390625 979.465148925781 984.962219238281 992.098754882812 1010.02618408203 1018.06359863281 1023.00524902344 1024.41821289062 1030.62316894531 1034.40258789062 1033.52221679688 1045.25695800781 1049.10852050781 1056.83435058594 1059.30004882812 1053.56555175781 1049.7236328125 1048.12561035156 1066.34350585938 1072.97192382812 1080.95874023438 1079.69030761719 1075.13708496094 1088.65637207031 1092.53930664062 1097.84375 1096.82482910156 1101.53369140625 1104.087890625 1108.19360351562 1103.17492675781
962.706420898438 954.118896484375 947.048706054688 947.440002441406 949.696228027344 947.187927246094 947.401123046875 953.643737792969 953.029724121094 954.515441894531 960.037536621094 956.215026855469 952.181274414062 954.468505859375 952.113342285156 957.132629394531 961.070190429688 967.242614746094 974.797668457031 976.290283203125 976.806396484375 972.758605957031 978.872863769531 984.374145507812 988.654357910156 988.286254882812 989.500305175781 1013.62774658203 1009.35974121094 1000.99200439453 1007.53631591797 1005.72241210938 1006.47052001953 1012.93286132812 1008.62976074219 1019.93054199219 1014.17901611328 1023.59112548828 1013.69805908203 1013.47717285156 1016.00579833984 1011.74621582031 1012.07385253906 1004.27709960938 1013.88073730469 1009.67163085938 1012.0478515625 1019.13269042969 1009.42974853516 1010.07556152344 1003.74340820312 1000.99072265625 1003.76959228516 996.609375 998.219970703125 997.552795410156 1002.34942626953 1013.98852539062 1011.88403320312 1014.14489746094 1011.17706298828 1010.86096191406 1019.15240478516 1023.69421386719 1023.3447265625 1022.56091308594 1021.76104736328 1026.41943359375 1017.81805419922 1015.21636962891 1016.09729003906 1017.02496337891 1015.10626220703 1017.56506347656 1009.28247070312 1008.85217285156 1005.07897949219 1006.40991210938 1004.36010742188 998.672302246094 996.142944335938 1001.28704833984 1003.68927001953 1007.99127197266 1012.98846435547 1007.19396972656 1015.77423095703 1008.23876953125 1011.48504638672 1005.54284667969 1018.5263671875 1022.96301269531 1025.14184570312 1022.91442871094 1021.44921875 1019.12677001953 1017.94024658203 1016.58654785156 1011.53088378906 1009.98992919922 1001.11755371094 1001.63403320312 1000.87921142578 1005.59741210938 1011.76220703125 1017.29132080078 1017.59875488281 1004.373046875 996.175598144531 978.366027832031 966.721862792969 966.9248046875 961.600402832031 958.413818359375 952.775146484375 949.794677734375 948.005859375 953.972900390625 961.994262695312 977.669738769531 994.326049804688 990.473693847656 998.302673339844 1016.03607177734 1024.78588867188 1026.32788085938 1032.2138671875 1034.34033203125 1035.1044921875 1038.70202636719 1040.32080078125 1052.68591308594 1050.80261230469 1049.23120117188 1055.82482910156 1052.47119140625 1050.47973632812 1060.55078125 1058.6943359375 1070.50134277344 1075.5439453125 1073.71752929688 1083.82897949219 1093.89514160156 1089.38293457031 1094.03942871094 1104.56628417969 1107.58361816406 1099.12023925781 1097.85412597656
958.773254394531 949.347778320312 944.165466308594 947.445617675781 949.077087402344 945.866027832031 941.138244628906 949.870361328125 944.59375 956.183471679688 955.365905761719 961.002868652344 956.3876953125 956.006286621094 956.456298828125 961.858703613281 963.525390625 967.794677734375 971.581420898438 967.782897949219 981.302734375 982.918884277344 979.329040527344 981.869445800781 983.782348632812 983.745666503906 990.747619628906 1008.21276855469 1006.41516113281 1003.70874023438 999.035827636719 1010.77587890625 1011.24108886719 1010.88696289062 1007.76452636719 1009.01116943359 1010.06329345703 1004.33258056641 1005.65594482422 1009.34649658203 1007.80432128906 1012.99700927734 1009.65759277344 1000.26428222656 1009.10650634766 1004.36932373047 998.394287109375 1001.916015625 1004.41625976562 993.787170410156 997.099914550781 992.599304199219 992.120727539062 1000.92376708984 1004.95770263672 1000.52661132812 1006.79724121094 1013.22204589844 1016.33935546875 1012.310546875 1002.78002929688 1007.46429443359 1010.69128417969 1014.92950439453 1017.26995849609 1007.67889404297 1017.01214599609 1018.57263183594 1015.65106201172 1009.72662353516 1008.85510253906 1010.88940429688 1006.60363769531 1009.29473876953 1013.04595947266 1010.38073730469 997.957275390625 1002.35089111328 1004.53942871094 988.789184570312 996.569213867188 1005.53314208984 1008.24078369141 1000.35650634766 1001.98883056641 1013.74682617188 1013.98883056641 1019.85455322266 1013.4580078125 1021.30310058594 1013.46966552734 1022.52093505859 1021.54223632812 1017.55706787109 1013.87915039062 1009.68341064453 1015.16754150391 1020.53717041016 1010.70983886719 1009.26458740234 1007.55255126953 1000.05322265625 1001.13110351562 1002.37316894531 1010.51477050781 1013.03106689453 1012.7578125 1000.70092773438 1000.37139892578 985.092834472656 969.939147949219 961.361389160156 957.080871582031 957.792785644531 944.013305664062 946.529418945312 955.051818847656 961.938537597656 969.293640136719 991.479675292969 1006.3056640625 1007.55462646484 1003.8955078125 1018.12310791016 1019.72418212891 1025.86572265625 1034.15808105469 1031.28735351562 1047.12329101562 1046.28283691406 1044.380859375 1047.59326171875 1044.7275390625 1051.05590820312 1047.67541503906 1050.12609863281 1047.19763183594 1052.5146484375 1054.43530273438 1068.34045410156 1067.69665527344 1071.94775390625 1071.97998046875 1081.98767089844 1076.92309570312 1081.78649902344 1098.06567382812 1101.55395507812 1108.31103515625 1097.20422363281
950.960815429688 940.815063476562 944.561340332031 942.628601074219 945.222961425781 950.366943359375 954.007629394531 952.5595703125 948.120544433594 957.700744628906 958.958129882812 960.741577148438 962.59033203125 960.210266113281 960.749694824219 966.777038574219 969.051696777344 977.171020507812 982.240783691406 980.915344238281 982.696350097656 982.944091796875 985.84130859375 993.216979980469 986.069946289062 990.759033203125 996.165466308594 1003.42694091797 1005.69464111328 991.086303710938 992.803894042969 993.309448242188 995.623779296875 993.337585449219 1004.84869384766 1006.03430175781 1003.01739501953 998.12548828125 1002.48455810547 1010.23754882812 1003.1572265625 1002.36071777344 1007.34008789062 993.21533203125 994.123962402344 995.043151855469 992.46044921875 1003.55126953125 992.18798828125 992.433166503906 993.541137695312 987.985412597656 983.831359863281 990.713562011719 1001.19250488281 998.002563476562 1003.94561767578 1007.91320800781 1014.22979736328 1009.81970214844 1008.98400878906 1004.95391845703 1012.44268798828 1014.99157714844 1017.00073242188 1009.64080810547 1015.35510253906 1012.07977294922 1012.1181640625 1012.20941162109 1008.13159179688 1009.5859375 998.583374023438 1005.80969238281 1010.46282958984 1008.30999755859 1002.19421386719 1001.74304199219 1004.56787109375 992.17822265625 988.0234375 997.035827636719 1003.30914306641 1000.3447265625 997.520324707031 1006.08642578125 1017.97045898438 1012.01745605469 1012.88787841797 1015.99371337891 1018.9580078125 1022.06652832031 1024.10998535156 1018.14898681641 1021.08648681641 1019.2041015625 1014.25189208984 1013.55389404297 1007.43243408203 1011.56555175781 1014.49383544922 1006.23962402344 993.25634765625 1000.31945800781 1005.29852294922 1006.54827880859 1008.89569091797 996.505554199219 990.772644042969 982.956909179688 974.662414550781 962.925598144531 951.876159667969 952.651794433594 945.727783203125 943.745666503906 949.8603515625 969.682006835938 979.047180175781 990.541137695312 1002.54571533203 1005.84710693359 1010.57696533203 1016.5439453125 1020.42651367188 1031.10034179688 1036.09033203125 1041.64331054688 1044.71618652344 1044.32775878906 1039.18676757812 1040.36975097656 1044.86706542969 1045.96557617188 1045.49389648438 1046.12878417969 1049.16931152344 1057.68615722656 1059.89831542969 1058.39904785156 1061.95153808594 1058.95678710938 1065.84289550781 1075.59509277344 1076.8720703125 1084.17956542969 1095.99194335938 1103.3603515625 1103.10217285156 1095.86047363281
951.401245117188 950.57861328125 944.979187011719 950.859191894531 947.446655273438 951.588623046875 956.508911132812 959.827331542969 952.292053222656 967.806701660156 962.388366699219 966.309020996094 975.988159179688 973.978088378906 971.171142578125 970.518371582031 967.10205078125 973.586181640625 975.826599121094 980.196899414062 978.115905761719 984.435668945312 985.47509765625 992.023498535156 997.10791015625 1000.01293945312 1000.24664306641 998.808532714844 990.912353515625 983.548461914062 995.550720214844 995.849304199219 996.419067382812 996.986511230469 992.693237304688 1000.25689697266 1000.69580078125 992.776000976562 997.924072265625 999.097106933594 997.328918457031 1002.45892333984 996.963317871094 998.827209472656 986.331848144531 994.211120605469 994.95068359375 994.154663085938 1000.27374267578 984.165161132812 986.461242675781 980.516296386719 984.528991699219 988.770751953125 990.983764648438 1003.83032226562 998.139465332031 995.385681152344 1006.71563720703 1018.3994140625 1015.68426513672 1016.71209716797 1010.55407714844 1010.32556152344 1011.02178955078 1017.12615966797 1009.82025146484 1008.13165283203 1002.52679443359 1005.63238525391 1001.77374267578 1007.72717285156 998.560485839844 1011.59918212891 996.824279785156 1004.89611816406 995.580139160156 987.552856445312 993.27294921875 978.924499511719 986.086486816406 990.416748046875 991.716674804688 992.332702636719 999.552429199219 1004.43951416016 1001.90368652344 1006.45227050781 1004.85382080078 1021.10650634766 1024.92651367188 1034.80822753906 1025.99157714844 1030.11071777344 1023.91925048828 1018.63903808594 1010.25903320312 1003.04272460938 1004.53515625 1006.60882568359 1020.95794677734 1010.88671875 1007.86810302734 1010.80432128906 1000.90747070312 1006.51141357422 1006.48791503906 999.131225585938 987.429931640625 978.383911132812 972.086059570312 952.889099121094 942.067504882812 948.270690917969 936.6064453125 952.580871582031 958.279418945312 964.328247070312 977.152038574219 987.26513671875 994.505310058594 1006.40710449219 1012.83056640625 1021.86157226562 1030.11889648438 1035.08349609375 1034.74572753906 1040.61767578125 1047.1748046875 1036.55432128906 1035.93798828125 1041.16467285156 1034.01794433594 1038.15905761719 1039.68530273438 1039.77624511719 1047.21215820312 1053.4404296875 1052.19934082031 1059.02429199219 1056.82556152344 1058.67932128906 1060.22497558594 1071.2998046875 1073.5771484375 1079.92309570312 1095.42016601562 1084.53930664062 1092.87463378906 1089.55236816406
950.85595703125 950.834594726562 942.873352050781 953.341186523438 949.232788085938 959.701538085938 956.912902832031 957.846008300781 964.6689453125 971.267211914062 971.192443847656 973.093933105469 975.525146484375 978.853332519531 983.836486816406 968.9833984375 971.099548339844 973.457214355469 978.769165039062 977.013061523438 976.713012695312 982.603332519531 983.808288574219 989.754211425781 998.134155273438 999.572021484375 986.22021484375 989.883972167969 985.0712890625 991.540649414062 993.447937011719 996.706665039062 991.310791015625 993.718078613281 995.401000976562 992.649597167969 996.305358886719 1000.79553222656 1001.29956054688 997.098815917969 1004.3662109375 1015.98956298828 1005.87274169922 997.365112304688 993.315612792969 996.977111816406 995.767761230469 999.557434082031 999.497741699219 992.723022460938 985.109619140625 981.45068359375 984.357788085938 987.1787109375 989.584594726562 997.037658691406 991.550231933594 993.846130371094 1005.09344482422 1013.03167724609 1015.92913818359 1012.15924072266 1005.90795898438 1003.65686035156 1000.13598632812 1004.06909179688 1004.73571777344 999.887817382812 1002.38500976562 999.572082519531 1002.55395507812 1007.89343261719 1003.51214599609 1006.80230712891 990.922241210938 1000.45391845703 993.73291015625 987.237548828125 988.707153320312 987.237548828125 992.197448730469 984.974182128906 984.901733398438 998.3896484375 1001.50573730469 1007.45373535156 1002.23529052734 1007.04968261719 1007.34600830078 1022.41613769531 1027.99841308594 1023.65704345703 1023.03625488281 1033.109375 1030.47009277344 1014.87335205078 1011.31359863281 1001.80895996094 1004.79351806641 1008.46441650391 1013.21124267578 1013.79479980469 1007.56524658203 1016.93615722656 1011.84552001953 1007.26647949219 1007.62347412109 999.766235351562 994.014343261719 976.296508789062 965.15478515625 953.727783203125 951.175720214844 940.952087402344 938.883605957031 949.942810058594 959.621643066406 966.52001953125 979.679077148438 998.402954101562 995.41796875 1009.90045166016 1025.28344726562 1027.94250488281 1029.4287109375 1036.00537109375 1040.55358886719 1042.81677246094 1046.94604492188 1038.52160644531 1039.76171875 1039.47985839844 1040.00622558594 1029.98254394531 1034.24877929688 1033.12658691406 1040.30578613281 1042.60375976562 1057.52014160156 1059.90893554688 1068.74304199219 1069.0087890625 1062.79040527344 1068.77160644531 1079.76062011719 1078.04235839844 1085.49682617188 1087.57104492188 1084.06225585938 1084.0009765625
950.461853027344 950.927551269531 951.948974609375 957.28564453125 953.762451171875 957.089538574219 958.717590332031 967.559265136719 968.41015625 972.46728515625 976.778686523438 974.255432128906 983.272583007812 970.459838867188 984.702331542969 972.611022949219 968.83154296875 972.354064941406 981.229309082031 977.315002441406 986.881713867188 982.654663085938 982.862731933594 984.533935546875 995.793151855469 989.394226074219 985.710571289062 986.527099609375 990.960876464844 988.696166992188 991.810729980469 996.808837890625 993.705444335938 995.815124511719 994.618041992188 992.764953613281 995.761352539062 996.973022460938 999.5615234375 986.168762207031 1003.61553955078 1008.1162109375 1002.93121337891 1001.66082763672 1004.26739501953 1003.10992431641 1001.9287109375 1002.09045410156 997.650939941406 989.116333007812 984.581787109375 985.321105957031 982.624572753906 983.496887207031 997.700744628906 990.533630371094 987.636108398438 987.796630859375 992.940856933594 1003.85260009766 1009.45764160156 1003.41687011719 994.430969238281 993.181396484375 994.946472167969 997.743591308594 994.668395996094 998.2919921875 998.353393554688 1000.98992919922 997.267456054688 1001.72021484375 1007.29919433594 1000.43328857422 997.546447753906 994.12109375 985.124877929688 989.378234863281 990.447998046875 992.2841796875 993.6240234375 994.172058105469 995.131408691406 1006.08044433594 1003.84136962891 1007.41320800781 1009.34143066406 999.627258300781 1014.57727050781 1021.61926269531 1023.04833984375 1017.99102783203 1022.97247314453 1019.06622314453 1017.90783691406 1013.65515136719 1015.82073974609 1010.17163085938 1008.44958496094 1011.80993652344 1017.93884277344 1014.68646240234 1014.94482421875 1013.1826171875 1010.62615966797 1004.48370361328 1001.16961669922 1001.71429443359 991.381408691406 976.113403320312 959.839233398438 950.720397949219 938.263854980469 940.662048339844 939.323486328125 947.897827148438 960.023498535156 974.298522949219 977.326049804688 988.000854492188 999.397338867188 1013.53948974609 1022.43951416016 1026.76159667969 1036.26745605469 1042.05383300781 1036.30932617188 1042.50732421875 1034.12951660156 1038.29870605469 1041.25354003906 1045.18603515625 1037.22094726562 1029.16003417969 1033.94592285156 1038.92358398438 1038.20007324219 1047.13488769531 1057.26489257812 1062.83581542969 1072.92065429688 1064.85888671875 1063.51220703125 1066.31372070312 1073.93798828125 1078.01892089844 1082.23156738281 1082.11682128906 1084.64184570312 1086.65283203125
963.043701171875 963.658996582031 957.191040039062 955.317565917969 950.663635253906 953.28955078125 959.572387695312 961.867980957031 970.457458496094 975.446960449219 973.382080078125 970.732849121094 981.405090332031 982.043640136719 973.072875976562 971.92431640625 972.308837890625 976.671691894531 976.935729980469 985.324096679688 991.831176757812 980.774230957031 984.515258789062 988.663879394531 994.610656738281 997.498229980469 991.252197265625 993.767639160156 983.125427246094 976.819519042969 989.68701171875 993.916564941406 997.580017089844 1000.23492431641 993.773071289062 993.189880371094 993.182861328125 989.177612304688 991.650146484375 995.556091308594 992.816955566406 991.236328125 993.391418457031 988.440185546875 998.318725585938 1002.46185302734 990.786560058594 984.946533203125 989.999938964844 988.927062988281 981.793518066406 987.326965332031 989.322082519531 982.627746582031 985.08056640625 985.539916992188 982.028076171875 981.846923828125 986.197937011719 989.882934570312 997.434936523438 995.434204101562 987.728515625 989.625183105469 994.106201171875 995.983581542969 1008.87023925781 1005.0849609375 1001.30773925781 996.597473144531 998.403747558594 999.583618164062 1000.47027587891 991.828857421875 992.976745605469 989.394470214844 984.649841308594 987.130249023438 993.796325683594 997.212707519531 995.907592773438 998.5146484375 998.155517578125 1009.73059082031 1010.39868164062 1010.66717529297 1007.80322265625 1005.95098876953 1012.78356933594 1017.94848632812 1012.21936035156 1018.02380371094 1019.91491699219 1019.00073242188 1020.03668212891 1011.1884765625 1011.56994628906 1007.31372070312 1007.00872802734 1011.33581542969 1018.46185302734 1019.08721923828 1010.60095214844 1013.62213134766 1006.27593994141 1005.02001953125 1003.57250976562 998.015441894531 986.313049316406 979.043823242188 960.677429199219 956.046020507812 947.975769042969 942.54443359375 945.906005859375 953.883911132812 963.84423828125 980.052124023438 979.599243164062 989.531677246094 1001.66430664062 1006.18884277344 1016.75177001953 1025.34289550781 1025.53344726562 1029.86950683594 1032.46118164062 1030.06408691406 1026.85632324219 1033.46337890625 1030.69201660156 1035.06640625 1031.18542480469 1030.43762207031 1036.58569335938 1034.62658691406 1030.01843261719 1037.82836914062 1050.26501464844 1062.39733886719 1058.77355957031 1060.8603515625 1056.12768554688 1066.64758300781 1075.97082519531 1077.314453125 1074.49975585938 1075.99951171875 1082.51867675781 1090.02282714844
970.893371582031 966.559509277344 966.9970703125 959.3212890625 962.085571289062 956.485595703125 958.472595214844 970.435241699219 970.958679199219 970.773681640625 975.83349609375 979.975952148438 977.431518554688 978.415344238281 980.133361816406 975.633728027344 976.584228515625 971.867736816406 983.103149414062 991.041870117188 990.35302734375 979.657531738281 981.637268066406 989.083068847656 990.256713867188 988.316467285156 980.391296386719 977.065734863281 977.75341796875 978.694641113281 989.76025390625 978.066711425781 991.318115234375 1001.80053710938 999.53466796875 989.5009765625 991.945617675781 989.92822265625 996.515563964844 992.477722167969 991.711059570312 991.047607421875 986.919311523438 991.476745605469 989.390625 992.865539550781 995.356323242188 977.6806640625 985.302734375 983.372985839844 977.998229980469 982.794799804688 984.85546875 976.360656738281 983.8828125 980.85498046875 985.591552734375 990.224487304688 990.426391601562 987.132934570312 987.720336914062 988.549621582031 997.660766601562 997.322937011719 994.329345703125 994.157958984375 992.808044433594 997.769714355469 996.365173339844 996.657287597656 996.254028320312 991.793579101562 995.879516601562 987.585632324219 987.940673828125 986.369506835938 984.9521484375 986.314392089844 992.924194335938 998.467346191406 1000.15667724609 1007.70147705078 1006.11853027344 1014.568359375 1012.08135986328 1013.17767333984 1011.12811279297 1018.88763427734 1009.91693115234 1010.81335449219 1011.34503173828 1010.09527587891 1011.42596435547 1015.77276611328 1022.95007324219 1020.17395019531 1003.00689697266 1006.14392089844 1007.37609863281 1015.41485595703 1020.40264892578 1015.66156005859 1015.08795166016 1000.47497558594 1005.05072021484 1002.58587646484 1003.73236083984 998.77490234375 991.225769042969 974.428466796875 961.419677734375 957.37939453125 947.637023925781 944.434020996094 946.094482421875 956.6494140625 969.667907714844 979.388488769531 988.127075195312 996.039978027344 1007.08489990234 1010.95739746094 1015.8037109375 1021.39587402344 1020.42993164062 1021.87915039062 1021.85186767578 1021.67352294922 1030.62902832031 1029.22485351562 1031.09191894531 1030.630859375 1021.22338867188 1026.89685058594 1024.66125488281 1032.345703125 1032.70263671875 1041.54187011719 1038.75854492188 1047.57836914062 1059.05688476562 1058.93762207031 1063.50183105469 1077.16918945312 1078.81164550781 1081.44836425781 1086.00805664062 1087.66455078125 1089.14587402344 1082.9423828125
978.005493164062 971.457153320312 968.727416992188 969.529174804688 969.277954101562 966.568115234375 966.465759277344 968.389526367188 975.477722167969 977.731262207031 981.908447265625 987.344360351562 985.095764160156 980.448120117188 981.634399414062 972.975402832031 974.697326660156 984.320556640625 985.4921875 983.875915527344 993.595886230469 986.862182617188 990.510559082031 982.180114746094 993.174926757812 993.236572265625 978.004333496094 986.654052734375 980.919067382812 982.613220214844 973.8544921875 976.469055175781 982.957702636719 989.391540527344 982.828002929688 981.256042480469 986.181274414062 989.845703125 986.657409667969 981.384460449219 974.802490234375 982.468933105469 985.340270996094 985.878479003906 988.125183105469 988.524536132812 988.760681152344 986.338500976562 982.123107910156 983.523010253906 975.930297851562 987.357727050781 978.542663574219 974.317687988281 972.347778320312 974.316040039062 978.583312988281 981.877502441406 981.982543945312 985.621459960938 986.695129394531 992.675842285156 989.402648925781 991.462097167969 988.101501464844 988.07275390625 984.18212890625 991.397277832031 996.592712402344 998.505249023438 992.160400390625 988.190063476562 982.6220703125 989.052307128906 989.649963378906 990.229614257812 988.689880371094 993.820251464844 985.587280273438 992.55517578125 1002.13494873047 1008.71319580078 1016.31115722656 1009.95642089844 1008.97772216797 1015.10900878906 1017.49963378906 1009.47595214844 1000.72607421875 1004.22094726562 1012.01892089844 1017.26617431641 1014.62615966797 1007.96667480469 1020.05261230469 1021.05792236328 1019.54730224609 1025.30004882812 1012.60522460938 1006.48492431641 1014.65283203125 1024.26892089844 1014.27612304688 1000.36724853516 995.932312011719 996.946533203125 999.966369628906 994.361633300781 993.098510742188 987.569274902344 969.099426269531 955.519409179688 952.670288085938 950.778503417969 946.542663574219 960.2197265625 969.575927734375 985.767517089844 987.923461914062 996.021423339844 1010.83715820312 1013.55133056641 1016.86859130859 1020.03631591797 1019.58551025391 1018.05023193359 1028.53173828125 1026.60461425781 1028.47717285156 1028.11938476562 1035.8642578125 1032.26977539062 1021.42053222656 1023.05316162109 1036.19653320312 1035.03271484375 1039.96606445312 1035.65209960938 1043.77075195312 1041.25891113281 1056.16687011719 1064.75183105469 1072.26403808594 1071.69226074219 1086.24597167969 1084.69287109375 1077.9111328125 1091.22924804688 1092.15124511719 1095.39868164062
970.987060546875 970.028259277344 965.617858886719 966.726135253906 969.276123046875 970.838317871094 981.384155273438 968.784240722656 967.250732421875 969.233947753906 972.386657714844 981.635009765625 980.834045410156 965.324462890625 971.242004394531 979.218383789062 978.112243652344 984.932067871094 988.324584960938 984.382446289062 989.579711914062 989.263732910156 985.651000976562 988.218872070312 987.660461425781 985.788391113281 975.88623046875 979.623291015625 975.055358886719 988.717834472656 985.550476074219 992.303894042969 982.548889160156 981.645935058594 983.234619140625 983.249938964844 985.130310058594 982.62890625 982.76171875 984.80322265625 986.040588378906 980.673400878906 983.869934082031 991.604675292969 986.007751464844 986.381408691406 980.994079589844 991.984924316406 989.212219238281 978.16650390625 975.186889648438 977.352905273438 975.492370605469 971.33203125 967.656066894531 968.28125 977.5869140625 975.168640136719 971.158386230469 978.040771484375 978.501770019531 986.630310058594 981.702453613281 991.58154296875 981.912536621094 987.730834960938 984.216979980469 985.671630859375 993.2158203125 995.019897460938 983.12744140625 981.941162109375 981.426330566406 985.5556640625 985.509826660156 988.963317871094 993.684509277344 985.717224121094 990.804138183594 988.126281738281 997.228149414062 1001.8349609375 1009.5810546875 1006.13909912109 1005.74743652344 1002.99780273438 1001.46685791016 1002.86938476562 1015.22326660156 1012.88824462891 1004.68005371094 1011.63995361328 1009.62475585938 1011.20062255859 1012.97833251953 1018.72827148438 1020.83746337891 1020.81274414062 1021.91595458984 1007.96948242188 1008.80548095703 1016.66955566406 1013.55999755859 1001.86584472656 991.460144042969 994.703796386719 999.411743164062 996.421081542969 991.059509277344 987.580871582031 968.280578613281 956.60595703125 952.80224609375 950.587585449219 945.95361328125 957.513916015625 966.092895507812 983.589904785156 983.203430175781 997.299560546875 1000.01635742188 1011.30108642578 1010.16137695312 1018.00506591797 1015.70172119141 1011.9423828125 1022.64056396484 1017.66815185547 1018.88098144531 1023.65362548828 1027.06616210938 1020.27191162109 1014.48010253906 1010.09808349609 1022.87646484375 1028.95520019531 1024.21215820312 1027.36267089844 1039.35522460938 1039.3583984375 1057.830078125 1074.33227539062 1075.44689941406 1072.01770019531 1082.94189453125 1084.76257324219 1084.14562988281 1088.3603515625 1091.00988769531 1093.15368652344
970.241577148438 971.212036132812 964.045593261719 958.935302734375 967.5869140625 967.702209472656 973.418579101562 975.223937988281 972.932189941406 971.697143554688 965.904846191406 980.309997558594 982.212341308594 976.151062011719 977.974426269531 982.488342285156 992.277038574219 990.046020507812 985.936218261719 980.309204101562 984.213012695312 982.15283203125 988.576782226562 982.129272460938 983.91259765625 978.124267578125 970.640319824219 972.64306640625 980.547546386719 981.142883300781 984.620239257812 984.298522949219 988.504272460938 983.237548828125 988.759155273438 985.789184570312 985.189819335938 989.69287109375 987.72216796875 987.161071777344 977.945129394531 982.248779296875 985.730346679688 989.533447265625 995.870666503906 997.733032226562 993.852355957031 986.327453613281 981.152648925781 982.930847167969 982.391296386719 978.2578125 972.528442382812 971.087280273438 966.816040039062 965.318664550781 973.399230957031 973.656005859375 979.40087890625 975.671691894531 971.898681640625 979.510986328125 983.627685546875 975.324157714844 977.5712890625 991.541564941406 977.339721679688 981.322998046875 982.296264648438 991.083862304688 982.223937988281 977.358642578125 975.40478515625 972.053100585938 981.361083984375 986.325439453125 983.481994628906 979.487548828125 988.973205566406 982.709533691406 989.00390625 991.080932617188 1003.24169921875 1000.47827148438 1002.24530029297 994.316101074219 993.914855957031 1005.11047363281 1010.23236083984 1013.93634033203 1010.16137695312 1011.40447998047 1009.61547851562 1010.21441650391 1003.83074951172 1003.28540039062 1012.76080322266 1013.82067871094 1016.15997314453 1003.12823486328 1001.42926025391 1015.06689453125 1006.08660888672 1002.61004638672 990.127258300781 988.4130859375 990.778442382812 994.556762695312 992.202392578125 986.59033203125 972.838806152344 962.055480957031 957.923156738281 953.894348144531 953.604919433594 962.427490234375 973.185852050781 977.432373046875 986.107604980469 995.365478515625 1005.91021728516 1018.67028808594 1021.39849853516 1020.60388183594 1018.20660400391 1018.13439941406 1025.90051269531 1033.20190429688 1016.01275634766 1016.03009033203 1013.64617919922 1018.62176513672 1002.56829833984 1010.09320068359 1018.06585693359 1018.39483642578 1019.11236572266 1026.77014160156 1038.19873046875 1056.60437011719 1064.61767578125 1071.84045410156 1077.935546875 1083.5703125 1090.19921875 1091.42846679688 1091.59777832031 1090.423828125 1097.57397460938 1096.62951660156
951.353271484375 958.00732421875 955.495178222656 962.766906738281 962.184997558594 968.214172363281 968.398132324219 977.843566894531 976.40625 977.185668945312 968.121398925781 973.746215820312 969.866821289062 974.978576660156 976.941223144531 977.316711425781 976.992553710938 982.572387695312 978.467529296875 981.603759765625 973.37841796875 982.624633789062 978.481811523438 975.15771484375 973.547607421875 984.790649414062 980.006774902344 982.279602050781 979.388488769531 985.14990234375 987.877502441406 990.855407714844 994.093444824219 994.785888671875 995.784362792969 987.707458496094 987.798034667969 987.91162109375 986.194763183594 982.239013671875 975.153137207031 978.615234375 994.573974609375 990.022583007812 984.600280761719 986.760009765625 986.37353515625 971.87158203125 977.430541992188 978.048706054688 973.559753417969 977.398803710938 976.654418945312 968.886108398438 964.905395507812 969.130249023438 969.232971191406 978.812072753906 977.899353027344 973.739624023438 973.242553710938 976.374206542969 975.642272949219 984.217224121094 983.136352539062 982.066833496094 980.237182617188 978.786376953125 983.721801757812 982.640441894531 981.034423828125 973.366455078125 971.72314453125 968.451110839844 982.489318847656 981.232482910156 974.482727050781 980.943237304688 987.841979980469 984.896789550781 988.143920898438 995.649291992188 996.906677246094 996.02490234375 1005.91729736328 1010.21246337891 1000.67321777344 1001.33117675781 1004.65057373047 1002.68713378906 997.684753417969 1003.74969482422 1002.83068847656 997.617614746094 994.020690917969 1006.42468261719 1007.32025146484 1010.45172119141 1010.55267333984 997.10400390625 995.460693359375 992.098999023438 994.88232421875 993.522216796875 998.981079101562 995.757568359375 992.84765625 993.062316894531 987.812438964844 986.707397460938 978.767883300781 961.585266113281 961.975830078125 966.654602050781 966.138000488281 967.684204101562 974.600646972656 974.387634277344 972.581909179688 993.931518554688 1011.4326171875 1012.88922119141 1014.46435546875 1028.28955078125 1024.87817382812 1023.27081298828 1026.75024414062 1024.73352050781 1021.23107910156 1016.81781005859 1015.64093017578 1010.72698974609 1011.89776611328 1006.39996337891 1020.08514404297 1018.775390625 1022.98278808594 1032.98046875 1036.69763183594 1049.28491210938 1059.59631347656 1069.06164550781 1071.81518554688 1086.33044433594 1086.59875488281 1085.66870117188 1090.01196289062 1091.57104492188 1103.21728515625 1107.37109375
947.448486328125 961.23828125 956.65625 963.130249023438 970.8720703125 974.369506835938 972.453430175781 968.266662597656 978.940307617188 982.375427246094 976.81494140625 976.169860839844 966.535888671875 974.370361328125 977.111145019531 972.970947265625 971.312622070312 972.496887207031 971.834167480469 979.380554199219 975.166625976562 985.984375 975.735046386719 985.820251464844 981.710144042969 982.611633300781 987.252197265625 975.740356445312 983.873168945312 992.395446777344 993.035827636719 990.556030273438 998.357238769531 993.53076171875 998.392333984375 988.396362304688 991.288330078125 984.317993164062 979.70361328125 981.188903808594 970.462219238281 977.66845703125 985.002136230469 988.546264648438 983.570983886719 982.796081542969 980.472595214844 979.944580078125 975.520568847656 974.105407714844 985.606689453125 979.553405761719 979.173217773438 966.806457519531 967.976989746094 974.00732421875 978.164367675781 987.4052734375 979.905212402344 981.294372558594 987.7275390625 984.034729003906 977.22216796875 979.85498046875 987.986083984375 987.422302246094 991.151000976562 976.787963867188 981.499633789062 978.178833007812 979.806457519531 976.37548828125 974.406494140625 971.091979980469 976.614440917969 979.892028808594 981.433044433594 983.653625488281 990.703186035156 992.405822753906 1000.70367431641 1000.11791992188 999.198303222656 1000.04370117188 1001.21221923828 1005.64306640625 1006.45520019531 1009.11340332031 996.917724609375 997.030212402344 992.827209472656 992.143615722656 999.040100097656 991.050964355469 993.564575195312 998.89111328125 1002.75549316406 1005.88159179688 1006.28247070312 995.991333007812 996.732604980469 995.187561035156 992.794372558594 994.212890625 993.523986816406 1000.69274902344 989.760803222656 990.948852539062 985.427001953125 992.673889160156 988.269592285156 978.141540527344 970.585998535156 984.839172363281 983.114501953125 984.158752441406 971.197143554688 980.389831542969 986.5869140625 991.357055664062 1013.25305175781 1006.75305175781 1022.60882568359 1030.92993164062 1026.49108886719 1015.88940429688 1019.34777832031 1016.1650390625 1012.345703125 1009.70007324219 1018.25250244141 1020.41424560547 1013.65789794922 1015.14233398438 1020.20697021484 1027.52038574219 1034.06726074219 1036.03723144531 1035.091796875 1042.09680175781 1053.72290039062 1066.56115722656 1074.07470703125 1087.5986328125 1080.94299316406 1080.08813476562 1081.85522460938 1091.41540527344 1103.98107910156 1108.3720703125
959.651672363281 962.001159667969 958.720703125 966.668029785156 973.327941894531 968.029357910156 965.224548339844 975.304931640625 979.412231445312 972.966796875 975.591674804688 973.559387207031 974.603576660156 979.190856933594 967.324768066406 965.454833984375 962.424072265625 968.236694335938 964.525024414062 972.063293457031 978.449035644531 975.343200683594 975.102661132812 981.689208984375 971.716247558594 976.348754882812 980.359191894531 980.572021484375 977.280395507812 981.8291015625 984.672119140625 992.231323242188 998.306640625 992.803283691406 987.677429199219 980.79638671875 981.895324707031 985.94970703125 983.027893066406 974.320739746094 974.853454589844 977.947692871094 972.867492675781 976.395263671875 978.026916503906 980.889282226562 980.705078125 981.329040527344 980.265869140625 970.676208496094 975.534484863281 980.246948242188 972.5439453125 975.103820800781 974.608032226562 977.348754882812 974.547302246094 976.682556152344 973.514099121094 979.545043945312 987.652526855469 987.005249023438 983.998474121094 987.283325195312 985.524658203125 982.6875 982.241455078125 976.7216796875 982.129272460938 981.56005859375 977.321838378906 969.384094238281 959.907775878906 963.281494140625 970.467468261719 986.111572265625 984.658325195312 986.8740234375 991.660949707031 1000.09222412109 1003.91961669922 1001.47479248047 1001.19732666016 1004.96185302734 1006.31109619141 1002.67694091797 1000.07849121094 1011.86212158203 1004.791015625 1000.11907958984 996.111450195312 999.015747070312 997.115173339844 1002.28540039062 989.006042480469 985.994506835938 992.135009765625 1003.10076904297 1001.32702636719 998.237487792969 983.232971191406 998.239624023438 991.169067382812 995.806884765625 995.340270996094 999.41064453125 999.936889648438 992.440673828125 998.96435546875 997.870056152344 992.362548828125 994.465270996094 995.415710449219 991.146423339844 992.609924316406 982.546569824219 976.563720703125 970.510681152344 987.341552734375 1001.60583496094 1006.37780761719 1020.89996337891 1017.90173339844 1027.310546875 1030.81726074219 1023.40417480469 1010.26733398438 1008.74267578125 1005.60980224609 1011.05505371094 1013.556640625 1018.39996337891 1017.70324707031 1017.40954589844 1029.01281738281 1032.02734375 1038.88269042969 1048.52880859375 1039.58544921875 1050.56994628906 1046.88635253906 1062.4892578125 1082.61535644531 1084.97619628906 1085.75512695312 1083.46606445312 1094.96801757812 1103.60620117188 1114.50122070312 1113.5126953125
950.974853515625 956.797973632812 962.963684082031 966.217529296875 956.149963378906 959.020080566406 967.31396484375 974.495788574219 977.694458007812 977.191528320312 968.243957519531 967.565063476562 972.649597167969 971.592590332031 977.743713378906 967.885375976562 965.5517578125 971.824279785156 971.203125 978.111633300781 972.724609375 975.354858398438 980.900146484375 978.931030273438 974.548278808594 974.282836914062 973.955139160156 968.220458984375 972.696533203125 978.576110839844 983.055419921875 991.70166015625 990.39990234375 986.310546875 987.193786621094 979.294921875 979.407409667969 982.723999023438 984.655395507812 970.396545410156 971.442810058594 967.641418457031 967.628601074219 971.931762695312 978.983459472656 986.154052734375 981.700561523438 979.566223144531 977.749694824219 971.925964355469 971.704833984375 974.592529296875 974.768981933594 970.240600585938 976.431457519531 974.661926269531 972.453369140625 980.705993652344 971.961303710938 973.714050292969 983.905212402344 984.676025390625 987.329223632812 993.634765625 990.8251953125 990.367309570312 975.410949707031 987.63232421875 978.671325683594 972.1328125 973.104614257812 975.245971679688 968.128173828125 965.01171875 976.528015136719 984.255798339844 986.550720214844 981.061279296875 980.281188964844 993.542175292969 986.891235351562 1003.28851318359 999.467224121094 1007.06774902344 1005.08508300781 1004.29742431641 1000.54925537109 1013.63958740234 1008.26318359375 1008.9423828125 1001.07244873047 992.711059570312 999.404724121094 1002.08172607422 1000.25250244141 987.703796386719 987.226989746094 988.502136230469 996.62890625 991.147216796875 987.69677734375 1000.21417236328 990.948608398438 997.214538574219 995.618041992188 995.017211914062 997.574462890625 987.536071777344 1001.72918701172 990.848327636719 995.198913574219 1004.6298828125 997.530517578125 999.301574707031 992.973693847656 992.891784667969 981.722106933594 982.9619140625 1000.80938720703 1004.390625 1006.86474609375 1011.81390380859 1010.78466796875 1026.44091796875 1021.11334228516 1012.89044189453 1000.48864746094 1006.095703125 1008.98895263672 993.598999023438 1003.62231445312 1012.62322998047 1014.29071044922 1021.45672607422 1026.50329589844 1036.56457519531 1046.81823730469 1051.27783203125 1049.43701171875 1057.01403808594 1063.94165039062 1070.74560546875 1086.49536132812 1086.52978515625 1091.1513671875 1085.45227050781 1098.07678222656 1113.55590820312 1110.2099609375 1111.50012207031
943.244873046875 960.309875488281 964.214965820312 966.585083007812 966.812805175781 967.358520507812 964.620300292969 963.490356445312 963.838195800781 967.362365722656 972.658142089844 972.051330566406 963.75146484375 969.241088867188 974.274841308594 973.783264160156 966.651306152344 968.556823730469 975.977416992188 976.073059082031 982.188171386719 978.280639648438 977.150085449219 978.082214355469 971.468139648438 972.257019042969 969.318664550781 963.899658203125 970.62744140625 969.014099121094 979.918701171875 983.685241699219 985.994689941406 984.770935058594 984.933837890625 980.633666992188 974.757507324219 986.3017578125 985.339965820312 976.2314453125 965.962036132812 961.208801269531 969.183044433594 969.507751464844 973.229858398438 979.342041015625 975.655212402344 973.920043945312 975.174255371094 975.440734863281 974.441162109375 972.998779296875 974.279052734375 982.254211425781 974.1728515625 977.031860351562 975.19384765625 972.227416992188 972.700927734375 972.223999023438 976.655639648438 981.100524902344 990.727111816406 991.665466308594 991.0947265625 992.960571289062 983.128784179688 986.813049316406 983.616394042969 977.514099121094 972.612121582031 971.414855957031 979.058044433594 985.338195800781 983.525268554688 974.672302246094 985.496826171875 981.495727539062 981.553039550781 982.319885253906 994.020629882812 1002.58721923828 1008.15502929688 1008.78887939453 1002.43035888672 998.684692382812 995.574645996094 1007.06561279297 1006.75067138672 1008.14624023438 1006.50866699219 1002.74816894531 997.59130859375 993.920349121094 992.664855957031 989.057006835938 988.581970214844 984.0146484375 987.611938476562 992.427001953125 992.953002929688 988.759033203125 992.856689453125 993.130676269531 998.483642578125 991.77099609375 993.297729492188 995.747619628906 987.065124511719 990.050598144531 986.854919433594 996.283508300781 1002.0849609375 1005.31396484375 1002.11492919922 993.601684570312 992.481811523438 995.325073242188 1002.94787597656 1007.12396240234 1006.81518554688 1006.30310058594 1008.83312988281 1007.39709472656 1005.77563476562 1011.04632568359 1005.96588134766 1000.84954833984 999.844482421875 1004.67407226562 1008.08905029297 1015.11163330078 1021.06909179688 1030.79150390625 1043.97399902344 1050.39990234375 1053.51818847656 1053.58959960938 1060.91247558594 1064.87805175781 1067.7626953125 1081.16455078125 1086.24853515625 1092.95141601562 1102.8359375 1105.03466796875 1110.34985351562 1103.60424804688 1111.13781738281 1123.05773925781
950.903625488281 946.7998046875 951.805297851562 963.416015625 968.563903808594 967.057006835938 962.718200683594 966.8603515625 958.345153808594 961.938781738281 964.385864257812 964.342346191406 972.031555175781 972.455932617188 973.296447753906 976.954956054688 972.764709472656 975.051147460938 977.3076171875 984.767456054688 978.399291992188 978.531494140625 977.595031738281 978.189392089844 973.237670898438 974.784790039062 972.792358398438 966.132629394531 964.825927734375 973.884521484375 977.91357421875 983.415100097656 983.88427734375 980.193481445312 982.674682617188 989.216491699219 981.529113769531 984.109558105469 983.723449707031 974.056518554688 965.109802246094 960.308288574219 967.440551757812 965.964599609375 976.01025390625 969.694763183594 972.634582519531 976.545593261719 974.941833496094 981.239074707031 974.353576660156 970.609741210938 980.968505859375 975.772644042969 979.377136230469 971.857849121094 970.404663085938 974.927429199219 974.383178710938 967.228820800781 976.252136230469 977.289855957031 993.381713867188 998.122192382812 988.955993652344 985.034912109375 984.171936035156 993.73388671875 989.373291015625 984.302185058594 973.236633300781 981.553588867188 977.900024414062 975.591491699219 977.7373046875 976.62548828125 975.30908203125 965.724975585938 975.349609375 978.475646972656 989.126525878906 995.846252441406 992.173706054688 994.044311523438 1001.42626953125 1005.96044921875 995.033203125 998.026794433594 995.989929199219 1011.90667724609 1004.15759277344 997.708190917969 996.620544433594 993.784057617188 999.892700195312 986.309448242188 984.883178710938 986.033752441406 983.649169921875 997.57373046875 994.591674804688 982.088012695312 977.888916015625 983.210754394531 998.936401367188 995.374633789062 1001.55889892578 991.307312011719 995.677001953125 996.200622558594 995.954711914062 993.52587890625 1002.85845947266 1004.94573974609 1004.62237548828 995.8857421875 996.762756347656 995.933532714844 1013.41198730469 1010.06719970703 1006.16986083984 999.965759277344 1004.41729736328 1001.40002441406 1001.1494140625 1000.58605957031 1003.16424560547 1006.13354492188 1011.30786132812 1010.23132324219 1011.7333984375 1010.35296630859 1022.40087890625 1032.18298339844 1040.78381347656 1045.4609375 1054.05432128906 1063.34155273438 1063.11291503906 1064.64758300781 1071.87036132812 1081.30310058594 1093.29943847656 1096.36889648438 1096.42150878906 1112.93957519531 1110.93005371094 1106.78381347656 1118.60046386719 1124.76599121094
951.552551269531 943.475158691406 944.920837402344 960.360046386719 955.724975585938 961.659362792969 960.350891113281 966.390563964844 966.312316894531 965.552734375 960.403564453125 972.2861328125 973.47216796875 972.122436523438 969.827209472656 974.780029296875 979.659729003906 979.354370117188 982.600830078125 990.17724609375 982.648620605469 983.064758300781 979.155517578125 980.820495605469 979.237182617188 970.173706054688 971.884521484375 973.285461425781 966.405578613281 970.54345703125 978.235412597656 982.200378417969 977.919494628906 979.362609863281 978.860900878906 976.283935546875 978.389465332031 984.0166015625 983.622863769531 974.302368164062 967.906860351562 962.347351074219 969.076110839844 979.020446777344 973.213684082031 978.164733886719 971.689392089844 980.565307617188 978.518493652344 983.50390625 985.130554199219 973.786682128906 980.942321777344 973.798400878906 975.458374023438 969.485473632812 965.329895019531 971.218627929688 961.757080078125 968.986206054688 977.428833007812 982.424194335938 991.360656738281 988.114074707031 982.533386230469 982.26123046875 991.227478027344 989.555297851562 990.94482421875 990.724304199219 973.402587890625 973.272705078125 979.998962402344 982.506530761719 968.923583984375 974.571594238281 971.379211425781 965.352172851562 975.980041503906 985.711791992188 989.863159179688 996.520263671875 996.562255859375 997.870361328125 997.739501953125 999.142639160156 991.160827636719 991.283874511719 991.248779296875 1000.37115478516 995.191833496094 989.015502929688 985.762512207031 993.267395019531 993.776306152344 986.209411621094 986.827697753906 991.118286132812 990.886901855469 991.802795410156 984.713684082031 979.654113769531 985.995239257812 983.966064453125 989.141418457031 991.392700195312 997.892456054688 995.949340820312 1005.51806640625 1011.25164794922 995.832824707031 995.693176269531 996.544738769531 996.21875 999.525451660156 997.462036132812 998.551086425781 998.202880859375 1003.06811523438 994.107666015625 1008.55114746094 1009.38604736328 1006.26629638672 1004.91613769531 998.383850097656 1004.08636474609 1004.84606933594 1007.10858154297 1016.72534179688 1021.52728271484 1024.37670898438 1028.23498535156 1035.43078613281 1042.7822265625 1043.07165527344 1041.76379394531 1054.45983886719 1058.68811035156 1060.85083007812 1066.15625 1080.67932128906 1084.79443359375 1102.40795898438 1107.90795898438 1102.03063964844 1111.07507324219 1118.87915039062 1109.93884277344 1113.42126464844 1125.35925292969
955.034729003906 950.233337402344 957.75146484375 960.869873046875 957.400329589844 961.249694824219 953.789367675781 956.594543457031 962.209289550781 959.79443359375 957.709655761719 969.376220703125 977.112854003906 975.749267578125 975.424743652344 976.183776855469 981.839660644531 983.855041503906 976.498901367188 975.454650878906 973.183349609375 970.128540039062 971.924072265625 975.485900878906 972.383117675781 968.599365234375 975.238403320312 972.403564453125 964.569885253906 971.084777832031 985.132263183594 976.606689453125 969.311706542969 973.220092773438 976.3212890625 975.809448242188 971.063232421875 974.800476074219 981.7802734375 983.352600097656 966.861694335938 963.526733398438 963.846618652344 964.687438964844 961.612731933594 971.719604492188 974.102233886719 975.266540527344 972.767211914062 977.348327636719 982.911315917969 976.245361328125 976.270812988281 975.331359863281 968.120178222656 972.312805175781 975.515991210938 974.375793457031 964.568420410156 975.68505859375 977.651306152344 986.972900390625 995.26953125 992.934997558594 984.827209472656 990.466430664062 989.957580566406 982.224609375 983.959716796875 979.742004394531 973.881286621094 973.920227050781 975.625366210938 972.480895996094 967.644226074219 974.331298828125 982.489318847656 972.7490234375 973.845092773438 980.079650878906 983.511291503906 988.554809570312 998.252136230469 994.411193847656 996.950988769531 990.694519042969 993.882446289062 989.875549316406 985.627319335938 998.293640136719 990.431091308594 991.801879882812 978.281555175781 994.409851074219 993.273376464844 993.312194824219 992.75146484375 992.8505859375 993.728637695312 988.747741699219 982.206604003906 977.878662109375 980.465759277344 977.394836425781 987.581726074219 989.683227539062 995.532043457031 1003.42895507812 1013.13256835938 1011.49133300781 1002.06909179688 990.784912109375 983.002746582031 986.813720703125 988.48193359375 995.868041992188 996.391174316406 996.390563964844 993.885498046875 996.264343261719 996.820190429688 1004.10601806641 996.263793945312 999.335815429688 1000.52752685547 1001.78070068359 1011.46264648438 1007.92883300781 1022.79547119141 1024.59777832031 1032.32495117188 1033.38122558594 1037.06042480469 1044.08190917969 1045.79223632812 1047.4375 1057.1201171875 1052.69543457031 1058.54895019531 1065.46459960938 1068.67993164062 1084.12280273438 1105.00280761719 1102.03015136719 1115.01831054688 1120.60009765625 1127.86071777344 1119.97314453125 1126.044921875 1129.57409667969
945.975708007812 954.381042480469 953.659851074219 957.23193359375 951.653137207031 953.722717285156 960.578369140625 961.695007324219 957.112548828125 957.783325195312 959.584777832031 964.819458007812 970.763305664062 970.531188964844 968.570129394531 975.112426757812 980.193115234375 988.827026367188 983.860473632812 975.846740722656 966.909606933594 961.731079101562 967.890380859375 971.305725097656 976.317077636719 967.082214355469 975.31298828125 963.623596191406 962.583618164062 966.986938476562 977.698608398438 978.632873535156 970.808898925781 968.327331542969 966.236755371094 973.398620605469 971.013000488281 969.995727539062 979.761108398438 977.678588867188 965.852233886719 970.39306640625 972.614685058594 975.333923339844 973.20849609375 974.004821777344 980.919372558594 987.473510742188 976.655578613281 969.554870605469 968.248596191406 980.283813476562 972.772033691406 974.547424316406 971.035034179688 969.664428710938 977.718322753906 975.62451171875 974.728210449219 973.033020019531 982.775512695312 988.695556640625 994.32177734375 993.480529785156 981.876708984375 981.757141113281 989.355102539062 980.668151855469 974.67333984375 970.462280273438 967.885375976562 970.996032714844 975.320007324219 966.085571289062 962.133178710938 969.825012207031 970.850891113281 970.362243652344 965.9853515625 974.65966796875 973.625854492188 977.488830566406 990.996520996094 1000.45220947266 997.454223632812 991.559143066406 990.757202148438 978.335021972656 980.733276367188 985.134033203125 992.986633300781 988.707275390625 983.943542480469 988.492736816406 986.561157226562 985.241027832031 983.2119140625 982.272888183594 983.543884277344 982.534729003906 977.520629882812 978.326232910156 978.519409179688 979.632141113281 983.614685058594 982.669128417969 994.135986328125 989.414123535156 1003.078125 999.257080078125 1000.53271484375 995.30712890625 991.773193359375 990.359191894531 985.890319824219 988.757995605469 998.190307617188 995.61865234375 982.471008300781 989.831970214844 1000.20556640625 1002.08093261719 993.910461425781 1001.26916503906 999.010620117188 1000.83026123047 1011.40179443359 1015.88922119141 1022.20587158203 1025.63830566406 1031.7841796875 1036.14001464844 1037.70446777344 1041.32568359375 1039.62829589844 1055.29345703125 1051.642578125 1053.93762207031 1047.46875 1061.51782226562 1062.7158203125 1081.06079101562 1099.82849121094 1112.20202636719 1120.3798828125 1127.78796386719 1137.50622558594 1125.42785644531 1131.84008789062 1134.47924804688
947.315063476562 954.100219726562 952.339782714844 948.306274414062 951.303283691406 956.056396484375 960.718322753906 959.932250976562 969.151916503906 967.423583984375 968.131958007812 968.185119628906 971.560241699219 971.633544921875 963.911376953125 966.510192871094 971.966918945312 982.94970703125 982.277221679688 968.855529785156 965.504638671875 961.423461914062 960.909790039062 968.076782226562 965.763122558594 966.399047851562 972.268737792969 964.021179199219 972.614624023438 971.91748046875 977.202087402344 978.057006835938 977.78759765625 977.12109375 966.072448730469 963.283874511719 972.4052734375 970.888427734375 973.929565429688 977.892883300781 968.711486816406 967.957397460938 964.274780273438 965.240539550781 969.568908691406 971.085021972656 968.949768066406 978.61474609375 972.01416015625 973.760009765625 967.05224609375 974.207885742188 973.947204589844 967.735534667969 969.837707519531 965.814270019531 971.489990234375 975.570068359375 983.015197753906 986.739868164062 978.179748535156 979.597045898438 982.5771484375 978.273620605469 979.650512695312 979.058532714844 977.284057617188 970.199401855469 962.730224609375 969.964233398438 964.66357421875 969.510864257812 964.741333007812 967.328796386719 968.596069335938 967.768188476562 967.664794921875 972.547424316406 976.677062988281 981.60546875 971.121948242188 978.953002929688 985.961608886719 992.773498535156 991.901916503906 994.404357910156 985.126708984375 978.070007324219 980.873352050781 983.286193847656 981.708435058594 983.778198242188 982.658020019531 978.0771484375 976.873596191406 978.41162109375 978.028869628906 977.544982910156 973.131713867188 972.777954101562 976.293029785156 974.09521484375 976.186706542969 982.422058105469 980.972045898438 975.737426757812 987.344970703125 988.77685546875 986.536987304688 983.573608398438 987.929931640625 991.443359375 987.5810546875 989.228942871094 988.635681152344 1001.5966796875 995.140075683594 994.730834960938 995.844909667969 1001.35272216797 1000.97662353516 998.545837402344 991.65966796875 1003.69793701172 1013.49652099609 1000.93481445312 1012.43524169922 1019.76776123047 1022.24444580078 1028.10852050781 1038.72814941406 1035.10314941406 1036.21423339844 1041.9404296875 1047.81726074219 1058.04772949219 1057.34143066406 1053.46911621094 1059.02612304688 1063.10034179688 1072.06091308594 1088.87451171875 1096.94580078125 1107.33386230469 1122.64306640625 1135.57275390625 1133.67736816406 1136.11328125 1141.29638671875 1142.7939453125
