NCOLS 150
NROWS 37
XLLCORNER 7394249
YLLCORNER 4842239
CELLSIZE 30
NODATA_VALUE -9999
976.165405273438 972.027099609375 975.849609375 976.514831542969 978.267578125 977.119506835938 962.402282714844 968.4072265625 963.629089355469 968.397644042969 970.7099609375 967.618408203125 965.840148925781 975.984985351562 973.592224121094 979.406188964844 971.999084472656 973.938415527344 976.568908691406 980.119323730469 978.231384277344 969.747131347656 969.474060058594 962.721618652344 958.927612304688 971.021118164062 971.098999023438 969.590454101562 964.61767578125 969.593505859375 965.250671386719 961.905944824219 962.147521972656 960.914001464844 961.402099609375 959.006225585938 960.786865234375 959.973022460938 964.635681152344 951.367553710938 950.56884765625 952.930725097656 949.146240234375 954.02587890625 948.329772949219 955.631652832031 952.755920410156 941.400573730469 945.736511230469 949.412231445312 947.353454589844 953.565307617188 952.64111328125 955.12109375 950.239807128906 959.776550292969 964.677001953125 971.132995605469 959.525695800781 967.59912109375 965.546630859375 953.106750488281 960.880859375 952.671997070312 950.24462890625 954.927795410156 955.189697265625 950.017272949219 951.220886230469 949.083862304688 957.328308105469 958.045104980469 960.768127441406 960.843688964844 960.086181640625 966.101745605469 960.44287109375 968.439025878906 965.772155761719 957.664245605469 956.811767578125 957.18359375 969.871032714844 971.768676757812 962.643920898438 965.857604980469 966.15283203125 961.038757324219 959.217407226562 962.190612792969 973.110412597656 970.764831542969 969.028564453125 965.72900390625 967.393127441406 971.433410644531 989.218933105469 989.8544921875 980.397705078125 985.227478027344 983.140869140625 980.429138183594 977.275817871094 970.900512695312 973.188903808594 981.035949707031 973.17236328125 980.005737304688 978.802612304688 974.895690917969 984.722900390625 990.839172363281 987.114501953125 992.354797363281 988.34765625 982.236755371094 994.350952148438 995.882995605469 1003.34497070312 1005.43511962891 1006.05639648438 1018.31011962891 1012.56463623047 1009.31817626953 1014.41802978516 1020.40130615234 1013.72216796875 1018.78729248047 1027.06066894531 1034.60766601562 1048.77197265625 1051.19152832031 1052.66455078125 1069.20373535156 1078.50073242188 1085.82202148438 1088.93859863281 1092.9912109375 1091.44702148438 1100.92053222656 1096.06713867188 1099.7021484375 1101.0751953125 1105.244140625 1107.92626953125 1104.44592285156 1108.74914550781 1111.87744140625 1102.27770996094 1104.25793457031
976.846801757812 978.533386230469 975.870666503906 979.306762695312 977.034301757812 977.058349609375 975.039245605469 973.060974121094 973.735107421875 972.80224609375 971.815185546875 955.27392578125 965.767700195312 971.699523925781 974.090087890625 975.426879882812 971.786254882812 974.280517578125 975.851501464844 971.333862304688 972.761352539062 966.090759277344 959.813598632812 962.036193847656 967.046997070312 973.556579589844 970.054382324219 963.641845703125 958.507568359375 961.386596679688 960.5224609375 956.339721679688 966.43017578125 958.729919433594 957.834533691406 963.304260253906 958.77490234375 955.046508789062 962.574462890625 955.51318359375 951.496459960938 955.824523925781 959.385131835938 958.321838378906 958.524841308594 950.860656738281 951.200744628906 948.684753417969 955.990051269531 951.585510253906 952.561706542969 960.577331542969 960.290649414062 959.862121582031 947.377563476562 952.784729003906 952.637084960938 957.210021972656 956.980041503906 958.269104003906 955.089538574219 952.154968261719 946.358520507812 946.943054199219 958.280395507812 955.693298339844 953.292297363281 947.910339355469 940.576171875 946.288391113281 950.660339355469 959.649536132812 961.826599121094 953.632202148438 953.31396484375 960.199951171875 958.696044921875 967.679809570312 968.980834960938 960.491271972656 961.216125488281 961.812744140625 971.383972167969 974.565124511719 976.353393554688 965.273254394531 965.99755859375 961.68798828125 957.3388671875 963.304504394531 972.298583984375 968.106323242188 966.381408691406 968.902526855469 973.766723632812 974.091369628906 986.341552734375 987.266662597656 985.973449707031 987.020202636719 985.306945800781 976.224853515625 975.99951171875 975.735961914062 980.820251464844 983.348999023438 995.72509765625 993.368408203125 993.155395507812 988.850036621094 980.604064941406 981.520202636719 988.276672363281 986.55224609375 982.490600585938 986.976623535156 992.568969726562 990.844116210938 997.482604980469 999.038452148438 997.37841796875 998.782104492188 995.390930175781 999.7998046875 1007.85943603516 1013.58557128906 1008.25677490234 1023.53216552734 1030.28955078125 1035.12841796875 1032.65112304688 1050.25170898438 1058.51879882812 1073.86511230469 1080.23681640625 1089.68664550781 1089.40197753906 1084.12585449219 1084.91149902344 1081.00366210938 1087.56518554688 1088.18542480469 1087.78833007812 1092.005859375 1098.39794921875 1097.46948242188 1098.1728515625 1095.26672363281 1086.68139648438 1092.97900390625
977.152526855469 983.434326171875 975.530456542969 976.161804199219 976.701232910156 965.039428710938 971.290100097656 971.342590332031 981.414306640625 965.279663085938 964.865112304688 964.476989746094 972.572570800781 982.299255371094 983.041625976562 980.561401367188 971.240539550781 969.886291503906 974.009704589844 975.619262695312 967.386291503906 970.503051757812 968.199523925781 970.573486328125 965.912963867188 963.161987304688 958.027526855469 955.9345703125 963.636962890625 963.213134765625 960.180419921875 958.622192382812 958.725708007812 964.219604492188 962.59814453125 963.159606933594 958.799011230469 955.808959960938 958.086364746094 952.393798828125 953.279235839844 950.03955078125 960.602661132812 968.57373046875 960.249816894531 953.877990722656 942.573486328125 945.840881347656 951.784240722656 957.444519042969 951.646179199219 965.379516601562 957.78076171875 947.466247558594 948.189514160156 954.145874023438 949.035034179688 957.817993164062 955.388671875 957.912902832031 965.82421875 953.482482910156 947.357360839844 947.037658691406 958.329956054688 955.413513183594 953.343872070312 958.372131347656 950.057312011719 948.760681152344 954.844360351562 963.694580078125 959.114013671875 967.265380859375 963.255981445312 967.410400390625 964.718078613281 961.681762695312 967.175903320312 959.559265136719 962.903381347656 970.904846191406 974.781372070312 973.266235351562 976.105712890625 967.932373046875 961.726013183594 965.215698242188 963.538452148438 965.298461914062 976.364929199219 969.067932128906 973.610290527344 972.679565429688 972.724792480469 975.255126953125 984.770080566406 989.24560546875 982.026916503906 977.365478515625 980.227661132812 978.109191894531 982.170349121094 979.145751953125 984.766784667969 983.181274414062 995.904235839844 996.520690917969 993.669006347656 989.017211914062 997.111083984375 986.879638671875 988.787353515625 995.765747070312 994.06201171875 995.769287109375 997.261352539062 991.186706542969 995.104431152344 994.660217285156 996.572326660156 991.36767578125 987.926147460938 992.904052734375 1002.99987792969 1010.5419921875 1019.71069335938 1023.29211425781 1035.81396484375 1031.96752929688 1047.20593261719 1053.55871582031 1062.88854980469 1080.57360839844 1087.84143066406 1087.07568359375 1084.55517578125 1071.8232421875 1067.23986816406 1068.259765625 1075.09826660156 1073.56140136719 1068.828125 1070.51904296875 1077.31750488281 1083.10766601562 1075.9833984375 1079.96215820312 1081.47229003906 1082.99426269531
987.77880859375 977.18310546875 973.478149414062 967.105285644531 978.475952148438 972.744873046875 972.032409667969 976.881530761719 967.55224609375 964.004760742188 963.470764160156 968.696655273438 964.601806640625 970.055908203125 976.289611816406 976.025573730469 970.77587890625 979.156921386719 976.485717773438 961.311645507812 970.722473144531 972.702026367188 973.746398925781 976.943786621094 964.38818359375 959.620788574219 942.959716796875 950.322021484375 954.250793457031 948.099243164062 947.003662109375 954.046508789062 962.590026855469 974.785278320312 965.226501464844 954.8056640625 956.673522949219 959.275512695312 954.685668945312 951.2373046875 948.833435058594 966.56982421875 965.788330078125 964.927368164062 960.200927734375 949.249145507812 944.216918945312 947.751403808594 950.334106445312 951.239074707031 946.930053710938 960.36328125 951.121948242188 946.271911621094 947.145446777344 954.480041503906 951.2119140625 955.679626464844 956.190185546875 970.577331542969 957.143615722656 962.927185058594 961.604736328125 944.610229492188 955.369995117188 953.592041015625 961.35498046875 961.86572265625 957.508178710938 963.513916015625 961.442565917969 964.402587890625 961.424621582031 961.751586914062 970.872863769531 971.306701660156 965.11865234375 965.342712402344 965.261657714844 962.47021484375 963.353820800781 965.951904296875 962.560729980469 969.340759277344 971.129760742188 969.160034179688 966.6142578125 975.544738769531 965.026794433594 966.612426757812 970.421691894531 970.198974609375 970.744201660156 977.639526367188 976.016906738281 973.643920898438 975.550598144531 988.275756835938 978.821960449219 979.532531738281 975.414245605469 974.591064453125 981.211669921875 982.543518066406 984.436889648438 989.268371582031 990.651794433594 994.051513671875 998.900573730469 988.99072265625 989.367309570312 991.310180664062 987.334899902344 995.24560546875 1001.92388916016 1000.84606933594 999.630859375 995.375122070312 998.414611816406 992.905700683594 995.003662109375 997.085266113281 988.717468261719 994.451965332031 998.271850585938 1012.18060302734 1032.96667480469 1026.11352539062 1037.72143554688 1043.91857910156 1048.6201171875 1060.7763671875 1070.16174316406 1071.03308105469 1078.42248535156 1069.84411621094 1066.16333007812 1056.25573730469 1060.95520019531 1057.73889160156 1063.99096679688 1061.36987304688 1048.36157226562 1053.68225097656 1059.67456054688 1067.91906738281 1070.25231933594 1066.45593261719 1070.27014160156 1072.64367675781
970.956298828125 975.191711425781 974.657043457031 969.082153320312 966.831604003906 972.270874023438 973.661315917969 967.532409667969 962.140441894531 959.914855957031 965.5107421875 962.394592285156 955.495788574219 963.744201660156 970.389526367188 971.729553222656 966.738403320312 963.184875488281 968.082458496094 968.038391113281 972.543579101562 977.34130859375 972.916625976562 980.585998535156 960.505187988281 950.807250976562 949.369995117188 950.020080566406 949.956787109375 956.297546386719 944.529174804688 950.15283203125 960.218444824219 971.921997070312 965.914855957031 945.508605957031 950.99755859375 946.463806152344 952.670776367188 947.427795410156 953.252075195312 959.443054199219 962.671813964844 959.172973632812 954.457092285156 941.507629394531 940.539245605469 936.314697265625 949.854797363281 944.221435546875 949.385559082031 951.9345703125 951.043334960938 948.277770996094 954.156433105469 954.398742675781 958.990661621094 955.649169921875 957.852294921875 960.993469238281 972.102355957031 956.207214355469 957.832397460938 956.884033203125 957.911743164062 967.39697265625 960.921875 964.571594238281 968.239929199219 961.640991210938 961.296447753906 967.335754394531 962.003295898438 962.299865722656 963.608825683594 962.9287109375 969.990051269531 957.810119628906 962.180419921875 966.682678222656 963.255432128906 968.20703125 968.008605957031 974.008544921875 971.685546875 978.017333984375 973.739013671875 967.0830078125 965.345642089844 966.440856933594 968.23974609375 974.197937011719 977.248596191406 971.767639160156 972.652709960938 973.8935546875 978.463195800781 978.404418945312 974.636779785156 979.403686523438 982.395690917969 976.164428710938 986.605163574219 989.962341308594 984.518493652344 981.5810546875 994.026306152344 1000.03173828125 998.978576660156 1000.81311035156 990.591613769531 985.678039550781 982.498291015625 988.255493164062 996.701477050781 1007.27130126953 1006.79052734375 1002.25573730469 991.116821289062 992.75146484375 1001.86016845703 989.643188476562 988.641052246094 998.193786621094 1004.28509521484 1012.70806884766 1031.05993652344 1031.21838378906 1038.48352050781 1044.00024414062 1054.02770996094 1059.13110351562 1059.77661132812 1064.81420898438 1058.55700683594 1054.85339355469 1050.93432617188 1047.82556152344 1045.00415039062 1045.609375 1051.79443359375 1046.02563476562 1040.65563964844 1042.89709472656 1038.35668945312 1053.50866699219 1058.82824707031 1064.328125 1064.57043457031 1065.12573242188
972.678466796875 974.103454589844 965.828369140625 964.165222167969 965.259887695312 971.759216308594 974.138427734375 970.359436035156 962.780151367188 961.0380859375 956.423522949219 953.864929199219 957.096740722656 959.3359375 964.977600097656 965.740966796875 964.774047851562 963.241760253906 968.383605957031 959.763366699219 980.460754394531 975.437805175781 973.348022460938 971.615844726562 963.890319824219 945.394653320312 938.809509277344 941.684997558594 949.704345703125 950.975708007812 946.577209472656 948.582397460938 956.720825195312 958.489501953125 952.845275878906 950.296081542969 947.3896484375 948.238159179688 943.17578125 943.782043457031 945.257934570312 950.129211425781 959.599914550781 958.691589355469 955.515319824219 951.669128417969 951.931640625 946.718933105469 948.364990234375 952.535888671875 955.847778320312 956.680236816406 952.613952636719 944.525268554688 949.846252441406 957.073669433594 953.761169433594 959.244750976562 961.47119140625 968.204650878906 968.276550292969 957.14111328125 958.945007324219 960.843139648438 957.852172851562 962.125610351562 957.904418945312 966.146850585938 967.217895507812 966.580749511719 961.165588378906 963.298095703125 962.989196777344 962.762268066406 964.329711914062 970.501708984375 970.154296875 959.669250488281 965.929382324219 968.338439941406 966.061584472656 975.527587890625 981.011901855469 973.606750488281 976.02734375 976.781616210938 970.108703613281 968.922485351562 966.966796875 974.997619628906 976.317077636719 972.166381835938 979.128540039062 973.213073730469 973.773010253906 968.854370117188 979.094360351562 979.430969238281 979.881713867188 978.655334472656 973.447998046875 985.937255859375 988.460021972656 987.582214355469 985.822143554688 977.056518554688 986.562927246094 983.007690429688 981.855163574219 984.362731933594 984.581970214844 989.122009277344 984.695495605469 991.586608886719 997.700988769531 1012.82037353516 1008.14172363281 1007.70208740234 1008.00524902344 998.177062988281 998.990173339844 1007.20269775391 995.699890136719 994.388977050781 1007.29132080078 1018.65911865234 1036.90979003906 1027.0478515625 1031.00708007812 1044.73510742188 1047.75317382812 1051.18493652344 1060.52258300781 1052.66430664062 1046.59924316406 1047.55517578125 1042.822265625 1033.69055175781 1035.71545410156 1041.67053222656 1037.37316894531 1031.2666015625 1028.37280273438 1029.22961425781 1041.15539550781 1051.55444335938 1048.17700195312 1050.61486816406 1047.48400878906 1056.01098632812
974.726684570312 969.174621582031 967.033569335938 963.738159179688 959.494506835938 968.108215332031 973.656005859375 966.335266113281 966.787536621094 969.217590332031 961.364379882812 959.782531738281 961.000854492188 965.726623535156 963.909118652344 962.114990234375 970.638488769531 974.646728515625 968.897644042969 966.916931152344 973.794982910156 978.209533691406 970.513916015625 963.0869140625 955.328186035156 954.170532226562 942.591186523438 940.18798828125 951.300170898438 953.905395507812 944.869018554688 948.504211425781 950.508850097656 946.250549316406 939.063842773438 948.997192382812 948.276550292969 945.372009277344 950.761779785156 951.788818359375 945.290405273438 952.869384765625 953.262756347656 955.661560058594 952.693176269531 951.590393066406 957.115417480469 950.677795410156 952.950500488281 954.8291015625 951.464538574219 954.655029296875 955.56201171875 957.744995117188 954.424621582031 960.278991699219 958.997741699219 962.564880371094 973.991394042969 977.39111328125 965.465454101562 960.112426757812 962.201354980469 970.64453125 959.204711914062 957.752746582031 949.377807617188 968.10791015625 971.156005859375 970.570556640625 958.907043457031 965.040283203125 962.289184570312 964.450561523438 966.020446777344 962.846069335938 959.605224609375 969.478332519531 965.679992675781 968.867492675781 968.046142578125 973.389526367188 987.56689453125 983.044921875 973.533081054688 970.834716796875 971.016845703125 968.554992675781 969.265319824219 972.051635742188 967.522521972656 968.014709472656 978.422912597656 982.906372070312 979.869018554688 977.27734375 978.099426269531 973.72216796875 975.789245605469 981.041076660156 985.672668457031 989.917236328125 984.450866699219 985.963562011719 978.056823730469 974.544311523438 970.480773925781 970.356201171875 977.106018066406 990.755859375 986.55126953125 987.244445800781 997.562622070312 998.548522949219 1002.47802734375 1003.212890625 1004.34497070312 1005.46606445312 1006.63336181641 1002.64880371094 1003.20074462891 1004.38635253906 1007.18078613281 1003.14117431641 1004.85095214844 1018.33361816406 1025.18823242188 1030.71240234375 1030.56005859375 1035.876953125 1040.3564453125 1048.96960449219 1051.70825195312 1041.04736328125 1047.17175292969 1048.75158691406 1042.55541992188 1032.95544433594 1038.57299804688 1034.85302734375 1027.59106445312 1028.98352050781 1024.70397949219 1023.11138916016 1031.865234375 1040.54077148438 1042.62182617188 1040.17163085938 1043.39831542969 1042.40148925781
968.695861816406 963.725036621094 961.204833984375 969.397521972656 973.839172363281 962.648254394531 965.497802734375 964.841125488281 959.816772460938 963.808349609375 964.269165039062 953.120056152344 952.089904785156 950.554077148438 951.764221191406 956.022766113281 963.075134277344 965.08544921875 960.197692871094 957.752685546875 959.259704589844 967.402038574219 963.393798828125 956.490783691406 947.893676757812 943.6142578125 944.112670898438 944.162841796875 948.756652832031 952.548950195312 951.337463378906 950.608337402344 948.197875976562 957.7587890625 947.688171386719 940.146179199219 953.011779785156 948.725524902344 951.622802734375 952.355773925781 949.833312988281 952.120788574219 944.497619628906 954.153259277344 953.129089355469 950.871887207031 956.704406738281 953.234558105469 955.411560058594 956.179077148438 955.037719726562 955.143249511719 959.284057617188 954.910278320312 965.817810058594 967.916137695312 959.56689453125 965.836669921875 967.048522949219 961.658142089844 959.188659667969 958.696105957031 957.771850585938 966.2275390625 960.335205078125 964.340209960938 959.729614257812 963.252197265625 962.924560546875 971.228820800781 965.810302734375 972.247375488281 971.869934082031 970.088562011719 973.32177734375 968.469604492188 967.294494628906 967.722412109375 964.541198730469 960.121765136719 979.581298828125 985.479858398438 986.56640625 981.435668945312 978.487426757812 981.283386230469 980.457641601562 973.227172851562 972.989990234375 965.944702148438 957.145263671875 958.145324707031 966.779296875 970.255065917969 974.462646484375 975.626037597656 976.153503417969 973.158081054688 987.154663085938 975.393249511719 979.715026855469 989.4736328125 986.099731445312 990.693054199219 976.576293945312 973.789245605469 975.04931640625 972.005798339844 980.557495117188 989.164855957031 994.082641601562 997.45751953125 1000.80688476562 1004.59173583984 1008.318359375 1017.65277099609 1011.87384033203 1018.19305419922 1012.90057373047 1011.03771972656 1009.66174316406 1019.53765869141 1007.587890625 1011.80072021484 1016.10565185547 1022.48864746094 1033.0302734375 1027.45251464844 1035.71130371094 1040.46166992188 1039.32043457031 1042.99890136719 1045.66430664062 1046.22570800781 1040.98132324219 1035.39135742188 1032.7666015625 1021.55169677734 1032.47985839844 1021.88372802734 1025.77221679688 1021.89056396484 1020.08599853516 1023.87176513672 1020.45147705078 1024.90478515625 1029.41784667969 1037.74890136719 1038.17810058594 1032.0419921875
967.650207519531 962.371337890625 961.233215332031 965.01025390625 965.33447265625 957.162048339844 961.728088378906 954.208923339844 950.094970703125 952.077575683594 952.448791503906 956.562561035156 950.010437011719 951.197204589844 943.278198242188 952.948364257812 956.780883789062 960.025451660156 953.302124023438 959.796447753906 955.943603515625 959 955.7421875 958.882873535156 945.204345703125 942.141479492188 937.383483886719 947.575073242188 952.938781738281 955.603393554688 955.418029785156 951.566101074219 955.802978515625 959.932800292969 953.412902832031 948.74560546875 947.061096191406 952.299987792969 955.809631347656 965.130065917969 960.843627929688 958.242797851562 952.476928710938 943.245178222656 950.421875 957.227416992188 956.70703125 960.039367675781 954.651000976562 953.166320800781 949.275451660156 955.618103027344 959.733642578125 960.400268554688 967.897216796875 968.912170410156 964.663269042969 968.297485351562 971.170471191406 968.724060058594 979.275085449219 960.741088867188 960.033752441406 965.323303222656 963.799377441406 965.865295410156 962.426818847656 964.828552246094 964.452819824219 969.106689453125 971.310363769531 973.564270019531 974.898986816406 971.162292480469 967.684692382812 963.002746582031 967.719848632812 971.592468261719 963.942260742188 959.641357421875 976.794738769531 986.134033203125 986.120727539062 977.130004882812 966.979370117188 971.294555664062 979.06396484375 980.200805664062 977.845886230469 970.427185058594 963.073791503906 964.75732421875 965.496032714844 973.479614257812 969.061340332031 967.982177734375 976.430725097656 979.102600097656 982.317810058594 975.593200683594 974.354125976562 989.865051269531 985.527099609375 990.854553222656 979.003845214844 971.172607421875 972.016662597656 976.942932128906 981.002563476562 983.904296875 986.236511230469 999.691833496094 1002.01892089844 1011.97906494141 1011.82830810547 1006.66955566406 1012.05627441406 1010.14086914062 1011.71856689453 1008.21850585938 1021.95751953125 1019.68682861328 1001.11608886719 1015.52294921875 1012.62719726562 1019.19793701172 1025.46130371094 1022.67468261719 1027.37841796875 1032.453125 1031.34741210938 1035.8251953125 1038.72766113281 1032.99267578125 1030.94738769531 1025.560546875 1017.08203125 1021.32061767578 1019.85101318359 1022.65026855469 1031.95532226562 1024.36987304688 1016.02661132812 1009.05920410156 1019.76763916016 1022.72546386719 1026.55541992188 1029.47009277344 1024.30163574219 1037.07946777344
966.226440429688 956.609008789062 963.908142089844 953.682983398438 952.268432617188 952.772888183594 954.078125 954.94384765625 950.984924316406 945.702880859375 952.544921875 957.74658203125 950.218994140625 945.234130859375 940.450561523438 944.425903320312 945.42919921875 948.144592285156 950.083312988281 944.5947265625 943.392211914062 955.68212890625 954.098327636719 953.690612792969 938.005310058594 946.460327148438 954.862609863281 943.869689941406 949.389770507812 951.529357910156 957.374389648438 950.13232421875 948.0712890625 952.694580078125 948.170593261719 949.527526855469 938.248718261719 954.024719238281 950.975402832031 961.844299316406 966.015075683594 958.811157226562 951.4677734375 942.799011230469 952.21240234375 959.917358398438 958.02587890625 967.075073242188 958.218200683594 952.728759765625 957.333251953125 956.356140136719 958.580200195312 964.035522460938 967.472595214844 962.180236816406 967.988891601562 972.748352050781 974.669250488281 967.226806640625 965.320007324219 962.633178710938 967.05419921875 968.635375976562 967.785034179688 966.168762207031 966.61279296875 968.794799804688 969.47265625 966.447998046875 974.746826171875 968.897094726562 971.356262207031 967.380249023438 967.464477539062 965.461059570312 969.688354492188 971.922912597656 970.181030273438 967.146789550781 974.303039550781 983.303649902344 980.263305664062 975.202331542969 973.226135253906 982.439147949219 984.120300292969 984.16552734375 976.025329589844 976.068664550781 966.339538574219 954.775024414062 971.316223144531 970.425720214844 974.092529296875 971.900817871094 975.241638183594 982.168518066406 977.286315917969 976.305358886719 981.698425292969 979.292358398438 988.695068359375 988.864440917969 979.468505859375 974.522338867188 974.913269042969 988.30859375 990.050109863281 998.551330566406 998.801879882812 999.783325195312 998.315368652344 1004.33660888672 1006.90032958984 1002.99542236328 1015.27233886719 1015.98669433594 1029.02490234375 1034.85510253906 1034.38244628906 1025.29809570312 1017.21661376953 1016.4814453125 1012.25555419922 1017.48748779297 1026.90075683594 1030.22485351562 1029.86657714844 1025.92529296875 1033.9013671875 1025.75524902344 1024.99047851562 1022.90881347656 1025.21667480469 1035.244140625 1017.56304931641 1014.7685546875 1015.98834228516 1027.08142089844 1030.52111816406 1025.48718261719 1013.12762451172 1007.58099365234 1014.80407714844 1019.50006103516 1024.60717773438 1028.42443847656 1022.10321044922 1022.84722900391
955.429565429688 946.755310058594 948.814880371094 953.135925292969 944.737426757812 946.054748535156 954.026794433594 954.236694335938 950.752868652344 955.119506835938 954.881591796875 956.182067871094 957.780151367188 948.440307617188 948.849304199219 944.528991699219 944.640869140625 940.58984375 929.319091796875 943.858459472656 941.661804199219 942.704162597656 951.196044921875 945.021728515625 946.061096191406 942.12353515625 956.01416015625 949.966369628906 946.172180175781 947.218200683594 952.073852539062 947.422485351562 946.067199707031 948.692504882812 937.333740234375 943.444396972656 944.261901855469 949.138671875 950.107299804688 952.761047363281 954.374694824219 961.078063964844 955.319152832031 960.994812011719 957.3154296875 961.120971679688 962.224548339844 969.020080566406 966.05078125 958.714477539062 955.805786132812 960.648559570312 959.986022949219 965.218444824219 966.8984375 962.403259277344 963.917663574219 964.686340332031 974.745178222656 971.097534179688 967.256774902344 969.998657226562 963.223815917969 964.636779785156 966.192138671875 973.459777832031 974.672546386719 969.741882324219 968.363403320312 978.452392578125 972.776977539062 976.259826660156 970.645812988281 969.554382324219 967.709045410156 972.892456054688 976.944702148438 974.469787597656 975.232421875 969.259338378906 979.292297363281 979.477844238281 978.917785644531 977.921203613281 980.992248535156 981.276733398438 982.89794921875 976.792846679688 975.955871582031 979.401794433594 966.2294921875 971.577087402344 971.557800292969 971.140502929688 977.55078125 981.880065917969 986.999816894531 982.167663574219 973.569396972656 979.642578125 980.005126953125 981.648315429688 976.148620605469 978.590148925781 988.822937011719 982.850891113281 987.616943359375 984.524719238281 987.408813476562 996.058410644531 989.003051757812 996.088317871094 999.555297851562 1004.38079833984 1008.37255859375 1007.01867675781 1018.86895751953 1021.68731689453 1028.4697265625 1033.32543945312 1040.94311523438 1028.8828125 1027.33312988281 1025.955078125 1022.40704345703 1021.4228515625 1025.10107421875 1026.11071777344 1024.41882324219 1030.6728515625 1029.80041503906 1026.07287597656 1031.44689941406 1037.54931640625 1031.18676757812 1027.11828613281 1022.41943359375 1017.21044921875 1025.31140136719 1030.14465332031 1026.36450195312 1016.71520996094 1007.74371337891 1018.31958007812 1016.08178710938 1021.31164550781 1023.13073730469 1029.08605957031 1026.28210449219 1019.23480224609
952.985046386719 954.909240722656 956.753295898438 950.276672363281 949.898071289062 955.369812011719 959.093688964844 950.427673339844 949.741943359375 945.608947753906 943.020385742188 949.940368652344 951.649780273438 951.190734863281 944.450439453125 940.229309082031 940.335327148438 936.507019042969 939.94091796875 943.708312988281 947.221008300781 943.208435058594 946.611572265625 935.370910644531 938.569885253906 941.422424316406 949.686950683594 947.515075683594 947.225952148438 956.041381835938 957.133666992188 944.196655273438 951.924682617188 943.525390625 948.774597167969 947.424621582031 943.344299316406 943.260864257812 950.741882324219 952.043090820312 947.873901367188 963.022705078125 957.562255859375 959.490783691406 959.802062988281 964.338317871094 967.115905761719 969.893432617188 966.65185546875 967.802795410156 967.972595214844 962.136474609375 948.137939453125 965.677185058594 969.487060546875 970.849853515625 979.362731933594 970.039184570312 976.966430664062 972.822814941406 972.249877929688 976.60986328125 965.16357421875 961.249877929688 958.542175292969 963.854187011719 968.574401855469 971.013671875 970.624145507812 976.14404296875 974.863525390625 979.121765136719 974.597290039062 972.231140136719 966.340637207031 975.918884277344 978.311401367188 971.813415527344 971.219116210938 970.592956542969 970.270141601562 976.982360839844 971.3212890625 978.321594238281 978.965698242188 979.669494628906 976.184753417969 970.59619140625 968.415893554688 981.238342285156 974.212890625 963.869384765625 975.232177734375 976.628173828125 984.898071289062 987.296875 995.53759765625 991.661010742188 983.751831054688 976.048889160156 984.823425292969 984.148742675781 983.903015136719 986.917358398438 990.161010742188 986.942749023438 991.797058105469 986.742004394531 987.986938476562 992.633911132812 988.880432128906 999.095703125 1004.21569824219 997.474914550781 1004.55670166016 1015.46710205078 1022.10803222656 1023.19268798828 1029.45373535156 1028.73449707031 1044.11010742188 1034.69091796875 1039.81420898438 1033.50024414062 1027.68969726562 1023.8212890625 1020.03833007812 1017.48992919922 1031.04907226562 1036.60327148438 1035.36987304688 1027.31652832031 1031.67834472656 1029.70666503906 1036.41564941406 1029.22399902344 1023.14709472656 1019.25024414062 1028.24328613281 1035.94274902344 1030.86511230469 1016.24114990234 1023.23004150391 1022.29876708984 1016.46063232422 1007.07867431641 1019.3740234375 1023.2998046875 1022.02825927734 1012.32470703125
957.415466308594 949.986389160156 951.07568359375 951.785522460938 947.762329101562 955.528747558594 949.330078125 950.251770019531 949.542053222656 943.309814453125 945.553344726562 951.793823242188 955.17724609375 950.762451171875 946.936096191406 937.360107421875 940.966064453125 949.790893554688 952.791442871094 939.930541992188 952.918395996094 945.41650390625 941.324645996094 940.264953613281 948.00048828125 944.410217285156 949.357543945312 950.018371582031 960.512145996094 964.457946777344 959.365173339844 954.40283203125 949.598022460938 940.946411132812 950.5478515625 950.609130859375 944.854125976562 946.175598144531 949.764465332031 950.77587890625 952.869140625 966.934631347656 963.668334960938 957.755676269531 966.803161621094 970.340637207031 966.00830078125 965.032470703125 970.817687988281 972.202575683594 978.050598144531 969.83251953125 957.580932617188 955.471435546875 969.384704589844 975.589904785156 976.119140625 975.124328613281 976.451843261719 983.1767578125 975.052429199219 969.279846191406 962.904113769531 963.757873535156 960.87939453125 967.189575195312 966.46142578125 968.472045898438 971.730895996094 980.806335449219 985.945068359375 990.070068359375 982.246948242188 974.183166503906 978.548889160156 981.454895019531 978.6044921875 974.51123046875 965.98095703125 965.550903320312 963.554382324219 974.450805664062 980.127136230469 984.219970703125 978.691284179688 984.794372558594 978.292297363281 978.940795898438 980.773010253906 980.690673828125 968.376586914062 971.669738769531 980.3818359375 991.425354003906 990.591674804688 993.276733398438 984.691528320312 991.763000488281 988.131591796875 978.675598144531 983.867431640625 980.139587402344 985.240173339844 989.605834960938 994.985717773438 996.23388671875 992.451049804688 988.415283203125 987.452392578125 995.903442382812 999.649353027344 1005.99755859375 1007.05621337891 1007.97204589844 1011.11859130859 1009.91461181641 1022.71142578125 1032.04333496094 1037.04968261719 1034.78271484375 1034.22534179688 1030.29272460938 1038.49450683594 1041.18762207031 1037.35498046875 1031.37414550781 1026.62854003906 1020.8896484375 1028.06970214844 1034.58642578125 1027.51416015625 1033.59155273438 1032.87133789062 1037.0224609375 1035.35876464844 1036.74963378906 1022.36401367188 1020.73254394531 1029.47375488281 1027.66027832031 1028.76879882812 1022.23510742188 1022.51287841797 1020.47442626953 1017.01812744141 1003.13940429688 1015.45623779297 1018.72583007812 1011.77124023438 1005.86987304688
957.031616210938 954.727478027344 945.452026367188 936.032531738281 947.680969238281 946.879760742188 942.34423828125 946.503356933594 947.616943359375 940.481567382812 945.16845703125 949.268615722656 944.880493164062 943.75048828125 954.681701660156 951.705627441406 948.623413085938 954.494873046875 956.094055175781 957.905029296875 956.423461914062 953.882690429688 952.794372558594 954.599792480469 954.872741699219 948.621032714844 946.596252441406 954.316711425781 966.931457519531 964.792846679688 957.251831054688 951.716552734375 955.911560058594 951.758666992188 955.054992675781 956.472229003906 956.71630859375 953.043701171875 954.371643066406 957.511535644531 959.913757324219 963.423583984375 965.596008300781 964.094055175781 973.889343261719 973.82373046875 973.865539550781 974.913635253906 964.421691894531 977.3671875 983.874084472656 983.753295898438 964.502624511719 964.508239746094 965.847839355469 974.311218261719 974.696594238281 978.311706542969 977.600219726562 981.313598632812 974.101257324219 967.992248535156 965.36181640625 971.250183105469 968.255676269531 970.049743652344 961.09326171875 968.20166015625 963.747985839844 971.038208007812 979.547302246094 982.217529296875 977.052612304688 977.060241699219 973.468200683594 979.302124023438 979.437683105469 979.591857910156 984.531921386719 973.72705078125 968.816528320312 980.791381835938 980.055541992188 984.552551269531 990.158020019531 985.048950195312 981.700805664062 983.968383789062 970.993225097656 965.161804199219 965.752502441406 975.238342285156 978.401000976562 986.269409179688 983.726135253906 987.198974609375 991.99560546875 987.003662109375 993.00146484375 991.878784179688 993.260070800781 982.4736328125 983.242553710938 993.791076660156 996.553466796875 994.828918457031 992.553039550781 990.645690917969 1000.5126953125 993.891540527344 1002.42626953125 1009.34576416016 1013.71771240234 1011.63903808594 1018.41986083984 1026.166015625 1022.56213378906 1029.80847167969 1032.27770996094 1036.36462402344 1036.21960449219 1041.47802734375 1037.21313476562 1040.40441894531 1038.19677734375 1036.15441894531 1021.845703125 1021.23400878906 1023.24786376953 1025.95617675781 1027.48962402344 1022.31475830078 1024.21313476562 1030.94836425781 1031.17443847656 1026.51623535156 1020.72521972656 1023.72595214844 1034.30310058594 1035.79833984375 1033.68933105469 1023.96307373047 1020.88745117188 1011.36187744141 1009.90380859375 1009.82391357422 1005.42401123047 1012.74578857422 1012.11779785156 1008.55828857422
957.033874511719 949.301513671875 942.489196777344 945.45556640625 942.513488769531 939.723205566406 937.201904296875 940.810668945312 949.613342285156 944.229797363281 941.940307617188 954.548034667969 953.744262695312 954.443176269531 947.252807617188 945.778686523438 956.115783691406 953.302917480469 962.382690429688 965.199096679688 962.228271484375 963.664978027344 966.192687988281 958.687194824219 960.473083496094 958.100036621094 956.512756347656 954.087524414062 962.441650390625 972.939697265625 955.144958496094 957.373840332031 958.095092773438 952.340759277344 955.335876464844 957.155517578125 956.408569335938 957.455200195312 965.364562988281 955.3720703125 958.693298339844 969.105224609375 968.101196289062 976.783813476562 981.744689941406 984.613891601562 992.06494140625 985.711547851562 980.572204589844 981.195129394531 984.941467285156 982.747497558594 968.995422363281 966.928833007812 965.445983886719 966.537292480469 967.573181152344 974.830688476562 983.714904785156 975.967651367188 979.594177246094 967.761901855469 961.010009765625 958.733459472656 966.701904296875 971.404174804688 972.473815917969 972.74658203125 963.88427734375 969.53271484375 968.34716796875 979.115051269531 982.579345703125 982.614440917969 975.9033203125 975.397155761719 980.987854003906 981.450744628906 978.337768554688 985.355224609375 982.197692871094 982.520263671875 990.593688964844 989.983032226562 995.619018554688 987.20654296875 982.354797363281 987.559753417969 975.199340820312 974.523864746094 970.921264648438 978.25537109375 982.861267089844 986.844482421875 986.459411621094 986.303955078125 989.966918945312 984.814880371094 994.102233886719 992.66552734375 983.146484375 985.319885253906 993.879516601562 996.998107910156 1010.13989257812 999.721557617188 997.936096191406 999.285034179688 1003.13262939453 1010.59368896484 1007.62689208984 1014.05596923828 1016.1171875 1015.09973144531 1022.33514404297 1032.29309082031 1027.71459960938 1037.11853027344 1029.54174804688 1029.23278808594 1039.18359375 1044.70373535156 1039.39733886719 1054.67700195312 1044.74401855469 1037.73791503906 1022.64831542969 1011.25067138672 1012.41064453125 1020.08990478516 1016.81024169922 1014.48052978516 1019.06524658203 1021.31402587891 1027.72314453125 1017.63708496094 1022.37097167969 1028.62072753906 1029.935546875 1024.85107421875 1027.43566894531 1016.96142578125 1020.09967041016 1007.15716552734 1006.74725341797 1006.50506591797 1002.7783203125 1007.80364990234 1003.92840576172 1002.4375
950.457702636719 950.289367675781 939.257995605469 944.37060546875 938.617736816406 934.566528320312 937.900024414062 933.144775390625 943.14794921875 947.79150390625 951.222290039062 952.812866210938 957.977233886719 960.15380859375 949.127014160156 957.292236328125 958.445251464844 962.705932617188 965.560546875 966.625427246094 967.9912109375 974.566284179688 981.066955566406 975.939880371094 962.727355957031 958.869323730469 971.481201171875 974.544067382812 964.015747070312 964.777038574219 960.971374511719 961.096557617188 965.318176269531 965.167602539062 969.773742675781 958.272888183594 961.017639160156 957.759399414062 960.642272949219 954.658569335938 962.338317871094 960.053771972656 977.805053710938 977.850769042969 978.550903320312 988.249938964844 994.972045898438 990.489807128906 981.51123046875 981.043029785156 988.783935546875 981.185363769531 965.028015136719 964.509094238281 969.682983398438 977.773193359375 973.168029785156 979.37353515625 974.07373046875 980.113891601562 969.435791015625 965.934753417969 953.798034667969 957.487121582031 962.685607910156 972.8076171875 977.340148925781 980.547302246094 978.237487792969 974.761108398438 977.659729003906 974.690063476562 977.012878417969 986.466369628906 988.387451171875 981.953491210938 983.578430175781 987.895690917969 986.130920410156 978.46826171875 971.672729492188 981.272338867188 993.849914550781 982.110046386719 980.945617675781 979.638061523438 980.909240722656 983.326354980469 980.642150878906 972.977905273438 965.239990234375 976.197082519531 990.614379882812 993.303039550781 993.82373046875 992.410034179688 983.4931640625 988.88427734375 990.919555664062 1004.25427246094 994.703918457031 1000.58575439453 1011.65386962891 1007.14715576172 1011.35278320312 1013.13818359375 1007.16253662109 1010.51782226562 1008.93865966797 1018.97845458984 1016.38873291016 1020.16754150391 1022.25537109375 1021.41003417969 1031.67407226562 1032.71789550781 1026.34643554688 1040.81701660156 1035.19958496094 1041.93688964844 1046.92651367188 1043.3564453125 1041.16149902344 1047.5703125 1036.38110351562 1038.70166015625 1019.90344238281 1005.4462890625 1009.29901123047 1017.08630371094 1012.01916503906 1012.42822265625 1023.64581298828 1018.71374511719 1018.71783447266 1020.9755859375 1017.47784423828 1017.47369384766 1017.98980712891 1013.83233642578 1021.38500976562 1021.01702880859 1011.27874755859 1004.86938476562 1005.26428222656 1001.65716552734 1005.30487060547 999.083190917969 994.086120605469 1001.71881103516
948.981201171875 942.923461914062 937.753845214844 930.524536132812 937.694396972656 935.051391601562 934.684387207031 946.161315917969 955.272888183594 946.926574707031 952.718383789062 952.7275390625 952.430847167969 957.217895507812 959.586975097656 958.863464355469 967.1640625 964.836486816406 978.125915527344 981.469360351562 979.794372558594 982.33447265625 984.68701171875 979.330688476562 974.212585449219 965.78466796875 969.611145019531 973.185485839844 968.96240234375 965.290100097656 960.776428222656 968.374389648438 969.756652832031 973.851867675781 969.724914550781 967.084411621094 963.002258300781 971.471557617188 961.100769042969 967.083618164062 962.891723632812 966.1396484375 974.206787109375 986.824768066406 983.794372558594 983.816589355469 988.710021972656 993.517028808594 991.605773925781 987.626525878906 993.277893066406 984.079467773438 973.504943847656 967.280212402344 972.49755859375 971.788696289062 968.125854492188 980.263000488281 983.576538085938 983.811950683594 976.472473144531 964.39208984375 953.499755859375 960.567687988281 975.095764160156 974.401428222656 975.07080078125 977.837646484375 980.65771484375 971.85400390625 979.783752441406 982.584655761719 987.73974609375 992.941467285156 993.870483398438 982.525146484375 985.965759277344 990.540832519531 987.674011230469 980.138488769531 979.518371582031 993.267333984375 995.307434082031 983.345275878906 980.356323242188 982.076293945312 983.371826171875 981.103576660156 975.005737304688 966.348876953125 968.741394042969 973.635559082031 976.806335449219 983.951293945312 994.501159667969 999.706115722656 999.781799316406 995.442138671875 1005.22534179688 993.759338378906 999.895324707031 998.673034667969 1007.33410644531 1010.24066162109 1014.31134033203 1012.0166015625 1011.98022460938 1004.83544921875 1013.39215087891 1021.99560546875 1027.71838378906 1030.46960449219 1020.84362792969 1023.69744873047 1028.56652832031 1033.37915039062 1029.76489257812 1035.31884765625 1043.11706542969 1039.39538574219 1050.17980957031 1050.93200683594 1045.07653808594 1046.19543457031 1039.16772460938 1033.07397460938 1024.52819824219 1019.90325927734 1022.2763671875 1013.05035400391 1015.71838378906 1014.59698486328 1015.56890869141 1014.90350341797 1019.62286376953 1022.66961669922 1019.46868896484 1019.07464599609 1009.01214599609 1008.40789794922 1011.94598388672 1009.20269775391 998.793884277344 994.771728515625 993.226806640625 998.565368652344 994.376647949219 990.691589355469 989.987915039062 1000.9697265625
942.062133789062 946.043884277344 935.428588867188 936.008728027344 935.128967285156 931.5048828125 931.915771484375 940.693359375 952.454467773438 946.710327148438 960.296142578125 960.606262207031 952.427062988281 959.186279296875 965.464965820312 966.564636230469 968.363830566406 979.492919921875 981.034118652344 987.640625 982.306396484375 991.311157226562 1000.78594970703 987.264770507812 976.298583984375 965.1328125 972.587097167969 974.071594238281 971.679260253906 975.576538085938 965.592712402344 962.614624023438 974.36474609375 976.485961914062 977.912475585938 974.674865722656 971.258605957031 969.309020996094 969.363525390625 968.212768554688 979.855651855469 979.596984863281 988.468627929688 992.792358398438 991.592529296875 989.047668457031 990.250183105469 991.396423339844 997.161804199219 1002.826171875 997.009521484375 986.568115234375 981.387573242188 977.358642578125 977.668701171875 981.846130371094 980.706359863281 981.854797363281 982.077087402344 972.480163574219 967.765991210938 960.38671875 960.931091308594 971.216430664062 975.8310546875 984.516052246094 982.330383300781 976.03857421875 985.23095703125 992.838439941406 979.745666503906 985.114196777344 994.148010253906 984.863708496094 991.343444824219 984.056213378906 976.336242675781 976.622741699219 983.523681640625 986.121215820312 984.645812988281 1002.38775634766 996.325805664062 987.895385742188 984.166442871094 986.227355957031 981.911926269531 984.832885742188 978.368347167969 966.660217285156 964.963439941406 973.03125 981.962646484375 983.3291015625 990.000854492188 992.568664550781 996.80126953125 997.527770996094 1006.69073486328 1001.98895263672 1001.71008300781 1005.99267578125 1008.89080810547 1012.36694335938 1017.64483642578 1010.36950683594 1008.21502685547 1004.81927490234 1018.06127929688 1020.98828125 1030.54528808594 1022.78942871094 1017.83929443359 1020.84289550781 1021.58245849609 1028.85583496094 1028.44860839844 1033.29638671875 1034.45837402344 1040.03698730469 1048.25122070312 1053.61572265625 1045.51745605469 1045.73303222656 1038.31762695312 1029.41271972656 1020.09515380859 1012.68395996094 1021.49591064453 1014.50213623047 1015.71185302734 1016.59167480469 1014.83740234375 1017.58599853516 1012.54644775391 1026.17504882812 1019.34985351562 1014.18347167969 1012.71270751953 1008.19580078125 1013.35070800781 1014.09173583984 1005.09490966797 996.683288574219 997.410949707031 997.063293457031 993.5078125 994.19775390625 988.762329101562 987.578063964844
944.95751953125 937.823059082031 933.340576171875 934.430847167969 941.20751953125 932.212829589844 930.891784667969 937.292358398438 951.228210449219 954.195983886719 956.330871582031 958.210693359375 968.43603515625 969.060974121094 975.582214355469 971.869445800781 972.175109863281 983.171936035156 978.585815429688 987.153625488281 985.504821777344 995.030822753906 994.585327148438 996.774353027344 987.145935058594 973.738464355469 972.791259765625 980.416564941406 976.284851074219 976.239013671875 965.395263671875 964.994995117188 972.962585449219 982.658996582031 976.832092285156 966.863830566406 978.315185546875 978.936889648438 977.25634765625 978.168823242188 978.776306152344 987.244140625 994.555725097656 991.301025390625 995.906677246094 994.705932617188 988.109191894531 993.991027832031 999.407043457031 1008.21295166016 1006.42071533203 994.079284667969 990.022888183594 990.002990722656 985.910827636719 985.57080078125 979.659057617188 986.781005859375 987.105346679688 972.285095214844 971.802307128906 960.849670410156 956.752563476562 967.943054199219 973.239868164062 974.356689453125 977.371337890625 976.651123046875 984.390930175781 991.905822753906 986.115905761719 986.322875976562 989.139465332031 989.658996582031 986.82568359375 989.91259765625 985.690673828125 977.932189941406 988.813415527344 988.36279296875 984.999206542969 993.776794433594 996.042663574219 985.70263671875 990.518676757812 984.02685546875 985.167053222656 982.805969238281 981.107788085938 975.621887207031 977.243041992188 977.857971191406 983.329162597656 979.581726074219 990.129089355469 996.461547851562 999.367980957031 1008.50573730469 1010.51580810547 1006.65673828125 1004.09283447266 1013.10913085938 1012.57470703125 1013.73864746094 1012.7734375 1016.7216796875 1012.73431396484 1007.47424316406 1027.34497070312 1028.47705078125 1035.0703125 1020.90063476562 1022.86724853516 1021.66687011719 1030.55322265625 1026.13488769531 1029.28686523438 1033.22204589844 1040.64245605469 1030.21887207031 1031.95275878906 1036.03564453125 1040.39978027344 1033.56469726562 1036.95336914062 1021.92694091797 1019.17620849609 1015.67767333984 1017.81811523438 1016.26287841797 1016.24578857422 1016.46661376953 1019.63189697266 1009.89379882812 1015.69256591797 1014.47662353516 1018.01983642578 1013.53356933594 1013.52319335938 1006.85144042969 1013.85736083984 1006.73266601562 996.044250488281 993.65966796875 1002.73266601562 1000.13372802734 997.538879394531 1001.64404296875 995.884094238281 999.213928222656
938.158447265625 933.029357910156 934.026916503906 935.825500488281 939.43359375 937.924865722656 928.016357421875 935.597045898438 929.821960449219 945.435180664062 961.928344726562 957.548645019531 970.8369140625 974.362609863281 975.918273925781 981.469055175781 977.302001953125 989.036193847656 986.058654785156 988.533386230469 980.814697265625 987.247375488281 989.039123535156 993.821350097656 996.570129394531 981.92626953125 980.550964355469 982.373474121094 977.484802246094 968.192565917969 968.248046875 971.814392089844 980.471130371094 986.632019042969 986.118347167969 985.753662109375 977.928344726562 982.060974121094 981.579040527344 977.217468261719 985.372924804688 989.792602539062 1001.85894775391 997.61083984375 996.278930664062 996.111145019531 999.148803710938 1000.29620361328 1004.45275878906 1011.36828613281 1001.13330078125 995.063903808594 986.024108886719 985.714599609375 978.68896484375 978.910705566406 984.158325195312 989.795532226562 980.761413574219 975.101440429688 971.395629882812 980.886962890625 969.56201171875 968.89453125 973.539184570312 978.265869140625 979.323486328125 983.3486328125 990.959228515625 987.34814453125 982.920288085938 980.130249023438 987.821899414062 993.344482421875 996.454528808594 994.442443847656 991.33984375 984.857299804688 986.57470703125 980.493713378906 989.484069824219 1000.08520507812 999.709655761719 990.615173339844 985.428771972656 989.006713867188 986.383972167969 985.420166015625 984.51416015625 979.287475585938 980.045715332031 987.037292480469 984.186706542969 983.73095703125 994.492614746094 997.637939453125 1007.56384277344 1008.07989501953 1008.08776855469 1014.16412353516 1007.22674560547 1005.3154296875 1001.12261962891 1010.93316650391 1016.07141113281 1013.28198242188 1011.06286621094 1017.77093505859 1026.3984375 1032.33142089844 1028.10876464844 1032.85571289062 1019.58996582031 1025.556640625 1027.8154296875 1024.89477539062 1028.63452148438 1031.73864746094 1029.76025390625 1022.67150878906 1032.71655273438 1029.67517089844 1029.40148925781 1030.15405273438 1026.50280761719 1025.06237792969 1020.17175292969 1020.15863037109 1014.67572021484 1018.08520507812 1021.36328125 1017.17645263672 1018.69116210938 1017.61688232422 1020.06677246094 1020.10302734375 1013.63299560547 1009.82330322266 1003.85913085938 997.08056640625 1001.09606933594 996.501525878906 1002.01623535156 994.900451660156 1000.12561035156 999.794189453125 997.307922363281 1006.65612792969 1002.24737548828 1001.08374023438
939.732360839844 930.83251953125 928.952453613281 928.3994140625 937.837646484375 935.566162109375 937.29638671875 940.177124023438 944.484924316406 943.594970703125 947.153869628906 947.445434570312 969.527587890625 977.814514160156 969.411010742188 978.138671875 979.469116210938 983.272705078125 988.545776367188 990.711791992188 993.85498046875 990.968383789062 995.916931152344 996.735656738281 994.619262695312 993.390441894531 985.858642578125 986.521850585938 984.896545410156 971.400390625 973.138122558594 976.891052246094 985.42578125 983.15625 985.340942382812 988.233642578125 992.496520996094 991.271362304688 984.982177734375 983.797607421875 989.700561523438 1004.27447509766 1000.15692138672 996.334106445312 990.128967285156 1003.34045410156 1010.29187011719 1016.56988525391 1014.64599609375 1014.33776855469 1005.02923583984 999.577880859375 993.885681152344 991.243286132812 974.9404296875 983.596862792969 985.468505859375 980.032165527344 983.065856933594 973.427124023438 979.444458007812 976.020263671875 975.737182617188 968.128845214844 968.482360839844 976.192199707031 978.482360839844 984.233703613281 985.669982910156 984.308898925781 980.901672363281 980.069519042969 981.518310546875 987.046447753906 992.962829589844 992.892883300781 986.691955566406 983.015258789062 978.091857910156 986.197387695312 987.427917480469 987.432006835938 989.887084960938 983.7666015625 986.591247558594 991.2548828125 991.49267578125 989.71728515625 986.974487304688 989.395690917969 986.052734375 982.458435058594 981.381713867188 984.917907714844 987.11474609375 1000.97100830078 1003.31121826172 999.866333007812 1003.12097167969 1016.20971679688 1000.34613037109 994.963806152344 1001.27142333984 1010.71691894531 1008.35546875 1005.23913574219 1016.15185546875 1015.92816162109 1022.26477050781 1031.54028320312 1029.48400878906 1030.5478515625 1027.5927734375 1032.50158691406 1015.79638671875 1017.74237060547 1022.82415771484 1019.45947265625 1022.13079833984 1019.54815673828 1027.70849609375 1027.6474609375 1029.40393066406 1029.63427734375 1027.96533203125 1025.53857421875 1022.81829833984 1010.99548339844 1004.71417236328 1010.59234619141 1012.58258056641 1016.15771484375 1011.54901123047 1017.40051269531 1016.56213378906 1016.32141113281 1009.50750732422 1010.81353759766 1002.16918945312 999.751953125 984.319030761719 987.590576171875 995.803344726562 994.906127929688 997.920104980469 1005.25799560547 997.525146484375 994.7509765625 1000.03155517578 1009.04895019531
943.186157226562 936.959167480469 935.742309570312 940.822814941406 936.540954589844 934.248840332031 939.759887695312 934.603088378906 934.814086914062 935.879333496094 947.431030273438 947.876647949219 960.611145019531 961.866333007812 967.147216796875 971.653137207031 977.272583007812 993.233154296875 988.117858886719 992.457946777344 991.989929199219 988.746215820312 996.568969726562 991.734008789062 989.785034179688 990.906494140625 987.05419921875 984.754699707031 990.19580078125 992.582580566406 987.356872558594 981.696105957031 980.895629882812 979.784790039062 985.28125 990.050842285156 998.871154785156 1005.05889892578 986.385803222656 981.94580078125 994.525451660156 987.47021484375 995.238647460938 1003.41320800781 1004.77282714844 1005.60034179688 1010.00476074219 1018.19836425781 1024.34692382812 1019.86669921875 1016.75628662109 1000.35711669922 998.841613769531 996.960998535156 982.871765136719 983.661437988281 987.2216796875 982.732238769531 982.69482421875 982.549194335938 978.339660644531 977.096435546875 974.767944335938 966.130737304688 973.379272460938 974.72802734375 979.378967285156 974.769775390625 980.237243652344 984.032348632812 978.210632324219 984.186706542969 989.464721679688 991.684204101562 995.833679199219 998.994384765625 988.779113769531 994.34326171875 992.931030273438 988.177307128906 986.606384277344 992.89306640625 978.211181640625 981.705444335938 993.272827148438 990.225158691406 1002.88641357422 995.279479980469 990.5986328125 992.15087890625 986.292175292969 983.946838378906 985.034912109375 979.298278808594 988.697937011719 998.581909179688 1003.6982421875 1001.48791503906 1001.74401855469 1006.38958740234 999.773193359375 998.317016601562 999.773620605469 1001.99597167969 1004.27038574219 1013.10168457031 1021.59466552734 1021.64056396484 1027.65661621094 1026.34521484375 1030.17504882812 1030.11633300781 1035.83154296875 1022.14538574219 1022.82562255859 1014.4306640625 1013.46215820312 1014.19909667969 1023.46759033203 1020.43878173828 1028.60913085938 1029.21069335938 1030.46545410156 1030.18127441406 1024.90283203125 1023.37896728516 1018.08099365234 1012.62255859375 1009.12512207031 1003.07086181641 1008.99060058594 1005.18188476562 1008.58465576172 1007.30346679688 1012.55822753906 1010.52508544922 1006.3037109375 1008.08697509766 1000.70068359375 990.524658203125 983.236022949219 989.769348144531 986.094665527344 990.436767578125 991.379211425781 996.01416015625 983.482238769531 984.024169921875 983.999084472656 1000.10504150391
941.232177734375 938.156616210938 938.673583984375 932.442993164062 928.648864746094 934.323303222656 935.259826660156 936.0869140625 933.135070800781 943.547546386719 948.633117675781 943.660400390625 964.317077636719 967.846984863281 973.69580078125 982.9150390625 975.600158691406 982.489624023438 980.619689941406 985.763305664062 993.287292480469 995.069641113281 990.314025878906 989.644226074219 990.149536132812 995.892883300781 994.719421386719 1001.32830810547 992.787963867188 991.426208496094 988.2861328125 990.989013671875 984.136596679688 983.574157714844 994.803100585938 991.358764648438 993.374206542969 1002.80169677734 997.410888671875 988.711791992188 993.309692382812 992.324096679688 995.646118164062 995.79296875 1008.13067626953 1001.07708740234 1011.79040527344 1017.13305664062 1020.87384033203 1028.17797851562 1018.92755126953 1013.75622558594 1000.38842773438 997.068542480469 991.10595703125 987.23779296875 986.991882324219 974.230895996094 975.463012695312 982.147583007812 977.606750488281 978.740600585938 974.897399902344 983.074340820312 976.556945800781 971.035339355469 975.94189453125 972.7021484375 978.441101074219 966.03173828125 977.385681152344 986.848205566406 998.908935546875 990.696899414062 991.703125 983.026306152344 987.71923828125 1001.00610351562 1002.1826171875 1004.11956787109 1000.625 992.8095703125 985.107849121094 984.253234863281 997.227294921875 1005.68231201172 1005.47583007812 990.341125488281 989.367126464844 1001.27960205078 995.414123535156 982.839782714844 983.956359863281 986.467224121094 993.7568359375 1001.55462646484 1009.14208984375 1006.818359375 1002.98974609375 1004.32104492188 1003.11303710938 1000.12835693359 1008.42962646484 1002.40905761719 1007.64807128906 1019.06140136719 1023.00726318359 1023.53997802734 1025.95288085938 1030.16186523438 1035.19555664062 1037.38427734375 1034.71643066406 1027.48693847656 1024.81677246094 1008.80169677734 1016.3916015625 1015.21948242188 1012.98852539062 1019.11828613281 1026.99914550781 1022.51525878906 1029.55895996094 1019.38165283203 1010.76434326172 1015.41497802734 1026.83557128906 1013.65679931641 1004.01538085938 994.144775390625 1008.60528564453 1002.97271728516 1000.91448974609 1007.70593261719 1005.44000244141 1012.25970458984 1008.92828369141 1008.12060546875 1002.81872558594 989.512878417969 989.569396972656 981.013916015625 985.810913085938 989.236328125 986.833801269531 983.349609375 981.3193359375 980.175231933594 980.807556152344 987.473510742188
948.043884277344 948.808898925781 935.524658203125 934.94091796875 940.301635742188 934.066467285156 931.052001953125 932.486755371094 942.613342285156 949.362915039062 951.74609375 962.742553710938 961.529968261719 967.734191894531 979.459350585938 981.380310058594 982.092224121094 978.787170410156 977.926513671875 979.192810058594 980.798889160156 992.774536132812 989.963195800781 983.218078613281 990.837097167969 992.864074707031 996.132995605469 999.516906738281 1003.43707275391 998.193542480469 989.788330078125 985.035095214844 990.009460449219 983.145080566406 987.360961914062 993.458374023438 997.780517578125 996.510314941406 997.715026855469 997.647705078125 996.270568847656 1006.56506347656 1005.19915771484 1005.60534667969 1013.68035888672 1013.93402099609 1017.07366943359 1018.36968994141 1024.23876953125 1024.10131835938 1018.01086425781 1015.81683349609 995.7783203125 987.967468261719 993.360412597656 990.718811035156 985.238647460938 988.0810546875 981.401306152344 981.274230957031 979.651245117188 986.355224609375 981.30615234375 972.051147460938 979.454345703125 976.060974121094 972.216369628906 966.068298339844 970.832580566406 973.295471191406 985.732849121094 994.708984375 993.403259277344 993.192749023438 986.80224609375 979.323608398438 987.852233886719 1004.08044433594 997.353454589844 1004.85589599609 998.051330566406 996.842346191406 990.887329101562 996.278076171875 999.915954589844 999.307739257812 1001.86846923828 1001.78662109375 1003.94915771484 996.079467773438 989.277099609375 990.511535644531 991.907409667969 992.746887207031 990.292053222656 996.335205078125 1003.08905029297 999.565612792969 998.914245605469 1003.33990478516 1006.84606933594 998.7724609375 1007.18341064453 1006.70391845703 1009.67242431641 1016.53033447266 1024.57580566406 1026.9619140625 1023.29486083984 1031.03332519531 1033.64245605469 1032.21533203125 1030.8125 1027.51672363281 1027.76477050781 1023.52899169922 1017.95428466797 1015.09820556641 1021.97564697266 1015.11499023438 1025.18640136719 1020.85028076172 1018.12701416016 1015.75170898438 1018.82836914062 1017.27874755859 1019.85540771484 1017.87982177734 1009.57775878906 998.683654785156 1004.369140625 1004.36450195312 995.857238769531 992.426879882812 997.929626464844 994.672973632812 1005.23840332031 1006.13305664062 1003.45867919922 988.203125 985.55712890625 984.696899414062 983.58447265625 979.405517578125 977.92138671875 974.565734863281 980.779602050781 986.240844726562 985.107971191406 983.322875976562
939.032348632812 933.925109863281 926.025451660156 936.70166015625 935.908569335938 934.904357910156 933.91162109375 942.9033203125 953.450134277344 958.548217773438 959.429626464844 966.2724609375 961.822082519531 971.486755371094 971.787353515625 977.793884277344 976.256469726562 983.864868164062 976.635314941406 968.998474121094 978.086486816406 978.211547851562 980.966674804688 983.675170898438 992.892333984375 991.792907714844 997.464538574219 995.415466308594 1001.65411376953 998.091857910156 991.367553710938 983.384155273438 987.304382324219 986.389953613281 991.858947753906 991.189636230469 993.104553222656 997.828369140625 997.192626953125 998.979248046875 993.519409179688 998.478942871094 1010.52587890625 1020.20202636719 1017.93823242188 1010.66351318359 1016.17877197266 1027.91845703125 1025.66040039062 1027.94494628906 1010.66796875 1012.59613037109 998.944580078125 994.623229980469 981.348937988281 984.162414550781 994.420227050781 993.937561035156 987.687927246094 985.85546875 985.236145019531 985.923034667969 976.413818359375 968.805419921875 980.685180664062 981.02001953125 970.322143554688 965.22900390625 972.127624511719 974.018920898438 986.048034667969 994.731750488281 993.394470214844 989.757202148438 982.292724609375 989.829162597656 987.869995117188 1001.53576660156 1005.27935791016 1000.89270019531 1008.39434814453 1004.89959716797 997.418212890625 1001.96136474609 1001.49816894531 1002.10821533203 1007.01995849609 994.745483398438 999.818298339844 1001.62609863281 989.713012695312 994.755554199219 993.604187011719 991.350219726562 990.133728027344 995.091918945312 997.59765625 997.692810058594 1001.53332519531 1001.26147460938 1006.30688476562 1010.88568115234 1004.70977783203 1008.02807617188 1004.62561035156 1011.34405517578 1016.86639404297 1018.29772949219 1034.76806640625 1036.38623046875 1033.61682128906 1027.95971679688 1035.15148925781 1034.34399414062 1033.29211425781 1027.06884765625 1022.57354736328 1023.38671875 1019.61346435547 1013.89404296875 1009.54205322266 1011.50219726562 1005.83117675781 1006.37585449219 1009.80651855469 1004.74822998047 1002.42132568359 1009.70141601562 1004.96258544922 1001.93762207031 1001.32257080078 995.349975585938 992.569641113281 989.190185546875 992.037353515625 994.712463378906 993.309265136719 1000.00238037109 994.016357421875 990.4814453125 986.15380859375 983.780700683594 987.390869140625 979.285034179688 969.775329589844 971.337646484375 973.471862792969 974.872436523438 982.291381835938 990.539916992188
940.846923828125 939.316284179688 937.679504394531 946.039123535156 935.017456054688 942.392456054688 937.465942382812 943.718688964844 955.296997070312 961.193237304688 970.077026367188 963.454711914062 971.871520996094 975.99365234375 971.317810058594 975.729675292969 967.778625488281 976.202575683594 977.111694335938 973.326049804688 971.273071289062 970.298828125 977.936218261719 985.676452636719 972.184814453125 986.834594726562 994.624938964844 990.048950195312 984.829406738281 985.353576660156 981.250305175781 986.829162597656 990.34765625 984.318664550781 994.215942382812 990.677917480469 1001.23522949219 998.872436523438 1001.80889892578 1001.8173828125 1000.02563476562 1003.72503662109 1000.71966552734 1010.87579345703 1013.17218017578 1012.50823974609 1019.29931640625 1023.87109375 1016.40484619141 1020.86730957031 1007.63928222656 1012.94848632812 1009.42004394531 993.894836425781 983.859558105469 986.197814941406 987.628356933594 992.915100097656 990.076354980469 986.624328613281 981.628540039062 982.0390625 972.698669433594 977.273681640625 978.588623046875 981.119812011719 975.297241210938 971.773498535156 977.956726074219 978.706970214844 991.460388183594 995.653381347656 992.647155761719 990.598510742188 991.923034667969 990.160583496094 996.188415527344 996.916015625 1002.63311767578 997.736694335938 1002.765625 1009.96704101562 1005.66986083984 1004.78277587891 1000.93347167969 1009.49468994141 998.6484375 1000.69921875 1001.65057373047 999.281860351562 989.393615722656 997.675842285156 992.347045898438 995.915283203125 995.278991699219 995.747985839844 994.248046875 993.959045410156 1003.15985107422 1000.00750732422 1006.56573486328 1012.82556152344 1011.46661376953 997.517883300781 1003.33709716797 1008.19805908203 1015.78942871094 1022.17364501953 1022.67858886719 1024.20324707031 1024.70129394531 1020.29418945312 1033.80029296875 1036.04431152344 1044.505859375 1035.62487792969 1029.08056640625 1018.01538085938 1010.44635009766 1006.63903808594 1008.75103759766 1011.5166015625 1003.27124023438 1000.77642822266 999.0029296875 1000.92352294922 1006.88787841797 1007.08349609375 1005.73162841797 1003.99267578125 993.664184570312 990.904602050781 992.87353515625 994.00146484375 994.54638671875 990.084838867188 996.319152832031 995.673522949219 994.119079589844 992.411743164062 994.093872070312 993.633850097656 985.078796386719 977.986083984375 973.951599121094 970.183776855469 973.581604003906 986.323913574219 980.10986328125 992.727905273438
952.256958007812 948.14404296875 946.308532714844 940.214965820312 939.238403320312 942.1533203125 937.133422851562 944.029663085938 950.764038085938 953.124755859375 962.325744628906 975.2080078125 974.32080078125 972.348754882812 966.880981445312 962.592468261719 971.073669433594 976.157958984375 973.221923828125 966.819702148438 964.905456542969 966.950561523438 972.4345703125 974.145568847656 979.162170410156 986.753479003906 985.303466796875 986.228881835938 984.806030273438 982.463684082031 983.659851074219 991.264526367188 993.196350097656 991.3603515625 992.701721191406 983.923950195312 993.394958496094 997.033569335938 1000.65991210938 1007.45837402344 1009.34271240234 1007.03619384766 1005.11468505859 1010.12023925781 1010.9609375 1010.24737548828 1011.95568847656 1013.87414550781 1016.47253417969 1018.12145996094 1011.55657958984 1012.09466552734 1002.53118896484 1001.55426025391 991.80419921875 992.023254394531 991.795959472656 987.873962402344 994.461059570312 983.465454101562 981.000793457031 978.666564941406 977.234008789062 977.969665527344 975.926208496094 973.752075195312 978.688537597656 976.045959472656 981.582641601562 986.265625 982.796264648438 982.096313476562 982.908142089844 991.505859375 982.943664550781 989.366638183594 989.008972167969 993.368469238281 994.564758300781 1003.17517089844 1006.07598876953 1004.75384521484 1008.69750976562 1008.85681152344 1004.48645019531 1008.95721435547 998.295227050781 986.573059082031 998.095520019531 1002.52722167969 992.332580566406 997.214172363281 996.663330078125 996.176879882812 998.534851074219 997.709106445312 992.990051269531 992.669799804688 997.064086914062 995.685302734375 1007.82568359375 1011.28735351562 1010.26635742188 1004.0595703125 1008.56677246094 1014.64074707031 1014.81433105469 1028.51501464844 1027.82141113281 1035.37084960938 1025.6337890625 1033.18884277344 1043.38354492188 1047.9990234375 1058.06591796875 1048.060546875 1027.76232910156 1011.89965820312 1004.51226806641 999.3994140625 1000.11242675781 994.647338867188 1007.89752197266 1008.15368652344 997.886901855469 992.284301757812 996.53955078125 1000.45092773438 1000.56225585938 1008.09753417969 988.826965332031 992.4677734375 1001.09948730469 991.916931152344 993.74560546875 985.966369628906 987.845520019531 999.343872070312 1009.48779296875 993.596740722656 993.255554199219 991.250061035156 985.167419433594 972.410034179688 974.277465820312 972.102783203125 976.036804199219 987.216735839844 994.994934082031 984.447937011719
944.431640625 950.378967285156 949.266540527344 947.363525390625 946.330078125 953.249572753906 934.373107910156 936.813720703125 948.216125488281 947.674133300781 967.075439453125 975.788940429688 970.893798828125 970.838134765625 964.269226074219 969.080505371094 974.424621582031 964.096984863281 956.562927246094 953.488159179688 955.782897949219 959.816650390625 974.537536621094 977.244506835938 977.935546875 978.773803710938 978.697570800781 980.550964355469 985.225830078125 982.875244140625 974.448608398438 995.453063964844 998.261352539062 990.553588867188 999.0908203125 987.715881347656 993.668762207031 989.917053222656 993.384826660156 999.888916015625 994.473388671875 997.35205078125 996.901428222656 998.292297363281 1006.20697021484 1006.19494628906 1015.49700927734 1018.05053710938 1010.86981201172 1015.20324707031 1009.18817138672 1005.22912597656 1008.79803466797 988.710876464844 993.788452148438 986.190063476562 982.23193359375 989.633544921875 980.228271484375 981.359252929688 976.632751464844 980.965393066406 981.3525390625 989.126098632812 978.386352539062 981.355712890625 978.472839355469 983.185424804688 982.081604003906 979.603881835938 982.126892089844 987.279602050781 984.828857421875 992.381225585938 984.197937011719 982.179565429688 978.412109375 990.967224121094 992.671936035156 1000.08392333984 1008.24835205078 1006.07879638672 1006.63421630859 1006.25408935547 1010.11846923828 1011.72540283203 993.556640625 995.882080078125 997.165405273438 999.381042480469 997.848693847656 1006.59979248047 997.37744140625 996.714172363281 995.462707519531 999.514404296875 998.445739746094 993.804626464844 993.426513671875 1001.32946777344 997.954467773438 1007.67687988281 1018.57604980469 1013.94500732422 1011.47918701172 1011.99920654297 1018.24230957031 1021.28405761719 1034.59216308594 1043.76318359375 1037.083984375 1040.88952636719 1048.927734375 1059.10876464844 1064.33166503906 1054.16955566406 1037.62658691406 1012.07531738281 1014.21539306641 1014.30834960938 1003.77130126953 998.858093261719 1003.02416992188 1001.58026123047 1001.17834472656 996.953063964844 994.799926757812 994.413208007812 998.537414550781 991.66357421875 990.522399902344 981.546264648438 985.266662597656 987.14404296875 985.896606445312 977.937744140625 983.619018554688 987.675720214844 990.790283203125 998.519592285156 993.696411132812 991.0439453125 982.478332519531 982.53857421875 970.981262207031 974.848449707031 973.893127441406 975.3564453125 982.808532714844 987.650634765625
944.789245605469 952.914978027344 952.389221191406 945.32763671875 940.173400878906 944.023742675781 940.618591308594 935.6005859375 939.714477539062 946.952575683594 957.895629882812 967.017028808594 971.363403320312 964.896728515625 955.294982910156 958.723693847656 968.898376464844 964.443054199219 955.77734375 955.126342773438 959.82861328125 962.7275390625 963.299682617188 966.407104492188 978.166076660156 972.303527832031 969.828247070312 987.140075683594 977.649780273438 974.426025390625 978.836242675781 985.012512207031 994.067443847656 989.359436035156 993.453063964844 989.31494140625 989.042297363281 984.48046875 980.804138183594 994.486206054688 988.210144042969 988.510314941406 994.207580566406 990.516723632812 994.739624023438 1001.81323242188 1008.96142578125 1012.11785888672 1012.65679931641 1009.97454833984 999.14013671875 1003.70831298828 1006.33654785156 991.372192382812 980.743835449219 983.778564453125 979.477783203125 985.650695800781 985.442443847656 984.633483886719 978.142883300781 982.767578125 987.497985839844 990.064086914062 983.034423828125 982.2548828125 983.939697265625 981.937744140625 979.660339355469 985.627014160156 986.578247070312 981.057312011719 986.047058105469 991.088745117188 995.784973144531 976.960205078125 979.611999511719 992.306762695312 992.291687011719 993.831115722656 997.234985351562 1002.57794189453 1005.40740966797 1004.89300537109 1005.78656005859 1016.87670898438 1001.27679443359 1001.095703125 994.159423828125 999.064270019531 1000.96929931641 1006.15368652344 999.256103515625 1002.47143554688 1001.49237060547 1008.74389648438 1004.20867919922 1001.6796875 997.977294921875 1003.81536865234 1001.26391601562 1009.57708740234 1020.8046875 1016.83599853516 1017.30999755859 1013.95678710938 1018.33093261719 1031.673828125 1037.43273925781 1039.74694824219 1037.18579101562 1045.52038574219 1046.09936523438 1064.81530761719 1061.22180175781 1054.47631835938 1048.52026367188 1027.06201171875 1024.31665039062 1012.15338134766 1016.19030761719 1006.04449462891 1002.32373046875 1001.68090820312 999.553833007812 989.955017089844 995.511291503906 994.248229980469 983.532348632812 984.720275878906 985.300476074219 970.285522460938 985.050903320312 988.240356445312 980.343872070312 970.883056640625 977.271179199219 982.544860839844 985.93359375 984.784790039062 981.06298828125 979.835876464844 984.743835449219 977.561462402344 976.569458007812 973.082214355469 975.197326660156 977.606384277344 986.114318847656 985.431945800781
948.788024902344 949.140930175781 955.898071289062 949.185729980469 942.003723144531 936.010375976562 935.396118164062 939.559692382812 929.206359863281 942.916137695312 944.861206054688 957.269287109375 965.721374511719 961.88232421875 956.3564453125 963.583435058594 961.967163085938 958.140686035156 948.016906738281 952.016296386719 953.48583984375 957.113647460938 958.783020019531 968.669921875 971.404052734375 960.883728027344 964.808410644531 974.439819335938 971.327514648438 968.211120605469 970.936828613281 974.914672851562 978.920776367188 983.28759765625 988.303527832031 986.452514648438 984.401672363281 980.962158203125 976.344787597656 977.566345214844 979.955871582031 983.067138671875 987.140808105469 991.819396972656 988.468078613281 1001.22015380859 1005.49829101562 1000.81512451172 1001.14208984375 1003.35375976562 1005.46557617188 1003.84649658203 999.135070800781 993.847229003906 983.044128417969 986.144653320312 983.255859375 985.824401855469 981.010803222656 985.356201171875 992.220825195312 994.303039550781 995.037353515625 984.993041992188 977.824462890625 979.216064453125 973.948059082031 986.953308105469 986.253540039062 992.667541503906 990.775085449219 993.964965820312 1000.54077148438 997.295959472656 995.1484375 990.626281738281 987.158752441406 988.022216796875 988.792785644531 997.896423339844 1003.74420166016 998.419982910156 1004.75720214844 1007.52362060547 1010.05456542969 1008.71771240234 996.02294921875 993.210998535156 1001.69958496094 1005.98876953125 1000.69641113281 1003.36175537109 1001.84216308594 1007.15692138672 1016.6669921875 1008.70935058594 1001.64483642578 1017.83270263672 1005.41943359375 1003.63781738281 1004.96221923828 1005.18316650391 1012.71624755859 1007.51403808594 1006.06634521484 1022.36431884766 1029.88781738281 1035.8857421875 1036.58227539062 1043.1005859375 1047.08837890625 1056.95520019531 1048.87573242188 1061.7353515625 1062.52819824219 1050.47766113281 1047.47009277344 1035.94372558594 1025.60144042969 1018.22979736328 1019.29174804688 1010.75323486328 1006.13311767578 1004.87341308594 998.64404296875 986.920715332031 986.292907714844 987.998107910156 981.563537597656 974.754943847656 978.89208984375 979.240478515625 988.539428710938 980.950866699219 990.017272949219 977.294494628906 972.752014160156 978.526977539062 980.280639648438 981.193481445312 976.663269042969 975.130737304688 970.051330566406 973.237487792969 967.660278320312 975.688781738281 980.46533203125 971.2236328125 980.829345703125 979.412536621094
956.075622558594 957.071166992188 961.600891113281 957.1591796875 942.879821777344 933.358093261719 932.705139160156 928.999816894531 929.991027832031 937.032531738281 941.311706542969 950.080200195312 957.131408691406 951.310852050781 948.068908691406 958.608276367188 959.245361328125 955.254760742188 949.853515625 947.548889160156 950.407104492188 954.494140625 961.079040527344 960.629211425781 959.043273925781 954.96533203125 959.966674804688 966.956970214844 964.181274414062 958.595153808594 967.568969726562 973.936706542969 969.228332519531 968.437683105469 976.455078125 975.288513183594 970.142700195312 976.199890136719 974.2822265625 979.427856445312 972.231872558594 976.897766113281 977.223999023438 987.411560058594 1000.10083007812 999.081909179688 1008.01483154297 1008.84423828125 1005.24139404297 1002.92218017578 1001.29278564453 996.523254394531 996.960266113281 994.404052734375 987.342468261719 991.016052246094 987.974975585938 988.813110351562 988.572326660156 990.096984863281 998.330993652344 995.608581542969 989.125244140625 984.4384765625 984.19970703125 989.181274414062 976.556030273438 977.477172851562 993.091491699219 991.705139160156 992.393188476562 1001.75177001953 1000.18878173828 1001.91125488281 1002.84112548828 995.893981933594 985.795532226562 995.211486816406 988.994445800781 995.148315429688 1000.82141113281 999.247985839844 1009.51153564453 1006.97912597656 1016.19653320312 1011.9619140625 1000.15234375 999.490112304688 1001.3955078125 998.169555664062 993.735961914062 993.075012207031 1000.99523925781 1006.20166015625 1009.41534423828 1004.13824462891 1006.68646240234 1017.93548583984 1011.47332763672 1009.47967529297 1002.22192382812 1005.48937988281 1008.318359375 1018.61053466797 1017.94927978516 1022.00158691406 1033.408203125 1031.85107421875 1042.93957519531 1047.21520996094 1055.34936523438 1053.77868652344 1056.25476074219 1060.21228027344 1064.85205078125 1063.56323242188 1061.19995117188 1049.99108886719 1035.51354980469 1030.74584960938 1017.03497314453 1014.43774414062 1007.95123291016 1010.89215087891 1007.73577880859 1007.96740722656 996.620971679688 989.285461425781 984.233581542969 974.440002441406 981.140502929688 980.861694335938 980.197814941406 981.090393066406 984.269653320312 977.107604980469 975.051696777344 975.493103027344 972.509704589844 979.156188964844 984.60498046875 970.370300292969 965.5341796875 965.678100585938 968.729431152344 969.809326171875 969.540161132812 967.731384277344 969.302917480469 968.7734375
953.728881835938 952.240905761719 952.659362792969 953.027160644531 940.146850585938 936.679992675781 941.844604492188 946.55517578125 935.976440429688 940.391540527344 941.046081542969 947.397521972656 947.681091308594 951.417175292969 953.340942382812 965.039306640625 956.809753417969 950.871948242188 959.858764648438 954.766784667969 957.312622070312 961.980773925781 960.11962890625 950.731079101562 954.112915039062 959.3681640625 958.113830566406 969.713500976562 961.447998046875 958.425964355469 966.649658203125 963.710388183594 962.724731445312 966.870483398438 966.956420898438 966.604736328125 963.994201660156 971.835205078125 970.103637695312 980.60302734375 975.670532226562 981.527770996094 983.815185546875 992.529846191406 995.666137695312 994.133850097656 998.840515136719 1009.38195800781 1013.10559082031 1003.05456542969 993.364685058594 995.408264160156 999.888549804688 995.608581542969 987.887634277344 987.958068847656 986.911743164062 986.928283691406 987.831848144531 984.95166015625 990.0380859375 987.075927734375 983.592346191406 985.492614746094 988.976806640625 982.600891113281 983.472839355469 983.018005371094 982.4326171875 992.304016113281 994.224853515625 996.271301269531 994.588012695312 991.771423339844 999.3857421875 993.045227050781 989.708801269531 985.071594238281 987.820373535156 990.335266113281 1001.74267578125 998.172668457031 1005.81231689453 1010.94543457031 1012.21026611328 1007.9296875 996.573120117188 997.867492675781 1001.36090087891 1006.60034179688 1003.19995117188 1003.04119873047 1001.40771484375 1000.10308837891 1004.98309326172 996.623718261719 1002.54370117188 1005.21624755859 1012.82983398438 1019.12060546875 1009.95397949219 1007.53015136719 1014.29949951172 1020.75231933594 1019.87872314453 1020.84350585938 1037.73181152344 1029.69299316406 1036.3623046875 1047.03881835938 1057.5029296875 1065.10388183594 1060.716796875 1060.15661621094 1068.21179199219 1062.79736328125 1064.14221191406 1059.37390136719 1040.55859375 1034.06726074219 1024.87353515625 1019.08410644531 1016.32861328125 1017.72821044922 1010.90344238281 1007.23980712891 1003.47406005859 996.510681152344 985.955993652344 978.839294433594 977.46142578125 984.462829589844 980.153015136719 974.968811035156 983.526489257812 977.690063476562 967.486633300781 971.779113769531 981.101806640625 981.487487792969 975.599426269531 974.85693359375 971.58544921875 967.091003417969 968.223754882812 968.187805175781 962.552856445312 964.095336914062 975.129028320312 976.256408691406
946.771057128906 948.822387695312 953.338989257812 953.531127929688 943.548889160156 939.998413085938 944.338439941406 946.336791992188 933.365234375 940.399475097656 939.103637695312 942.410400390625 953.345336914062 949.648315429688 951.281311035156 949.832275390625 958.979370117188 956.109008789062 966.349670410156 951.491088867188 959.630249023438 958.293334960938 954.252624511719 958.74267578125 960.102844238281 963.63818359375 963.523986816406 960.985961914062 966.933166503906 968.345825195312 963.151977539062 967.838195800781 953.997314453125 960.189331054688 963.318969726562 969.165344238281 965.607482910156 966.717102050781 966.773986816406 969.773681640625 967.869323730469 974.217895507812 975.661193847656 990.9287109375 988.816833496094 989.428100585938 998.595764160156 1000.91528320312 1002.94262695312 997.709411621094 998.175842285156 983.983093261719 996.025329589844 999.827514648438 983.609130859375 991.582641601562 990.819030761719 984.957214355469 988.416870117188 986.870422363281 993.147216796875 993.143188476562 995.195251464844 991.850952148438 990.33935546875 989.790832519531 994.135314941406 992.752075195312 978.388488769531 988.025268554688 994.140014648438 997.118286132812 992.561218261719 991.682495117188 991.661499023438 994.280822753906 997.756591796875 995.098449707031 993.62548828125 996.558471679688 994.505615234375 1003.86535644531 1005.22937011719 1006.57495117188 1001.40637207031 999.632080078125 1005.64849853516 1004.58074951172 1004.42608642578 999.842590332031 998.642211914062 994.022033691406 997.112548828125 995.645812988281 992.850402832031 989.622375488281 1000.16058349609 1003.66278076172 1008.76733398438 1016.63861083984 1020.83190917969 1017.49090576172 1014.78582763672 1019.25939941406 1028.38366699219 1031.00024414062 1026.50402832031 1035.5166015625 1042.98181152344 1047.93701171875 1053.98132324219 1064.30395507812 1060.009765625 1064.12121582031 1059.06030273438 1057.56494140625 1062.81311035156 1055.19641113281 1045.2998046875 1046.10302734375 1034.81896972656 1023.61364746094 1017.66302490234 1021.71203613281 1014.27563476562 1011.93255615234 997.13134765625 995.886596679688 997.024169921875 982.983093261719 982.281433105469 972.768676757812 982.728637695312 986.639770507812 982.6318359375 987.7080078125 979.358032226562 978.056884765625 973.237670898438 974.818725585938 979.296508789062 965.996459960938 964.953491210938 964.208129882812 976.572875976562 965.085388183594 968.835021972656 978.785888671875 971.652587890625 974.371704101562
954.992858886719 954.092590332031 957.592529296875 955.768737792969 943.3359375 950.948547363281 946.573852539062 945.036071777344 943.538391113281 940.831481933594 943.3798828125 948.00439453125 951.460327148438 954.995849609375 949.698974609375 948.777893066406 963.215576171875 957.91796875 959.026672363281 961.766784667969 961.701110839844 963.572265625 951.622131347656 951.955688476562 958.009521484375 968.380065917969 958.616882324219 959.210327148438 971.527404785156 964.586669921875 960.996704101562 968.322998046875 967.294128417969 961.389221191406 962.322631835938 961.981384277344 969.543273925781 967.310302734375 980.527465820312 980.947387695312 969.398010253906 967.621887207031 968.933776855469 970.564392089844 979.235717773438 990.405883789062 999.391235351562 995.232360839844 1000.67822265625 995.620849609375 995.968078613281 993.338928222656 994.414184570312 1001.53350830078 998.709899902344 996.082641601562 995.774780273438 994.544860839844 998.501770019531 992.917297363281 1001.43469238281 993.002685546875 995.116516113281 988.845825195312 989.654541015625 993.506591796875 996.529052734375 995.77880859375 986.220947265625 992.883056640625 994.133911132812 996.147766113281 990.542053222656 984.901428222656 991.520385742188 994.05712890625 992.293579101562 991.774658203125 993.819091796875 997.810180664062 992.521240234375 998.4072265625 997.729675292969 999.544616699219 1006.36987304688 1014.06573486328 1009.26275634766 1007.77355957031 1001.72222900391 1004.62145996094 1002.98083496094 998.270874023438 1000.16339111328 994.578369140625 1000.17602539062 996.982849121094 1001.58099365234 1006.29321289062 1017.69439697266 1020.27642822266 1030.90747070312 1028.57678222656 1032.79223632812 1030.21569824219 1026.99279785156 1029.58129882812 1030.92358398438 1032.42993164062 1044.08361816406 1051.75866699219 1057.419921875 1057.86218261719 1059.98266601562 1055.40844726562 1062.75817871094 1057.30981445312 1065.38879394531 1062.11633300781 1054.19213867188 1049.27014160156 1039.21948242188 1028.82397460938 1032.509765625 1027.82678222656 1017.34869384766 1006.98992919922 1005.10717773438 998.280944824219 1002.84088134766 984.814819335938 982.853210449219 980.037353515625 977.863647460938 982.188049316406 985.095703125 984.989013671875 982.477661132812 979.4482421875 971.814086914062 966.178466796875 965.270263671875 954.840515136719 953.619018554688 964.712280273438 972.507934570312 966.75634765625 965.993591308594 980.174377441406 976.40869140625 972.983703613281
963.291076660156 964.836669921875 958.060546875 958.80126953125 948.182800292969 944.996154785156 951.933837890625 955.8203125 942.216979980469 947.650939941406 951.509521484375 951.555847167969 955.454040527344 947.813842773438 952.26904296875 962.906005859375 966.559509277344 953.936889648438 947.739807128906 958.736999511719 961.940979003906 958.577453613281 956.743896484375 960.027221679688 953.193298339844 958.36083984375 959.575073242188 969.204162597656 965.190795898438 962.926330566406 971.917236328125 972.202514648438 976.687133789062 972.626220703125 968.016845703125 965.153442382812 970.391052246094 973.933288574219 977.235778808594 973.95654296875 970.655578613281 968.513549804688 969.091247558594 967.984008789062 974.956970214844 987.078308105469 988.833190917969 987.587158203125 991.150207519531 989.466003417969 988.938842773438 994.640747070312 996.711181640625 1002.21301269531 1010.04541015625 1003.16687011719 1005.66217041016 1001.79925537109 1009.67205810547 1010.16351318359 1011.771484375 1004.32440185547 1000.86218261719 991.325927734375 992.839172363281 988.895446777344 990.935729980469 1004.91198730469 998.803344726562 990.586181640625 991.171752929688 992.425170898438 984.501342773438 982.941650390625 989.952209472656 990.07958984375 993.316223144531 992.431213378906 996.5908203125 999.997314453125 998.052368164062 990.71630859375 996.198608398438 1001.12158203125 999.840576171875 1010.51544189453 1010.76092529297 1008.82879638672 1006.71484375 1000.33160400391 999.429260253906 1001.73291015625 1006.76208496094 1005.50598144531 1002.88989257812 1002.68438720703 1012.01440429688 1014.65295410156 1016.40167236328 1018.83715820312 1024.94262695312 1030.82263183594 1029.01171875 1023.37213134766 1026.58081054688 1023.40759277344 1032.77209472656 1036.17517089844 1041.84448242188 1050.64086914062 1053.54577636719 1055.75122070312 1055.05651855469 1056.85363769531 1064.451171875 1060.53918457031 1061.19030761719 1060.46936035156 1059.04028320312 1052.99072265625 1043.66442871094 1041.19177246094 1042.56640625 1031.60546875 1022.33227539062 1011.82366943359 997.691772460938 1001.26525878906 993.638916015625 989.537963867188 981.194458007812 988.040771484375 982.359802246094 984.701538085938 981.577453613281 977.40478515625 974.912292480469 980.931396484375 961.477294921875 962.364318847656 960.32861328125 952.931884765625 952.683898925781 964.2314453125 962.400634765625 970.697692871094 973.813720703125 978.954467773438 979.240539550781 969.544799804688
964.989379882812 960.625244140625 951.632385253906 955.741943359375 939.818542480469 941.900939941406 954.835266113281 954.336975097656 948.834045410156 958.20947265625 954.273681640625 959.350341796875 957.857299804688 959.78564453125 956.228881835938 968.614135742188 964.820495605469 948.96240234375 950.02294921875 956.442993164062 953.249450683594 957.956848144531 967.726806640625 966.727416992188 962.584777832031 960.326477050781 966.844909667969 970.35546875 978.668395996094 967.657775878906 967.670837402344 975.981506347656 977.512023925781 973.174133300781 971.343872070312 975.298828125 976.927734375 977.132995605469 975.028991699219 978.367858886719 981.052551269531 972.492004394531 966.298645019531 971.305053710938 978.678771972656 972.689697265625 982.507507324219 993.681213378906 987.3359375 986.454528808594 982.4208984375 993.361206054688 990.431274414062 1003.78790283203 1004.25744628906 1006.26654052734 1005.20495605469 1011.02362060547 1011.375 1006.14050292969 1009.53881835938 1009.0908203125 1008.64050292969 1003.37969970703 995.941955566406 994.873474121094 998.265991210938 992.877746582031 999.007507324219 988.190979003906 993.595886230469 981.429077148438 978.0078125 989.497375488281 987.286987304688 994.010498046875 1003.42840576172 999.358642578125 1000.73748779297 994.485290527344 992.297790527344 987.543884277344 996.511962890625 1006.87390136719 1005.81469726562 1007.26971435547 1008.99853515625 1007.22271728516 1016.12396240234 1006.03698730469 1000.24725341797 1002.99487304688 1010.50726318359 1010.89483642578 1014.81811523438 1009.12268066406 1013.24279785156 1007.28839111328 1012.25891113281 1015.71960449219 1013.31719970703 1021.41387939453 1023.20404052734 1026.72473144531 1024.68371582031 1032.31994628906 1043.04150390625 1038.95532226562 1039.70397949219 1048.76782226562 1050.16381835938 1049.41809082031 1057.64086914062 1050.80871582031 1052.82739257812 1051.15881347656 1066.72644042969 1055.86364746094 1046.77575683594 1048.23779296875 1047.08129882812 1038.44201660156 1031.1171875 1027.35046386719 1020.81262207031 1013.74700927734 1001.78436279297 1007.83001708984 1005.05139160156 993.652282714844 982.946166992188 985.471862792969 991.442260742188 982.718627929688 981.278381347656 975.013488769531 977.657043457031 972.545959472656 964.746215820312 960.244995117188 957.974670410156 959.258605957031 955.156921386719 961.659851074219 967.921997070312 978.935791015625 979.658935546875 973.587768554688 980.580993652344 968.882385253906
961.341003417969 953.146423339844 948.718322753906 949.366577148438 938.954772949219 942.590026855469 949.379211425781 949.892700195312 955.368347167969 964.256164550781 962.026977539062 958.321655273438 965.832946777344 964.049011230469 965.487609863281 962.490661621094 962.127258300781 960.294555664062 952.228515625 950.296325683594 959.203552246094 955.955871582031 962.035705566406 966.604125976562 961.423461914062 968.444030761719 970.846069335938 971.925048828125 973.64453125 977.317260742188 970.133361816406 969.222412109375 966.972839355469 975.058715820312 971.044982910156 964.726928710938 969.648010253906 981.415344238281 971.085327148438 978.137390136719 979.454711914062 973.478088378906 964.525085449219 964.54443359375 975.43603515625 978.803344726562 982.462280273438 997.028442382812 987.934204101562 985.063415527344 985.598754882812 986.274230957031 997.664001464844 1003.53784179688 1001.05725097656 993.986999511719 1010.75775146484 1014.60705566406 1009.68035888672 1006.55834960938 1012.33526611328 1012.13934326172 1006.35754394531 1008.00830078125 996.851745605469 997.694702148438 996.441650390625 1001.41278076172 994.475402832031 991.816040039062 994.503051757812 988.549377441406 981.080078125 989.2880859375 996.980407714844 993.620239257812 999.994079589844 1003.15087890625 996.509155273438 994.274291992188 992.807434082031 987.961608886719 995.37548828125 1003.15393066406 1009.34820556641 1005.06756591797 1011.30389404297 1011.60241699219 1019.44067382812 1010.01080322266 1007.34643554688 1012.86560058594 1016.25872802734 1018.44897460938 1024.61193847656 1020.60833740234 1015.1630859375 1010.00305175781 1022.22497558594 1010.32958984375 1009.10437011719 1024.85424804688 1027.91259765625 1030.80358886719 1030.47570800781 1035.36572265625 1045.77905273438 1037.6328125 1043.22924804688 1047.9228515625 1042.36218261719 1046.00305175781 1048.85168457031 1042.97094726562 1054.75329589844 1061.177734375 1061.40417480469 1052.01293945312 1041.56652832031 1043.10144042969 1040.00622558594 1039.013671875 1037.71789550781 1027.64074707031 1014.33020019531 1013.30084228516 1004.01605224609 997.0810546875 999.721862792969 995.56494140625 989.248474121094 987.014282226562 990.68408203125 977.803649902344 979.753662109375 977.136657714844 969.022399902344 971.558776855469 960.312866210938 952.268493652344 956.057067871094 960.329650878906 963.140380859375 960.130493164062 970.966796875 967.753845214844 977.66748046875 975.214538574219 979.898315429688 969.776916503906
