NCOLS 150
NROWS 37
XLLCORNER 7394249
YLLCORNER 4842209
CELLSIZE 30
NODATA_VALUE -9999
961.068603515625 959.028503417969 978.840393066406 978.163513183594 969.881225585938 977.560668945312 974.305480957031 968.595703125 967.5 972.144836425781 966.431823730469 965.649841308594 974.060485839844 973.8623046875 969.171325683594 970.490966796875 967.2841796875 970.7353515625 964.518127441406 966.541259765625 964.931213378906 962.843200683594 957.441345214844 955.256469726562 959.945373535156 955.70361328125 946.999145507812 953.109313964844 962.607788085938 960.570129394531 947.727905273438 953.976257324219 958.457580566406 964.016845703125 961.173950195312 962.543823242188 958.497741699219 965.447387695312 964.4736328125 965.245361328125 950.984497070312 949.467834472656 955.825256347656 956.074462890625 955.717590332031 953.161926269531 953.827758789062 951.80078125 947.4169921875 942.259765625 947.564208984375 949.217956542969 957.825256347656 959.893310546875 959.600524902344 954.743896484375 960.532592773438 963.349060058594 962.861755371094 957.538024902344 954.160339355469 946.656127929688 946.824279785156 953.421691894531 954.294006347656 956.139831542969 961.989624023438 958.24951171875 960.698059082031 972.337524414062 959.965087890625 953.13232421875 949.44580078125 946.384765625 950.734924316406 960.369201660156 959.45654296875 955.753845214844 959.683471679688 963.686340332031 961.551025390625 965.737731933594 960.328735351562 962.945434570312 968.039306640625 968.686401367188 968.649536132812 965.342346191406 980.852905273438 975.760498046875 967.394165039062 975.094421386719 973.691284179688 969.363952636719 969.192687988281 966.827331542969 978.048034667969 978.311340332031 974.437377929688 979.984680175781 972.182067871094 975.322021484375 970.365295410156 971.039611816406 967.430236816406 973.726379394531 973.851745605469 967.461730957031 982.63134765625 983.257446289062 986.031982421875 988.5908203125 989.260192871094 988.037109375 989.834228515625 994.434509277344 998.898071289062 1003.25982666016 999.692199707031 1000.17926025391 987.837951660156 993.399780273438 1006.42456054688 1008.65026855469 1019.349609375 1022.28161621094 1036.16955566406 1030.4228515625 1030.27429199219 1026.63684082031 1039.96398925781 1061.95446777344 1063.99633789062 1076.6142578125 1077.63452148438 1086.361328125 1093.85424804688 1104.41748046875 1101.71813964844 1103.71118164062 1091.81201171875 1095.068359375 1087.57141113281 1085.05920410156 1094.37133789062 1097.37817382812 1093.49560546875 1097.22229003906 1107.06298828125 1111.85620117188
962.900634765625 959.525939941406 969.516662597656 972.904113769531 971.752380371094 968.592651367188 970.743103027344 972.620544433594 978.203002929688 976.662231445312 967.235656738281 968.661987304688 973.871154785156 974.192749023438 976.937194824219 972.359436035156 971.873779296875 975.160583496094 971.362060546875 976.186645507812 969.88330078125 963.358337402344 965.363891601562 957.483764648438 948.744018554688 952.850280761719 953.842102050781 949.546020507812 950.380126953125 956.410766601562 946.320373535156 949.412353515625 964.000610351562 972.032531738281 967.292907714844 958.391479492188 955.550231933594 961.121765136719 966.087524414062 958.329467773438 958.745910644531 951.701049804688 953.435791015625 952.5517578125 958.437744140625 952.87939453125 955.271118164062 952.447204589844 946.992797851562 943.553771972656 939.607177734375 940.785888671875 951.400085449219 956.936767578125 966.138366699219 967.627014160156 957.518859863281 956.136779785156 957.233825683594 952.57568359375 950.331665039062 936.850891113281 945.472351074219 945.273803710938 954.642150878906 957.953063964844 962.170349121094 965.891418457031 975.328918457031 969.100830078125 964.336120605469 952.332641601562 955.476440429688 960.084167480469 956.380004882812 961.742858886719 962.995849609375 963.416687011719 962.131286621094 968.40087890625 964.972961425781 963.014282226562 965.395446777344 965.243469238281 958.065246582031 967.04150390625 964.923645019531 966.709533691406 974.035095214844 980.341491699219 971.728881835938 967.42138671875 969.532287597656 964.53466796875 969.634460449219 972.088500976562 979.68994140625 979.634521484375 984.040100097656 975.075561523438 974.626770019531 977.748596191406 976.751770019531 977.199279785156 974.468200683594 981.798156738281 977.619079589844 972.79638671875 984.27001953125 987.380249023438 992.358947753906 995.920959472656 988.77001953125 992.413146972656 993.219909667969 995.702575683594 993.661315917969 1003.53967285156 1006.21142578125 996.242492675781 994.54296875 996.157104492188 1003.58343505859 1011.45971679688 1010.34417724609 1028.30224609375 1028.27465820312 1027.21228027344 1026.61767578125 1035.84655761719 1048.90588378906 1060.69873046875 1059.15502929688 1071.58703613281 1074.28698730469 1085.93798828125 1081.30712890625 1089.73327636719 1090.15466308594 1094.31518554688 1089.07385253906 1072.07788085938 1069.76513671875 1081.44091796875 1079.24145507812 1082.68957519531 1085.43530273438 1090.81164550781 1095.77514648438 1104.93811035156
958.052307128906 958.987548828125 962.718444824219 959.298522949219 968.486083984375 967.101867675781 972.572265625 972.701110839844 976.642639160156 980.433227539062 971.470947265625 982.432312011719 973.683837890625 973.963134765625 975.011474609375 972.401611328125 967.185302734375 971.302978515625 976.496643066406 976.991577148438 960.336547851562 953.995178222656 954.572204589844 947.728393554688 948.459716796875 946.711730957031 952.666076660156 954.848205566406 959.526550292969 955.155700683594 953.068908691406 952.554809570312 953.639587402344 967.932861328125 968.626098632812 954.588989257812 955.958679199219 956.036804199219 962.003784179688 961.184631347656 959.352233886719 946.288757324219 958.8896484375 956.924865722656 957.768676757812 957.89697265625 953.083312988281 954.3671875 953.067565917969 940.705200195312 939.278564453125 943.515502929688 953.51220703125 954.78466796875 957.619873046875 953.653259277344 952.335693359375 963.15869140625 962.194274902344 951.478820800781 947.617431640625 936.968933105469 943.986206054688 941.382446289062 950.107482910156 960.079223632812 970.024963378906 966.263305664062 974.994812011719 969.753723144531 961.251586914062 961.269104003906 958.476989746094 960.894348144531 963.205139160156 958.945678710938 963.001892089844 969.033996582031 961.772827148438 960.380798339844 961.795166015625 969.217041015625 968.160705566406 962.108215332031 971.513549804688 967.265441894531 966.183166503906 967.020324707031 972.440490722656 976.665832519531 967.325256347656 974.358947753906 961.265197753906 971.386352539062 975.899169921875 982.939086914062 978.657653808594 982.289184570312 980.747680664062 972.570190429688 970.710998535156 974.356567382812 983.364990234375 976.380187988281 979.592346191406 982.547668457031 985.83837890625 981.615051269531 990.521240234375 1001.26629638672 999.391235351562 995.509948730469 989.989807128906 989.196899414062 1000.53424072266 1002.42749023438 1010.033203125 1004.59881591797 1000.33923339844 1000.02563476562 999.395751953125 1007.94708251953 1007.37469482422 1008.97210693359 1007.32037353516 1017.21569824219 1024.13146972656 1028.04675292969 1031.48510742188 1038.69384765625 1058.69360351562 1059.44226074219 1063.77136230469 1066.61657714844 1078.16870117188 1080.37390136719 1074.34411621094 1075.53466796875 1078.33740234375 1083.03454589844 1072.93481445312 1059.189453125 1055.46508789062 1063.46508789062 1063.90576171875 1070.76245117188 1075.880859375 1080.32287597656 1093.81323242188 1093.46228027344
955.779663085938 952.494384765625 957.493286132812 951.066650390625 955.271911621094 967.947692871094 970.799743652344 974.629516601562 975.29150390625 971.720642089844 972.363464355469 974.344482421875 962.019409179688 978.427795410156 974.929992675781 966.468566894531 955.867248535156 963.652282714844 964.7177734375 962.318298339844 947.497192382812 946.702270507812 943.527160644531 946.08935546875 939.373352050781 948.343688964844 952.8662109375 957.294677734375 958.895446777344 954.867492675781 951.905090332031 943.764404296875 948.804504394531 953.812316894531 956.192443847656 954.679382324219 955.673217773438 961.704650878906 958.925476074219 958.348937988281 949.905456542969 950.572265625 950.296081542969 953.214599609375 957.735595703125 955.057312011719 951.469787597656 956.833251953125 951.797424316406 951.275085449219 947.949096679688 943.544982910156 952.537963867188 957.132690429688 956.598999023438 947.481750488281 958.521789550781 957.758178710938 963.525817871094 959.536804199219 949.345092773438 951.240051269531 948.275451660156 952.763061523438 951.43701171875 954.412414550781 961.8837890625 974.110473632812 969.140869140625 960.182739257812 966.848937988281 960.185424804688 969.761047363281 966.571105957031 964.391052246094 963.142333984375 966.938537597656 974.189392089844 968.209655761719 962.372497558594 963.111206054688 967.332336425781 962.365173339844 959.575988769531 970.766052246094 974.158203125 965.274963378906 961.140747070312 969.295593261719 966.726013183594 965.592224121094 967.098205566406 962.848571777344 972.287109375 980.492065429688 982.949462890625 980.582275390625 975.195922851562 975.537902832031 967.228210449219 972.647705078125 982.008850097656 979.833557128906 970.179931640625 977.782409667969 974.604736328125 985.9658203125 989.568115234375 999.298950195312 995.583435058594 993.161010742188 1002.81610107422 993.5498046875 1001.28381347656 1005.02746582031 1000.83306884766 1007.95965576172 1009.23907470703 1002.81634521484 996.383422851562 1002.75109863281 1012.09075927734 1014.62817382812 1012.64404296875 1012.27331542969 1012.54821777344 1024.26477050781 1030.22741699219 1028.94946289062 1040.27038574219 1057.3984375 1066.2431640625 1066.22338867188 1070.83068847656 1076.77844238281 1074.71350097656 1069.64392089844 1064.88610839844 1073.1376953125 1077.30822753906 1065.62841796875 1049.35083007812 1038.66882324219 1042.73071289062 1056.62805175781 1053.55798339844 1061.26599121094 1068.9482421875 1079.90063476562 1080.43664550781
950.267150878906 960.061706542969 960.201049804688 959.587829589844 956.903198242188 961.472229003906 960.627258300781 959.102416992188 969.929748535156 962.772766113281 958.161010742188 958.990417480469 963.614379882812 965.004272460938 967.680114746094 959.761352539062 951.785583496094 953.325134277344 956.470275878906 950.497802734375 947.276672363281 944.570861816406 947.039184570312 947.753295898438 948.620422363281 943.024658203125 946.214477539062 946.771057128906 950.912353515625 941.234313964844 943.160400390625 951.089599609375 948.28955078125 950.844909667969 953.610534667969 954.028503417969 954.339111328125 960.838256835938 949.881225585938 953.109741210938 949.11474609375 945.869934082031 948.260009765625 951.777160644531 950.215759277344 957.226989746094 948.182189941406 959.209350585938 959.877685546875 957.575866699219 951.531982421875 955.624084472656 950.26611328125 952.483154296875 961.822204589844 948.405395507812 969.572448730469 969.533996582031 962.900939941406 943.58349609375 955.447021484375 951.957824707031 949.491455078125 947.351135253906 950.290832519531 956.812805175781 960.364807128906 968.414184570312 963.7734375 964.819641113281 960.306274414062 955.283020019531 965.38720703125 963.866271972656 964.170654296875 965.10791015625 965.817749023438 965.214538574219 972.081848144531 967.645751953125 969.00634765625 968.425598144531 955.605529785156 956.229370117188 973.40185546875 966.64892578125 968.377685546875 963.442504882812 962.321533203125 969.118957519531 966.731018066406 965.87744140625 965.982727050781 962.855163574219 971.37109375 964.192321777344 979.538452148438 971.581848144531 967.729370117188 974.348571777344 971.423706054688 982.772399902344 983.784118652344 983.023742675781 980.548400878906 983.864929199219 990.920227050781 992.698120117188 1001.56036376953 1000.74993896484 999.431579589844 1011.38098144531 1015.74584960938 1016.89971923828 1015.90710449219 1018.95532226562 1004.87365722656 1009.31286621094 1014.30126953125 1008.0546875 1003.92633056641 1013.75122070312 1023.66381835938 1016.4560546875 1018.92254638672 1015.61810302734 1016.15234375 1022.66400146484 1031.03369140625 1038.38708496094 1050.84240722656 1056.96569824219 1067.08679199219 1068.97497558594 1073.49890136719 1069.46789550781 1066.58520507812 1063.10278320312 1065.65185546875 1063.09240722656 1058.87133789062 1038.91296386719 1028.96569824219 1036.88269042969 1043.92199707031 1038.73864746094 1046.21179199219 1057.76477050781 1065.28918457031 1060.44140625
958.370178222656 963.942993164062 964.039733886719 963.081481933594 962.599426269531 958.32421875 965.162414550781 968.566650390625 970.348571777344 966.038635253906 964.184631347656 964.115112304688 960.98828125 959.700378417969 961.755126953125 958.462524414062 955.269104003906 946.308654785156 946.363647460938 948.940124511719 939.332275390625 948.02392578125 946.348815917969 944.253662109375 938.752258300781 941.413635253906 942.351684570312 951.282836914062 945.737121582031 944.957641601562 940.246704101562 949.995788574219 953.52392578125 944.704040527344 943.895080566406 951.330078125 954.358642578125 943.494506835938 950.156616210938 952.041320800781 950.212890625 953.38134765625 949.681030273438 945.09423828125 947.039245605469 953.807312011719 957.564086914062 954.899536132812 951.664672851562 948.940612792969 953.323120117188 951.25390625 949.403625488281 948.562927246094 954.285583496094 954.872497558594 963.088256835938 963.161071777344 958.600402832031 955.707946777344 951.822326660156 961.016662597656 961.607360839844 961.073608398438 952.1884765625 953.315734863281 958.051391601562 968.185546875 962.500549316406 966.639770507812 966.609252929688 963.830200195312 960.547302246094 968.284729003906 961.340942382812 967.239624023438 967.957092285156 969.148986816406 961.305297851562 967.606628417969 983.174926757812 980.148620605469 964.171447753906 956.829040527344 968.00048828125 969.131652832031 974.137390136719 964.227478027344 969.774230957031 967.419799804688 966.062744140625 972.841552734375 962.739379882812 968.885986328125 974.30322265625 969.430114746094 969.358520507812 974.349182128906 968.787658691406 984.460021972656 977.521911621094 983.134216308594 982.205749511719 980.338439941406 986.518737792969 994.552551269531 1000.25543212891 998.598754882812 997.631652832031 1000.73767089844 1007.52777099609 1014.32000732422 1020.94421386719 1026.64367675781 1021.94256591797 1020.07153320312 1020.83612060547 1018.72003173828 1018.27386474609 1020.09112548828 1018.42584228516 1014.50103759766 1024.24938964844 1023.88031005859 1025.48547363281 1020.72918701172 1021.01971435547 1020.82861328125 1027.95361328125 1041.72802734375 1047.32263183594 1051.58422851562 1051.75061035156 1061.24035644531 1069.35424804688 1066.07604980469 1055.98254394531 1050.63073730469 1043.49072265625 1047.00854492188 1039.98962402344 1030.86218261719 1029.96594238281 1034.00695800781 1036.07678222656 1037.27819824219 1034.47961425781 1041.58728027344 1047.46411132812 1040.77111816406
963.546142578125 964.754760742188 957.765441894531 965.165283203125 953.393798828125 956.245544433594 961.704040527344 961.235778808594 967.453369140625 964.463195800781 956.324829101562 960.825134277344 957.376586914062 957.536560058594 960.102478027344 953.174438476562 945.392211914062 940.955932617188 942.204345703125 952.039428710938 939.453674316406 940.651733398438 944.838195800781 935.900573730469 932.676147460938 933.393493652344 941.713684082031 950.581115722656 941.469299316406 945.533142089844 948.980224609375 951.269226074219 955.947570800781 951.613220214844 953.4794921875 954.239929199219 948.179382324219 936.049865722656 947.117858886719 950.269592285156 946.17822265625 950.33056640625 945.694702148438 951.41357421875 957.227111816406 958.927734375 952.706481933594 945.62939453125 948.459533691406 948.826599121094 955.985656738281 958.83837890625 953.437255859375 947.737121582031 949.553344726562 950.074035644531 954.515869140625 961.419677734375 963.964477539062 963.67333984375 958.059875488281 958.193054199219 964.605407714844 962.781616210938 963.979431152344 961.671752929688 964.930236816406 964.459533691406 960.82080078125 963.848266601562 961.260192871094 974.84619140625 959.516845703125 959.603149414062 960.457946777344 965.263122558594 965.017211914062 963.166625976562 967.59375 968.960571289062 980.168823242188 978.022766113281 970.834106445312 964.451843261719 975.148620605469 973.083984375 974.832092285156 981.426086425781 976.487243652344 974.512145996094 968.513732910156 971.963562011719 969.882995605469 976.202087402344 974.111694335938 970.319396972656 971.874267578125 969.873046875 967.966979980469 974.829162597656 983.771240234375 987.453247070312 999.994018554688 996.371276855469 995.203247070312 992.351806640625 995.555480957031 999.676086425781 999.38671875 997.235168457031 1011.80725097656 1021.11724853516 1031.13159179688 1022.34222412109 1034.68530273438 1030.19848632812 1028.07470703125 1034.61315917969 1029.982421875 1024.49340820312 1025.31286621094 1019.13806152344 1021.65789794922 1025.17016601562 1024.89074707031 1019.19500732422 1024.26806640625 1025.93200683594 1031.54736328125 1029.85522460938 1043.97875976562 1046.8798828125 1053.84545898438 1058.20104980469 1051.68420410156 1048.8203125 1043.11633300781 1038.23901367188 1044.52185058594 1036.85229492188 1038.07043457031 1031.99011230469 1021.47930908203 1032.45837402344 1034.65930175781 1030.13818359375 1032.94567871094 1035.68139648438 1024.90270996094 1023.47833251953
959.199157714844 961.093139648438 957.180786132812 958.167846679688 952.815856933594 957.504089355469 962.707397460938 959.910339355469 970.632629394531 972.403198242188 965.081604003906 951.543579101562 949.829772949219 949.233642578125 946.507934570312 942.597900390625 940.770263671875 935.899963378906 941.418212890625 950.097961425781 943.519836425781 939.659851074219 936.816772460938 938.931945800781 934.658630371094 941.359375 945.056335449219 946.564392089844 946.425048828125 950.244262695312 953.107360839844 959.068237304688 961.135070800781 958.398864746094 951.741088867188 951.884460449219 941.611511230469 945.516418457031 943.324829101562 947.181701660156 944.625305175781 956.001220703125 956.291931152344 956.090881347656 960.643310546875 959.536193847656 950.80517578125 952.745178222656 948.133422851562 953.210632324219 964.604309082031 961.796813964844 966.372741699219 956.108154296875 957.030517578125 959.104614257812 956.920166015625 960.188171386719 968.929565429688 967.434143066406 965.837524414062 965.361389160156 973.445617675781 968.32763671875 965.1142578125 970.650512695312 968.530700683594 966.49462890625 964.990905761719 972.047546386719 971.80859375 972.345092773438 974.676574707031 968.984191894531 967.915954589844 964.406616210938 966.056518554688 965.87451171875 966.710693359375 968.339416503906 970.522399902344 973.175476074219 972.462219238281 978.024169921875 978.191345214844 975.856506347656 980.887268066406 975.581909179688 973.850708007812 969.043334960938 969.313415527344 964.731689453125 966.409912109375 970.5419921875 970.619079589844 974.266296386719 967.860412597656 968.986694335938 969.2216796875 978.857360839844 982.881652832031 984.438049316406 991.408386230469 997.050659179688 994.902526855469 1002.97882080078 992.544067382812 993.8125 1002.98205566406 1006.56030273438 1013.25933837891 1017.75726318359 1032.98571777344 1023.54370117188 1034.65014648438 1039.0234375 1037.23718261719 1037.71545410156 1036.59362792969 1032.115234375 1033.42102050781 1030.01733398438 1035.48645019531 1038.9306640625 1026.11767578125 1013.05535888672 1016.99487304688 1018.98394775391 1020.79724121094 1029.09252929688 1035.01916503906 1040.34252929688 1045.24951171875 1046.08666992188 1039.14868164062 1035.30603027344 1038.06359863281 1034.75073242188 1038.67248535156 1026.474609375 1032.10412597656 1025.96484375 1022.32830810547 1018.64562988281 1023.1396484375 1024.29846191406 1023.99285888672 1024.69030761719 1019.22583007812 1015.30511474609
958.820556640625 952.182312011719 951.0859375 962.622253417969 958.065246582031 960.179992675781 964.404724121094 959.302307128906 956.564392089844 964.470336914062 956.974914550781 951.668762207031 946.094970703125 945.679626464844 943.863403320312 933.107666015625 934.355895996094 943.429931640625 936.713562011719 941.091918945312 941.211669921875 942.822143554688 937.28955078125 944.145080566406 944.641174316406 944.020751953125 955.305908203125 950.048645019531 950.987731933594 950.880920410156 955.749816894531 955.55322265625 954.926208496094 951.309509277344 948.447937011719 942.209594726562 947.267395019531 951.202697753906 949.406494140625 954.494689941406 955.824890136719 955.485412597656 951.802185058594 952.462280273438 959.291381835938 962.713012695312 951.02587890625 953.450988769531 954.889892578125 952.989318847656 953.550842285156 961.200256347656 956.210571289062 966.808471679688 968.589294433594 966.41943359375 961.222412109375 968.155517578125 963.707336425781 969.885803222656 966.05078125 971.302795410156 973.129943847656 976.910461425781 973.486145019531 971.435241699219 969.598327636719 961.715576171875 961.822021484375 968.243469238281 974.362609863281 980.011596679688 981.978149414062 978.353576660156 971.219421386719 965.198364257812 968.623229980469 963.330688476562 968.382751464844 970.1796875 969.815612792969 979.601013183594 978.311279296875 973.664367675781 981.132934570312 981.859375 971.582336425781 971.524963378906 976.442077636719 965.277954101562 973.053039550781 970.514526367188 965.180908203125 966.18359375 968.702697753906 975.622497558594 976.634338378906 978.934326171875 976.149536132812 976.167175292969 992.296508789062 985.667602539062 989.264282226562 989.550720214844 1003.20758056641 1002.34716796875 995.329895019531 995.83203125 996.345153808594 1006.03137207031 1026.52014160156 1025.58386230469 1025.41357421875 1035.70141601562 1042.49975585938 1038.51489257812 1039.93737792969 1040.18530273438 1043.02282714844 1043.79846191406 1037.17895507812 1039.00219726562 1035.73022460938 1025.29272460938 1024.04174804688 1021.42388916016 1017.09088134766 1012.76513671875 1016.45654296875 1025.06225585938 1033.21667480469 1032.53784179688 1033.50817871094 1043.89074707031 1032.57629394531 1033.58764648438 1036.52014160156 1037.44519042969 1032.09387207031 1026.7490234375 1026.70129394531 1012.34460449219 1012.65435791016 1017.37481689453 1015.30834960938 1014.73864746094 1023.52911376953 1018.73883056641 1020.12725830078 1006.31304931641
955.186950683594 954.116455078125 951.440246582031 957.461120605469 957.579895019531 950.378967285156 951.1533203125 952.90771484375 944.7587890625 951.350341796875 950.389404296875 949.756713867188 941.13525390625 939.536315917969 943.210693359375 945.642028808594 945.53564453125 936.104431152344 943.260864257812 949.753479003906 942.510803222656 943.980102539062 948.236206054688 943.205810546875 942.869934082031 940.999633789062 948.537780761719 952.397827148438 946.637634277344 948.783203125 958.549926757812 959.565612792969 952.651916503906 948.573120117188 936.498352050781 940.140380859375 945.015808105469 950.845520019531 958.539855957031 965.462524414062 962.782531738281 961.327514648438 966.391540527344 966.625 958.060791015625 961.166198730469 962.787536621094 965.03857421875 972.421936035156 962.870544433594 957.626220703125 955.206909179688 953.203369140625 963.158203125 965.277648925781 968.032592773438 972.848388671875 963.213928222656 969.653259277344 975.360656738281 964.977233886719 971.748291015625 964.846130371094 968.173583984375 962.988220214844 962.364868164062 963.310852050781 951.934448242188 967.538513183594 970.496765136719 979.122253417969 989.821350097656 990.038818359375 978.427795410156 981.026062011719 975.199768066406 960.472473144531 966.193969726562 965.052612304688 973.614562988281 974.509826660156 976.152221679688 975.464294433594 980.631225585938 986.816650390625 985.480285644531 980.91748046875 976.352844238281 974.595153808594 972.03759765625 970.560241699219 968.861206054688 968.245971679688 965.758361816406 970.275939941406 975.136413574219 980.212524414062 985.263061523438 983.790405273438 979.590698242188 984.7861328125 991.591491699219 987.869262695312 992.354248046875 1001.93731689453 996.767700195312 998.960754394531 987.725891113281 984.209533691406 1005.92449951172 1008.84625244141 1018.72778320312 1028.13562011719 1034.17565917969 1039.69067382812 1040.74377441406 1037.85009765625 1032.52844238281 1042.8837890625 1038.83471679688 1036.52502441406 1035.91186523438 1032.82019042969 1028.07995605469 1029.93395996094 1025.23889160156 1016.45489501953 1013.53234863281 1008.009765625 1020.07281494141 1022.94464111328 1028.18640136719 1021.6953125 1026.22509765625 1025.52954101562 1029.20446777344 1027.61120605469 1041.49975585938 1038.98486328125 1031.9755859375 1023.24615478516 1019.10906982422 1012.13592529297 1017.34320068359 1007.54235839844 1011.15679931641 1017.75750732422 1017.69024658203 1020.92864990234 1009.80645751953
952.4013671875 946.949462890625 945.548278808594 948.081481933594 951.177307128906 951.74658203125 945.572021484375 945.669860839844 936.333618164062 935.956848144531 945.776550292969 953.467590332031 947.619323730469 957.495910644531 953.382141113281 955.215270996094 950.293395996094 941.614135742188 939.146484375 946.471130371094 945.745666503906 943.68505859375 945.82666015625 948.013549804688 946.794677734375 940.115051269531 945.113342285156 945.514892578125 947.711730957031 947.103271484375 950.471252441406 964.042358398438 959.121887207031 948.63671875 944.053771972656 939.592407226562 948.282592773438 956.360046386719 953.239379882812 955.560974121094 957.704956054688 966.911987304688 964.551391601562 968.881164550781 963.355895996094 968.0947265625 973.114074707031 973.137634277344 978.302062988281 971.653259277344 964.218566894531 953.832458496094 953.411682128906 958.734497070312 961.023071289062 968.827758789062 962.869018554688 971.39794921875 967.065490722656 974.335876464844 960.485473632812 955.418151855469 959.601013183594 961.283081054688 963.663940429688 969.531555175781 958.955017089844 968.334716796875 965.928466796875 967.731140136719 979.672607421875 982.382202148438 981.238403320312 984.872192382812 991.314025878906 978.471618652344 971.686462402344 974.679870605469 970.058410644531 963.654663085938 976.002197265625 980.006896972656 974.8623046875 977.721923828125 987.618896484375 982.101989746094 977.069885253906 973.184875488281 986.342102050781 978.919250488281 977.456787109375 973.738159179688 966.076904296875 964.936401367188 967.050048828125 974.993713378906 977.58837890625 978.317687988281 977.615966796875 981.10595703125 983.006652832031 988.442138671875 992.720031738281 989.042785644531 988.45361328125 991.175109863281 988.837585449219 989.648254394531 994.460144042969 1008.38989257812 1014.54132080078 1020.56744384766 1027.62036132812 1027.314453125 1041.29016113281 1032.08459472656 1032.28576660156 1033.26538085938 1035.59692382812 1045.4375 1031.38720703125 1031.68237304688 1036.05261230469 1034.45263671875 1032.22802734375 1017.12127685547 1014.47204589844 1013.52673339844 1025.67065429688 1028.88586425781 1028.11584472656 1026.44738769531 1022.82794189453 1018.31286621094 1019.97088623047 1023.75610351562 1018.06512451172 1031.85791015625 1034.68347167969 1029.28649902344 1032.07275390625 1026.01953125 1020.798828125 1020.79821777344 1006.77209472656 1012.93231201172 1014.07934570312 1012.58575439453 1009.15283203125 996.844909667969
949.952331542969 947.170837402344 952.06298828125 951.580017089844 944.372192382812 948.950744628906 947.397399902344 936.002624511719 939.084228515625 942.976013183594 940.526000976562 948.661254882812 957.785339355469 956.427001953125 962.545715332031 965.8759765625 958.088500976562 951.222778320312 938.73388671875 950.664306640625 955.420959472656 954.243530273438 955.153564453125 958.647705078125 946.414184570312 945.81005859375 949.624267578125 954.961364746094 956.285522460938 950.773803710938 946.855712890625 951.115051269531 946.774108886719 949.04443359375 956.957275390625 955.854553222656 945.889465332031 951.102966308594 954.417175292969 949.738952636719 956.071533203125 960.262329101562 959.267028808594 962.049743652344 972.403503417969 971.170776367188 978.742614746094 979.208068847656 970.606506347656 977.746276855469 959.057067871094 949.289733886719 953.072692871094 954.74609375 975.464477539062 976.188720703125 975.105407714844 971.371337890625 976.4169921875 978.980346679688 976.773010253906 962.831115722656 954.908752441406 961.459655761719 958.373474121094 959.314514160156 969.986938476562 967.922180175781 965.162658691406 973.530212402344 972.577392578125 979.254272460938 978.537719726562 984.825378417969 982.149475097656 978.025207519531 972.898498535156 976.286743164062 971.603454589844 968.823364257812 975.288024902344 974.882019042969 978.424194335938 979.409851074219 988.98193359375 980.1884765625 982.089538574219 980.469421386719 978.782592773438 978.576721191406 977.763305664062 985.700378417969 976.591918945312 966.145812988281 969.893920898438 973.768493652344 980.541931152344 982.569641113281 986.498962402344 982.373474121094 988.312255859375 991.957641601562 996.228820800781 985.550354003906 991.763366699219 992.466613769531 993.35107421875 986.021606445312 994.460144042969 1005.09875488281 1020.826171875 1033.63049316406 1032.10888671875 1032.42651367188 1033.29357910156 1034.79345703125 1034.78198242188 1035.03271484375 1033.30859375 1039.15649414062 1032.70825195312 1034.77026367188 1043.00305175781 1039.80749511719 1033.98913574219 1026.42919921875 1016.52569580078 1021.33685302734 1026.49853515625 1027.74890136719 1019.9306640625 1021.53460693359 1016.70697021484 1017.18280029297 1024.1484375 1019.77722167969 1020.33392333984 1023.31237792969 1034.39538574219 1031.16625976562 1021.84948730469 1022.970703125 1016.26580810547 1015.79345703125 1015.06805419922 1011.22235107422 1009.01550292969 1008.80560302734 995.135620117188 990.807495117188
952.639221191406 948.249694824219 952.56103515625 941.825439453125 943.734375 943.622741699219 939.035949707031 934.690490722656 936.032775878906 934.257019042969 935.268737792969 951.244445800781 958.435974121094 967.754516601562 969.310791015625 964.806274414062 956.913146972656 957.364440917969 956.105712890625 955.112060546875 968.370422363281 959.4970703125 957.393249511719 957.545166015625 960.925537109375 945.292907714844 946.634704589844 961.459716796875 961.808227539062 960.811279296875 957.192016601562 957.827758789062 951.800537109375 948.281921386719 955.094116210938 950.171508789062 954.549560546875 951.947021484375 956.934448242188 960.539001464844 967.89892578125 962.056091308594 961.418762207031 959.66796875 960.716369628906 970.396667480469 977.985229492188 986.936828613281 972.350036621094 978.753540039062 966.508666992188 960.906127929688 963.553649902344 964.408996582031 968.068298339844 977.780639648438 982.575256347656 975.309875488281 981.100280761719 980.392395019531 977.710632324219 970.082153320312 960.530639648438 959.318664550781 955.9658203125 958.556091308594 970.628051757812 969.859069824219 965.97216796875 971.461669921875 980.176147460938 977.911071777344 988.775329589844 981.287048339844 979.683715820312 978.914123535156 973.177917480469 967.733947753906 968.002197265625 970.745178222656 976.239440917969 976.404235839844 983.911254882812 975.033081054688 986.529479980469 980.064270019531 990.076416015625 993.90380859375 991.695190429688 984.137451171875 983.3701171875 980.67041015625 972.888061523438 971.582824707031 976.466247558594 983.599487304688 985.641052246094 991.692565917969 991.505859375 986.735595703125 991.968383789062 988.690490722656 993.835632324219 994.596801757812 991.615783691406 1004.58160400391 993.248229980469 993.445556640625 1003.55249023438 1013.88885498047 1019.80572509766 1029.37854003906 1026.27600097656 1030.65100097656 1028.59655761719 1034.20007324219 1039.302734375 1038.82080078125 1047.24438476562 1044.23620605469 1042.97094726562 1034.74829101562 1037.69665527344 1035.69470214844 1031.05090332031 1025.64819335938 1019.25061035156 1023.99645996094 1020.34527587891 1016.98132324219 1024.94934082031 1026.291015625 1022.30999755859 1023.66186523438 1019.62908935547 1027.3779296875 1016.36926269531 1008.00494384766 1026.0849609375 1020.4462890625 1015.36560058594 1016.68151855469 1013.00885009766 1009.59735107422 1009.96478271484 1003.10375976562 1002.19763183594 999.658630371094 999.571044921875 999.438415527344
955.318908691406 944.038635253906 943.617431640625 944.925354003906 937.253784179688 934.714111328125 932.298461914062 935.246459960938 933.007263183594 930.484436035156 938.348388671875 942.373779296875 956.332275390625 960.818359375 965.356750488281 957.377319335938 959.622436523438 961.085266113281 960.301635742188 959.241760253906 969.195922851562 969.99169921875 970.6494140625 966.419555664062 965.065307617188 961.577819824219 961.164489746094 966.941162109375 955.834045410156 962.594360351562 965.766357421875 958.743225097656 959.542663574219 951.233276367188 956.346740722656 953.319458007812 952.865905761719 958.1796875 961.765991210938 973.767761230469 964.31640625 958.313354492188 959.766906738281 959.828735351562 963.418823242188 966.778015136719 985.105834960938 992.597473144531 983.263732910156 976.631896972656 973.389404296875 969.171508789062 970.982849121094 976.765686035156 980.495422363281 986.879150390625 985.050720214844 986.830993652344 978.243469238281 973.298645019531 970.138549804688 972.067626953125 968.332214355469 965.987121582031 962.58154296875 964.959716796875 976.484680175781 966.9658203125 967.46435546875 971.573059082031 976.624572753906 978.606262207031 984.132995605469 986.665954589844 980.400634765625 975.517333984375 985.300415039062 976.772155761719 978.993103027344 981.405090332031 981.499084472656 972.78515625 979.431091308594 985.405090332031 990.397155761719 987.983459472656 979.156555175781 990.61279296875 986.974609375 982.992126464844 985.881103515625 985.565979003906 976.498962402344 978.066345214844 979.867797851562 981.904113769531 992.6474609375 983.99169921875 987.513488769531 990.343200683594 993.353271484375 989.701110839844 991.740417480469 990.187561035156 994.895874023438 995.272338867188 1000.02734375 998.9169921875 1010.26678466797 1014.79907226562 1023.61883544922 1020.97222900391 1023.25891113281 1027.06872558594 1035.67114257812 1026.65258789062 1031.26574707031 1044.93615722656 1047.46130371094 1043.44213867188 1044.52563476562 1040.33227539062 1032.59362792969 1044.27294921875 1033.6474609375 1028.25622558594 1022.63708496094 1023.31158447266 1019.96740722656 1020.82458496094 1030.25268554688 1031.62023925781 1026.59350585938 1022.98211669922 1024.65270996094 1023.24298095703 1013.89465332031 1019.11810302734 1015.19354248047 1024.234375 1013.00494384766 1006.73504638672 1009.54034423828 1011.02130126953 1012.18133544922 1010.4638671875 1007.41436767578 1002.53405761719 998.428588867188 995.151428222656
954.699951171875 948.866088867188 945.738952636719 946.872802734375 940.669799804688 941.161682128906 940.257751464844 934.177551269531 943.080017089844 937.429260253906 939.692749023438 941.082641601562 949.596496582031 958.400329589844 955.272888183594 953.040222167969 955.548828125 956.119201660156 967.495239257812 963.984191894531 969.302856445312 966.591674804688 975.662353515625 971.057983398438 967.178955078125 959.713317871094 963.080383300781 963.0986328125 963.231323242188 966.391662597656 962.5732421875 961.066223144531 963.672180175781 956.818725585938 958.515258789062 955.530090332031 956.272766113281 968.289916992188 972.708557128906 973.050231933594 971.483520507812 964.130981445312 956.680114746094 963.236694335938 957.981323242188 972.788024902344 984.541198730469 989.727783203125 984.303649902344 981.864318847656 979.510620117188 981.882568359375 978.772766113281 973.356079101562 991.292663574219 983.564331054688 988.417663574219 984.363220214844 972.6923828125 970.97900390625 965.757690429688 969.257385253906 967.342346191406 973.445739746094 971.778503417969 971.18408203125 979.992614746094 975.47216796875 969.052734375 967.220520019531 972.202941894531 972.626708984375 983.136535644531 982.582580566406 975.061889648438 977.283569335938 979.591186523438 988.007873535156 978.838256835938 977.898742675781 980.819641113281 976.820983886719 983.557312011719 990.246643066406 993.801635742188 981.322814941406 982.96337890625 990.445373535156 982.075866699219 982.745361328125 975.935607910156 977.963562011719 982.968200683594 981.08349609375 986.904418945312 997.046813964844 991.227661132812 999.043762207031 1004.39898681641 1005.93377685547 1000.27691650391 994.613037109375 989.276245117188 987.763671875 991.900573730469 996.728088378906 1006.33172607422 1002.52795410156 1011.92797851562 1019.90692138672 1022.43756103516 1029.05004882812 1036.78430175781 1034.97521972656 1036.79028320312 1032.02673339844 1034.50732421875 1046.880859375 1043.71997070312 1042.16528320312 1046.82250976562 1044.875 1037.36938476562 1042.16174316406 1035.78564453125 1026.76916503906 1017.88958740234 1022.50134277344 1027.28344726562 1018.77502441406 1023.02990722656 1029.14428710938 1031.19543457031 1034.43395996094 1039.41552734375 1029.07080078125 1019.94659423828 1021.89263916016 1018.28753662109 1014.84918212891 1020.38922119141 1011.68591308594 1009.44409179688 1010.37579345703 1020.57568359375 1008.45989990234 996.374084472656 990.884094238281 996.250549316406 993.931274414062
945.652038574219 938.163879394531 944.754333496094 944.176574707031 941.999877929688 937.10546875 944.087219238281 952.558715820312 951.11962890625 939.711486816406 941.966064453125 940.78564453125 953.677917480469 948.765930175781 954.403991699219 951.915588378906 954.909606933594 954.083557128906 958.229309082031 967.033325195312 972.598937988281 969.662048339844 977.630310058594 978.579040527344 979.855651855469 974.602722167969 972.597229003906 967.530883789062 961.537414550781 960.322937011719 952.067565917969 958.486145019531 959.096435546875 960.920288085938 962.057250976562 966.84765625 966.989013671875 973.033020019531 973.773986816406 969.601989746094 970.003112792969 961.817749023438 968.573547363281 968.491027832031 978.709045410156 995.111694335938 1000.78570556641 995.383056640625 987.805053710938 989.406921386719 985.737243652344 981.99853515625 979.35205078125 993.090759277344 996.698791503906 984.789611816406 980.890258789062 979.298095703125 972.475402832031 962.714721679688 967.268676757812 964.421508789062 963.529846191406 964.820983886719 966.898864746094 974.329833984375 970.378173828125 975.557434082031 970.947509765625 980.781982421875 970.18896484375 981.051391601562 972.019287109375 980.154724121094 982.136535644531 979.672424316406 987.411804199219 989.860290527344 989.539306640625 980.044189453125 981.303283691406 987.431945800781 988.71142578125 986.676025390625 984.624938964844 979.561889648438 986.360778808594 988.299560546875 978.880432128906 974.471862792969 983.460021972656 987.91064453125 978.316101074219 983.33984375 993.48876953125 991.082580566406 995.943237304688 999.9736328125 1006.98431396484 1004.72387695312 1001.96374511719 992.0966796875 994.332763671875 998.462280273438 997.401733398438 1003.79400634766 1010.94354248047 1008.63037109375 1011.36224365234 1026.68444824219 1028.12646484375 1028.89916992188 1035.59924316406 1034.94799804688 1037.78576660156 1032.22338867188 1035.65710449219 1043.09326171875 1043.48864746094 1045.26135253906 1045.22180175781 1049.27221679688 1046.81884765625 1046.01538085938 1040.75219726562 1030.21740722656 1025.76318359375 1016.59436035156 1012.26251220703 1014.96350097656 1014.08245849609 1024.2353515625 1031.40258789062 1039.75830078125 1047.98718261719 1044.56799316406 1027.49499511719 1013.73944091797 1016.28741455078 1010.43817138672 1006.4619140625 1003.13848876953 1009.01489257812 1018.19586181641 1008.57611083984 1003.32360839844 997.319885253906 994.382080078125 989.886779785156 987.585021972656
940.955810546875 936.522033691406 939.707092285156 937.56640625 944.263427734375 940.822082519531 936.79248046875 947.789123535156 952.4150390625 943.343322753906 940.212036132812 946.257690429688 949.94384765625 958.155883789062 960.599914550781 965.756469726562 965.826721191406 959.831420898438 961.2236328125 966.527099609375 968.191711425781 971.537963867188 981.899230957031 985.248840332031 981.551086425781 979.77685546875 972.152893066406 974.155334472656 970.689147949219 964.166137695312 956.065002441406 951.703491210938 966.751098632812 965.83544921875 965.051574707031 968.568237304688 968.559448242188 972.62548828125 970.98095703125 974.536560058594 962.969970703125 973.406677246094 980.2255859375 983.708740234375 991.097717285156 990.959411621094 993.280822753906 997.166931152344 988.072570800781 989.941162109375 987.096801757812 993.846130371094 988.211730957031 994.087829589844 989.521118164062 990.669555664062 989.982604980469 985.016235351562 980.988342285156 967.51953125 966.2177734375 963.559875488281 964.373474121094 967.448120117188 981.027282714844 978.97265625 981.525939941406 980.477844238281 976.658752441406 995.099609375 983.60986328125 985.487976074219 981.849792480469 978.789794921875 989.363464355469 990.229248046875 994.949462890625 1000.12725830078 996.162353515625 987.897827148438 982.339782714844 976.924926757812 990.11279296875 987.293151855469 985.325439453125 985.263427734375 982.55322265625 980.948669433594 988.259887695312 980.209533691406 984.234802246094 983.8828125 979.590087890625 975.399291992188 983.198425292969 989.229431152344 998.799194335938 1009.92462158203 999.045166015625 1001.91430664062 999.735412597656 1002.78485107422 999.21875 996.246704101562 997.746520996094 1007.02252197266 1011.96893310547 1016.92889404297 1019.97131347656 1020.408203125 1030.85534667969 1029.83410644531 1028.6865234375 1032.5458984375 1042.38977050781 1035.11328125 1026.93127441406 1037.26708984375 1037.18481445312 1033.72583007812 1049.49780273438 1048.9033203125 1042.73681640625 1045.37902832031 1045.73559570312 1034.52026367188 1024.87219238281 1018.65515136719 1012.67340087891 1016.49493408203 1021.60308837891 1017.84295654297 1026.03173828125 1038.90905761719 1039.09838867188 1043.04187011719 1032.11206054688 1023.40405273438 1011.33117675781 1002.20812988281 999.404724121094 992.856018066406 1008.59222412109 1003.16998291016 997.533386230469 992.57470703125 992.933715820312 989.467712402344 991.583251953125 993.819763183594
939.57080078125 941.090759277344 935.463806152344 937.40087890625 930.422546386719 935.877563476562 930.520324707031 936.79638671875 950.676086425781 937.646484375 942.101257324219 948.692016601562 952.762451171875 960.843994140625 961.916015625 971.324829101562 958.179626464844 958.781921386719 962.393249511719 957.116455078125 965.245178222656 975.859680175781 984.763305664062 987.435485839844 975.509094238281 979.656616210938 982.0859375 968.469116210938 969.651184082031 972.944091796875 966.1240234375 962.264892578125 970.217163085938 969.062744140625 975.971435546875 978.169616699219 972.808532714844 966.902770996094 968.515747070312 980.083374023438 978.9775390625 988.6494140625 1002.76116943359 997.942077636719 993.105651855469 1001.79870605469 999.939697265625 1001.36529541016 992.051879882812 990.2841796875 990.6025390625 991.153991699219 994.515319824219 993.298400878906 1001.11175537109 994.072998046875 996.066040039062 988.880432128906 976.440612792969 975.858032226562 977.419677734375 967.368896484375 965.912475585938 971.176330566406 976.177612304688 970.658264160156 971.400817871094 979.661437988281 990.31201171875 990.566040039062 988.572204589844 986.186767578125 991.902587890625 983.461853027344 985.202087402344 995.421264648438 999.196411132812 994.515686035156 988.021301269531 991.313232421875 985.338500976562 990.574279785156 982.806213378906 983.064514160156 990.898681640625 997.511169433594 987.70263671875 977.97607421875 985.192810058594 978.75830078125 988.12646484375 989.100769042969 985.056579589844 976.925598144531 971.269897460938 984.548950195312 1004.05084228516 1001.72430419922 1001.26708984375 1006.44995117188 1006.029296875 1012.99755859375 995.243408203125 999.965515136719 998.445678710938 1007.20202636719 1008.546875 1010.72119140625 1017.44952392578 1022.13598632812 1029.60534667969 1029.30554199219 1033.4052734375 1034.03381347656 1032.79541015625 1030.98889160156 1029.71496582031 1028.76721191406 1028.36730957031 1037.89636230469 1040.88916015625 1045.46069335938 1039.02734375 1041.8671875 1045.06335449219 1028.82958984375 1018.76501464844 1018.42498779297 1014.89721679688 1020.89300537109 1029.68737792969 1021.49468994141 1020.216796875 1028.43176269531 1035.85559082031 1034.81372070312 1033.36242675781 1017.63238525391 1012.27947998047 1002.01776123047 999.100524902344 1002.03155517578 1007.62109375 1006.43414306641 995.258728027344 991.358154296875 995.558044433594 996.482299804688 987.93310546875 991.436767578125
943.910522460938 943.318725585938 933.888793945312 932.881530761719 937.306396484375 928.529602050781 934.32177734375 934.4462890625 936.836853027344 933.144470214844 942.347717285156 963.257934570312 963.147583007812 965.054626464844 978.014038085938 981.402954101562 969.009643554688 966.159973144531 961.244384765625 972.273315429688 977.042114257812 984.642211914062 982.702819824219 985.047485351562 980.197937011719 973.887634277344 970.379638671875 973.24072265625 964.230285644531 972.440063476562 967.039489746094 976.565185546875 972.361877441406 980.248168945312 974.125183105469 976.794372558594 972.811462402344 962.753479003906 982.854125976562 992.82568359375 987.89453125 991.655334472656 1001.84704589844 1001.79528808594 1002.07678222656 1002.59796142578 1001.92956542969 996.389831542969 998.746154785156 1000.79144287109 997.361083984375 997.806701660156 1005.56030273438 1006.18212890625 1002.03741455078 990.846252441406 992.381591796875 983.15087890625 982.129760742188 988.893249511719 975.274047851562 972.033935546875 962.259887695312 970.607788085938 971.906188964844 974.508850097656 976.06689453125 983.878356933594 985.999328613281 985.088012695312 997.50634765625 994.611511230469 994.289855957031 990.999206542969 994.73291015625 1001.55804443359 997.625183105469 995.355041503906 990.4208984375 993.6064453125 991.076110839844 982.455383300781 989.104125976562 987.993957519531 998.089111328125 997.981750488281 993.923156738281 989.064086914062 991.147155761719 989.733947753906 990.25927734375 984.871765136719 987.034606933594 973.42919921875 973.954223632812 983.748352050781 999.044006347656 1001.27020263672 1004.06628417969 1002.83001708984 1011.93469238281 1016.51995849609 1002.46325683594 996.071716308594 999.735290527344 1000.89324951172 1001.08569335938 1007.74505615234 1014.478515625 1019.8134765625 1023.51550292969 1026.93823242188 1026.97570800781 1042.44299316406 1037.85876464844 1039.30651855469 1027.86242675781 1024.68505859375 1025.34387207031 1033.47863769531 1037.11889648438 1040.18701171875 1046.31518554688 1037.03381347656 1035.68286132812 1021.41223144531 1023.76202392578 1012.50329589844 1009.86383056641 1012.88330078125 1017.81524658203 1024.04650878906 1019.64471435547 1015.69720458984 1029.35583496094 1024.3330078125 1016.66625976562 1013.72741699219 1014.22631835938 1008.80151367188 1001.00939941406 994.268005371094 999.85888671875 998.005798339844 993.480407714844 991.774963378906 999.64892578125 994.187866210938 1001.15515136719 999.148315429688
937.015747070312 938.002319335938 937.744812011719 927.498168945312 922.926147460938 917.842102050781 917.386108398438 939.948364257812 941.060668945312 937.273620605469 947.540954589844 965.947387695312 965.927490234375 972.453430175781 973.578308105469 977.523254394531 973.447387695312 970.692626953125 969.912414550781 977.942321777344 969.661926269531 973.04638671875 986.895385742188 984.417114257812 975.491088867188 982.61767578125 978.468688964844 977.217102050781 969.794921875 969.569274902344 970.862060546875 971.624633789062 969.227294921875 981.497192382812 983.867797851562 977.133972167969 971.136657714844 971.317016601562 982.991149902344 985.9658203125 997.097595214844 1000.41870117188 1000.51062011719 1003.02661132812 1005.17523193359 1006.29663085938 1008.16027832031 1002.25628662109 1003.27264404297 1001.63653564453 998.988891601562 988.782958984375 1002.54034423828 999.552368164062 999.276062011719 988.222473144531 986.528686523438 990.741455078125 985.346496582031 987.156555175781 983.844665527344 981.698608398438 978.064025878906 983.320556640625 975.698547363281 970.8212890625 976.172729492188 976.638244628906 978.605285644531 984.013977050781 992.708068847656 995.6279296875 994.928283691406 994.921020507812 993.282531738281 997.004272460938 1001.14978027344 997.292297363281 998.697631835938 995.953552246094 1000.14971923828 1001.81140136719 1004.70721435547 996.184875488281 993.88330078125 1006.86169433594 999.911010742188 992.77978515625 996.684631347656 982.357360839844 985.963623046875 982.471740722656 980.039428710938 978.248718261719 976.188354492188 984.11669921875 996.857788085938 1004.35876464844 1009.36126708984 1011.67236328125 1006.83599853516 1005.478515625 1003.73828125 1012.24255371094 1007.90319824219 1010.19134521484 1011.49847412109 1016.39685058594 1021.86138916016 1026.50219726562 1025.91577148438 1030.52770996094 1030.01086425781 1037.22924804688 1040.25244140625 1035.66943359375 1024.03759765625 1020.13635253906 1021.34136962891 1020.71807861328 1030.74719238281 1036.60961914062 1039.81005859375 1038.57788085938 1031.24597167969 1016.93719482422 1008.65026855469 1008.69006347656 1010.42639160156 1007.43365478516 1015.48858642578 1007.56652832031 1006.67395019531 1011.48126220703 1020.99475097656 1015.78039550781 1015.04302978516 1003.77722167969 1003.96850585938 996.238159179688 993.414184570312 994.700927734375 996.167846679688 999.180847167969 998.689880371094 990.711364746094 994.295776367188 999.256530761719 1002.71606445312 1000.35302734375
931.821655273438 938.974853515625 935.193420410156 929.535583496094 926.627136230469 930.437194824219 926.871398925781 947.688781738281 942.373901367188 939.927124023438 952.608764648438 955.5732421875 964.465881347656 972.139465332031 979.345642089844 976.330017089844 971.901428222656 972.955444335938 976.402893066406 981.891784667969 977.791625976562 986.3154296875 991.485656738281 985.499267578125 982.977111816406 980.010681152344 978.971923828125 976.734191894531 971.824340820312 972.9716796875 974.134460449219 973.931396484375 971.113586425781 983.298522949219 990.820739746094 986.811828613281 969.345703125 975.026000976562 981.178161621094 994.301635742188 994.318542480469 1010.07159423828 1004.95404052734 1003.05603027344 1005.92584228516 1026.76171875 1011.72961425781 1012.48071289062 1011.59002685547 1009.51049804688 996.939208984375 990.398742675781 992.114562988281 998.172790527344 995.614624023438 989.663269042969 986.103637695312 975.798767089844 984.3662109375 985.9443359375 987.899597167969 980.618835449219 975.685241699219 976.152099609375 977.548278808594 977.823303222656 977.889709472656 972.223022460938 974.958129882812 979.526733398438 989.83447265625 991.669494628906 989.220153808594 990.072265625 991.324890136719 990.474304199219 993.299987792969 994.942077636719 995.946044921875 1005.50177001953 1004.19287109375 1002.91223144531 1006.21374511719 1015.51965332031 1004.19488525391 1003.97100830078 998.073059082031 996.661682128906 997.824279785156 977.203979492188 978.082580566406 972.984313964844 978.481201171875 986.42919921875 989.210083007812 999.611938476562 995.025756835938 999.08935546875 1006.67358398438 1007.67437744141 1004.81329345703 1006.33874511719 1009.08532714844 1019.55969238281 1012.07989501953 1002.24151611328 1016.73406982422 1027.73681640625 1036.11828613281 1034.6435546875 1019.55773925781 1035.39929199219 1038.9267578125 1042.66186523438 1048.03137207031 1039.1943359375 1026.8642578125 1018.60589599609 1008.70672607422 1011.91857910156 1022.11297607422 1027.06640625 1032.89782714844 1030.58801269531 1030.10034179688 1023.29382324219 1016.953125 1005.97412109375 1004.84356689453 1007.29254150391 1006.99591064453 1009.51086425781 1005.13293457031 1010.08856201172 1009.44281005859 1013.12860107422 1015.09631347656 1001.22583007812 991.069030761719 987.640747070312 983.633911132812 981.378234863281 987.369873046875 988.325134277344 989.60498046875 992.584289550781 990.082946777344 991.3076171875 999.003784179688 996.35986328125
936.582336425781 933.438354492188 935.319702148438 934.300476074219 925.850646972656 920.729858398438 931.064636230469 937.647766113281 942.084411621094 949.63720703125 951.111755371094 956.75 970.974609375 973.754211425781 977.091918945312 979.114318847656 972.833679199219 972.517456054688 979.170959472656 984.869140625 985.123596191406 983.770874023438 990.070861816406 987.100402832031 986.4873046875 986.236022949219 983.188293457031 981.331665039062 975.800415039062 983.521484375 979.567993164062 978.202392578125 978.698181152344 982.871826171875 993.74267578125 989.881530761719 985.139953613281 979.992065429688 986.127563476562 991.772033691406 997.529174804688 999.679992675781 1004.02783203125 1003.31146240234 1015.25891113281 1027.37255859375 1024.08190917969 1014.43060302734 1008.02941894531 1006.6591796875 1001.09661865234 1002.72875976562 997.7373046875 990.860961914062 987.587280273438 986.929016113281 984.492248535156 981.553527832031 983.132019042969 986.620056152344 981.242980957031 979.629760742188 971.511474609375 979.97119140625 982.384948730469 976.946899414062 976.72119140625 977.344909667969 981.765625 979.609252929688 983.205627441406 987.04150390625 991.855224609375 986.938720703125 990.505981445312 994.034851074219 998.039916992188 1005.54553222656 1005.46118164062 1001.16381835938 1003.30914306641 1003.86071777344 1011.10070800781 1015.61822509766 1015.49920654297 1009.349609375 1000.16009521484 993.053833007812 988.337158203125 986.037414550781 987.552124023438 991.875305175781 987.646606445312 994.265991210938 992.090148925781 993.0390625 993.785705566406 991.510620117188 1003.78692626953 1006.07928466797 1007.59423828125 1014.60864257812 1016.00830078125 1012.41394042969 1008.28570556641 1010.83740234375 1019.10748291016 1026.28308105469 1030.646484375 1031.06945800781 1033.44104003906 1030.15014648438 1041.2353515625 1049.17407226562 1052.22082519531 1042.94323730469 1042.57250976562 1023.52111816406 1016.15112304688 1023.80798339844 1022.03277587891 1031.36291503906 1036.78295898438 1025.26892089844 1026.11828613281 1021.74206542969 1009.45080566406 1002.58343505859 1007.09680175781 1002.52893066406 1006.04022216797 1006.30163574219 1002.365234375 1010.31219482422 1008.19488525391 1009.00555419922 1011.57989501953 999.405578613281 995.544799804688 985.895629882812 973.921203613281 975.4150390625 983.437072753906 985.177124023438 984.456787109375 979.683471679688 989.172302246094 982.151611328125 994.135314941406 997.873718261719
936.204711914062 934.422729492188 936.042297363281 933.961120605469 931.390686035156 926.652770996094 939.953735351562 938.919860839844 938.3125 948.631530761719 952.65087890625 964.483825683594 966.81689453125 970.896118164062 975.219116210938 976.049621582031 978.133605957031 973.624389648438 977.181884765625 971.5595703125 976.676696777344 979.777526855469 990.431945800781 991.023376464844 995.054382324219 987.888977050781 986.377380371094 988.024108886719 985.644348144531 990.823364257812 989.537414550781 981.884582519531 983.732421875 986.900024414062 981.917419433594 990.154418945312 981.808898925781 989.501586914062 984.942626953125 991.724670410156 991.657958984375 996.851440429688 999.20947265625 1003.95544433594 1019.04260253906 1022.40344238281 1025.08837890625 1021.09582519531 1008.56915283203 995.373718261719 999.315246582031 999.95458984375 1003.94671630859 999.895080566406 997.005981445312 985.555908203125 990.08251953125 986.461791992188 973.622131347656 975.280700683594 979.955383300781 975.789489746094 976.348266601562 972.473266601562 980.991760253906 981.129516601562 980.237487792969 989.481323242188 986.987365722656 984.24609375 988.998229980469 987.215759277344 987.254943847656 999.099243164062 991.541809082031 994.318115234375 998.229187011719 1004.55676269531 1007.74243164062 1003.65002441406 1004.16619873047 1009.15246582031 1017.08508300781 1022.50897216797 1018.60498046875 1001.66729736328 995.947998046875 992.506713867188 994.034057617188 992.358825683594 987.336486816406 984.243530273438 981.014343261719 986.776000976562 1001.93121337891 997.813842773438 987.76953125 997.363342285156 1006.4765625 1013.14691162109 1004.85754394531 1011.2041015625 1007.57244873047 1000.80529785156 1002.60107421875 1014.37829589844 1010.22131347656 1013.89349365234 1025.05444335938 1030.58679199219 1038.11865234375 1041.84143066406 1038.03625488281 1039.15502929688 1041.38244628906 1034.61193847656 1036.92517089844 1028.45178222656 1024.50866699219 1021.46173095703 1022.69934082031 1030.18896484375 1030.46691894531 1014.07012939453 1018.078125 1010.06597900391 1003.86944580078 996.243591308594 1005.37634277344 1011.27532958984 1010.14294433594 999.410888671875 996.009521484375 1004.68060302734 1000.77130126953 999.24853515625 1004.01232910156 1006.88580322266 1000.39416503906 985.416809082031 972.392639160156 982.415161132812 977.626586914062 980.23291015625 983.841064453125 978.888000488281 988.388122558594 989.78076171875 997.514892578125 996.007385253906
940.509948730469 942.507141113281 936.785217285156 936.143920898438 938.54443359375 931.699890136719 940.922485351562 939.524475097656 947.321350097656 947.541809082031 960.936584472656 967.67431640625 961.910766601562 971.137023925781 978.787719726562 980.088256835938 971.853637695312 973.308837890625 971.777099609375 966.11279296875 976.602172851562 981.074157714844 983.287963867188 988.635314941406 985.490661621094 990.222290039062 988.412048339844 991.268005371094 984.628112792969 988.715637207031 989.075439453125 980.424194335938 979.963195800781 987.894836425781 979.952270507812 980.663452148438 990.118225097656 981.182922363281 991.637023925781 990.97705078125 994.019775390625 991.870910644531 995.679992675781 999.542602539062 1013.23699951172 1015.36645507812 1020.94024658203 1016.76062011719 1010.93688964844 1002.84582519531 993.997741699219 995.646301269531 1000.18969726562 995.363464355469 994.267211914062 985.719787597656 988.308166503906 979.416870117188 982.46044921875 976.305725097656 978.777648925781 973.743347167969 969.513366699219 978.765441894531 975.409790039062 973.510803222656 981.877624511719 990.318237304688 975.772705078125 981.871459960938 992.1826171875 994.960815429688 990.014953613281 988.751098632812 994.481689453125 995.094848632812 993.031372070312 1001.40234375 1001.29901123047 1004.90130615234 1009.86004638672 1009.53942871094 1013.54968261719 1010.63098144531 1006.10931396484 1004.65478515625 1008.77813720703 1001.74890136719 996.201599121094 988.713134765625 992.910766601562 993.482177734375 989.4912109375 990.49951171875 994.716186523438 995.576416015625 992.784484863281 995.060241699219 996.392150878906 1004.95831298828 1003.12438964844 1004.36090087891 1006.30834960938 993.664733886719 1004.88751220703 1007.28594970703 1012.70587158203 1014.08099365234 1017.35205078125 1028.36535644531 1035.86828613281 1038.46252441406 1031.61791992188 1032.19091796875 1037.18029785156 1037.61083984375 1036.81872558594 1038.05419921875 1032.08154296875 1023.50457763672 1027.52319335938 1032.31726074219 1017.10211181641 1022.40161132812 1018.11999511719 1007.07928466797 997.022094726562 997.257629394531 1012.78558349609 1011.03009033203 1002.65734863281 1004.60675048828 986.977844238281 990.849670410156 987.55810546875 991.377563476562 1002.45208740234 996.158630371094 995.239501953125 992.900573730469 981.213439941406 979.032165527344 985.573974609375 978.591064453125 978.248168945312 975.210693359375 973.217895507812 986.177124023438 996.711975097656 997.618286132812
946.683410644531 946.836975097656 949.504638671875 950.175537109375 945.829956054688 939.849487304688 943.236755371094 949.169860839844 957.965026855469 959.871398925781 963.068908691406 967.967163085938 968.255798339844 970.399047851562 973.110046386719 978.353576660156 973.04541015625 976.373596191406 981.079833984375 972.25634765625 970.487609863281 984.43017578125 987.786499023438 980.838500976562 988.021667480469 995.901672363281 987.066223144531 985.734008789062 980.832153320312 984.692565917969 987.200012207031 979.809936523438 977.249084472656 980.056579589844 982.207824707031 981.779602050781 993.890563964844 990.979309082031 988.493225097656 994.056579589844 992.175964355469 998.035766601562 994.389282226562 1000.76690673828 1005.94177246094 1009.52911376953 1018.31652832031 1010.33843994141 1001.23046875 995.302185058594 993.640441894531 989.741333007812 988.931091308594 997.930236816406 996.746765136719 991.743713378906 988.74609375 981.9453125 997.810424804688 987.809326171875 987.107482910156 979.864990234375 982.05712890625 977.836608886719 968.798889160156 974.039306640625 978.863586425781 986.853759765625 977.65478515625 981.611511230469 990.647399902344 995.227111816406 989.30712890625 989.136291503906 996.647766113281 996.077941894531 989.621704101562 1001.04010009766 1002.70074462891 1002.966796875 1004.67230224609 1007.69427490234 1000.47717285156 994.822692871094 1004.01037597656 1005.34375 1007.61511230469 998.98486328125 995.950988769531 993.674865722656 1002.33148193359 999.018432617188 990.398071289062 999.693420410156 992.712524414062 991.325988769531 993.932373046875 997.38623046875 999.299926757812 993.03271484375 996.516052246094 1002.23583984375 1006.44812011719 999.118103027344 1001.99310302734 1015.42266845703 1015.09362792969 1009.27966308594 1011.14031982422 1022.583984375 1038.36413574219 1039.88891601562 1033.72729492188 1037.27673339844 1040.13452148438 1036.2333984375 1040.38159179688 1032.90795898438 1031.93127441406 1028.69860839844 1023.26306152344 1010.66625976562 1010.30676269531 1009.20068359375 1006.17779541016 993.752624511719 993.6123046875 999.014526367188 1003.32958984375 1005.79113769531 1002.81677246094 995.283325195312 984.691223144531 984.538940429688 990.501403808594 991.113952636719 992.643493652344 997.18359375 994.581726074219 987.152038574219 985.644958496094 987.894714355469 983.720947265625 979.482421875 975.658935546875 976.958435058594 971.670715332031 987.817016601562 989.934753417969 991.258911132812
947.671691894531 937.26513671875 944.948913574219 952.971374511719 950.655578613281 940.002868652344 933.814270019531 951.541137695312 949.522644042969 958.571716308594 966.682678222656 961.319885253906 962.348327636719 973.240905761719 978.025207519531 976.885559082031 974.193908691406 975.203186035156 969.42138671875 969.062072753906 964.021118164062 981.296569824219 987.736877441406 987.000793457031 992.485290527344 996.724975585938 985.120239257812 973.433349609375 975.671081542969 986.044616699219 989.592041015625 983.225219726562 974.617309570312 975.965209960938 973.896423339844 981.651000976562 985.663330078125 990.105590820312 993.416564941406 998.682373046875 994.864440917969 989.454528808594 996.895263671875 999.671997070312 997.433166503906 998.131286621094 1001.87493896484 1007.97784423828 1004.41375732422 998.996887207031 992.506713867188 984.670227050781 990.163208007812 991.924926757812 988.800109863281 989.337585449219 993.43212890625 995.79296875 984.82177734375 986.895568847656 990.363586425781 985.519470214844 984.394104003906 976.788757324219 975.354064941406 977.063720703125 977.438842773438 976.538269042969 987.545104980469 985.926391601562 985.904418945312 992.984375 991.095703125 984.373840332031 989.596801757812 990.565185546875 991.612060546875 990.119201660156 1001.83117675781 990.968811035156 1003.82739257812 1008.29620361328 1004.35552978516 996.944763183594 998.820983886719 1006.02563476562 1000.59783935547 996.671508789062 992.911560058594 992.020935058594 993.542236328125 995.54052734375 989.219970703125 992.673645019531 995.49267578125 988.8974609375 999.660583496094 999.128295898438 997.925354003906 992.447448730469 993.998657226562 1004.17980957031 996.565795898438 1006.35241699219 1009.34710693359 1019.58343505859 1021.88177490234 1011.70446777344 1021.83129882812 1023.75183105469 1035.46740722656 1034.83227539062 1038.15637207031 1036.64868164062 1041.14599609375 1043.06372070312 1038.52478027344 1035.93237304688 1029.78112792969 1022.7666015625 1025.24609375 1016.83447265625 1003.89855957031 999.478576660156 997.056823730469 997.665832519531 994.022277832031 989.427795410156 998.933349609375 999.838500976562 999.241516113281 998.683471679688 990.828308105469 995.156066894531 993.733154296875 988.538391113281 1003.26135253906 1001.62689208984 997.276428222656 983.462280273438 989.133605957031 991.190307617188 989.680114746094 980.588562011719 969.408630371094 967.589111328125 976.230224609375 978.087097167969 990.882995605469 987.754028320312
947.526000976562 946.017517089844 945.908996582031 949.4208984375 952.80908203125 946.496276855469 934.158813476562 945.578796386719 946.181396484375 950.401489257812 967.697204589844 962.894348144531 961.68603515625 968.072631835938 964.739135742188 964.08935546875 973.045532226562 972.633056640625 968.06689453125 963.839111328125 965.650268554688 964.028991699219 977.327880859375 974.515380859375 980.8974609375 982.322021484375 976.525939941406 972.261352539062 972.361633300781 985.178894042969 983.58203125 978.120422363281 972.335998535156 980.412292480469 983.78857421875 982.899108886719 979.68798828125 987.580444335938 990.174255371094 987.758666992188 977.692626953125 986.962219238281 998.87109375 989.51416015625 996.324584960938 998.233459472656 1005.30670166016 1006.53424072266 1003.48388671875 1005.42028808594 997.333801269531 995.386779785156 990.652770996094 989.380432128906 994.082641601562 998.8701171875 999.411682128906 984.912414550781 993.568420410156 982.258972167969 982.481994628906 982.111083984375 980.213256835938 976.129150390625 983.452514648438 973.586547851562 971.8349609375 980.495178222656 980.002868652344 984.01025390625 986.113159179688 982.032287597656 980.622680664062 989.28564453125 986.831970214844 984.050659179688 983.731201171875 980.602172851562 993.162536621094 994.6640625 1010.26000976562 997.590087890625 998.8173828125 1006.00152587891 1001.00372314453 1004.11895751953 999.831420898438 995.730224609375 993.11767578125 986.177368164062 989.829650878906 997.864929199219 994.012634277344 988.536010742188 987.635681152344 995.023071289062 995.174926757812 997.834655761719 996.771667480469 990.746704101562 997.795959472656 1001.21832275391 1000.93737792969 999.063110351562 1005.80511474609 1019.88098144531 1022.08630371094 1018.81488037109 1022.26910400391 1025.77197265625 1026.62707519531 1038.41430664062 1034.56237792969 1041.04772949219 1042.28747558594 1039.76403808594 1044.66772460938 1040.19860839844 1032.61193847656 1029.56262207031 1025.64782714844 1014.19207763672 1005.76739501953 1003.01831054688 1009.44451904297 1001.14813232422 994.784851074219 984.934997558594 993.293884277344 990.418579101562 992.272338867188 993.52685546875 988.906799316406 989.924621582031 997.94970703125 990.965698242188 993.376831054688 995.018310546875 993.19482421875 986.355407714844 990.344909667969 979.301513671875 977.956848144531 977.13134765625 976.494873046875 971.431335449219 970.449340820312 972.619689941406 984.969970703125 995.550964355469
946.917663574219 952.037780761719 948.011779785156 945.072814941406 936.39306640625 942.105712890625 949.034423828125 947.76611328125 948.763061523438 957.396301269531 969.416625976562 980.067199707031 973.302307128906 966.6240234375 955.816162109375 963.950256347656 966.829223632812 968.011291503906 962.243103027344 966.697875976562 962.784057617188 966.806640625 968.58251953125 961.07421875 963.884155273438 960.038879394531 957.344787597656 964.503234863281 965.580261230469 979.554321289062 976.234069824219 981.349975585938 984.600036621094 987.305786132812 990.121337890625 981.000732421875 973.864318847656 977.949096679688 985.363037109375 986.813293457031 990.136901855469 994.727233886719 1002.13629150391 997.303344726562 986.595031738281 997.253845214844 998.695007324219 1006.34448242188 1005.31341552734 1002.30755615234 1000.56610107422 1000.75866699219 996.647033691406 989.442687988281 993.261108398438 999.334838867188 993.0478515625 990.670288085938 993.911926269531 986.883666992188 979.831176757812 983.364135742188 990.34033203125 986.127624511719 983.478393554688 979.338500976562 980.870971679688 977.329345703125 979.341186523438 978.759094238281 976.200561523438 984.859558105469 983.852844238281 989.147521972656 995.035949707031 983.980407714844 982.005310058594 986.392333984375 993.963012695312 995.241333007812 1007.55041503906 1001.96417236328 1004.99853515625 1001.52789306641 999.605224609375 1004.38293457031 1002.92431640625 1005.072265625 1005.59088134766 994.639099121094 990.082824707031 981.452941894531 988.145202636719 990.777038574219 993.570739746094 994.112365722656 991.814331054688 992.001647949219 994.518798828125 993.347839355469 1002.36804199219 1006.53112792969 999.639343261719 996.621337890625 1008.44561767578 1024.42883300781 1027.21447753906 1023.689453125 1022.30511474609 1027.56860351562 1023.86077880859 1037.30688476562 1039.59619140625 1036.685546875 1046.36389160156 1040.36450195312 1046.36706542969 1043.44567871094 1027.13037109375 1018.47540283203 1025.90625 1023.26306152344 1006.37164306641 1004.01135253906 1002.49133300781 999.92578125 987.922729492188 982.155883789062 990.682312011719 984.679260253906 982.2021484375 985.612243652344 989.506042480469 985.621948242188 986.660400390625 986.472473144531 989.48583984375 992.537231445312 986.758361816406 985.167419433594 985.071044921875 987.5380859375 981.894958496094 977.157470703125 976.087646484375 973.63623046875 970.262573242188 983.315063476562 985.581359863281 981.514587402344
955.245666503906 949.757202148438 949.375 943.941101074219 944.024475097656 942.61279296875 944.866027832031 945.353515625 943.636291503906 960.548461914062 964.043823242188 963.154235839844 972.04052734375 959.150085449219 955.693603515625 955.459167480469 961.178344726562 959.162536621094 956.182556152344 963.368286132812 964.745971679688 967.405334472656 953.639038085938 942.3388671875 957.537170410156 953.344360351562 951.82470703125 955.222900390625 962.034484863281 965.030700683594 970.803833007812 980.24267578125 976.999572753906 981.937622070312 982.906433105469 981.668212890625 976.942199707031 968.341674804688 977.315979003906 982.251892089844 977.359497070312 994.974365234375 989.891357421875 992.057983398438 994.8515625 987.072082519531 992.711608886719 999.6806640625 995.510192871094 1003.41143798828 1010.09649658203 1009.11352539062 998.176391601562 996.242919921875 994.100158691406 999.44482421875 990.43505859375 987.285095214844 985.695617675781 984.125732421875 978.79638671875 982.7431640625 983.951477050781 982.342712402344 983.365600585938 983.598449707031 980.531372070312 978.716979980469 985.858093261719 983.147399902344 983.335388183594 983.009765625 990.973876953125 988.588745117188 994.937072753906 995.861145019531 991.465454101562 984.878295898438 992.914123535156 992.634399414062 997.897827148438 1008.1279296875 1009.33453369141 1003.86047363281 1012.91552734375 1006.32391357422 1005.83245849609 1010.20660400391 998.328247070312 1003.44488525391 1004.38623046875 999.827880859375 994.188232421875 996.456848144531 1002.67016601562 1002.16009521484 995.9560546875 988.39013671875 998.247375488281 995.645629882812 1001.22961425781 996.558227539062 1006.13787841797 1010.19323730469 1014.00524902344 1024.47534179688 1027.19128417969 1030.92663574219 1033.33203125 1035.5322265625 1037.60412597656 1042.1240234375 1037.79333496094 1042.1904296875 1035.94738769531 1045.5302734375 1046.85778808594 1038.70324707031 1019.00372314453 1024.72705078125 1024.84265136719 1023.95971679688 1014.67456054688 1002.49816894531 994.051391601562 995.22119140625 985.826477050781 987.170288085938 976.896179199219 979.745422363281 971.332275390625 987.172607421875 988.632141113281 989.916870117188 994.024780273438 982.952392578125 993.329711914062 995.767883300781 980.276672363281 979.460815429688 975.556518554688 977.539367675781 974.637817382812 964.387939453125 973.886596679688 964.642761230469 968.163879394531 979.50927734375 981.96142578125 973.310424804688
951.638488769531 946.516296386719 947.626037597656 951.125671386719 945.225158691406 935.920593261719 939.340087890625 939.692016601562 945.0859375 949.217590332031 952.62060546875 955.979125976562 956.685668945312 962.327453613281 951.867248535156 953.407165527344 956.056518554688 957.025024414062 957.790771484375 950.344482421875 956.40380859375 952.024658203125 947.197998046875 939.951171875 947.312683105469 947.392944335938 960.807006835938 955.483764648438 956.36279296875 955.368286132812 968.393920898438 975.599365234375 968.871887207031 972.721557617188 976.052856445312 967.039978027344 971.524658203125 961.676330566406 967.596313476562 974.885131835938 969.169799804688 981.574096679688 983.582397460938 988.527465820312 986.741821289062 1000.29754638672 993.304809570312 998.712768554688 994.71728515625 996.900024414062 1009.62158203125 1007.79486083984 999.777709960938 997.324096679688 998.373474121094 997.244506835938 990.119934082031 982.406005859375 991.524536132812 987.398742675781 989.566711425781 987.585632324219 982.987121582031 983.776428222656 977.199584960938 973.924072265625 981.345336914062 983.829406738281 997.338623046875 995.382507324219 993.74658203125 996.056762695312 997.269226074219 980.495483398438 989.625 989.714660644531 980.696838378906 989.118957519531 991.8193359375 991.664794921875 997.758056640625 1000.73333740234 1003.90655517578 997.715576171875 1008.57434082031 1012.86315917969 1004.8564453125 1002.48980712891 994.851745605469 999.869873046875 998.205078125 1002.76580810547 994.630432128906 999.299255371094 1008.89068603516 1009.85968017578 1002.67895507812 993.159301757812 997.690124511719 1015.20184326172 1016.12878417969 1004.17004394531 1010.25439453125 1016.32928466797 1020.28198242188 1025.06665039062 1030.30236816406 1034.71008300781 1039.34765625 1045.04956054688 1041.98681640625 1044.09912109375 1051.01000976562 1053.14282226562 1056.9423828125 1054.39562988281 1060.71728515625 1043.13452148438 1024.51110839844 1027.28295898438 1028.701171875 1026.58544921875 1015.36267089844 1004.08422851562 989.054382324219 992.306213378906 982.390197753906 978.52587890625 981.579772949219 986.700134277344 981.631896972656 974.562133789062 974.768249511719 981.827453613281 988.133605957031 985.649658203125 987.270874023438 986.507019042969 987.861511230469 978.265075683594 984.513732910156 975.373840332031 973.823913574219 958.784973144531 967.688110351562 960.073303222656 966.157409667969 975.455505371094 978.983642578125 982.480712890625
953.20849609375 956.740173339844 949.923828125 954.168029785156 945.146789550781 937.255187988281 927.041198730469 938.330017089844 948.6875 946.140380859375 955.720764160156 951.152648925781 954.879699707031 955.658508300781 954.715698242188 954.33544921875 957.539978027344 954.469787597656 963.562866210938 951.778869628906 955.469482421875 947.794677734375 941.789306640625 943.601318359375 944.674499511719 955.802001953125 962.03125 958.708679199219 963.028442382812 959.160522460938 960.293334960938 959.200256347656 967.3720703125 965.981506347656 966.961669921875 959.890808105469 967.071350097656 968.48291015625 971.679016113281 969.51513671875 977.052001953125 980.175109863281 979.498229980469 979.808288574219 989.203125 996.201904296875 989.700317382812 1002.00219726562 998.194519042969 994.272705078125 1002.72894287109 997.371826171875 1003.12866210938 998.635131835938 1002.90863037109 997.6689453125 993.510925292969 987.086975097656 994.951049804688 992.578735351562 992.946105957031 989.93994140625 988.524353027344 986.193603515625 984.497131347656 986.106201171875 984.078430175781 987.71875 994.763854980469 995.074523925781 994.8857421875 998.81201171875 999.286315917969 991.377258300781 989.646118164062 990.842224121094 985.314636230469 990.365539550781 987.4814453125 990.231201171875 984.132690429688 986.300903320312 996.919616699219 1002.81372070312 1008.16345214844 1010.46228027344 1003.46081542969 1001.98107910156 1001.21868896484 999.0693359375 1012.34057617188 1004.97998046875 1004.03649902344 1006.90460205078 1002.37329101562 1002.51177978516 1004.939453125 1007.46453857422 1009.59350585938 1019.2763671875 1022.35650634766 1006.40673828125 1014.20104980469 1015.37445068359 1021.58288574219 1023.06750488281 1028.10913085938 1040.47570800781 1047.27172851562 1053.86547851562 1052.35693359375 1051.16613769531 1047.82507324219 1059.39819335938 1057.10229492188 1064.80786132812 1055.32434082031 1037.0419921875 1025.00561523438 1030.56457519531 1037.63439941406 1023.20336914062 1010.37365722656 998.559509277344 996.755554199219 990.304382324219 983.852172851562 985.366821289062 983.015441894531 989.958068847656 985.858093261719 978.953979492188 978.367858886719 994.550903320312 996.236022949219 984.734924316406 986.998046875 975.82763671875 990.016296386719 985.341796875 987.261413574219 983.024536132812 974.044250488281 967.974609375 968.839294433594 967.32275390625 969.198669433594 966.709106445312 973.644958496094 974.479370117188
954.827575683594 954.939819335938 954.5595703125 948.533569335938 940.645874023438 934.02294921875 933.030700683594 945.049743652344 940.73974609375 941.532836914062 943.832153320312 944.370178222656 947.514526367188 945.145690917969 944.721435546875 953.715942382812 952.993041992188 956.774780273438 962.494262695312 958.372314453125 962.665283203125 944.802795410156 953.083801269531 951.558227539062 957.502197265625 969.664733886719 967.281555175781 972.654296875 975.096984863281 966.126403808594 960.535278320312 957.331787109375 961.938110351562 967.015502929688 960.5537109375 962.694519042969 962.295776367188 960.750122070312 974.195373535156 975.305725097656 975.323486328125 981.461730957031 983.620910644531 984.118408203125 989.450317382812 989.056884765625 993.805908203125 1007.53021240234 996.731628417969 993.270812988281 993.589660644531 992.870788574219 997.462341308594 992.333312988281 1001.96875 1002.59851074219 1004.40161132812 998.806884765625 1000.7490234375 995.71826171875 987.10009765625 989.796447753906 992.907104492188 996.592590332031 1000.06268310547 993.654357910156 1001.16247558594 1000.61022949219 992.946350097656 984.483825683594 990.586181640625 989.547607421875 993.591552734375 984.377380371094 992.679809570312 991.901733398438 986.707763671875 994.094970703125 994.711364746094 992.830871582031 987.427062988281 991.315002441406 996.125 1000.21990966797 998.695068359375 1002.95861816406 1004.29412841797 994.78515625 1003.86804199219 1000.70050048828 1015.09918212891 1005.47393798828 1006.91021728516 1006.43316650391 1011.50628662109 1004.58203125 1012.52838134766 1016.16931152344 1017.68865966797 1023.14044189453 1023.34423828125 1025.89770507812 1028.78845214844 1011.54125976562 1016.84130859375 1025.79370117188 1030.95324707031 1043.35205078125 1053.11596679688 1052.27136230469 1051.47961425781 1062.15869140625 1058.89245605469 1062.00573730469 1062.98681640625 1060.52099609375 1057.97033691406 1033.07641601562 1033.5859375 1038.42822265625 1037.28112792969 1027.96166992188 1024.31958007812 1004.7060546875 990.976196289062 992.535888671875 997.457885742188 984.39013671875 987.436584472656 991.598449707031 978.999450683594 984.513244628906 982.595886230469 1000.33947753906 997.178527832031 988.532836914062 976.991943359375 975.119873046875 975.596435546875 976.661926269531 978.708190917969 988.081298828125 980.020751953125 964.268920898438 966.693115234375 965.973815917969 966.522399902344 972.349182128906 973.972351074219 971.392883300781
956.479370117188 959.17919921875 950.876586914062 944.244567871094 938.267028808594 937.597412109375 941.803466796875 942.232788085938 944.7763671875 946.493957519531 950.706420898438 941.213317871094 941.708984375 945.036560058594 949.390991210938 950.746948242188 948.968933105469 956.678283691406 957.687744140625 961.779663085938 966.467956542969 953.448059082031 959.029235839844 957.910095214844 956.450134277344 965.289794921875 959.070190429688 974.127868652344 973.173278808594 958.257934570312 961.931274414062 959.064208984375 964.686218261719 964.252624511719 975.783813476562 970.463012695312 970.434326171875 965.680480957031 980.435485839844 981.782165527344 977.237731933594 974.879699707031 967.125183105469 975.470031738281 988.257934570312 988.923767089844 996.621154785156 996.251831054688 993.959777832031 990.07275390625 997.287536621094 998.177673339844 994.951965332031 990.279968261719 992.610961914062 996.819763183594 999.190979003906 1000.052734375 1008.9150390625 997.502624511719 999.676391601562 990.985046386719 996.573669433594 998.794067382812 994.650390625 993.096740722656 993.401184082031 991.662414550781 987.0859375 990.907043457031 988.618713378906 986.652221679688 995.369689941406 991.085205078125 991.25146484375 1000.68182373047 995.554809570312 996.819274902344 995.401184082031 997.385498046875 982.307312011719 990.158081054688 994.374694824219 1000.51617431641 995.087036132812 1001.77337646484 1008.03430175781 1003.58404541016 1006.47436523438 1016.76666259766 1009.78704833984 1014.80120849609 996.293273925781 1004.25335693359 1003.89172363281 1002.76538085938 1013.50250244141 1020.59594726562 1018.10595703125 1021.18402099609 1024.63989257812 1029.09533691406 1032.84057617188 1022.79565429688 1020.14349365234 1028.63354492188 1034.23400878906 1042.99145507812 1056.28259277344 1043.33386230469 1043.78271484375 1046.39880371094 1054.01879882812 1062.33288574219 1061.36572265625 1056.36950683594 1047.24011230469 1046.15710449219 1036.85681152344 1048.93200683594 1044.87719726562 1037.62573242188 1022.29400634766 1012.98004150391 1008.77923583984 997.467834472656 997.245971679688 985.367736816406 983.929626464844 984.986083984375 978.605102539062 978.939025878906 980.5341796875 992.65087890625 992.585388183594 986.149291992188 969.705200195312 961.757019042969 957.19970703125 963.508728027344 968.778991699219 976.770080566406 981.030639648438 977.659118652344 974.085876464844 985.054931640625 981.475708007812 969.806762695312 974.584045410156 971.453369140625
970.023559570312 961.858947753906 957.602966308594 955.471923828125 952.010803222656 944.420349121094 940.22607421875 934.768676757812 943.589294433594 945.947448730469 953.751770019531 954.682922363281 950.198791503906 946.843017578125 951.815734863281 944.939636230469 957.640502929688 967.303527832031 962.133666992188 964.997985839844 962.967651367188 960.240966796875 955.50634765625 956.853637695312 959.15087890625 961.160522460938 962.553100585938 970.905700683594 973.146667480469 967.9130859375 957.215270996094 953.979309082031 963.039123535156 965.166381835938 971.245971679688 977.868896484375 973.137451171875 969.28759765625 981.030578613281 987.899291992188 977.38330078125 966.269348144531 965.001342773438 963.362243652344 981.459411621094 987.163940429688 988.324279785156 979.204650878906 978.417785644531 987.138000488281 989.962768554688 991.680969238281 989.845031738281 991.130554199219 1007.98785400391 1008.44696044922 1004.03869628906 1005.38537597656 1010.33489990234 1002.70422363281 1002.12097167969 997.728759765625 1000.07452392578 990.647766113281 999.961059570312 991.870971679688 988.439086914062 989.396301269531 996.365417480469 992.047180175781 989.320373535156 989.739562988281 995.579040527344 991.977661132812 990.943298339844 996.563171386719 997.682678222656 993.031372070312 989.640625 990.233459472656 989.00048828125 991.403259277344 1002.43914794922 1011.23034667969 1001.904296875 1010.65325927734 1008.90228271484 1008.59979248047 1005.59051513672 1012.15399169922 1020.32934570312 1017.09301757812 1010.65924072266 998.562744140625 1012.15252685547 1004.04724121094 1003.99078369141 1012.05102539062 1016.43048095703 1022.79412841797 1018.927734375 1026.41625976562 1027.12329101562 1022.15576171875 1026.880859375 1032.55932617188 1032.63562011719 1040.48681640625 1044.28369140625 1046.3232421875 1049.32788085938 1045.87866210938 1050.80139160156 1056.029296875 1054.65588378906 1062.00122070312 1053.39697265625 1053.08215332031 1047.01452636719 1050.05883789062 1045.88684082031 1035.47912597656 1030.45190429688 1016.33386230469 1016.57604980469 1015.4345703125 1016.30718994141 997.309997558594 988.684448242188 997.356628417969 987.209594726562 983.713989257812 986.417602539062 985.601013183594 982.007263183594 975.74169921875 967.572875976562 957.1689453125 953.651184082031 962.173217773438 966.150573730469 974.841735839844 981.425231933594 980.887573242188 986.237060546875 983.1474609375 981.822143554688 981.469604492188 980.580932617188 973.911926269531
951.207641601562 967.947326660156 964.628967285156 965.843017578125 960.777404785156 950.935668945312 946.426940917969 943.476989746094 954.22998046875 956.356384277344 955.957275390625 959.046569824219 960.752502441406 959.572998046875 958.713989257812 957.179138183594 962.511962890625 963.194702148438 967.570434570312 972.7841796875 974.537109375 966.179626464844 953.434448242188 954.525939941406 960.237182617188 965.773559570312 961.394287109375 971.740600585938 963.858337402344 962.531005859375 960.443054199219 954.73095703125 966.844604492188 973.351318359375 965.71435546875 967.685791015625 971.942810058594 980.591064453125 975.400939941406 982.443603515625 978.437927246094 973.234741210938 966.01171875 968.844299316406 978.672424316406 983.566711425781 982.413879394531 982.899475097656 975.190246582031 982.149475097656 998.909057617188 987.482299804688 989.768188476562 996.402099609375 1007.30554199219 1009.37506103516 1013.61639404297 1016.5078125 1011.82727050781 1008.10882568359 1006.66851806641 999.697631835938 994.714904785156 1000.37646484375 999.58251953125 997.156433105469 998.861328125 999.077209472656 999.071655273438 992.223937988281 987.484313964844 988.955078125 994.792663574219 998.215454101562 995.355895996094 992.546203613281 998.102722167969 991.539001464844 989.414001464844 994.457397460938 988.779907226562 994.770080566406 993.742004394531 1001.07281494141 992.609130859375 999.136901855469 1010.56713867188 1008.80444335938 1011.90252685547 1017.09985351562 1022.55200195312 1017.32165527344 1018.31768798828 1015.40325927734 1004.97961425781 1018.94598388672 1012.30236816406 1013.45428466797 1019.88409423828 1024.05236816406 1017.22418212891 1011.771484375 1017.75433349609 1024.16674804688 1032.49377441406 1031.19421386719 1037.42407226562 1036.73962402344 1034.06262207031 1037.73107910156 1044.07299804688 1050.7236328125 1051.44702148438 1051.42541503906 1063.33544921875 1057.81213378906 1054.71752929688 1063.77783203125 1062.13940429688 1054.56982421875 1049.04455566406 1037.7177734375 1029.96557617188 1017.87512207031 1020.12860107422 1019.35314941406 1015.96466064453 1001.12274169922 998.295227050781 991.457885742188 994.433044433594 986.261596679688 982.667419433594 986.120849609375 980.869018554688 973.616821289062 966.217468261719 954.347106933594 958.261169433594 962.88916015625 965.213989257812 975.79248046875 971.282653808594 972.197814941406 979.531799316406 975.976928710938 983.3564453125 977.743347167969 977.163757324219 971.88037109375
960.952453613281 972.926086425781 971.751647949219 963.752563476562 968.559326171875 958.934997558594 952.077941894531 948.442260742188 944.781555175781 951.44384765625 959.176330566406 964.560668945312 967.1708984375 968.536010742188 968.138793945312 963.289367675781 959.201354980469 969.547790527344 966.33203125 968.861328125 976.368103027344 963.464416503906 955.106750488281 950.533142089844 959.020690917969 969.186828613281 964.0146484375 967.902465820312 965.080139160156 969.517700195312 958.383911132812 961.209655761719 970.122131347656 966.006103515625 965.501525878906 974.709228515625 976.248474121094 970.459167480469 977.01611328125 979.307495117188 971.661193847656 969.710266113281 974.712280273438 972.757934570312 972.499694824219 972.2431640625 969.856872558594 978.593322753906 979.078918457031 983.336547851562 992.971740722656 993.919372558594 997.562072753906 1001.47882080078 1000.17126464844 1002.23236083984 1016.93719482422 1011.82214355469 1013.89617919922 1008.12335205078 1009.35107421875 1000.44390869141 990.711486816406 997.427673339844 994.410705566406 997.075561523438 990.86865234375 995.729064941406 997.993103027344 990.260009765625 987.574279785156 992.06396484375 992.230041503906 1007.19763183594 1002.77075195312 1001.36535644531 1000.52520751953 994.866333007812 999.793884277344 996.049255371094 994.922729492188 988.568542480469 987.537170410156 996.942260742188 998.462036132812 997.753051757812 1000.11138916016 1011.54296875 1011.06701660156 1008.40960693359 1011.66497802734 1018.81048583984 1028.14807128906 1030.36474609375 1021.55993652344 1018.49127197266 1017.19848632812 1021.54516601562 1028.40576171875 1023.96179199219 1013.03033447266 1018.31158447266 1019.63098144531 1025.97521972656 1030.07055664062 1035.28601074219 1029.98400878906 1033.28942871094 1038.5361328125 1043.4814453125 1048.44177246094 1048.34924316406 1046.43078613281 1049.8251953125 1051.2119140625 1057.28979492188 1054.50952148438 1054.611328125 1055.37475585938 1059.88146972656 1040.93908691406 1033.58264160156 1031.10070800781 1018.08001708984 1021.72613525391 1018.43640136719 1008.6689453125 1006.04223632812 1002.07641601562 990.146057128906 984.941101074219 980.976135253906 987.384216308594 986.814758300781 988.065368652344 977.434509277344 970.783874511719 961.230895996094 955.730834960938 956.520263671875 959.239990234375 964.718811035156 962.29833984375 970.538635253906 969.101806640625 972.075805664062 968.63671875 971.125122070312 965.978515625 964.895935058594
963.463562011719 968.946838378906 971.969848632812 968.025390625 965.519897460938 956.816711425781 950.200988769531 953.307922363281 948.378784179688 947.285766601562 958.299865722656 961.393798828125 954.255249023438 959.009887695312 964.618041992188 967.837097167969 963.06787109375 963.46337890625 958.629699707031 968.858459472656 971.249450683594 963.611450195312 958.313354492188 955.10107421875 962.722900390625 963.013366699219 960.419982910156 965.723510742188 967.855895996094 970.208923339844 974.430297851562 964.535217285156 968.189697265625 964.356872558594 966.736511230469 976.49267578125 971.785461425781 978.115600585938 980.450012207031 984.527404785156 980.962768554688 978.798583984375 977.642272949219 971.099731445312 976.434448242188 969.296325683594 966.716247558594 977.592590332031 979.619445800781 984.73876953125 990.468811035156 994.273986816406 999.16748046875 1003.18548583984 998.361877441406 997.727172851562 999.793273925781 998.39697265625 1012.77850341797 1010.02819824219 1015.63195800781 1003.03259277344 1003.30639648438 999.874877929688 995.663757324219 994.955627441406 993.689636230469 997.369079589844 994.291748046875 1007.92126464844 998.438842773438 999.033874511719 1002.98193359375 1008.90460205078 998.3291015625 1007.5693359375 998.118469238281 1002.19000244141 1002.95275878906 995.933044433594 995.834594726562 991.508850097656 993.731384277344 1001.16497802734 996.961303710938 997.785522460938 1002.97528076172 1004.10760498047 1013.35998535156 1004.56225585938 1008.10174560547 1007.26397705078 1023.55749511719 1025.63330078125 1029.34094238281 1030.470703125 1018.50695800781 1022.91070556641 1035.95043945312 1021.78588867188 1021.392578125 1020.40405273438 1025.88623046875 1019.41455078125 1010.26348876953 1030.62805175781 1031.77197265625 1037.74975585938 1041.80700683594 1045.13110351562 1050.31762695312 1055.05310058594 1047.796875 1047.35009765625 1049.06970214844 1054.16784667969 1054.52770996094 1053.89245605469 1048.0673828125 1045.05517578125 1041.68994140625 1038.87829589844 1030.03942871094 1023.39404296875 1024.27453613281 1022.39215087891 1011.56646728516 1001.34637451172 997.655578613281 992.941589355469 986.849609375 982.632202148438 979.974792480469 984.199401855469 978.404724121094 975.254272460938 971.049743652344 964.936218261719 956.037902832031 963.376525878906 961.798767089844 964.582214355469 959.189575195312 959.658630371094 962.751525878906 977.831665039062 973.666381835938 965.9501953125 961.328918457031 962.65283203125
