NCOLS 150
NROWS 37
XLLCORNER 7394249
YLLCORNER 4842539
CELLSIZE 30
NODATA_VALUE -9999
954.853576660156 953.207458496094 942.158874511719 951.154174804688 950.060363769531 949.297485351562 958.618469238281 961.481994628906 964.871765136719 971.908447265625 980.965759277344 974.766418457031 969.859375 966.498352050781 968.046691894531 980.887023925781 979.422180175781 971.225402832031 972.169860839844 980.044860839844 978.09765625 975.909301757812 972.201416015625 963.973693847656 963.921447753906 964.940002441406 975.381408691406 976.909301757812 971.207824707031 977.212707519531 978.858703613281 977.874206542969 974.933288574219 983.141235351562 977.178649902344 971.568054199219 967.426025390625 969.814697265625 966.753784179688 974.252624511719 975.494323730469 972.348571777344 970.130065917969 968.210266113281 966.542602539062 955.918518066406 961.276977539062 964.841796875 967.707336425781 971.950744628906 971.341613769531 963.346740722656 966.027526855469 967.295349121094 972.156677246094 967.318908691406 981.455932617188 982.993225097656 981.711975097656 975.062744140625 970.044799804688 962.1435546875 966.175842285156 965.294616699219 963.652099609375 976.938232421875 971.872375488281 964.7490234375 960.668701171875 959.074645996094 962.094970703125 954.320007324219 958.896850585938 958.237548828125 962.911743164062 968.9833984375 970.786560058594 965.132141113281 967.745178222656 978.853576660156 970.484985351562 979.278686523438 990.768493652344 989.329956054688 996.306518554688 985.4951171875 977.001831054688 974.859313964844 974.684387207031 970.11279296875 972.381530761719 976.843688964844 976.561462402344 981.07568359375 987.14599609375 989.242431640625 979.370178222656 980.521911621094 985.250671386719 987.615844726562 986.755981445312 986.443603515625 983.585693359375 980.508483886719 986.975158691406 983.079406738281 984.867858886719 987.646423339844 992.198425292969 1003.99670410156 995.426208496094 998.807800292969 1001.31683349609 1009.44958496094 1004.75665283203 1008.10803222656 1000.93853759766 996.637573242188 998.608032226562 1004.04431152344 1000.03546142578 1009.75030517578 1017.46057128906 1027.43493652344 1016.11651611328 1021.46496582031 1019.40032958984 1025.03234863281 1033.38562011719 1037.34924316406 1040.4609375 1038.04797363281 1052.01550292969 1063.63989257812 1062.21423339844 1068.02331542969 1067.92602539062 1066.23583984375 1069.39587402344 1084.29260253906 1079.5185546875 1090.869140625 1109.97680664062 1124.85278320312 1141.21057128906 1150.09020996094 1161.26257324219 1171.12084960938 1167.66687011719 1165.66943359375
955.6591796875 942.11767578125 945.103271484375 952.274841308594 955.865600585938 955.570129394531 954.435974121094 961.451721191406 970.084045410156 974.511779785156 978.263916015625 972.4453125 968.460815429688 972.729858398438 972.58251953125 980.728576660156 980.045288085938 983.173278808594 971.981567382812 972.869750976562 976.083312988281 972.63427734375 973.574157714844 968.262634277344 969.182373046875 979.231079101562 976.693237304688 976.867126464844 975.930908203125 976.5517578125 972.572631835938 978.217163085938 977.185241699219 972.552734375 973.702514648438 964.760070800781 963.810729980469 964.786865234375 962.672668457031 966.537658691406 971.92236328125 976.246948242188 968.142456054688 961.991638183594 962.703918457031 961.155090332031 953.244689941406 958.68408203125 966.345031738281 961.221313476562 969.550598144531 967.822631835938 962.379638671875 962.737487792969 968.586120605469 968.496765136719 979.111206054688 973.245910644531 973.536193847656 971.379028320312 960.277648925781 968.593688964844 969.285095214844 971.240661621094 973.539978027344 973.754089355469 974.540771484375 961.396728515625 953.751647949219 970.687866210938 952.146301269531 956.605041503906 956.378479003906 968.817504882812 963.268493652344 969.632080078125 973.5205078125 971.843688964844 973.418762207031 962.953369140625 971.179626464844 970.287170410156 981.254699707031 982.167663574219 982.811950683594 977.818969726562 965.152221679688 961.940063476562 967.295959472656 977.960266113281 976.986145019531 973.704162597656 981.360229492188 978.224548339844 980.024841308594 981.019470214844 987.795593261719 985.02587890625 983.5302734375 981.33349609375 983.308654785156 990.084228515625 980.249694824219 989.242858886719 994.207702636719 988.444091796875 982.470031738281 982.811584472656 994.810729980469 1002.29803466797 1002.34149169922 996.199523925781 1002.0205078125 1012.08020019531 1008.61639404297 1016.10418701172 1014.17108154297 1010.91455078125 995.619750976562 994.199584960938 1006.22595214844 1014.58746337891 1005.671875 1011.62127685547 1005.56689453125 1015.21472167969 1018.50891113281 1033.68957519531 1036.37023925781 1041.69909667969 1041.19873046875 1045.26208496094 1049.89025878906 1064.7744140625 1068.37329101562 1070.59729003906 1073.30590820312 1074.49438476562 1077.12414550781 1077.78356933594 1083.78454589844 1093.40393066406 1111.26147460938 1126.72180175781 1139.5380859375 1152.63171386719 1156.26330566406 1163.17834472656 1153.673828125 1161.10314941406
957.681030273438 950.88330078125 946.992553710938 951.349853515625 956.897521972656 960.163818359375 966.606750488281 968.118896484375 972.192443847656 969.060607910156 975.354919433594 967.442321777344 976.495483398438 979.022155761719 978.306884765625 982.400268554688 983.219482421875 980.312561035156 970.719421386719 978.096313476562 965.389709472656 967.794128417969 966.388305664062 969.209228515625 974.82958984375 973.46923828125 974.322998046875 976.394653320312 974.748718261719 976.041931152344 983.010925292969 982.584777832031 986.31005859375 974.827758789062 965.007568359375 960.529968261719 957.751159667969 962.614379882812 968.318664550781 974.855285644531 966.301635742188 963.5048828125 969.109191894531 961.63427734375 967.556945800781 962.917907714844 950.840881347656 970.740661621094 970.655456542969 970.765075683594 963.652099609375 967.861206054688 972.713134765625 966.044555664062 959.637817382812 969.802734375 979.06201171875 977.609008789062 969.1318359375 960.032104492188 960.592712402344 965.9990234375 964.24462890625 969.990600585938 966.591735839844 969.337829589844 968.339782714844 961.820922851562 962.847045898438 956.516296386719 955.314147949219 958.962646484375 965.701416015625 966.20458984375 959.117614746094 966.468627929688 981.402709960938 970.375854492188 968.600463867188 968.13671875 969.993774414062 973.81982421875 972.873779296875 977.578430175781 973.973449707031 977.946533203125 966.308532714844 951.732177734375 962.918090820312 963.606018066406 965.988586425781 970.650817871094 973.5263671875 977.672180175781 980.140197753906 982.691101074219 980.12744140625 985.284362792969 984.702758789062 977.059692382812 975.768859863281 979.515258789062 986.326904296875 996.341796875 996.000122070312 994.344970703125 991.936218261719 992.989074707031 991.381652832031 994.592163085938 1000.19055175781 1000.48876953125 1004.81225585938 1005.56848144531 1009.66589355469 1014.93817138672 1010.28686523438 1012.63146972656 997.321594238281 997.123840332031 998.790710449219 1014.76892089844 1016.60870361328 1009.31292724609 1014.39398193359 1008.63464355469 1023.841796875 1031.75524902344 1031.83776855469 1029.72302246094 1037.59411621094 1041.72485351562 1053.76770019531 1073.04626464844 1074.20178222656 1079.00390625 1084.93249511719 1089.58862304688 1090.60510253906 1080.001953125 1096.21179199219 1102.13671875 1120.09375 1125.86010742188 1136.8720703125 1141.85974121094 1142.17358398438 1145.94018554688 1140.97155761719 1154.27331542969
951.044372558594 954.356384277344 959.099792480469 957.428283691406 960.60595703125 963.106811523438 972.575561523438 963.359130859375 971.572326660156 970.48291015625 974.419799804688 973.153442382812 984.011657714844 983.796813964844 976.329650878906 978.337463378906 982.539794921875 973.074096679688 977.607421875 975.573547363281 966.408935546875 971.995361328125 965.289306640625 966.925415039062 965.107666015625 963.126098632812 967.365356445312 963.458312988281 968.6767578125 971.165771484375 980.798706054688 980.338745117188 974.71044921875 976.445434570312 972.283874511719 959.59033203125 961.936462402344 969.727905273438 965.097900390625 975.428039550781 967.573486328125 962.38818359375 964.192626953125 956.969543457031 958.339599609375 957.277954101562 951.039184570312 960.41796875 972.453857421875 968.430053710938 963.068725585938 970.379150390625 962.643127441406 962.988220214844 960.219543457031 965.6357421875 975.686767578125 973.202087402344 968.39892578125 969.995788574219 955.137939453125 968.951416015625 964.161315917969 960.375610351562 961.947998046875 964.080749511719 964.234008789062 962.120544433594 962.462768554688 967.497436523438 965.925170898438 971.424072265625 968.47265625 958.589111328125 958.382568359375 972.664978027344 977.476806640625 972.968994140625 970.519775390625 963.677307128906 964.384338378906 968.548583984375 967.825866699219 965.850830078125 970.734619140625 976.848876953125 968.400756835938 953.297058105469 957.690856933594 956.186096191406 960.136535644531 970.354553222656 970.433898925781 973.35400390625 984.064880371094 986.663696289062 981.083251953125 976.044494628906 984.968444824219 982.108459472656 976.5849609375 978.275451660156 980.940551757812 985.69580078125 983.901977539062 987.124328613281 992.396606445312 989.908752441406 983.888793945312 993.598999023438 1001.17895507812 1006.64605712891 997.224914550781 1005.50549316406 1000.72369384766 1004.3115234375 1001.83581542969 1006.19189453125 1004.58514404297 1002.4267578125 1008.49279785156 1020.07232666016 1020.21051025391 1017.75299072266 1015.52404785156 1011.45098876953 1015.30212402344 1029.92163085938 1031.22387695312 1029.71118164062 1044.08703613281 1045.05395507812 1065.96447753906 1072.75 1076.01330566406 1081.78466796875 1077.71081542969 1076.21704101562 1082.09753417969 1088.32885742188 1106.56079101562 1107.10632324219 1118.7041015625 1117.08117675781 1130.96728515625 1133.24694824219 1146.59631347656 1143.42175292969 1143.01525878906 1149.22082519531
954.760681152344 954.427551269531 963.444396972656 959.817993164062 958.185485839844 965.212524414062 963.246398925781 971.097473144531 973.1884765625 970.426696777344 970.805908203125 972.638366699219 973.084838867188 976.6884765625 979.265502929688 977.9541015625 980.890197753906 976.608032226562 972.467529296875 979.48974609375 968.609436035156 971.509399414062 970.106750488281 961.790771484375 960.498779296875 955.437377929688 957.80078125 956.691650390625 963.016479492188 968.522338867188 975.000244140625 971.708679199219 968.211181640625 971.787231445312 972.432067871094 964.882141113281 960.406372070312 962.892272949219 956.160705566406 963.423400878906 969.793579101562 975.251831054688 969.870666503906 963.330322265625 963.312561035156 959.107666015625 951.8017578125 960.495056152344 957.657897949219 964.071411132812 971.000061035156 969.459167480469 968.176452636719 960.811157226562 961.535888671875 964.488891601562 964.903747558594 959.470581054688 963.654602050781 960.311950683594 953.901428222656 955.304748535156 966.7705078125 969.956787109375 957.583801269531 953.449584960938 952.501708984375 955.024108886719 959.875793457031 966.105773925781 964.434631347656 962.701232910156 960.060424804688 957.612854003906 958.009887695312 970.256225585938 969.246704101562 971.154846191406 969.650512695312 965.584289550781 966.491882324219 977.423278808594 972.985534667969 970.828674316406 975.357543945312 973.395202636719 966.502746582031 958.438171386719 960.136840820312 959.205810546875 960.586059570312 971.7958984375 975.035461425781 974.708984375 977.18359375 975.571594238281 978.25634765625 972.814758300781 972.314575195312 971.872436523438 965.423828125 972.097290039062 968.441711425781 973.659423828125 977.229309082031 989.743225097656 983.853515625 986.244018554688 983.460571289062 990.828735351562 998.196533203125 1001.50396728516 999.579895019531 1001.1396484375 1005.87225341797 1006.93853759766 999.92041015625 996.486450195312 996.529357910156 1011.53833007812 1014.90576171875 1025.466796875 1026.73291015625 1032.37573242188 1028.154296875 1021.05029296875 1022.45025634766 1033.37756347656 1031.41186523438 1040.880859375 1036.02563476562 1052.22546386719 1062.22888183594 1067.38586425781 1085.80017089844 1092.32971191406 1086.583984375 1082.30114746094 1090.2861328125 1100.41943359375 1106.82373046875 1114.02368164062 1122.43298339844 1125.61596679688 1132.46203613281 1137.70837402344 1152.216796875 1144.71850585938 1144.31005859375 1139.34582519531
953.602416992188 961.993713378906 959.169189453125 959.50634765625 962.99169921875 958.724609375 964.448974609375 970.873779296875 972.032775878906 974.8837890625 973.500793457031 978.182739257812 973.528564453125 976.676879882812 978.197265625 976.838134765625 986.888000488281 984.511291503906 986.981140136719 976.989624023438 981.663513183594 979.119079589844 972.837097167969 964.252746582031 958.044982910156 959.269775390625 959.231018066406 961.940612792969 973.364929199219 980.488525390625 971.409790039062 967.283081054688 964.070861816406 959.085205078125 960.794616699219 959.969360351562 958.2802734375 959.48828125 954.252380371094 964.441833496094 963.354675292969 969.032043457031 966.839416503906 963.402893066406 965.420837402344 956.238037109375 944.957214355469 951.484436035156 958.475524902344 964.682189941406 963.679260253906 972.70263671875 965.700988769531 961.916625976562 955.042114257812 965.786254882812 960.490417480469 960.064147949219 955.114868164062 951.984375 959.866821289062 955.451477050781 959.788696289062 968.392395019531 959.765625 959.476745605469 956.981140136719 960.732971191406 964.208190917969 964.494812011719 963.578063964844 955.215209960938 953.295776367188 963.295837402344 968.508361816406 968.392822265625 967.290649414062 958.026977539062 965.815063476562 961.988464355469 970.478515625 976.871215820312 979.572265625 971.830017089844 961.389343261719 972.263366699219 971.222473144531 967.948608398438 965.317321777344 965.026672363281 961.731506347656 971.02197265625 970.797180175781 974.297668457031 977.507446289062 975.133239746094 979.854614257812 977.989929199219 967.023559570312 973.121826171875 967.185913085938 965.167907714844 968.78173828125 975.663024902344 978.569213867188 981.953918457031 979.694519042969 985.363952636719 982.288879394531 986.04150390625 989.425720214844 992.674987792969 1001.70001220703 992.009582519531 997.028259277344 1002.02117919922 1007.01715087891 998.04931640625 1002.14392089844 1013.81707763672 1012.61297607422 1022.05480957031 1036.24499511719 1033.29309082031 1031.36315917969 1024.92761230469 1025.37609863281 1026.33068847656 1026.33325195312 1040.68566894531 1040.43334960938 1052.32043457031 1064.20629882812 1071.31982421875 1081.94421386719 1088.84509277344 1084.83984375 1100.59228515625 1102.97607421875 1109.78686523438 1121.15002441406 1112.43957519531 1122.89416503906 1125.93200683594 1132.26965332031 1131.76623535156 1143.06799316406 1138.21276855469 1135.59497070312 1144.93591308594
965.207580566406 961.081848144531 965.736877441406 971.441711425781 967.424133300781 965.211608886719 970.862548828125 974.379577636719 976.083312988281 971.274658203125 979.447692871094 972.1162109375 979.8935546875 979.585266113281 977.255126953125 982.805725097656 976.352478027344 978.263549804688 981.916320800781 977.683776855469 980.49853515625 978.85986328125 964.240173339844 958.117248535156 959.385498046875 960.145935058594 959.584350585938 964.936279296875 974.403686523438 969.751892089844 974.321899414062 967.95751953125 959.287414550781 954.453247070312 955.033020019531 955.277526855469 947.712890625 957.815185546875 963.963317871094 962.604675292969 955.232055664062 973.092895507812 974.721313476562 968.089416503906 967.666381835938 964.899047851562 957.775329589844 952.049377441406 958.911804199219 956.746765136719 956.185241699219 965.1015625 958.968017578125 962.63330078125 953.993530273438 962.943664550781 968.410949707031 969.135009765625 953.956298828125 958.267761230469 963.410827636719 962.706481933594 960.16015625 962.247253417969 965.574523925781 962.977783203125 956.571105957031 963.890563964844 958.169311523438 965.896423339844 962.105529785156 958.560241699219 964.84228515625 969.396911621094 958.942993164062 963.36279296875 966.0146484375 963.517822265625 970.422180175781 963.931335449219 965.878479003906 969.818542480469 980.382995605469 967.809509277344 975.216613769531 978.100219726562 979.043090820312 970.558471679688 965.679748535156 963.516357421875 968.960571289062 974.540649414062 977.3203125 973.595581054688 977.558776855469 978.557678222656 978.695922851562 973.688903808594 972.75048828125 966.979248046875 963.528137207031 961.13037109375 962.66015625 974.110107421875 973.840942382812 984.209411621094 981.369995117188 980.903198242188 988.064819335938 993.607299804688 991.317016601562 997.404602050781 997.11279296875 999.105895996094 1003.07073974609 1002.32507324219 1007.94989013672 1007.06695556641 1006.38360595703 1010.57366943359 1014.89031982422 1017.54571533203 1025.73559570312 1031.05078125 1032.70446777344 1028.22399902344 1032.1513671875 1034.44030761719 1031.529296875 1038.70690917969 1044.12866210938 1061.61706542969 1071.521484375 1073.28442382812 1081.08422851562 1089.08666992188 1094.34838867188 1091.04284667969 1094.05102539062 1116.62390136719 1122.19458007812 1113.794921875 1113.4775390625 1120.46508789062 1129.67700195312 1130.15869140625 1127.5263671875 1118.91979980469 1133.55676269531 1147.94958496094
960.882019042969 953.740173339844 964.657409667969 969.861694335938 967.454284667969 970.587097167969 978.3046875 982.133728027344 971.518432617188 976.327392578125 975.986755371094 976.823547363281 973.406311035156 981.025390625 981.861206054688 987.836059570312 971.910522460938 966.334289550781 976.669006347656 981.442321777344 979.163391113281 965.33447265625 959.418701171875 958.729858398438 960.127624511719 950.911804199219 958.980651855469 972.411926269531 970.687866210938 969.115661621094 973.10302734375 973.972961425781 966.384216308594 954.047058105469 959.614013671875 959.248168945312 957.446838378906 958.989440917969 957.760437011719 961.399780273438 951.392700195312 959.609802246094 971.178283691406 972.921203613281 970.164428710938 959.081787109375 964.882080078125 954.793090820312 946.50732421875 957.509643554688 955.04541015625 958.598937988281 952.363098144531 945.488525390625 954.695190429688 961.293701171875 967.564697265625 969.137756347656 955.832275390625 959.040405273438 961.718933105469 963.58349609375 955.926696777344 965.674621582031 960.539245605469 961.427673339844 947.568786621094 956.311889648438 954.41015625 954.194396972656 959.308837890625 961.219421386719 958.951904296875 959.12353515625 965.049377441406 969.725891113281 965.588317871094 968.559631347656 968.504760742188 967.765319824219 969.172912597656 974.595520019531 975.988342285156 974.762878417969 969.440063476562 974.9931640625 978.539916992188 972.200805664062 970.647766113281 974.665893554688 981.769409179688 972.431518554688 976.614807128906 984.060180664062 978.479187011719 977.34423828125 983.509704589844 977.087646484375 974.275085449219 973.999267578125 964.917114257812 957.42822265625 957.163818359375 969.501342773438 974.000122070312 979.125 984.792602539062 976.654479980469 987.932983398438 997.048583984375 997.210510253906 994.945129394531 996.677124023438 999.836120605469 1006.96862792969 1006.40417480469 1003.39569091797 1002.41760253906 1003.77239990234 1008.02593994141 1010.49914550781 1015.73297119141 1023.94879150391 1028.32299804688 1027.28063964844 1034.65795898438 1032.83923339844 1034.30651855469 1042.67858886719 1049.94677734375 1052.5146484375 1060.45275878906 1068.42126464844 1070.2451171875 1083.64892578125 1088.72814941406 1092.33288574219 1098.98303222656 1104.75231933594 1109.79089355469 1111.82775878906 1110.62329101562 1106.15966796875 1112.28308105469 1120.75561523438 1117.58837890625 1118.47619628906 1118.53723144531 1115.28210449219 1126.99658203125
965.391174316406 952.123840332031 961.107849121094 968.007629394531 969.465454101562 975.416320800781 975.611083984375 976.772888183594 977.185791015625 973.108337402344 973.797241210938 973.966552734375 977.512084960938 981.934204101562 987.994445800781 977.0068359375 973.801635742188 966.857849121094 971.508728027344 975.964904785156 975.94091796875 966.279235839844 964.423278808594 968.176696777344 967.310180664062 960.989379882812 959.969665527344 963.830932617188 962.925842285156 963.3701171875 972.340698242188 973.760681152344 967.244750976562 953.423095703125 963.177795410156 957.542602539062 955.067810058594 955.507202148438 959.501037597656 951.477233886719 961.705810546875 962.989196777344 965.749084472656 974.672180175781 966.289489746094 962.760070800781 960.710754394531 966.051635742188 946.766784667969 946.115295410156 953.925170898438 959.561889648438 954.487548828125 959.425964355469 956.84033203125 956.887878417969 969.20068359375 966.980285644531 964.518127441406 960.955810546875 953.234313964844 946.426574707031 949.686706542969 952.008666992188 948.968017578125 948.932556152344 946.014465332031 951.971008300781 960.169189453125 962.050598144531 963.2001953125 964.576416015625 958.197937011719 959.892395019531 967.721374511719 970.756958007812 960.770446777344 961.516662597656 973.177185058594 974.018432617188 979.764831542969 975.499572753906 972.720581054688 973.95361328125 973.766479492188 963.92041015625 965.875854492188 967.603210449219 980.014221191406 971.658081054688 970.989562988281 970.621704101562 979.336853027344 980.121948242188 972.939575195312 975.526550292969 971.639892578125 967.983093261719 971.793518066406 969.594360351562 975.791442871094 962.931274414062 967.959167480469 971.306701660156 973.341491699219 973.899536132812 977.366455078125 980.32470703125 983.140686035156 992.575012207031 987.879699707031 980.042907714844 986.280883789062 995.827819824219 996.624206542969 1001.85583496094 1001.78521728516 1003.95928955078 998.72412109375 1013.24035644531 1008.86267089844 1019.77239990234 1024.53479003906 1024.0185546875 1029.17749023438 1028.20153808594 1022.01776123047 1031.21069335938 1037.84350585938 1045.42553710938 1054.91906738281 1057.396484375 1066.71948242188 1075.77600097656 1082.0537109375 1088.25769042969 1093.42590332031 1099.66064453125 1112.798828125 1116.67944335938 1107.93017578125 1110.13793945312 1103.01733398438 1106.5322265625 1103.32165527344 1100.5439453125 1107.75524902344 1102.95056152344 1107.07250976562 1120.30090332031
961.104614257812 957.297546386719 956.95263671875 967.071228027344 970.050537109375 979.158264160156 975.440856933594 974.800537109375 972.52880859375 966.423461914062 971.249145507812 976.980834960938 983.450805664062 979.323486328125 974.203979492188 969.81689453125 979.165710449219 971.099182128906 970.471557617188 971.601135253906 963.949340820312 965.550415039062 956.809753417969 962.777709960938 966.481262207031 963.962829589844 961.017944335938 958.579650878906 964.031860351562 967.410827636719 965.412353515625 963.586547851562 963.818725585938 962.387817382812 966.879699707031 960.747802734375 962.917724609375 958.586669921875 960.418518066406 957.026977539062 959.467346191406 961.139953613281 974.618591308594 961.685852050781 955.557800292969 965.142578125 963.058898925781 952.384765625 946.714477539062 947.099853515625 948.288208007812 955.514282226562 955.539123535156 951.408508300781 952.867065429688 949.63037109375 961.576049804688 969.341369628906 971.764709472656 959.044982910156 951.734924316406 945.011535644531 946.994567871094 956.725952148438 952.036376953125 957.841491699219 952.571838378906 962.2646484375 955.112060546875 963.925476074219 962.207397460938 962.338989257812 959.8984375 953.815002441406 965.408935546875 966.650573730469 964.458129882812 966.949401855469 974.19775390625 967.326293945312 971.551391601562 969.005004882812 973.724426269531 973.846252441406 963.560913085938 965.697631835938 967.446716308594 967.368713378906 972.110595703125 976.421691894531 972.252380371094 971.830932617188 974.396423339844 974.404602050781 964.717346191406 971.427307128906 954.260314941406 969.107421875 970.482360839844 973.803527832031 977.254516601562 965.890441894531 969.614868164062 962.790466308594 974.288269042969 976.595458984375 979.20947265625 976.074645996094 973.15087890625 982.791870117188 978.678588867188 979.140563964844 982.285949707031 989.445678710938 990.2060546875 992.890258789062 995.473327636719 989.329284667969 1000.06579589844 1009.44134521484 1006.92828369141 1012.42321777344 1015.37414550781 1023.64477539062 1023.00299072266 1021.53436279297 1022.07470703125 1027.18725585938 1026.65563964844 1036.22680664062 1049.78894042969 1053.81994628906 1058.16540527344 1075.43420410156 1089.31408691406 1096.47119140625 1098.77453613281 1092.59619140625 1102.79211425781 1107.32751464844 1098.67712402344 1100.24536132812 1085.24475097656 1092.17114257812 1093.36560058594 1102.78540039062 1096.03820800781 1102.97717285156 1101.10424804688 1113.5830078125
959.997375488281 962.276428222656 961.39111328125 966.243957519531 970.171264648438 976.068908691406 967.974853515625 965.56396484375 967.276062011719 962.133544921875 967.073120117188 973.760437011719 978.193176269531 986.049438476562 980.087707519531 980.013671875 973.106811523438 977.5498046875 967.84912109375 968.41455078125 966.657470703125 958.500122070312 959.196105957031 960.788208007812 960.81689453125 962.929382324219 960.363708496094 955.91650390625 959.376708984375 962.783508300781 964.603332519531 960.495300292969 957.708801269531 959.932922363281 958.338562011719 960.964599609375 955.624633789062 963.683837890625 961.475219726562 961.721008300781 965.264526367188 953.540100097656 964.858764648438 964.046020507812 961.080810546875 959.919494628906 958.734191894531 945.72021484375 942.640747070312 949.209228515625 952.947448730469 955.632019042969 952.379638671875 950.425109863281 954.5908203125 951.343139648438 958.141296386719 959.928649902344 971.356079101562 958.73681640625 955.261596679688 956.940246582031 952.056457519531 956.323608398438 959.149719238281 959.22998046875 952.9775390625 960.350341796875 968.121887207031 970.178955078125 965.2470703125 959.397094726562 958.03271484375 955.415832519531 966.673400878906 972.227294921875 962.281127929688 970.326965332031 966.111145019531 962.284301757812 968.467163085938 963.927062988281 956.011535644531 959.242736816406 959.610656738281 960.041259765625 967.347045898438 979.169738769531 967.466613769531 966.85888671875 965.156677246094 974.587707519531 973.595825195312 963.177124023438 971.574951171875 956.990295410156 963.170227050781 972.271545410156 970.257202148438 981.609008789062 979.403747558594 977.797241210938 971.417602539062 968.809936523438 976.321166992188 975.075805664062 970.017211914062 974.02685546875 978.236938476562 986.116394042969 983.604797363281 979.7861328125 983.336853027344 989.448425292969 992.522094726562 996.175048828125 993.325378417969 996.745422363281 998.469421386719 999.322937011719 1005.85168457031 1005.02807617188 1015.75622558594 1013.96136474609 1017.9111328125 1019.96948242188 1020.49041748047 1026.17919921875 1028.31225585938 1040.75317382812 1049.62609863281 1059.75915527344 1063.8720703125 1068.72351074219 1083.9052734375 1093.76416015625 1095.32592773438 1089.9541015625 1090.33642578125 1099.15612792969 1094.12414550781 1084.92272949219 1081.26196289062 1082.54760742188 1081.94445800781 1101.40295410156 1096.494140625 1093.40319824219 1096.43713378906 1091.22436523438
960.461486816406 964.077575683594 971.284790039062 974.109252929688 975.883239746094 974.49365234375 971.148803710938 978.724731445312 975.302490234375 967.183349609375 963.983337402344 967.73876953125 963.732360839844 972.724914550781 975.227905273438 979.957214355469 970.610290527344 970.699523925781 971.885192871094 971.935119628906 966.371154785156 958.93017578125 968.147338867188 967.819641113281 959.218139648438 963.932250976562 952.465759277344 958.016723632812 963.585327148438 953.537963867188 963.287719726562 953.055786132812 950.462585449219 956.450500488281 965.635986328125 970.067138671875 966.760192871094 963.392517089844 962.435546875 967.292236328125 968.902526855469 958.153381347656 960.331481933594 955.4140625 955.993469238281 952.568420410156 955.911010742188 954.625610351562 944.424377441406 942.800842285156 955.464416503906 947.373901367188 954.644592285156 952.658386230469 949.786193847656 955.702514648438 953.481262207031 964.087829589844 961.537780761719 965.336486816406 957.732727050781 952.380065917969 953.506591796875 956.607421875 953.15185546875 956.742065429688 957.693176269531 959.856079101562 972.546264648438 965.80859375 961.3935546875 958.5966796875 962.042541503906 960.569702148438 967.300170898438 962.800415039062 966.908203125 971.267272949219 971.721801757812 966.3916015625 965.478454589844 956.94287109375 959.226623535156 962.855651855469 956.899719238281 955.130126953125 965.3134765625 968.388916015625 964.260620117188 967.816589355469 970.824462890625 969.389465332031 963.201049804688 964.37744140625 971.060546875 966.150634765625 969.972961425781 970.359924316406 977.485778808594 982.371765136719 991.96728515625 982.499877929688 987.815490722656 990.287780761719 981.97705078125 973.927124023438 980.674926757812 977.384582519531 975.7109375 983.239990234375 989.192749023438 985.174682617188 987.849426269531 988.860229492188 989.75390625 990.639526367188 1002.41253662109 1003.64459228516 1002.71697998047 998.27392578125 1003.44409179688 1002.32556152344 1011.10900878906 1007.22003173828 1010.23150634766 1008.81646728516 1020.40399169922 1022.31567382812 1027.27600097656 1030.27307128906 1055.26867675781 1061.89025878906 1063.12976074219 1072.39233398438 1082.42370605469 1090.38427734375 1090.30053710938 1089.04614257812 1084.421875 1085.5546875 1089.30749511719 1070.62829589844 1061.17272949219 1065.74841308594 1070.15734863281 1080.4072265625 1084.82275390625 1086.7216796875 1083.19946289062 1079.38903808594
957.12109375 954.740905761719 964.233337402344 970.847534179688 970.594177246094 962.830383300781 971.669372558594 964.377319335938 971.805419921875 962.252136230469 971.072631835938 959.419250488281 968.830627441406 979.745483398438 979.2353515625 969.95947265625 960.395385742188 964.263061523438 966.24072265625 961.203979492188 962.428344726562 962.433715820312 963.44482421875 958.497802734375 961.327819824219 959.851989746094 950.266052246094 952.075134277344 950.888244628906 956.487976074219 954.851623535156 951.294982910156 959.203491210938 955.861450195312 960.726135253906 956.10009765625 955.674987792969 960.638916015625 966.078918457031 960.368041992188 953.700622558594 958.580871582031 956.4404296875 955.047058105469 953.429504394531 953.017944335938 952.749084472656 959.994140625 953.54931640625 948.997802734375 946.258422851562 946.072631835938 954.479248046875 954.617553710938 948.939514160156 950.443054199219 954.237670898438 962.10693359375 964.731262207031 957.884399414062 947.453918457031 950.065734863281 946.823791503906 950.276672363281 952.985961914062 956.577331542969 956.971984863281 962.243713378906 961.333923339844 964.35986328125 957.960021972656 959.426086425781 962.396179199219 954.557739257812 961.270568847656 962.25634765625 965.269958496094 966.232238769531 964.876525878906 965.401306152344 956.538635253906 958.044250488281 963.815368652344 965.87841796875 967.495361328125 964.701599121094 964.869079589844 967.984985351562 962.348022460938 965.232604980469 968.973083496094 959.070861816406 954.30859375 960.826110839844 977.870910644531 972.013000488281 969.688110351562 974.234497070312 979.841003417969 981.106262207031 985.388427734375 988.615539550781 986.1396484375 988.129516601562 980.0126953125 973.730163574219 983.308410644531 985.526977539062 979.123107910156 992.681030273438 993.669067382812 993.381042480469 995.985046386719 989.480041503906 991.461791992188 990.968811035156 1003.34844970703 999.490173339844 995.456176757812 994.768432617188 997.230651855469 1004.34173583984 1003.78179931641 1008.27038574219 1002.46154785156 1001.88732910156 1015.34466552734 1018.61181640625 1026.23620605469 1033.84692382812 1038.19885253906 1048.7978515625 1064.03186035156 1062.16979980469 1064.93859863281 1078.50817871094 1079.31079101562 1080.13696289062 1077.36315917969 1080.37646484375 1073.52172851562 1066.1962890625 1059.20727539062 1057.61047363281 1064.26232910156 1069.11865234375 1080.67272949219 1080.962890625 1079.45007324219 1074.43676757812
958.049194335938 960.363220214844 969.571166992188 967.241516113281 972.833740234375 967.645935058594 970.358703613281 971.182861328125 964.081420898438 961.568359375 959.052673339844 955.600036621094 966.978698730469 972.410888671875 972.62939453125 964.996948242188 962.084411621094 958.830810546875 974.368713378906 962.676452636719 957.887451171875 953.202331542969 953.24267578125 957.627685546875 955.176635742188 953.624816894531 956.116638183594 953.276123046875 950.383117675781 955.354431152344 951.938171386719 950.493713378906 962.417175292969 949.902709960938 953.244384765625 953.555053710938 953.286437988281 956.871398925781 953.713928222656 955.55224609375 951.102722167969 943.32763671875 950.2138671875 953.048645019531 954.7412109375 956.753540039062 959.077880859375 965.544250488281 956.696594238281 950.647644042969 946.341491699219 951.065612792969 950.718139648438 946.471313476562 950.109313964844 956.260498046875 957.432922363281 964.412292480469 959.286071777344 957.037658691406 955.004577636719 946.192626953125 943.307373046875 956.029724121094 961.794128417969 953.466735839844 958.360473632812 956.23974609375 955.252868652344 968.12353515625 957.299865722656 963.734252929688 958.587524414062 960.622680664062 964.231506347656 955.106140136719 962.35107421875 967.734619140625 965.97314453125 960.760375976562 963.872131347656 966.093933105469 967.912170410156 970.243713378906 971.067260742188 971.015686035156 969.985168457031 969.404907226562 956.276611328125 965.127014160156 963.060668945312 960.455932617188 951.264404296875 956.903869628906 968.882507324219 978.842468261719 966.935119628906 968.782287597656 975.666198730469 980.871459960938 974.149169921875 976.283142089844 988.570495605469 987.139770507812 985.452453613281 981.181274414062 987.185913085938 993.53271484375 994.541259765625 1000.40899658203 999.0419921875 995.231689453125 998.295532226562 991.125366210938 990.629150390625 999.716735839844 1005.32745361328 1002.69378662109 1000.78387451172 990.39794921875 995.940979003906 996.301208496094 999.049133300781 999.019470214844 997.186950683594 991.95263671875 1001.58343505859 1018.24688720703 1020.33465576172 1033.73315429688 1041.58239746094 1047.67993164062 1055.20581054688 1065.85485839844 1075.638671875 1076.73034667969 1076.58911132812 1069.193359375 1070.40502929688 1069.66259765625 1051.62609863281 1057.34875488281 1048.90014648438 1048.45581054688 1049.30297851562 1056.47424316406 1072.70642089844 1079.00537109375 1074.1640625 1069.017578125
957.3359375 957.086181640625 960.486999511719 963.06982421875 966.726928710938 971.004089355469 974.025573730469 964.336853027344 961.987731933594 962.538024902344 957.432922363281 957.693908691406 970.985961914062 969.171081542969 968.019287109375 967.765014648438 962.185424804688 953.928833007812 964.382690429688 961.188415527344 950.131408691406 953.376525878906 951.768127441406 957.048889160156 958.072692871094 958.522216796875 956.044738769531 949.103332519531 936.050109863281 948.441711425781 949.410583496094 947.630920410156 954.23583984375 954.299377441406 953.890747070312 946.00732421875 945.706848144531 944.907470703125 949.375549316406 946.664367675781 947.853149414062 949.36376953125 953.015869140625 948.601745605469 957.948181152344 969.454223632812 955.924621582031 956.938232421875 951.703918457031 952.81005859375 947.175903320312 942.597290039062 948.090209960938 951.351989746094 958.229614257812 953.937622070312 963.383911132812 961.072631835938 960.535034179688 956.991577148438 957.071105957031 950.516052246094 950.950805664062 960.072265625 956.301025390625 955.62939453125 959.21630859375 958.794250488281 953.938537597656 956.427307128906 960.012145996094 958.685302734375 954.3056640625 950.691345214844 953.277587890625 963.335754394531 960.800537109375 970.78515625 963.552551269531 964.58203125 966.018859863281 968.987121582031 968.121337890625 963.459716796875 962.1455078125 969.241516113281 965.582336425781 960.405883789062 953.848876953125 955.093200683594 964.498474121094 958.852172851562 951.007263183594 950.7890625 962.750549316406 965.397583007812 972.562866210938 969.306701660156 979.027587890625 974.030029296875 973.934143066406 978.313781738281 985.887451171875 990.839050292969 985.796264648438 996.916625976562 998.746459960938 998.421691894531 1006.82861328125 1002.78314208984 1001.85302734375 990.263061523438 990.926330566406 989.458374023438 988.288696289062 1001.10314941406 1002.57904052734 1000.71002197266 999.851501464844 1009.37945556641 1008.86871337891 1001.66015625 992.237060546875 997.530334472656 1000.90814208984 991.640502929688 1001.72882080078 1020.54949951172 1024.59802246094 1030.90734863281 1037.68774414062 1049.01086425781 1058.263671875 1061.67126464844 1068.21228027344 1067.61828613281 1067.13073730469 1057.24145507812 1055.4208984375 1048.06359863281 1040.69409179688 1040.38110351562 1037.01342773438 1035.71496582031 1050.3603515625 1059.88757324219 1066.57824707031 1057.93627929688 1054.97644042969 1060.41430664062
963.074523925781 962.940673828125 959.737182617188 957.859069824219 959.685485839844 966.707824707031 964.881286621094 968.291809082031 956.400634765625 960.276062011719 954.608032226562 962.19189453125 965.18115234375 960.557250976562 964.194152832031 967.691772460938 961.7900390625 953.45654296875 955.488586425781 952.169006347656 948.921569824219 948.658569335938 955.959411621094 954.785522460938 964.97705078125 961.00634765625 958.381042480469 948.174987792969 942.319763183594 948.58984375 949.166748046875 938.809875488281 956.484680175781 950.813171386719 949.840209960938 948.87939453125 953.607238769531 950.181030273438 956.448303222656 951.156311035156 952.753845214844 951.742919921875 959.052978515625 955.9306640625 959.761535644531 962.919250488281 958.343627929688 953.802124023438 947.110778808594 948.247741699219 956.305969238281 949.301086425781 952.721923828125 960.105651855469 962.685241699219 959.960083007812 964.099487304688 963.73583984375 959.145874023438 961.502258300781 963.388427734375 955.022155761719 958.926696777344 969.512145996094 959.914794921875 956.913757324219 962.801208496094 958.584106445312 951.055053710938 957.138916015625 959.365051269531 962.977355957031 959.518310546875 961.133239746094 953.310913085938 961.358764648438 964.233215332031 964.515197753906 970.680297851562 979.937744140625 972.622375488281 969.700134277344 965.406799316406 961.117980957031 964.122436523438 976.008666992188 971.855651855469 975.64013671875 969.47607421875 965.973754882812 965.606140136719 962.940002441406 970.570617675781 960.1279296875 962.226989746094 967.485229492188 970.549377441406 972.922180175781 974.898559570312 973.360290527344 971.969543457031 980.995849609375 993.975708007812 998.349975585938 998.707153320312 999.440673828125 995.761169433594 995.192626953125 1001.40209960938 996.075561523438 999.733459472656 1004.00848388672 997.84326171875 985.004821777344 997.566711425781 1011.14849853516 1004.17864990234 1003.49273681641 1007.99981689453 1006.19689941406 1003.27746582031 998.694396972656 1001.65380859375 1003.54815673828 1010.98126220703 1009.44982910156 1015.98962402344 1018.33752441406 1021.90753173828 1030.49865722656 1029.58081054688 1039.93908691406 1046.72155761719 1062.08923339844 1060.984375 1062.23022460938 1058.76086425781 1059.25 1049.73254394531 1037.24304199219 1036.18176269531 1031.880859375 1029.55847167969 1040.83483886719 1037.35888671875 1053.76123046875 1060.01721191406 1050.86157226562 1045.45776367188 1049.53466796875
960.5419921875 955.426330566406 953.83837890625 956.488464355469 956.806823730469 958.835693359375 964.497619628906 967.18212890625 966.492614746094 959.511047363281 955.925354003906 957.036010742188 963.529235839844 957.538269042969 954.937622070312 963.430358886719 971.215209960938 960.916076660156 954.32763671875 952.118835449219 948.236999511719 952.131164550781 952.673828125 953.854736328125 966.026489257812 958.57421875 952.360046386719 948.830444335938 941.620910644531 943.347045898438 946.524169921875 953.134094238281 955.830017089844 952.982177734375 953.495239257812 956.559265136719 948.593933105469 951.000854492188 955.118103027344 952.689453125 948.981018066406 953.955444335938 959.347717285156 957.839416503906 948.470581054688 950.52099609375 943.617248535156 946.05712890625 948.30908203125 954.416015625 951.04736328125 951.124084472656 954.275512695312 964.980895996094 960.315673828125 964.298156738281 963.488586425781 967.730529785156 969.940185546875 969.072387695312 972.611450195312 958.549011230469 959.414672851562 952.455322265625 960.604919433594 954.40673828125 955.031188964844 960.362854003906 953.744323730469 961.314208984375 963.880249023438 973.033874511719 968.360961914062 964.680786132812 965.1533203125 960.518798828125 967.425720214844 968.674743652344 968.26611328125 970.483337402344 963.901000976562 968.049621582031 959.811218261719 966.35986328125 973.085144042969 970.171020507812 967.996154785156 980.1298828125 980.422607421875 978.195190429688 967.542358398438 960.232666015625 971.29345703125 960.70654296875 964.198913574219 964.483642578125 969.973083496094 974.34814453125 982.953430175781 980.787353515625 980.028381347656 975.350952148438 981.772521972656 999.751892089844 990.041564941406 986.46142578125 989.699829101562 994.02978515625 999.068176269531 995.232604980469 1002.51422119141 996.439880371094 1002.72601318359 994.218505859375 1005.52911376953 1008.51513671875 1014.85479736328 1013.16467285156 1007.11267089844 1004.48596191406 1003.77276611328 993.568786621094 1001.22467041016 1008.8359375 1013.82293701172 1016.30163574219 1026.18005371094 1028.18627929688 1024.73059082031 1029.90710449219 1026.96643066406 1038.17663574219 1045.25646972656 1052.72253417969 1057.20239257812 1053.86682128906 1043.94482421875 1040.42712402344 1038.40856933594 1033.76940917969 1028.05090332031 1025.16784667969 1025.96472167969 1029.34997558594 1040.90991210938 1043.01037597656 1052.63232421875 1049.7314453125 1041.62512207031 1048.61779785156
964.426574707031 960.879577636719 951.77978515625 956.795959472656 954.907409667969 961.481994628906 968.20849609375 960.89501953125 967.633728027344 962.501037597656 958.419677734375 960.372253417969 959.944152832031 957.761535644531 955.098327636719 960.399597167969 958.534912109375 953.388610839844 950.458190917969 948.713439941406 943.755798339844 947.529968261719 948.626892089844 960.340881347656 951.713256835938 950.690368652344 944.596862792969 943.599426269531 932.132507324219 938.073059082031 945.365051269531 942.599670410156 954.679443359375 956.945678710938 955.320983886719 955.707824707031 949.297607421875 954.799377441406 957.361877441406 946.729370117188 946.156799316406 952.176147460938 949.268371582031 947.547607421875 947.511901855469 942.096618652344 951.431213378906 944.582885742188 934.064392089844 940.35205078125 949.098571777344 960.728759765625 963.438537597656 963.120666503906 970.459716796875 967.987060546875 955.986938476562 959.157897949219 967.392211914062 965.342407226562 967.889587402344 974.702209472656 967.0517578125 962.641662597656 958.681579589844 959.236389160156 959.818237304688 967.372375488281 965.869262695312 964.780578613281 975.215881347656 967.000183105469 969.047241210938 979.510437011719 967.829772949219 964.640930175781 975.682678222656 969.740783691406 968.382080078125 973.033020019531 971.064880371094 963.020812988281 967.660522460938 962.503234863281 969.442565917969 974.277099609375 982.304870605469 980.492858886719 977.29345703125 977.182800292969 974.890625 965.84228515625 960.549926757812 959.823669433594 966.150817871094 960.158813476562 969.318786621094 972.195739746094 977.159851074219 976.682678222656 976.296325683594 987.044860839844 988.438842773438 981.702453613281 986.304565429688 988.223205566406 994.084350585938 984.455444335938 991.8505859375 993.095581054688 994.8974609375 1000.06408691406 1010.17407226562 1006.08160400391 1008.58813476562 1015.20318603516 1017.58447265625 1016.01635742188 1006.95703125 1019.02185058594 1022.90374755859 1017.96820068359 1024.39990234375 1015.18200683594 1007.83929443359 1019.70269775391 1024.28369140625 1025.53454589844 1036.49792480469 1028.48132324219 1023.09460449219 1030.47827148438 1034.36328125 1044.02893066406 1040.00317382812 1041.66455078125 1032.12719726562 1030.76721191406 1026.81860351562 1028.48266601562 1028.40942382812 1022.12335205078 1024.81274414062 1020.53149414062 1019.7294921875 1027.99340820312 1037.45910644531 1038.45275878906 1033.82336425781 1033.88830566406
971.113525390625 959.490051269531 953.846069335938 953.003540039062 948.274536132812 956.279235839844 961.809020996094 961.6611328125 962.333740234375 959.477783203125 965.410827636719 955.63623046875 955.982421875 951.900207519531 954.800476074219 947.818603515625 956.669311523438 955.403625488281 952.681640625 941.285827636719 933.6533203125 945.222351074219 942.253784179688 952.143249511719 946.41796875 947.497863769531 931.09716796875 928.28271484375 933.397583007812 932.654724121094 939.25244140625 950.976501464844 952.10791015625 957.949035644531 951.975524902344 954.175659179688 949.767639160156 955.075622558594 951.316040039062 956.120788574219 949.671569824219 954.447326660156 953.638854980469 947.345153808594 948.005004882812 944.074096679688 946.494262695312 948.931396484375 939.644836425781 949.10205078125 948.766357421875 955.882629394531 974.661926269531 975.837646484375 973.5078125 970.953430175781 964.870483398438 961.207214355469 959.41455078125 970.789001464844 973.105590820312 977.370727539062 969.157104492188 967.047180175781 955.294860839844 964.866149902344 969.926452636719 961.936706542969 972.364624023438 968.853393554688 970.2265625 963.656311035156 959.868347167969 968.192321777344 966.858459472656 967.556274414062 973.263916015625 971.733032226562 972.034790039062 966.702026367188 968.353942871094 972.382263183594 976.266479492188 974.779113769531 979.860168457031 982.457397460938 979.805419921875 984.508911132812 982.090454101562 975.872314453125 972.492370605469 967.196899414062 959.366760253906 952.613342285156 969.61279296875 979.472351074219 977.313354492188 976.576110839844 978.550109863281 969.538330078125 978.387329101562 991.025207519531 986.742736816406 982.457763671875 983.039428710938 996.504272460938 991.35009765625 993.895385742188 1000.92877197266 999.737243652344 998.268859863281 1006.11755371094 1009.96203613281 1010.62951660156 1016.06829833984 1019.64874267578 1018.58184814453 1018.69830322266 1017.18634033203 1025.15954589844 1025.0673828125 1029.01684570312 1026.51025390625 1019.34197998047 1018.20233154297 1021.66772460938 1019.29809570312 1022.41339111328 1021.84417724609 1024.38098144531 1026.6806640625 1028.94873046875 1033.81884765625 1029.58129882812 1026.51928710938 1027.1298828125 1027.55017089844 1024.50500488281 1030.1044921875 1020.35308837891 1017.76947021484 1023.41381835938 1022.38641357422 1023.81579589844 1019.99237060547 1025.70788574219 1035.20227050781 1027.68579101562 1025.38903808594 1023.65649414062
961.470642089844 958.689758300781 961.28466796875 952.302917480469 953.039245605469 951.074951171875 957.230529785156 958.853332519531 962.663452148438 966.099060058594 967.154235839844 956.246459960938 948.680847167969 951.855346679688 947.650451660156 949.031616210938 945.254150390625 950.346984863281 957.621765136719 949.40185546875 949.229370117188 941.251159667969 937.745056152344 943.709228515625 950.713806152344 942.113464355469 934.471557617188 933.477783203125 937.378784179688 923.852600097656 937.412109375 943.073608398438 957.163635253906 946.178955078125 947.44921875 949.961853027344 955.515197753906 949.546081542969 951.655822753906 954.796569824219 955.800109863281 953.461120605469 960.932495117188 951.765686035156 948.042785644531 954.035461425781 945.271057128906 946.633850097656 948.854736328125 959.589782714844 963.658630371094 965.074645996094 976.328308105469 975.735473632812 966.84521484375 963.29296875 961.953002929688 964.165344238281 964.078918457031 972.47607421875 968.955139160156 964.550415039062 965.708801269531 965.694152832031 959.684265136719 962.168090820312 966.0224609375 972.765319824219 969.964904785156 969.314575195312 966.737182617188 964.959045410156 961.704772949219 966.274169921875 971.892333984375 968.060424804688 970.524658203125 969.731140136719 972.718139648438 967.983337402344 968.331665039062 971.273010253906 975.946655273438 975.98193359375 977.874877929688 984.220397949219 979.82177734375 981.803833007812 977.448059082031 968.67724609375 976.069091796875 972.361999511719 956.935729980469 956.712341308594 966.418334960938 976.044067382812 981.430541992188 988.049926757812 990.43017578125 980.8427734375 987.56787109375 988.899536132812 994.91455078125 986.483703613281 986.253356933594 992.047485351562 990.662658691406 998.702819824219 1002.12854003906 1010.11254882812 1008.63140869141 1010.98608398438 1012.58312988281 1015.41003417969 1014.61468505859 1016.65106201172 1025.94653320312 1027.20593261719 1028.76489257812 1027.33020019531 1027.25451660156 1026.34362792969 1022.33807373047 1013.1162109375 1012.27978515625 1016.01715087891 1016.37762451172 1020.00115966797 1021.20819091797 1025.31274414062 1021.40148925781 1018.92077636719 1024.14367675781 1028.09814453125 1029.35900878906 1023.28997802734 1025.75805664062 1026.27233886719 1019.13781738281 1024.12561035156 1018.17028808594 1015.6728515625 1020.84826660156 1023.18231201172 1021.39892578125 1022.24609375 1024.166015625 1014.42651367188 1014.87878417969 1022.90246582031
956.575378417969 953.312438964844 962.237976074219 962.894592285156 952.116943359375 948.765625 956.275817871094 949.035034179688 956.950134277344 957.301574707031 957.89599609375 957.215637207031 949.775207519531 948.5048828125 942.595825195312 937.247741699219 947.433166503906 951.490112304688 951.611389160156 954.05908203125 948.763488769531 947.504760742188 952.946411132812 945.067321777344 945.722351074219 943.064270019531 942.215515136719 941.006713867188 943.429016113281 942.500183105469 945.837707519531 950.992797851562 952.680725097656 949.305053710938 949.948425292969 948.402038574219 961.976501464844 962.959045410156 954.268493652344 960.823486328125 963.6533203125 956.192993164062 962.583801269531 959.108825683594 951.025573730469 952.074096679688 948.843322753906 961.314880371094 973.774658203125 965.942077636719 973.376647949219 988.765930175781 978.295532226562 971.168884277344 964.734680175781 962.394165039062 959.22607421875 959.556457519531 962.303344726562 977.637756347656 973.065795898438 963.4130859375 955.848999023438 964.578918457031 964.99951171875 957.043701171875 952.982788085938 968.544555664062 965.32861328125 960.881530761719 964.589599609375 971.136962890625 971.036071777344 972.80615234375 965.778198242188 970.341430664062 972.114196777344 978.570617675781 976.561767578125 973.457580566406 970.033935546875 976.282348632812 971.515686035156 973.06103515625 977.737854003906 977.3837890625 984.155395507812 967.837951660156 969.639770507812 966.216979980469 973.401245117188 965.435424804688 966.215698242188 965.395202636719 965.837158203125 978.843078613281 983.334777832031 990.715026855469 996.083190917969 994.679077148438 996.413818359375 992.325866699219 991.6728515625 988.471313476562 997.391723632812 987.48779296875 994.804443359375 1000.94244384766 1014.369140625 1015.08526611328 1013.11486816406 1020.58709716797 1021.02056884766 1031.59619140625 1032.47668457031 1027.02124023438 1039.09448242188 1027.92126464844 1027.33154296875 1034.51672363281 1034.48999023438 1030.02978515625 1023.39434814453 1016.00451660156 1023.00445556641 1024.78649902344 1019.58911132812 1016.96752929688 1018.63708496094 1020.95458984375 1017.97747802734 1020.17822265625 1015.37933349609 1023.01818847656 1024.13098144531 1020.34564208984 1019.32794189453 1023.67864990234 1019.46099853516 1022.02734375 1023.24035644531 1023.54144287109 1023.20758056641 1014.9052734375 1019.07543945312 1015.89001464844 1022.33972167969 1015.10894775391 1010.09521484375 1021.47772216797
965.162963867188 951.720092773438 946.788757324219 950.355346679688 953.139404296875 954.434265136719 955.997253417969 950.689086914062 944.843811035156 947.108520507812 950.942260742188 953.918701171875 951.235717773438 940.255676269531 946.066772460938 939.767578125 942.061401367188 944.336364746094 943.264465332031 943.998229980469 950.649108886719 955.117065429688 949.619445800781 943.321044921875 954.101501464844 947.495788574219 940.974975585938 946.066345214844 947.482116699219 951.515930175781 961.286437988281 959.731018066406 958.141174316406 957.185119628906 951.945373535156 956.013305664062 956.82666015625 959.355102539062 964.630920410156 966.708190917969 964.422729492188 957.834167480469 962.945556640625 967.893005371094 964.44921875 964.017395019531 969.632629394531 966.317810058594 979.098205566406 975.867492675781 971.967651367188 985.268127441406 976.227722167969 970.194274902344 965.131896972656 966.033264160156 966.361938476562 963.762145996094 966.649841308594 976.041381835938 963.554504394531 958.072998046875 956.858276367188 951.838989257812 954.4658203125 955.253540039062 960.81005859375 970.875915527344 971.009155273438 970.937622070312 976.570556640625 973.654907226562 970.341796875 976.480102539062 973.493041992188 973.818054199219 976.94970703125 974.25244140625 976.284240722656 973.53466796875 979.150024414062 968.413513183594 961.187438964844 971.4541015625 982.529357910156 985.212097167969 985.708984375 967.561096191406 969.872924804688 975.2197265625 971.608825683594 966.684692382812 979.584838867188 975.125244140625 966.8369140625 978.056884765625 983.825927734375 986.789916992188 998.454040527344 999.901916503906 1000.64794921875 995.927551269531 997.224975585938 994.226867675781 997.266052246094 995.455322265625 994.958068847656 999.805480957031 1012.67419433594 1009.07672119141 1019.85717773438 1023.10266113281 1025.24975585938 1021.94500732422 1033.02673339844 1039.04553222656 1048.94384765625 1038.45544433594 1030.36865234375 1041.52856445312 1035.38256835938 1028.12072753906 1028.7421875 1019.88165283203 1027.51293945312 1022.84515380859 1019.71221923828 1013.87298583984 1016.96099853516 1012.76147460938 1007.03167724609 1005.28063964844 1013.52288818359 1017.51666259766 1018.70928955078 1027.85205078125 1018.75299072266 1027.02880859375 1030.20104980469 1029.03295898438 1027.25085449219 1026.30590820312 1024.57739257812 1015.330078125 1016.08569335938 1008.59606933594 1017.32116699219 1021.73852539062 1016.92456054688 1012.23706054688
964.260192871094 957.43701171875 952.135925292969 946.926879882812 949.05126953125 952.723388671875 951.723693847656 941.627990722656 939.5322265625 944.858337402344 944.32958984375 941.871215820312 939.291015625 933.011291503906 941.860595703125 942.462463378906 942.295104980469 946.061462402344 949.311950683594 951.704833984375 947.741149902344 957.845581054688 951.261840820312 950.399108886719 953.217346191406 953.555053710938 952.942321777344 953.518005371094 955.9599609375 961.689025878906 967.935302734375 959.775268554688 958.460632324219 956.752624511719 943.258666992188 948.958557128906 947.633544921875 954.503845214844 963.728942871094 961.899291992188 964.286865234375 969.024597167969 967.975219726562 970.122192382812 969.167053222656 976.574157714844 976.875915527344 982.876770019531 979.620544433594 972.70458984375 980.524963378906 978.712524414062 974.633728027344 968.127258300781 963.90625 964.863891601562 972.488891601562 977.253173828125 974.893676757812 971.900451660156 969.501220703125 961.636413574219 950.003234863281 948.719177246094 952.674377441406 958.346801757812 963.31787109375 966.790405273438 965.391967773438 976.06396484375 982.577209472656 983.991088867188 972.666931152344 974.345764160156 971.936584472656 973.415710449219 977.196105957031 975.924438476562 972.617004394531 977.001037597656 982.36865234375 976.548645019531 969.291870117188 983.561340332031 984.530151367188 983.0263671875 981.721984863281 971.50830078125 974.863037109375 975.488647460938 977.656494140625 969.489990234375 974.268127441406 977.659423828125 973.828063964844 981.000854492188 985.569519042969 991.48291015625 995.917602539062 1003.2724609375 993.318237304688 996.447204589844 994.914245605469 998.443664550781 1003.1591796875 994.093383789062 984.781311035156 990.065673828125 1007.68035888672 1010.16741943359 1021.69189453125 1025.33959960938 1029.68640136719 1035.2783203125 1036.63635253906 1044.43493652344 1044.14147949219 1043.31286621094 1042.09619140625 1041.03088378906 1039.64575195312 1031.83471679688 1031.5234375 1028.06994628906 1029.30114746094 1027.07763671875 1018.02917480469 1015.74163818359 1013.80633544922 1003.70697021484 1004.14215087891 997.666625976562 1003.46984863281 1013.99188232422 1028.47692871094 1035.63208007812 1034.66650390625 1031.73132324219 1027.33740234375 1026.92797851562 1026.47351074219 1016.69012451172 1012.01446533203 1019.39208984375 1010.42199707031 1010.78369140625 1019.55737304688 1020.97106933594 1018.91632080078 1012.60070800781
957.313415527344 954.970397949219 949.455200195312 949.891967773438 941.172668457031 937.956665039062 936.417297363281 933.199890136719 937.5615234375 932.9755859375 933.232482910156 942.01904296875 943.932556152344 944.504760742188 952.171142578125 946.885620117188 949.827026367188 952.728332519531 954.259582519531 962.385070800781 963.653869628906 953.019836425781 960.345336914062 954.15771484375 962.015991210938 959.821105957031 958.802368164062 960.809204101562 963.83251953125 965.82861328125 967.770080566406 971.15771484375 951.918029785156 951.459350585938 951.351745605469 951.09326171875 953.264892578125 960.234741210938 964.465454101562 963.351013183594 964.091125488281 961.948059082031 959.755554199219 974.20458984375 973.969482421875 985.185302734375 986.261779785156 989.51220703125 992.651733398438 982.64306640625 987.323181152344 991.209350585938 979.424194335938 981.8203125 969.055114746094 974.531616210938 978.9453125 983.604675292969 973.64501953125 972.955383300781 974.002197265625 969.439575195312 961.103942871094 956.572265625 962.045532226562 968.643981933594 968.629272460938 961.531799316406 966.170715332031 980.460693359375 982.3681640625 974.736145019531 972.000671386719 971.119140625 977.223510742188 985.167541503906 975.358093261719 968.978576660156 975.101135253906 981.393920898438 981.236999511719 981.440490722656 978.588745117188 979.943969726562 985.207092285156 978.649719238281 976.661743164062 981.521850585938 979.616882324219 978.649841308594 972.053283691406 966.436645507812 974.409790039062 976.359313964844 974.823547363281 982.851928710938 992.153747558594 991.811889648438 993.992065429688 1006.60797119141 999.306945800781 992.379638671875 990.373596191406 992.362060546875 997.288879394531 999.551452636719 990.000549316406 999.252014160156 1007.16021728516 1017.09814453125 1023.1669921875 1023.64996337891 1033.10754394531 1035.32092285156 1043.62902832031 1042.46533203125 1047.32165527344 1045.19372558594 1038.68347167969 1038.58605957031 1039.66589355469 1036.93823242188 1035.26416015625 1038.58715820312 1026.7451171875 1024.06030273438 1021.45166015625 1025.46118164062 1018.70831298828 1007.30041503906 1012.54803466797 1004.86791992188 1010.33483886719 1026.13842773438 1024.14465332031 1030.88232421875 1035.72631835938 1032.20690917969 1023.82165527344 1019.85882568359 1019.84014892578 1020.07189941406 1010.35076904297 1007.02166748047 1010.19122314453 1015.11669921875 1012.58782958984 1016.30114746094 1014.45080566406 1004.90502929688
955.455749511719 956.844116210938 954.104309082031 946.908508300781 938.134521484375 934.404235839844 929.598388671875 938.687133789062 936.301147460938 936.38916015625 935.143920898438 938.786499023438 954.084777832031 950.173706054688 960.497131347656 956.510437011719 944.183654785156 950.060302734375 965.630737304688 963.594116210938 969.441711425781 958.122924804688 968.610229492188 966.081237792969 964.378479003906 960.500854492188 959.951293945312 960.404052734375 963.233520507812 958.262145996094 971.408813476562 965.804016113281 954.53076171875 954.058959960938 957.63427734375 959.272644042969 964.161560058594 963.11962890625 960.713562011719 961.773193359375 962.214538574219 957.853149414062 963.723876953125 970.466979980469 968.343505859375 967.627075195312 987.091796875 990.264404296875 987.501647949219 989.203674316406 978.487121582031 981.923278808594 989.5986328125 981.097229003906 976.782043457031 980.6064453125 987.475524902344 980.827209472656 976.60009765625 972.040710449219 966.3798828125 973.727600097656 964.288146972656 961.653930664062 967.3583984375 971.877563476562 971.764892578125 965.008605957031 965.520141601562 978.013427734375 978.002685546875 976.219055175781 975.530151367188 978.24658203125 976.749694824219 976.864318847656 974.425048828125 977.438903808594 977.63720703125 982.126220703125 975.737487792969 983.019775390625 985.871704101562 991.623840332031 994.283325195312 988.380798339844 978.393859863281 979.665588378906 981.561645507812 977.655090332031 971.83349609375 966.893249511719 973.452575683594 978.629272460938 978.62109375 989.535034179688 992.895629882812 995.163513183594 992.060974121094 994.789978027344 998.294067382812 994.058837890625 993.136108398438 988.760192871094 991.644592285156 992.072082519531 999.087707519531 1015.44079589844 1017.59979248047 1018.1044921875 1019.5341796875 1020.82598876953 1023.29272460938 1031.3828125 1035.6318359375 1038.26306152344 1031.03137207031 1039.52124023438 1039.17431640625 1042.37670898438 1043.20471191406 1042.638671875 1041.78198242188 1034.15966796875 1024.10119628906 1024.01782226562 1020.29138183594 1020.71496582031 1017.40881347656 1014.58990478516 1004.91766357422 1007.01776123047 1011.87982177734 1028.16394042969 1027.99267578125 1028.80554199219 1029.74182128906 1035.65270996094 1028.0205078125 1027.6416015625 1015.02087402344 1005.28668212891 1006.01934814453 992.344177246094 1002.26916503906 1009.87341308594 1009.72241210938 1011.50201416016 1001.56695556641 994.961975097656
952.030456542969 947.774719238281 942.533935546875 950.490417480469 946.476928710938 935.958435058594 938.734191894531 934.734069824219 939.505737304688 949.615417480469 952.900146484375 955.518127441406 958.157409667969 961.622680664062 964.186645507812 960.667053222656 950.545654296875 951.764343261719 964.133178710938 963.038635253906 967.61328125 962.902404785156 961.264404296875 960.628662109375 958.427673339844 960.274658203125 967.441101074219 960.638916015625 965.230285644531 961.273864746094 961.11572265625 962.316467285156 960.158630371094 959.420471191406 959.185485839844 957.688293457031 959.257385253906 964.022155761719 962.257507324219 968.175598144531 964.051391601562 972.456787109375 967.252197265625 968.94873046875 973.788940429688 971.781616210938 984.679626464844 991.519836425781 993.669677734375 992.637145996094 984.539428710938 987.569702148438 984.607849121094 979.075256347656 985.1513671875 981.297485351562 994.102294921875 985.114929199219 980.051879882812 968.644470214844 968.524108886719 979.099792480469 971.697509765625 968.302368164062 963.190734863281 973.558349609375 971.377075195312 976.634887695312 966.629150390625 973.625122070312 980.63037109375 976.951843261719 976.83349609375 983.972045898438 979.246765136719 984.335021972656 989.483154296875 976.560974121094 983.664672851562 980.228942871094 977.623718261719 983.513549804688 985.484436035156 986.385131835938 981.300476074219 985.216735839844 990.807434082031 992.242248535156 985.58544921875 975.278869628906 975.647583007812 975.64208984375 969.084167480469 973.169799804688 989.32275390625 990.126953125 993.407409667969 1000.46008300781 991.935852050781 994.056213378906 993.749572753906 988.79150390625 988.5595703125 986.659240722656 997.321228027344 1005.10180664062 1011.96282958984 1014.84204101562 1012.28863525391 1014.97143554688 1023.73352050781 1021.29528808594 1020.62878417969 1026.5537109375 1030.3154296875 1028.63525390625 1036.58764648438 1041.77099609375 1036.91088867188 1047.16577148438 1044.33386230469 1048.48388671875 1048.986328125 1041.90112304688 1029.01538085938 1026.14440917969 1024.65600585938 1026.25268554688 1016.52795410156 1011.50207519531 1004.92401123047 1007.30847167969 1007.45471191406 1020.00506591797 1028.34582519531 1033.44738769531 1033.32568359375 1030.69482421875 1031.69799804688 1019.53997802734 1006.49450683594 1006.44659423828 1002.24041748047 998.013305664062 1000.63726806641 1008.15899658203 1004.10455322266 999.623413085938 996.515747070312 995.616455078125
945.741149902344 937.496337890625 942.926025390625 950.782897949219 942.523315429688 938.184631347656 934.322692871094 938.259094238281 939.9189453125 945.371765136719 957.392761230469 959.823913574219 974.513732910156 975.18408203125 975.497497558594 972.289367675781 960.057189941406 959.667297363281 961.595642089844 963.513244628906 966.645874023438 952.346618652344 965.501831054688 971.41650390625 963.0634765625 960.481079101562 975.489685058594 973.869934082031 969.416748046875 966.741821289062 961.744323730469 964.40869140625 961.614807128906 965.160339355469 961.579650878906 971.257202148438 964.6240234375 964.026550292969 961.109741210938 972.281921386719 971.750061035156 975.048828125 980.097900390625 977.975952148438 973.74462890625 987.558654785156 988.27880859375 998.13427734375 995.942260742188 990.888732910156 983.074279785156 979.094665527344 981.922607421875 989.889526367188 982.981262207031 983.193664550781 980.514770507812 981.696350097656 985.73876953125 971.8603515625 970.322509765625 987.890319824219 972.322692871094 965.174377441406 968.164916992188 966.872314453125 977.693115234375 968.594604492188 974.748718261719 975.131042480469 977.026062011719 987.995178222656 989.880432128906 987.664367675781 984.905212402344 985.1103515625 985.914611816406 981.69091796875 991.725463867188 992.209289550781 984.080383300781 990.759033203125 997.091796875 991.611755371094 991.002624511719 984.447021484375 984.230529785156 986.751159667969 981.811218261719 983.508483886719 980.789367675781 974.871826171875 981.421264648438 981.067810058594 990.109313964844 994.780944824219 991.1533203125 997.059814453125 992.915649414062 1004.77325439453 995.491943359375 994.148132324219 996.021789550781 1000.80120849609 1001.33770751953 1005.23541259766 1000.88812255859 1008.416015625 1013.35809326172 1021.83422851562 1025.58056640625 1029.72485351562 1020.93719482422 1027.42626953125 1031.08972167969 1035.1669921875 1037.87145996094 1037.07690429688 1039.52136230469 1044.41491699219 1049.82446289062 1044.22253417969 1045.392578125 1034.29455566406 1028.97033691406 1025.19140625 1023.07867431641 1018.974609375 1017.81915283203 1008.49322509766 1009.30303955078 1013.24737548828 1013.25134277344 1026.68896484375 1038.75915527344 1026.81323242188 1030.294921875 1030.59948730469 1023.54479980469 1019.50122070312 1005.90887451172 1007.01409912109 1004.32452392578 1000.69525146484 999.912658691406 1000.23321533203 1000.08038330078 995.747314453125 987.956115722656 984.170715332031
934.108642578125 930.043334960938 944.236633300781 937.056884765625 936.803588867188 930.947631835938 934.890869140625 940.260437011719 945.745361328125 947.46484375 958.364440917969 971.292358398438 973.588806152344 978.002075195312 988.193054199219 971.214111328125 960.8935546875 973.355163574219 967.404907226562 963.256713867188 959.918762207031 960.2919921875 962.825927734375 976.975830078125 968.411865234375 970.579650878906 977.582824707031 970.639465332031 966.415405273438 963.667053222656 958.070495605469 960.312561035156 957.119384765625 962.792114257812 964.695739746094 973.005493164062 971.415466308594 967.897094726562 976.601928710938 976.758728027344 977.022766113281 988.0693359375 980.841003417969 987.220336914062 982.940490722656 992.542846679688 991.640380859375 989.651794433594 1001.82891845703 997.713806152344 990.639770507812 987.565185546875 988.591064453125 987.215637207031 987.334411621094 980.07177734375 972.667175292969 978.45703125 973.283203125 964.439270019531 976.154663085938 979.02685546875 981.498474121094 975.199584960938 974.068725585938 965.010131835938 976.689331054688 984.946228027344 977.765075683594 975.06689453125 974.383728027344 976.546508789062 986.501770019531 987.654418945312 986.798156738281 985.576049804688 983.373840332031 985.375549316406 989.575134277344 987.271179199219 990.376647949219 987.465148925781 988.673278808594 991.256042480469 992.491516113281 982.938354492188 987.233825683594 981.038757324219 980.422424316406 976.358764648438 983.232849121094 988.627075195312 982.248291015625 971.649719238281 974.361267089844 978.854797363281 985.9482421875 998.13671875 996.029724121094 1010.89776611328 1006.84741210938 997.385131835938 1001.71527099609 1011.70587158203 1015.23291015625 1010.84338378906 1013.51745605469 1004.58117675781 1007.46405029297 1025.9990234375 1024.24926757812 1026.47900390625 1023.56170654297 1029.53588867188 1025.73791503906 1027.23095703125 1033.96203613281 1028.47485351562 1036.98828125 1038.71301269531 1036.87634277344 1042.53173828125 1047.69763183594 1036.83068847656 1034.70288085938 1019.75830078125 1025.18542480469 1023.96319580078 1024.81884765625 1012.63604736328 1012.18041992188 1019.73162841797 1019.69842529297 1027.46215820312 1037.1494140625 1028.30456542969 1022.07556152344 1017.48419189453 1016.01184082031 1016.84881591797 1005.73742675781 1003.88262939453 999.466369628906 1008.53887939453 1001.88116455078 997.341796875 999.848510742188 993.902709960938 994.645263671875 986.931884765625
935.830627441406 936.429931640625 926.313415527344 926.8857421875 928.525146484375 933.921997070312 932.771789550781 939.696899414062 948.9892578125 952.155944824219 955.086547851562 959.492980957031 975.751342773438 982.621459960938 981.654479980469 976.554931640625 974.006286621094 966.17626953125 967.828674316406 966.63525390625 966.438171386719 968.252197265625 972.157836914062 969.534423828125 978.984924316406 976.390991210938 971.455871582031 974.296813964844 966.343017578125 962.091735839844 964.195068359375 961.451477050781 960.900756835938 966.723083496094 976.283813476562 976.845886230469 978.969421386719 978.331481933594 978.133239746094 981.7470703125 988.823669433594 995.783630371094 990.16796875 992.884216308594 994.537292480469 991.613037109375 997.527587890625 1005.92547607422 1004.09381103516 993.048278808594 990.61962890625 996.039489746094 995.066162109375 987.647216796875 984.233520507812 995.823486328125 982.742065429688 984.204345703125 982.746826171875 964.954956054688 972.190734863281 974.106628417969 976.116638183594 973.442077636719 969.218078613281 978.978576660156 979.671020507812 982.885192871094 984.516052246094 975.537658691406 975.5322265625 982.610473632812 989.152587890625 989.884521484375 988.51025390625 988.577270507812 987.45751953125 986.977905273438 991.606201171875 993.402160644531 982.039123535156 982.869445800781 987.573425292969 993.224548339844 993.680908203125 987.024536132812 979.458740234375 979.694458007812 975.865661621094 978.930236816406 984.44921875 983.277404785156 989.581726074219 980.810119628906 975.355712890625 984.022399902344 992.913146972656 1001.31091308594 1006.01776123047 1011.14123535156 1004.18658447266 994.759216308594 998.768371582031 1006.37725830078 1012.27868652344 1012.13116455078 1010.04187011719 1002.85241699219 1011.77770996094 1019.65832519531 1030.23193359375 1029.69287109375 1029.20739746094 1021.62609863281 1017.7431640625 1019.97857666016 1030.98291015625 1038.2255859375 1034.58142089844 1034.63220214844 1036.20202636719 1033.13452148438 1030.71105957031 1039.57177734375 1036.35595703125 1029.46203613281 1025.61450195312 1023.86273193359 1019.15655517578 1023.59539794922 1017.41589355469 1018.95349121094 1032.00537109375 1025.19030761719 1034.27905273438 1026.62536621094 1020.75640869141 1016.67266845703 1006.13012695312 1008.86431884766 1008.40625 1001.01361083984 997.881286621094 1001.75274658203 996.983093261719 995.101013183594 989.906433105469 994.788208007812 995.688659667969 999.605102539062
935.871948242188 933.467651367188 924.463623046875 934.107666015625 938.877868652344 935.017333984375 935.104736328125 945.366455078125 944.221252441406 942.8935546875 946.97265625 956.996704101562 976.397155761719 977.942932128906 978.827514648438 971.579040527344 974.271484375 975.948547363281 976.653137207031 974.295227050781 967.609558105469 973.915283203125 967.300964355469 969.967346191406 975.713928222656 979.240600585938 978.785949707031 971.052856445312 972.777282714844 968.29736328125 959.236022949219 958.904602050781 964.390563964844 976.017333984375 981.12646484375 985.471252441406 983.108825683594 980.793762207031 983.408508300781 986.197082519531 996.941833496094 996.848449707031 998.658569335938 1008.77593994141 1007.31219482422 1002.83288574219 1013.41754150391 1015.572265625 1011.2392578125 998.912719726562 998.221496582031 1001.18664550781 1003.04040527344 994.845458984375 993.4208984375 982.102294921875 992.16650390625 985.344360351562 982.55517578125 968.237915039062 964.453918457031 963.901550292969 965.247192382812 970.203002929688 983.276733398438 982.812133789062 984.027038574219 983.435668945312 978.896667480469 983.005920410156 983.484558105469 974.049499511719 978.148559570312 991.677490234375 987.393920898438 995.28759765625 995.274841308594 997.213073730469 997.486511230469 997.092346191406 988.924194335938 994.732666015625 994.317321777344 997.675476074219 997.122497558594 989.560424804688 982.161376953125 981.677551269531 983.406555175781 986.8798828125 974.625305175781 980.041015625 979.902526855469 978.849609375 972.543762207031 980.303771972656 988.391784667969 991.050598144531 1010.13092041016 1014.81768798828 1008.40386962891 998.973815917969 1006.99426269531 1004.90460205078 1016.423828125 1017.71356201172 1010.56164550781 1015.27630615234 1015.18475341797 1027.29309082031 1030.55322265625 1033.75329589844 1028.05578613281 1023.76812744141 1023.76574707031 1017.61779785156 1027.68054199219 1031.00598144531 1026.66735839844 1026.46765136719 1027.66430664062 1021.70379638672 1028.68103027344 1038.24047851562 1034.65832519531 1024.45153808594 1021.29223632812 1020.51416015625 1014.31823730469 1012.15972900391 1007.59661865234 1014.66632080078 1020.91180419922 1024.58911132812 1026.43432617188 1031.06323242188 1024.45935058594 1010.59252929688 1002.71508789062 998.477600097656 1000.31384277344 999.423828125 994.55712890625 995.874633789062 991.857604980469 992.319885253906 995.206176757812 1005.57720947266 996.704223632812 1007.54711914062
938.023010253906 940.009948730469 934.913330078125 936.904541015625 942.143432617188 940.345397949219 939.934265136719 942.235473632812 945.038818359375 948.948608398438 957.578918457031 965.408935546875 979.130065917969 965.888549804688 971.3076171875 973.104248046875 970.213256835938 977.492004394531 985.560180664062 983.064575195312 981.479064941406 980.039001464844 975.063354492188 971.249328613281 974.153991699219 978.308715820312 982.347717285156 976.400634765625 973.84130859375 970.71142578125 967.615112304688 975.457702636719 973.354736328125 976.466125488281 985.908386230469 975.267150878906 991.25830078125 990.889465332031 982.320739746094 995.470092773438 994.213012695312 997.851501464844 1003.29608154297 1010.33416748047 1011.12902832031 1017.67236328125 1023.00061035156 1022.94665527344 1022.82427978516 1013.25543212891 1002.89733886719 1006.29162597656 1010.22943115234 1004.91674804688 994.050354003906 987.889831542969 982.087646484375 981.912719726562 985.856140136719 966.934143066406 963.092407226562 964.382202148438 968.270446777344 972.968444824219 979.000305175781 985.007446289062 989.136779785156 985.281921386719 979.788696289062 987.852294921875 985.161987304688 982.103942871094 981.583862304688 992.634338378906 991.668762207031 990.21826171875 992.763366699219 996.127990722656 999.8369140625 994.771301269531 999.042602539062 999.836364746094 1001.49090576172 1003.24395751953 1004.90386962891 994.394714355469 991.502685546875 987.454956054688 993.216674804688 987.780517578125 983.240783691406 983.37353515625 982.165283203125 982.810607910156 973.84521484375 977.674133300781 984.246215820312 995.37158203125 1004.07153320312 1009.55969238281 1010.10095214844 1003.83581542969 1002.66607666016 1008.3671875 1019.20788574219 1017.099609375 1024.505859375 1023.83721923828 1027.97937011719 1027.56005859375 1036.37646484375 1034.9931640625 1026.73413085938 1025.96166992188 1019.57586669922 1019.53039550781 1020.03491210938 1017.53631591797 1021.12213134766 1015.94799804688 1015.57562255859 1013.47625732422 1029.28588867188 1041.13330078125 1029.14624023438 1020.41473388672 1027.06384277344 1014.29351806641 1007.86120605469 1008.55438232422 996.069519042969 1013.59600830078 1016.35577392578 1019.69097900391 1018.24261474609 1017.32543945312 1013.12976074219 1005.82250976562 1003.81018066406 1006.67388916016 1004.22772216797 999.2021484375 987.663818359375 983.961853027344 989.971313476562 994.31982421875 991.956909179688 996.511901855469 1007.19378662109 1005.85900878906
937.729064941406 947.781677246094 939.335327148438 933.602172851562 943.228393554688 944.086669921875 941.028564453125 934.559204101562 940.569641113281 948.747619628906 960.028747558594 963.896301269531 967.105773925781 968.889221191406 971.310180664062 976.429626464844 971.539306640625 978.028686523438 990.195739746094 991.947448730469 985.107543945312 980.828369140625 992.521179199219 988.4921875 992.06494140625 993.612609863281 994.907836914062 991.177062988281 983.132385253906 992.597717285156 985.448303222656 980.322937011719 984.914855957031 989.852355957031 986.993774414062 988.457336425781 992.86279296875 994.248901367188 998.930847167969 1000.65631103516 997.935546875 1002.70074462891 1004.75439453125 1016.97595214844 1016.92266845703 1021.50592041016 1032.22875976562 1020.54949951172 1014.11975097656 1011.85437011719 1004.08752441406 1006.85589599609 1007.39709472656 1001.93811035156 998.981506347656 982.219360351562 989.005737304688 983.135314941406 973.018249511719 975.097900390625 979.574890136719 970.223022460938 968.904479980469 976.192565917969 975.199584960938 979.958190917969 982.210632324219 975.629943847656 982.240417480469 973.749877929688 985.169067382812 984.175170898438 989.954528808594 986.711669921875 994.983764648438 1000.04162597656 996.550476074219 1002.17852783203 998.491149902344 994.5751953125 1002.38482666016 1000.80224609375 997.174194335938 999.730773925781 1000.89404296875 1001.08508300781 1001.54064941406 991.602966308594 990.444885253906 980.991882324219 975.914672851562 974.143310546875 988.578369140625 982.794006347656 983.4306640625 986.187683105469 984.533325195312 995.597351074219 999.281799316406 1006.47918701172 999.436279296875 1001.36083984375 1007.76959228516 1017.25286865234 1015.92236328125 1016.87017822266 1018.51947021484 1026.7666015625 1035.74267578125 1028.41088867188 1041.03601074219 1039.81787109375 1031.89221191406 1024.38525390625 1014.85467529297 1016.50799560547 1021.08465576172 1015.30352783203 1016.64288330078 1021.40161132812 1024.72937011719 1016.11053466797 1024.96313476562 1027.82971191406 1031.53100585938 1023.60498046875 1016.57757568359 1008.52880859375 999.2607421875 1003.30541992188 1002.66156005859 1011.98950195312 1007.25714111328 1006.40411376953 1018.73217773438 1012.76971435547 1002.75341796875 1004.42169189453 1005.13690185547 1006.96051025391 1007.37799072266 984.002868652344 983.164184570312 980.302917480469 987.525634765625 992.032409667969 994.864685058594 994.858093261719 996.076782226562 998.155883789062
942.61328125 939.263061523438 931.353271484375 931.028442382812 934.44189453125 933.514282226562 939.669616699219 944.566040039062 943.691345214844 949.617980957031 950.149291992188 963.940734863281 968.08154296875 967.797302246094 977.064514160156 978.289855957031 977.632446289062 983.092590332031 989.128540039062 987.515380859375 991.327819824219 984.224243164062 991.992553710938 992.455871582031 988.134582519531 989.439880371094 996.173217773438 993.526245117188 994.387268066406 992.820678710938 987.878173828125 987.97216796875 988.132019042969 981.241333007812 981.9521484375 988.663513183594 987.468994140625 994.341796875 991.253234863281 997.470153808594 994.173706054688 1004.49682617188 1019.53967285156 1016.34185791016 1018.19366455078 1035.08679199219 1027.91870117188 1015.37316894531 1015.49951171875 1008.185546875 1012.63885498047 1005.71801757812 1011.03442382812 997.822204589844 998.371398925781 1000.28540039062 991.072326660156 976.793090820312 977.906372070312 975.020812988281 980.025390625 980.771179199219 967.366760253906 960.421691894531 962.248962402344 977.248840332031 979.324645996094 982.900634765625 987.365295410156 979.820922851562 986.958740234375 981.892700195312 996.979858398438 990.538146972656 992.830139160156 999.22607421875 997.227111816406 997.562072753906 993.497009277344 1003.15893554688 1001.83215332031 1002.81182861328 1000.47991943359 1000.09191894531 1011.0458984375 1010.24432373047 1004.74035644531 990.931396484375 986.306213378906 986.247253417969 978.121765136719 973.87646484375 981.189697265625 992.882202148438 988.484619140625 989.912719726562 987.175598144531 988.704650878906 995.512145996094 1003.24456787109 1003.02447509766 997.295532226562 1009.69879150391 1017.81958007812 1015.03326416016 1020.98980712891 1020.75604248047 1027.55712890625 1024.84899902344 1028.09887695312 1038.69372558594 1035.302734375 1027.74963378906 1027.19494628906 1018.61651611328 1015.19812011719 1021.6962890625 1028.45068359375 1027.06530761719 1027.35766601562 1027.56225585938 1017.50756835938 1021.47357177734 1023.76672363281 1021.42224121094 1017.05236816406 1010.87939453125 1001.90362548828 999.982360839844 1002.54888916016 1010.32049560547 1012.67651367188 1008.86059570312 1006.22045898438 1004.50604248047 1007.61279296875 1001.43402099609 1005.05133056641 1004.49224853516 998.333679199219 998.355041503906 999.4306640625 984.644714355469 980.218872070312 980.462280273438 987.989440917969 989.021545410156 983.335754394531 988.744201660156 994.979797363281
939.65185546875 934.446899414062 930.453002929688 931.929565429688 936.498291015625 932.128234863281 938.173095703125 939.883483886719 939.782165527344 942.618347167969 962.231506347656 963.625854492188 970.850219726562 967.983032226562 973.356323242188 972.178100585938 978.484313964844 980.775695800781 980.242980957031 979.428100585938 985.389099121094 985.867248535156 990.201599121094 999.2158203125 994.096557617188 990.458618164062 992.685607910156 993.880310058594 994.351135253906 997.5791015625 988.369873046875 986.888732910156 987.067932128906 975.798828125 981.689025878906 988.001281738281 991.196960449219 988.79736328125 994.447937011719 993.206604003906 995.473327636719 1001.34124755859 1006.51037597656 1009.18835449219 1022.14447021484 1023.10345458984 1022.216796875 1024.1787109375 1014.49658203125 1007.18719482422 1012.62713623047 1014.92840576172 1011.43316650391 998.432373046875 999.420959472656 998.820861816406 991.713195800781 992.434631347656 982.255432128906 976.698303222656 974.377868652344 973.763916015625 966.665832519531 960.735473632812 966.440612792969 974.758483886719 976.358154296875 980.371887207031 984.691101074219 983.893310546875 988.455322265625 990.179626464844 995.88037109375 994.291076660156 997.08984375 999.44580078125 1001.40356445312 1000.76556396484 1007.01623535156 1005.6220703125 1009.78607177734 1005.46063232422 1005.08581542969 1006.79815673828 1009.11968994141 1007.58258056641 1001.36511230469 1001.89770507812 991.875854492188 992.898254394531 981.886474609375 980.276672363281 984.611389160156 991.928466796875 998.224243164062 999.638000488281 991.528198242188 998.317321777344 1004.72485351562 1006.30786132812 1002.97430419922 999.561157226562 1011.65765380859 1015.32434082031 1020.59881591797 1017.32513427734 1029.50561523438 1023.45837402344 1018.06237792969 1023.80694580078 1037.64477539062 1038.08813476562 1038.48156738281 1028.97961425781 1028.28747558594 1031.07397460938 1031.28894042969 1023.28668212891 1027.06042480469 1025.26403808594 1020.44207763672 1018.79534912109 1016.54528808594 1015.80548095703 1021.34106445312 1020.17218017578 1013.41107177734 1005.25238037109 998.514953613281 1006.94091796875 1011.93920898438 1012.78155517578 1009.94305419922 1003.89172363281 1007.80871582031 1000.06268310547 998.312683105469 999.332702636719 996.909301757812 986.994689941406 985.792297363281 984.7373046875 986.396057128906 983.217651367188 981.948669433594 990.064270019531 981.617065429688 983.049133300781 982.907592773438 992.396118164062
955.61962890625 947.416320800781 938.250915527344 931.320251464844 938.577941894531 934.938903808594 934.103942871094 940.650695800781 942.530517578125 949.277099609375 964.654602050781 967.381286621094 972.02392578125 974.658264160156 973.688659667969 965.240661621094 971.364074707031 976.283203125 977.273010253906 978.525573730469 981.35205078125 987.442932128906 989.619079589844 994.238525390625 993.362365722656 993.005554199219 987.484375 984.962890625 992.969970703125 990.57421875 984.870300292969 978.875915527344 975.493957519531 980.893676757812 984.635986328125 984.739501953125 991.225280761719 991.399169921875 993.434326171875 994.530334472656 994.461853027344 1002.64923095703 1001.95135498047 1006.8955078125 1019.12927246094 1016.78967285156 1022.27777099609 1024.98254394531 1014.03863525391 1006.51501464844 1007.78503417969 1010.13195800781 1009.64965820312 997.038818359375 994.873413085938 993.790832519531 993.594482421875 991.721252441406 988.175415039062 975.574951171875 972.479675292969 978.8623046875 971.56884765625 965.221252441406 969.921936035156 975.652526855469 976.594665527344 979.013427734375 985.353576660156 983.930541992188 986.459655761719 987.214782714844 994.359436035156 996.400329589844 995.100524902344 997.138854980469 996.981384277344 999.692138671875 999.212341308594 1001.64123535156 1003.75286865234 1006.55682373047 1012.04809570312 1014.75628662109 1006.02697753906 1011.27709960938 1008.70159912109 997.917602539062 996.160705566406 989.316467285156 983.650268554688 990.126220703125 995.97412109375 996.261047363281 995.172485351562 996.89990234375 999.233154296875 998.228271484375 1003.50384521484 1006.47021484375 1010.55145263672 1007.87890625 1010.90710449219 1020.03735351562 1017.48583984375 1025.74304199219 1032.2578125 1023.91766357422 1026.22180175781 1028.93786621094 1034.07763671875 1040.65563964844 1034.36328125 1034.50439453125 1039.49792480469 1034.09838867188 1027.87121582031 1022.78466796875 1017.40087890625 1025.03759765625 1025.10363769531 1020.53717041016 1009.06866455078 1006.65533447266 1016.42004394531 1021.57214355469 1014.26116943359 1011.92584228516 1004.66662597656 1009.92211914062 1009.65930175781 1004.48065185547 997.062805175781 993.66357421875 997.337036132812 996.547546386719 996.840698242188 991.44580078125 997.793701171875 986.491577148438 984.5791015625 987.276611328125 992.603637695312 983.322570800781 978.776428222656 988.80029296875 990.5341796875 989.891784667969 986.235473632812 973.532165527344
961.717956542969 950.108093261719 946.812683105469 930.666381835938 926.214782714844 938.065490722656 935.469909667969 935.078735351562 937.322082519531 948.723449707031 958.273559570312 968.04833984375 977.160522460938 975.973022460938 972.782775878906 968.50390625 968.7646484375 974.3974609375 979.279113769531 973.688354492188 980.004089355469 987.860900878906 990.603454589844 996.848571777344 992.935302734375 985.733276367188 989.295837402344 985.066162109375 983.397827148438 982.635559082031 986.788696289062 984.303894042969 980.733642578125 977.115783691406 980.844543457031 981.581420898438 986.750732421875 985.845153808594 998.282165527344 1001.61193847656 999.650512695312 1001.01434326172 998.984558105469 1009.22143554688 1008.81982421875 1010.57312011719 1005.89837646484 1009.66021728516 1014.71234130859 1010.55889892578 1008.47161865234 1010.63220214844 1003.34802246094 989.542541503906 993.806274414062 992.102233886719 983.53271484375 997.299499511719 984.540588378906 976.005126953125 978.003112792969 976.693420410156 974.864379882812 972.494201660156 980.094909667969 971.794555664062 978.415588378906 977.968383789062 980.945129394531 978.457336425781 977.304931640625 985.302551269531 990.085998535156 987.7021484375 994.218994140625 993.226989746094 994.216674804688 983.4892578125 997.381652832031 1001.52154541016 1007.33648681641 1011.79815673828 1007.15002441406 1005.08953857422 1002.70715332031 1001.70910644531 1000.94232177734 997.145263671875 999.989501953125 990.893371582031 989.805480957031 996.353210449219 993.807434082031 993.901733398438 1006.09210205078 993.542846679688 1001.49554443359 1001.73583984375 1014.45758056641 1014.01336669922 1006.81372070312 1002.29559326172 1012.46362304688 1017.10888671875 1019.22485351562 1029.62341308594 1032.31762695312 1027.49621582031 1029.25134277344 1022.32116699219 1030.06384277344 1042.51318359375 1040.20874023438 1038.49987792969 1041.4951171875 1044.00036621094 1043.39172363281 1030.98559570312 1026.04162597656 1030.82897949219 1024.92053222656 1026.78149414062 1005.46820068359 1006.94647216797 1010.08959960938 1013.13714599609 1003.91461181641 1009.99822998047 1005.404296875 1001.74462890625 1000.31872558594 1001.63323974609 997.565795898438 989.176879882812 984.069946289062 991.235961914062 990.697082519531 997.897521972656 986.770141601562 983.343444824219 987.631896972656 983.133239746094 985.652526855469 981.242858886719 980.868774414062 984.673645019531 990.40869140625 986.401672363281 992.349975585938 980.887634277344
961.323974609375 959.405578613281 952.105163574219 939.078186035156 931.451843261719 938.041076660156 935.181579589844 932.715148925781 939.408935546875 948.951110839844 963.144653320312 970.325622558594 973.273315429688 978.8251953125 975.877685546875 977.347229003906 963.809265136719 968.860473632812 972.446350097656 968.588134765625 980.410400390625 983.937316894531 985.396606445312 986.487426757812 987.350708007812 983.523986816406 984.149230957031 987.130920410156 975.8720703125 982.771606445312 988.208068847656 974.200866699219 982.420166015625 976.273559570312 974.837036132812 982.731994628906 972.908142089844 994.797119140625 999.430236816406 986.928588867188 990.457885742188 992.709777832031 995.186218261719 996.234680175781 998.742736816406 996.780700683594 996.973022460938 1002.49163818359 1011.45129394531 1007.36352539062 1006.35675048828 1001.14233398438 999.092407226562 997.151916503906 991.006958007812 991.427001953125 986.28076171875 987.431701660156 988.919311523438 981.629760742188 986.423828125 976.897399902344 978.122314453125 977.477905273438 971.838806152344 973.630981445312 977.538391113281 976.817321777344 981.213134765625 981.4697265625 989.881958007812 981.312561035156 993.69482421875 990.336242675781 995.542541503906 990.628112792969 992.076843261719 986.1005859375 997.966857910156 1001.61529541016 1012.25427246094 1001.07244873047 1001.27258300781 997.411193847656 1001.67114257812 1002.99273681641 996.311157226562 998.978759765625 998.168762207031 999.31005859375 998.816345214844 1003.80072021484 1000.85137939453 999.852294921875 999.213195800781 996.040832519531 996.473693847656 1014.31817626953 1010.93316650391 1007.47314453125 1002.46618652344 1005.58459472656 1011.31976318359 1024.24475097656 1027.31066894531 1030.65576171875 1031.77124023438 1034.79675292969 1031.43798828125 1030.00769042969 1035.49267578125 1041.27014160156 1045.25402832031 1044.3837890625 1039.41845703125 1039.68249511719 1041.23510742188 1030.93518066406 1036.21533203125 1029.10034179688 1024.57250976562 1018.18273925781 1008.93878173828 1009.21441650391 1000.85101318359 996.465393066406 997.875610351562 1000.57757568359 1001.02136230469 1002.51385498047 1003.13708496094 996.672485351562 991.636901855469 990.134643554688 995.22265625 996.302673339844 994.15380859375 994.623474121094 986.174072265625 983.070129394531 983.548522949219 980.817199707031 983.293640136719 980.768432617188 981.481506347656 989.099365234375 995.935485839844 989.460266113281 989.313049316406 989.701782226562
