NCOLS 150
NROWS 38
XLLCORNER 7394249
YLLCORNER 4841999
CELLSIZE 30
NODATA_VALUE -9999
984.854919433594 964.612915039062 956.281372070312 958.907104492188 954.197265625 957.823547363281 961.385498046875 956.797973632812 958.740112304688 960.947143554688 955.60009765625 952.752990722656 954.192504882812 964.175354003906 951.8310546875 952.630004882812 954.530029296875 948.947631835938 958.853637695312 954.246704101562 947.728637695312 936.256591796875 938.359069824219 939.630676269531 945.951843261719 948.671081542969 945.52099609375 950.59375 951.389892578125 955.478454589844 947.036437988281 948.833068847656 937.086120605469 935.604370117188 944.3203125 947.180297851562 945.564758300781 947.318481445312 946.179260253906 941.892395019531 948.20263671875 946.412353515625 948.823547363281 954.953491210938 954.148803710938 952.942810058594 950.499328613281 954.895629882812 953.835571289062 961.139526367188 963.351989746094 965.886901855469 962.401489257812 957.985290527344 959.041625976562 961.766845703125 962.178161621094 966.674255371094 973.197998046875 963.8740234375 966.501281738281 962.634338378906 956.557067871094 967.936767578125 965.182861328125 956.861022949219 952.199462890625 945.452575683594 959.159851074219 962.535217285156 967.131408691406 968.253723144531 974.64697265625 959.62548828125 967.620300292969 965.686157226562 960.111022949219 959.414184570312 966.269470214844 963.231994628906 965.048767089844 968.932495117188 972.044006347656 974.5751953125 977.039367675781 970.859375 976.178100585938 979.873291015625 972.067993164062 967.245544433594 972.723205566406 972.013488769531 974.304016113281 972.506408691406 974.085205078125 970.689147949219 981.14990234375 985.526245117188 990.46435546875 992.993225097656 992.342529296875 977.560302734375 982.946472167969 989.049255371094 991.30615234375 1003.94989013672 994.688232421875 999.686157226562 997.071838378906 1001.80395507812 1003.08660888672 1001.00115966797 1005.779296875 1001.87530517578 1009.32470703125 1022.63891601562 1033.07592773438 1036.27612304688 1030.93054199219 1017.46405029297 1013.81854248047 1004.681640625 1007.71588134766 1010.58264160156 1017.05187988281 1018.32690429688 1009.34051513672 1013.50518798828 1022.99047851562 1032.44372558594 1038.87353515625 1044.29870605469 1045.03918457031 1057.89074707031 1049.2041015625 1052.09033203125 1055.43139648438 1050.66174316406 1050.24926757812 1051.72814941406 1041.34912109375 1041.53283691406 1036.36401367188 1033.35009765625 1029.31469726562 1026.12414550781 1028.04418945312 1025.96520996094 1029.06225585938 1026.95922851562
969.109313964844 959.820068359375 958.686767578125 961.133544921875 952.232055664062 948.130493164062 959.395385742188 949.769104003906 950.274963378906 953.298400878906 953.268981933594 949.129760742188 962.675842285156 951.696899414062 950.588073730469 954.6298828125 950.34375 952.08447265625 947.350219726562 952.615356445312 949.050354003906 937.481628417969 939.042663574219 940.90380859375 940.439575195312 943.356750488281 940.633056640625 950.920288085938 950.10302734375 950.074584960938 941.089660644531 939.544189453125 944.175109863281 946.509216308594 946.503845214844 946.802856445312 947.787719726562 953.957580566406 944.260314941406 950.869445800781 952.052185058594 953.346862792969 958.226196289062 956.624145507812 956.978210449219 954.596313476562 952.712219238281 952.900390625 958.88818359375 963.442687988281 971.445495605469 973.64697265625 964.073120117188 961.73095703125 964.0126953125 965.374572753906 978.611572265625 973.231079101562 970.7109375 971.26171875 961.161254882812 962.519592285156 952.8310546875 958.372985839844 961.814514160156 956.991333007812 950.775634765625 949.0205078125 962.146850585938 968.099060058594 974.817016601562 973.185913085938 970.547912597656 970.035339355469 970.586547851562 967.736206054688 966.020629882812 963.833312988281 969.450012207031 967.955932617188 967.70703125 976.304992675781 979.868530273438 982.60888671875 987.94287109375 973.979431152344 978.482727050781 976.839599609375 969.737487792969 969.490905761719 969.413513183594 973.0263671875 980.192626953125 975.888549804688 982.076232910156 978.767333984375 982.186645507812 987.068908691406 997.854736328125 989.495361328125 993.322021484375 988.851013183594 985.752624511719 990.152038574219 994.740844726562 1000.70098876953 998.483520507812 998.474548339844 1005.42327880859 1003.21716308594 1004.646484375 1010.23480224609 1013.80786132812 1009.47772216797 1022.89068603516 1030.89916992188 1034.04211425781 1040.61779785156 1038.04089355469 1033.03308105469 1020.95062255859 1010.34503173828 1008.99163818359 1015.1728515625 1020.1904296875 1016.96984863281 1016.14874267578 1005.734375 1014.13366699219 1021.43597412109 1026.12670898438 1026.60168457031 1044.267578125 1043.71081542969 1047.07385253906 1048.50439453125 1056.12902832031 1050.12683105469 1050.35900878906 1049.56701660156 1044.90258789062 1038.02453613281 1028.76391601562 1031.46606445312 1033.41967773438 1032.52478027344 1027.94995117188 1031.44250488281 1021.35119628906 1020.609375
964.509094238281 964.006042480469 963.819396972656 950.695861816406 951.806091308594 949.472412109375 955.482971191406 958.633483886719 946.7900390625 952.195922851562 958.341064453125 957.083251953125 952.553771972656 941.371337890625 940.957946777344 941.826782226562 949.899169921875 951.53564453125 953.55908203125 956.140930175781 948.774963378906 941.0703125 945.022033691406 934.797241210938 944.909057617188 940.852233886719 946.331298828125 943.3505859375 954.306030273438 947.786071777344 940.355041503906 932.873107910156 943.610778808594 947.555358886719 951.422973632812 949.841003417969 948.257446289062 948.493469238281 955.169738769531 959.813598632812 958.893920898438 952.796142578125 949.9521484375 950.778930664062 952.7373046875 951.530151367188 956.719665527344 959.553039550781 964.818786621094 977.573059082031 980.635681152344 981.119506835938 976.658142089844 973.841125488281 965.924377441406 971.071044921875 977.727355957031 981.029968261719 976.004089355469 969.627075195312 964.600646972656 960.838500976562 965.839904785156 963.213928222656 958.347045898438 964.363891601562 952.154907226562 958.934753417969 971.79248046875 969.279113769531 976.69580078125 977.7880859375 980.817810058594 968.841979980469 969.652099609375 972.514404296875 968.043823242188 967.281799316406 974.776916503906 973.594055175781 977.165161132812 975.888793945312 982.791259765625 982.861267089844 985.577514648438 984.296752929688 975.101379394531 978.6806640625 976.961975097656 972.544921875 966.612731933594 965.260375976562 971.949584960938 973.887451171875 992.389892578125 985.543701171875 978.658630371094 992.902282714844 1006.2255859375 987.911987304688 988.069274902344 987.924865722656 984.697387695312 994.739990234375 995.989990234375 1005.36041259766 1003.02905273438 1005.15173339844 998.889343261719 1015.61462402344 1016.98089599609 1014.85186767578 1029.57897949219 1026.09338378906 1029.68896484375 1031.50146484375 1039.10083007812 1038.89208984375 1038.62487792969 1026.3515625 1024.71691894531 1021.58734130859 1022.06072998047 1017.06872558594 1025.81652832031 1019.73065185547 1020.58618164062 1021.61871337891 1014.31140136719 1015.68688964844 1022.68115234375 1030.22351074219 1049.42321777344 1038.97143554688 1034.06311035156 1046.689453125 1054.25573730469 1055.77209472656 1047.28454589844 1041.44885253906 1040.02368164062 1044.22326660156 1038.06042480469 1027.77258300781 1034.43115234375 1033.84606933594 1025.67333984375 1017.18908691406 1014.10485839844 1012.97143554688
958.283996582031 957.477661132812 961.997131347656 955.345031738281 948.817993164062 954.064392089844 954.174438476562 955.351928710938 949.239868164062 949.3466796875 948.436706542969 941.497619628906 945.808044433594 942.068298339844 950.924255371094 943.27880859375 942.805236816406 941.561218261719 951.829162597656 956.539001464844 949.965759277344 949.412231445312 951.946533203125 945.777648925781 947.2314453125 949.376037597656 949.967346191406 946.7353515625 941.87744140625 942.732727050781 935.667663574219 940.5908203125 940.979187011719 948.159301757812 947.6171875 954.486938476562 951.130981445312 948.012451171875 953.203796386719 962.471740722656 958.680725097656 958.490783691406 944.273376464844 948.004821777344 945.569519042969 947.023071289062 952.940002441406 959.888977050781 965.568786621094 979.578735351562 985.606506347656 991.982849121094 980.948791503906 977.213745117188 965.214721679688 964.6953125 977.168151855469 976.715393066406 975.355895996094 966.728271484375 961.345886230469 973.876770019531 958.127868652344 963.963745117188 962.917114257812 951.383911132812 956.922058105469 959.13623046875 969.765258789062 974.711669921875 981.572265625 978.380676269531 975.427551269531 975.227661132812 978.3349609375 978.151916503906 970.291870117188 969.175964355469 979.383361816406 978.239990234375 980.042907714844 970.920532226562 974.6123046875 978.282043457031 978.78271484375 983.1875 977.556640625 986.9833984375 984.260070800781 970.612915039062 964.276794433594 964.476745605469 975.908447265625 982.603515625 989.038635253906 985.684204101562 979.3056640625 995.456970214844 993.986450195312 981.021118164062 984.195007324219 978.046813964844 976.129272460938 984.892211914062 987.969970703125 997.886413574219 1002.96948242188 1003.25006103516 1005.59820556641 1015.06591796875 1025.82421875 1034.79504394531 1039.67956542969 1034.06945800781 1037.43505859375 1044.36389160156 1030.68029785156 1028.4111328125 1029.26806640625 1028.22326660156 1027.95959472656 1022.71075439453 1022.56274414062 1015.30017089844 1020.36370849609 1019.4619140625 1022.6904296875 1022.17150878906 1021.81890869141 1026.34753417969 1027.93505859375 1030.00854492188 1031.98657226562 1033.5078125 1025.55358886719 1037.89453125 1043.68640136719 1050.54504394531 1046.5361328125 1035.72680664062 1034.40783691406 1038.30261230469 1041.47875976562 1033.2392578125 1029.17749023438 1024.44189453125 1017.79876708984 1016.69555664062 1007.54235839844 1011.283203125
952.300231933594 960.882202148438 950.919250488281 946.781677246094 948.713317871094 955.6103515625 957.533020019531 949.810241699219 946.688049316406 941.594177246094 936.044372558594 935.583801269531 948.800659179688 938.102722167969 947.624694824219 951.0126953125 947.2783203125 942.387451171875 947.986022949219 949.701354980469 960.094787597656 950.696838378906 962.005126953125 953.430236816406 946.130310058594 949.283508300781 950.189880371094 957.421020507812 941.62548828125 939.378479003906 942.328796386719 946.512390136719 948.876342773438 946.707458496094 947.306213378906 956.939636230469 953.270385742188 954.645690917969 960.796752929688 958.987731933594 959.052001953125 957.130249023438 956.582153320312 953.441955566406 951.311706542969 954.813781738281 964.980346679688 960.506530761719 965.452514648438 978.713256835938 990.32763671875 987.785583496094 985.943237304688 982.736633300781 970.7685546875 978.605224609375 981.740478515625 974.716796875 969.74658203125 967.330017089844 962.705444335938 973.74658203125 969.200927734375 970.442504882812 960.805114746094 957.560302734375 963.8896484375 969.449340820312 981.03564453125 977.774658203125 977.13330078125 982.8916015625 987.276245117188 986.923278808594 995.570617675781 982.684204101562 968.834655761719 980.369323730469 973.004150390625 979.178039550781 976.818725585938 980.681213378906 978.888793945312 982.368591308594 977.950927734375 977.804443359375 990.166137695312 983.101379394531 987.493347167969 975.133117675781 964.992919921875 967.354064941406 973.441833496094 979.649230957031 986.503784179688 989.910705566406 979.870178222656 986.309692382812 984.380126953125 980.879577636719 975.911682128906 976.476806640625 974.850219726562 990.809997558594 980.841003417969 990.198669433594 989.915649414062 998.409423828125 1007.79400634766 1021.12145996094 1026.28967285156 1033.69604492188 1038.6474609375 1037.74938964844 1038.98425292969 1045.61279296875 1029.11364746094 1026.88024902344 1031.25744628906 1024.47009277344 1031.56860351562 1021.931640625 1017.42327880859 1019.86364746094 1021.92535400391 1024.32946777344 1024.75476074219 1025.107421875 1018.77191162109 1022.71429443359 1024.78918457031 1029.57556152344 1025.09741210938 1024.87951660156 1023.24639892578 1038.24353027344 1035.18603515625 1045.57531738281 1032.12512207031 1028.29943847656 1035.41784667969 1031.27526855469 1027.44030761719 1017.84002685547 1013.283203125 1013.87359619141 1009.12811279297 1011.05157470703 1017.01867675781 1015.34692382812
956.843688964844 956.598876953125 946.6767578125 942.684997558594 945.7421875 948.020935058594 951.29345703125 938.243041992188 947.492492675781 938.666137695312 927.619934082031 932.464050292969 940.673461914062 947.917785644531 959.00390625 954.97119140625 954.283996582031 947.728271484375 942.014404296875 949.553833007812 953.646240234375 952.830688476562 954.75732421875 952.089965820312 942.611389160156 949.025817871094 948.570373535156 956.848754882812 955.842651367188 943.405212402344 954.904479980469 956.065002441406 949.577758789062 952.212951660156 947.778930664062 955.701782226562 960.065307617188 950.945373535156 960.414978027344 964.989013671875 967.639038085938 962.973510742188 953.592590332031 951.477111816406 961.36083984375 962.74951171875 969.714782714844 964.459777832031 971.431335449219 981.570373535156 986.583312988281 984.054870605469 984.385375976562 986.293701171875 987.653564453125 980.096557617188 985.759460449219 979.055603027344 975.825988769531 971.333801269531 972.636352539062 971.656066894531 972.8291015625 966.900756835938 967.885192871094 968.565979003906 974.498352050781 968.097900390625 976.325622558594 981.227661132812 980.042602539062 974.935363769531 973.37451171875 983.0888671875 984.901062011719 985.404296875 975.057495117188 978.706237792969 970.017028808594 972.036071777344 976.044250488281 974.207641601562 976.551147460938 977.549133300781 982.948608398438 986.481079101562 988.434631347656 989.151916503906 978.983093261719 977.125427246094 976.144470214844 977.09716796875 974.463073730469 985.328918457031 986.152038574219 987.037292480469 990.929382324219 979.623718261719 974.472900390625 971.581787109375 982.263732910156 982.932739257812 978.865905761719 983.816833496094 986.470031738281 985.653625488281 992.617614746094 996.3291015625 1010.53350830078 1023.19702148438 1036.98669433594 1041.84655761719 1040.10888671875 1039.58837890625 1032.18627929688 1032.63513183594 1032.66259765625 1035.72045898438 1040.25146484375 1033.16845703125 1035.93188476562 1034.17565917969 1031.80236816406 1024.03454589844 1026.89282226562 1022.03759765625 1029.42468261719 1025.962890625 1018.34643554688 1022.76959228516 1022.80187988281 1027.25305175781 1024.55419921875 1018.33673095703 1026.30969238281 1029.611328125 1032.46630859375 1030.32556152344 1028.03833007812 1032.45617675781 1024.9609375 1021.83447265625 1017.91845703125 1010.20477294922 1015.15881347656 1013.33538818359 1012.15783691406 1011.10693359375 1014.23870849609 1010.78210449219
957.888671875 955.447570800781 950.788024902344 945.526000976562 940.314453125 942.993774414062 939.0546875 942.949951171875 943.500671386719 935.718017578125 931.092895507812 935.394836425781 948.717651367188 950.402160644531 957.341796875 958.674255371094 950.324645996094 952.878601074219 945.173828125 948.362670898438 945.975036621094 960.495178222656 953.738220214844 946.493225097656 943.5810546875 948.51513671875 953.927856445312 960.3408203125 957.159240722656 957.916870117188 956.966430664062 956.704711914062 955.870910644531 953.463684082031 955.765686035156 964.95751953125 959.223999023438 959.314331054688 959.733032226562 962.709167480469 962.846496582031 958.358154296875 965.923278808594 967.138671875 965.396179199219 980.795776367188 974.448852539062 966.4931640625 975.716369628906 983.835693359375 994.1220703125 985.035766601562 983.111877441406 985.570434570312 984.200622558594 986.872802734375 979.618408203125 980.906005859375 982.170776367188 979.5546875 972.137451171875 969.52490234375 963.818664550781 969.608581542969 957.721740722656 958.583129882812 968.270568847656 965.831787109375 962.519226074219 977.957275390625 974.536682128906 979.315673828125 981.690673828125 988.073303222656 986.998901367188 979.389587402344 973.679626464844 971.952758789062 971.556091308594 978.227294921875 982.453491210938 980.799377441406 974.354858398438 983.280639648438 980.391052246094 983.822021484375 987.49365234375 987.798889160156 979.284851074219 971.361633300781 970.577819824219 969.764404296875 978.109802246094 990.001647949219 984.026245117188 987.20947265625 984.473205566406 980.376525878906 976.638549804688 981.820495605469 978.051879882812 986.0966796875 989.324462890625 992.906066894531 993.053405761719 990.401550292969 991.397888183594 1000.63256835938 1005.03289794922 1027.45886230469 1042.89807128906 1042.49243164062 1046.04431152344 1047.99169921875 1042.03332519531 1048.83227539062 1041.14636230469 1038.65270996094 1046.45886230469 1038.43298339844 1036.69274902344 1035.90771484375 1033.4931640625 1029.02160644531 1028.22644042969 1029.64514160156 1024.54016113281 1024.05407714844 1022.99243164062 1022.94183349609 1029.90795898438 1022.06744384766 1022.94940185547 1012.20513916016 1011.21478271484 1023.3212890625 1027.33435058594 1022.83959960938 1035.25549316406 1029.12365722656 1033.21142578125 1026.20739746094 1021.47583007812 1010.50439453125 1006.53521728516 1014.44110107422 1008.31951904297 1017.52502441406 1005.9541015625 1001.06787109375
960.358032226562 950.288757324219 953.725708007812 946.369445800781 934.412170410156 937.61279296875 940.262084960938 929.193420410156 924.25146484375 934.269287109375 933.173400878906 951.036010742188 954.210021972656 955.863098144531 952.502990722656 959.048645019531 956.813293457031 955.687927246094 962.933959960938 965.005859375 960.063232421875 955.027954101562 953.398010253906 958.749206542969 958.087768554688 964.696960449219 959.26806640625 964.2373046875 957.575012207031 958.061889648438 955.02392578125 958.989318847656 957.194458007812 955.973693847656 955.623107910156 961.017456054688 963.810974121094 962.548095703125 968.2958984375 970.8125 967.588806152344 958.813598632812 964.966125488281 975.146362304688 978.155029296875 985.756652832031 979.829711914062 989.856750488281 982.473815917969 983.0322265625 983.916870117188 982.125305175781 980.880615234375 977.603393554688 978.782897949219 983.261413574219 983.490112304688 982.953369140625 981.336547851562 973.662780761719 976.561401367188 968.741271972656 962.922668457031 963.373901367188 962.997375488281 967.037475585938 972.98388671875 970.533996582031 962.838439941406 970.535949707031 968.678894042969 983.323120117188 984.885925292969 980.785461425781 985.463317871094 982.238891601562 974.521484375 973.18212890625 972.052978515625 973.242614746094 972.537536621094 974.917053222656 982.660400390625 983.877868652344 979.005310058594 981.081604003906 984.75927734375 981.273254394531 986.114196777344 979.790710449219 973.989624023438 978.506164550781 980.242004394531 990.778564453125 987.653076171875 989.746215820312 984.121032714844 981.374755859375 984.473815917969 985.069763183594 980.041625976562 994.067993164062 1000.44311523438 996.868408203125 995.916259765625 993.084533691406 1005.33862304688 1010.36541748047 1012.32855224609 1034.45300292969 1035.66882324219 1033.36804199219 1045.60327148438 1054.74890136719 1043.8134765625 1044.37170410156 1051.22106933594 1045.42846679688 1042.65222167969 1042.46826171875 1041.12744140625 1033.5185546875 1040.13012695312 1044.07971191406 1024.99108886719 1029.27172851562 1027.88452148438 1020.3193359375 1016.45581054688 1020.67492675781 1022.36224365234 1027.34814453125 1019.40393066406 1012.41217041016 1008.65838623047 1012.46215820312 1018.83905029297 1022.47082519531 1016.27258300781 1025.95642089844 1031.03698730469 1022.15899658203 1011.99304199219 1009.029296875 1005.01489257812 1011.57861328125 1010.84808349609 1008.28582763672 1004.19244384766 1000.27734375
953.352233886719 946.800109863281 947.916442871094 947.22705078125 952.388122558594 947.905944824219 948.264465332031 940.18505859375 925.6220703125 934.4755859375 945.458251953125 955.809509277344 958.398193359375 957.363647460938 961.95263671875 962.030395507812 965.355346679688 972.324157714844 967.319274902344 966.32958984375 965.789428710938 971.847900390625 959.447937011719 971.066223144531 973.315063476562 965.180419921875 959.4111328125 962.799194335938 956.738586425781 958.656799316406 963.983642578125 964.654724121094 949.665344238281 956.916442871094 966.239990234375 968.546081542969 975.084289550781 976.569885253906 977.150512695312 967.670043945312 967.681640625 960.703796386719 969.738037109375 978.661987304688 988.207214355469 994.971740722656 991.079895019531 988.653076171875 981.691528320312 984.534851074219 986.527709960938 983.129455566406 985.755493164062 982.836547851562 978.5634765625 988.374450683594 988.166870117188 980.408203125 975.140869140625 974.099975585938 975.840881347656 969.287353515625 970.714965820312 965.991088867188 973.797973632812 976.959106445312 971.521850585938 968.362121582031 964.859436035156 968.404174804688 969.753112792969 975.109619140625 981.082641601562 980.27978515625 974.567687988281 981.925659179688 979.733215332031 977.440307617188 976.462829589844 980.214477539062 984.677795410156 982.02734375 979.618103027344 981.143249511719 982.767517089844 982.951843261719 973.466125488281 977.814147949219 981.723022460938 977.8515625 978.935791015625 977.530212402344 987.986206054688 990.537170410156 984.950012207031 985.4814453125 988.959716796875 997.983276367188 990.529602050781 992.150451660156 993.184265136719 998.794555664062 1003.62493896484 994.457824707031 996.82373046875 1001.25518798828 998.956726074219 1008.40368652344 1014.99536132812 1025.87927246094 1029.42858886719 1033.98364257812 1046.40576171875 1041.56066894531 1035.73059082031 1039.80749511719 1048.97033691406 1045.71752929688 1049.65979003906 1049.17810058594 1052.83483886719 1042.10083007812 1047.32678222656 1040.28955078125 1035.93896484375 1028.55895996094 1022.32104492188 1016.10284423828 1014.13842773438 1019.71173095703 1015.28430175781 1018.82977294922 1027.04602050781 1013.25463867188 1009.36413574219 1014.00250244141 1007.84271240234 1015.19396972656 1021.94195556641 1027.2978515625 1026.91101074219 1019.43383789062 1015.90496826172 1007.34368896484 1007.36700439453 1010.79254150391 1011.51403808594 1002.99890136719 1000.37164306641 999.220520019531
958.714477539062 945.367065429688 945.662414550781 939.852416992188 939.8408203125 935.859436035156 947.955871582031 936.264953613281 940.083129882812 942.872619628906 958.47802734375 962.041381835938 964.476501464844 971.685852050781 970.739074707031 970.569885253906 973.9765625 965.068176269531 976.750732421875 970.612915039062 981.338073730469 975.628356933594 968.210876464844 970.2685546875 969.775817871094 967.969970703125 967.221557617188 963.813903808594 961.53515625 951.776672363281 960.068908691406 968.475830078125 954.348999023438 955.944702148438 962.565979003906 969.337097167969 977.967529296875 981.300842285156 977.2607421875 969.897766113281 977.527465820312 967.933044433594 975.260131835938 982.890991210938 976.693969726562 986.815551757812 987.136535644531 983.279418945312 983.802490234375 998.0322265625 994.881225585938 989.242980957031 982.830810546875 984.247192382812 982.6796875 974.314514160156 980.950012207031 978.062316894531 974.4443359375 970.81689453125 976.468322753906 980.48974609375 982.480651855469 968.02783203125 968.310119628906 970.738708496094 974.681335449219 973.592529296875 970.200744628906 971.524841308594 971.111694335938 977.66064453125 983.180236816406 981.438354492188 978.004455566406 979.682678222656 988.447387695312 987.520751953125 987.792297363281 996.23046875 984.240844726562 985.266723632812 992.7861328125 998.592651367188 992.931213378906 984.193725585938 982.395385742188 980.839416503906 973.942932128906 974.605712890625 976.332946777344 977.988159179688 986.440979003906 991.180480957031 985.931091308594 990.056274414062 1002.84985351562 1006.61224365234 997.064208984375 1003.44720458984 993.869201660156 992.735229492188 996.991394042969 995.837707519531 1000.84313964844 1008.29443359375 1009.7646484375 1002.07653808594 1009.98577880859 1017.55078125 1023.1357421875 1040.66906738281 1040.99072265625 1029.79614257812 1033.822265625 1036.38012695312 1040.42797851562 1037.35998535156 1044.55285644531 1056.43762207031 1047.51196289062 1043.38256835938 1041.91674804688 1043.29382324219 1036.31298828125 1030.138671875 1020.25329589844 1013.072265625 1007.09039306641 1010.45324707031 1010.78900146484 1021.03240966797 1019.31848144531 1002.58166503906 1014.07702636719 1003.47595214844 1001.314453125 1010.5234375 1016.71362304688 1019.16058349609 1032.41772460938 1016.00982666016 1008.83483886719 998.882568359375 1003.59930419922 1007.96343994141 998.283569335938 988.575317382812 996.092590332031 1000.33215332031
955.770751953125 954.175720214844 942.567565917969 930.691101074219 930.100036621094 932.171997070312 933.9619140625 939.465026855469 945.052429199219 948.110778808594 953.544189453125 959.741943359375 966.464477539062 968.485961914062 962.574768066406 965.052551269531 973.341064453125 984.668395996094 990.992553710938 989.855895996094 986.533264160156 977.498901367188 983.171020507812 979.89892578125 979.509826660156 974.536560058594 964.165222167969 956.571105957031 955.922485351562 957.78369140625 961.582824707031 958.074340820312 953.989196777344 960.150634765625 963.104675292969 969.771789550781 970.787963867188 982.931457519531 980.177551269531 978.716064453125 984.961730957031 984.416442871094 982.893188476562 980.688232421875 985.701477050781 988.024108886719 986.804626464844 991.542419433594 995.001892089844 1003.67980957031 1000.11505126953 992.818237304688 987.0234375 987.830993652344 985.009704589844 983.183959960938 986.415588378906 982.305969238281 973.088012695312 966.973571777344 964.700805664062 972.486694335938 980.300109863281 972.430847167969 975.572570800781 981.256042480469 983.941589355469 974.859924316406 977.454467773438 980.394226074219 981.724426269531 984.001403808594 981.801208496094 977.588134765625 982.997741699219 990.354919433594 997.592956542969 995.914733886719 994.369384765625 986.2353515625 982.466125488281 986.98193359375 996.672668457031 993.007019042969 994.936096191406 988.906616210938 988.637817382812 979.384765625 974.982727050781 972.515686035156 975.220581054688 975.156921386719 984.88720703125 990.435363769531 1000.20129394531 998.7880859375 1002.42437744141 1006.68304443359 999.517395019531 992.68115234375 993.161193847656 998.426940917969 1002.26287841797 1008.15338134766 1008.62329101562 1000.67834472656 1002.77508544922 996.108215332031 1003.01953125 1008.29364013672 1020.61669921875 1032.88208007812 1035.54223632812 1030.23474121094 1036.896484375 1033.52197265625 1033.16040039062 1038.68725585938 1036.2314453125 1043.0458984375 1044.85217285156 1045.57153320312 1042.79321289062 1050.38159179688 1036.98010253906 1022.36431884766 1015.68078613281 1018.14459228516 1010.50738525391 1008.16766357422 1002.55065917969 999.798889160156 1001.23193359375 998.697143554688 1004.30303955078 1005.03887939453 1002.95947265625 1003.89660644531 1002.70318603516 1004.81726074219 1011.64410400391 1006.81762695312 1002.94635009766 997.970336914062 1006.60540771484 1003.78393554688 995.452270507812 996.811279296875 991.277282714844 1004.13104248047
945.689025878906 943.531005859375 937.11181640625 936.258972167969 929.968078613281 925.68798828125 941.229370117188 941.323791503906 942.220520019531 948.334838867188 948.721130371094 961.013427734375 964.583801269531 972.767700195312 960.069702148438 971.289855957031 986.330871582031 991.549743652344 999.879150390625 1006.28961181641 996.505554199219 989.353637695312 1000.49615478516 992.525817871094 982.120849609375 983.822326660156 975.711303710938 969.534057617188 966.0048828125 966.503723144531 957.044311523438 950.168884277344 959.952819824219 963.099182128906 957.951538085938 960.882446289062 969.420532226562 972.928344726562 983.421325683594 978.908142089844 993.023742675781 991.509704589844 989.037475585938 986.899536132812 997.464172363281 1002.40045166016 997.117980957031 990.060485839844 995.694885253906 1002.26440429688 999.416320800781 995.137939453125 992.770080566406 990.445068359375 979.194641113281 987.504028320312 979.891906738281 983.093200683594 975.804565429688 963.193969726562 971.150207519531 973.720703125 969.061096191406 970.464782714844 980.246643066406 983.647644042969 988.61376953125 976.847900390625 988.038879394531 982.334411621094 984.59375 984.843872070312 981.805847167969 978.356262207031 985.755981445312 988.416625976562 997.164855957031 1001.27624511719 991.902465820312 985.3232421875 985.836791992188 986.37841796875 992.702331542969 986.832397460938 995.735473632812 986.084350585938 984.359375 990.567993164062 978.873107910156 975.666259765625 975.382202148438 981.975036621094 988.052429199219 988.705810546875 992.316101074219 1001.94360351562 999.9521484375 1001.94555664062 999.410766601562 998.034301757812 1002.31689453125 1004.29809570312 1007.58502197266 1014.56036376953 1012.38330078125 1007.93743896484 997.724426269531 995.118774414062 992.476867675781 1011.31750488281 1019.73468017578 1025.00378417969 1026.47644042969 1025.64379882812 1026.25708007812 1038.62060546875 1033.07580566406 1037.85705566406 1038.45434570312 1037.21984863281 1036.94909667969 1035.17163085938 1040.70385742188 1039.44287109375 1028.49182128906 1020.08605957031 1013.79479980469 1020.51000976562 1009.85137939453 999.386840820312 991.01171875 995.827575683594 996.139831542969 996.195068359375 1000.97326660156 1014.16906738281 1011.25103759766 1000.92169189453 1003.71337890625 1005.58245849609 1001.96307373047 995.245300292969 1003.19775390625 999.692749023438 1001.03704833984 1002.41241455078 996.833923339844 1001.70843505859 994.364196777344 1002.52447509766
942.033020019531 935.938659667969 932.50341796875 929.827758789062 926.774597167969 938.4775390625 940.024230957031 939.646484375 940.302673339844 948.718811035156 958.61865234375 961.719482421875 965.518737792969 972.477172851562 974.1318359375 978.048706054688 984.923095703125 985.317443847656 998.101684570312 1003.74249267578 998.919677734375 991.745422363281 1003.46984863281 1002.62902832031 985.861877441406 987.069641113281 977.192749023438 971.810852050781 971.062133789062 961.745422363281 959.127685546875 953.112426757812 958.713623046875 953.235229492188 960.533996582031 966.581359863281 978.567138671875 982.902465820312 993.587524414062 983.675170898438 987.06396484375 990.526977539062 991.143432617188 994.327514648438 1002.92425537109 1017.09564208984 1011.73565673828 993.630737304688 1004.2080078125 1003.43200683594 1005.87762451172 999.423950195312 999.762939453125 993.648132324219 985.382690429688 992.331298828125 995.329223632812 983.3662109375 983.262390136719 968.961791992188 961.586364746094 970.17236328125 971.839111328125 964.922729492188 977.114318847656 982.265441894531 986.296508789062 988.879821777344 986.021423339844 984.001037597656 980.34765625 976.252502441406 975.461120605469 981.361267089844 980.892578125 973.798828125 996.627624511719 1001.22113037109 996.667541503906 999.903991699219 986.815002441406 993.463317871094 984.60400390625 988.794555664062 985.777954101562 982.480407714844 993.204467773438 982.363403320312 986.99267578125 980.155212402344 977.790893554688 984.147033691406 982.4814453125 994.215576171875 991.660583496094 996.076110839844 999.318420410156 1009.47607421875 1009.96337890625 1003.26141357422 1008.25775146484 1010.25225830078 1016.34344482422 1005.97979736328 1011.67340087891 1000.5751953125 1001.23968505859 1002.2978515625 994.197265625 1013.98181152344 1017.27532958984 1022.36584472656 1025.59533691406 1026.80603027344 1025.4345703125 1028.77844238281 1028.44445800781 1029.20397949219 1030.58911132812 1022.53918457031 1025.95288085938 1034.98559570312 1033.23901367188 1026.38549804688 1025.3466796875 1020.95440673828 1006.64117431641 1012.86871337891 1012.89099121094 1010.16931152344 1000.42999267578 995.752258300781 1002.70733642578 993.742492675781 1002.03503417969 1013.24768066406 1017.92120361328 1012.30230712891 1003.62030029297 999.065002441406 998.201965332031 991.972290039062 996.911743164062 996.150207519531 992.315551757812 993.908935546875 985.676025390625 1000.76049804688 1005.02661132812 1010.7861328125
938.180725097656 933.396057128906 934.362365722656 929.008972167969 930.561096191406 938.4091796875 938.243225097656 943.769653320312 950.017883300781 951.640502929688 961.675048828125 956.34375 964.30029296875 975.637390136719 978.245544433594 974.082763671875 985.013610839844 990.3369140625 983.829040527344 988.825744628906 997.917846679688 997.103576660156 986.118530273438 994.799621582031 996.310363769531 994.161010742188 984.432250976562 980.634826660156 977.241333007812 980.033142089844 971.05615234375 964.741760253906 955.713745117188 959.513610839844 969.814819335938 974.892761230469 977.975708007812 987.731262207031 992.954406738281 983.008728027344 987.494812011719 989.958679199219 996.511474609375 998.982727050781 1005.97766113281 1018.33648681641 1012.66973876953 1006.05029296875 998.309204101562 997.793579101562 993.742126464844 996.327392578125 991.464233398438 990.897155761719 987.804504394531 986.430480957031 999.548034667969 987.745361328125 980.736999511719 974.195922851562 973.630310058594 970.014770507812 975.137878417969 976.59033203125 982.174743652344 981.423889160156 980.998046875 982.214172363281 981.507446289062 984.546325683594 987.68408203125 985.233947753906 983.57666015625 978.449279785156 981.914306640625 986.413818359375 992.855590820312 997.809997558594 995.378967285156 997.612976074219 991.094970703125 988.043762207031 986.151062011719 980.180114746094 980.122314453125 978.2041015625 982.683044433594 989.179260253906 988.75341796875 986.302307128906 988.526123046875 983.949157714844 976.613891601562 993.090087890625 996.057556152344 997.275634765625 1001.93823242188 1000.25830078125 1003.63177490234 1007.57757568359 999.421569824219 1011.87164306641 1022.12524414062 1015.61883544922 1014.5771484375 1005.70013427734 990.430847167969 997.922241210938 1009.53649902344 1010.68493652344 1016.89337158203 1021.72607421875 1029.55456542969 1030.76989746094 1020.59533691406 1020.75994873047 1017.41485595703 1012.34460449219 1017.71044921875 1014.74578857422 1022.11138916016 1029.20678710938 1018.41522216797 1028.74145507812 1024.53283691406 1018.24652099609 1006.91143798828 1009.91516113281 1009.19989013672 1005.65319824219 1006.63073730469 1008.39984130859 1004.50170898438 997.386474609375 1003.11700439453 1016.86590576172 1020.84197998047 1011.80389404297 1005.80065917969 1001.92498779297 996.523620605469 987.97119140625 993.259033203125 983.849548339844 984.466491699219 986.788146972656 991.369873046875 992.713623046875 1002.29913330078 1005.06970214844
941.701599121094 938.967834472656 932.747741699219 927.55810546875 923.856628417969 933.089782714844 942.514343261719 943.485961914062 955.445617675781 957.209045410156 954.35986328125 961.873596191406 974.473327636719 976.444274902344 977.930114746094 977.167846679688 981.938598632812 979.735778808594 980.004577636719 987.124328613281 998.321899414062 996.853271484375 992.208068847656 998.075439453125 1000.21801757812 1001.12347412109 993.045776367188 985.314453125 984.296203613281 986.167541503906 983.349914550781 978.161193847656 972.528442382812 975.043029785156 970.364074707031 978.033142089844 978.713745117188 981.794921875 991.330017089844 982.313598632812 988.573364257812 993.964721679688 998.869995117188 1006.40814208984 1008.43737792969 1008.67303466797 1010.65277099609 1013.62438964844 1008.19879150391 999.411010742188 985.085571289062 986.123840332031 984.560729980469 990.294494628906 988.542724609375 982.433959960938 987.65673828125 976.725036621094 973.864501953125 978.101379394531 973.869873046875 974.645141601562 982.376281738281 978.451599121094 973.856140136719 976.042053222656 983.061767578125 978.062622070312 979.892822265625 991.3232421875 989.335876464844 984.965393066406 981.579833984375 986.506469726562 993.477783203125 1002.61413574219 995.870849609375 992.408752441406 992.783508300781 997.603393554688 987.952697753906 987.300109863281 991.027587890625 998.550354003906 998.785095214844 991.027709960938 988.049011230469 991.725463867188 986.37744140625 995.505249023438 989.981140136719 987.261901855469 986.042846679688 989.554626464844 994.966491699219 999.27294921875 994.601806640625 1001.58129882812 1002.69653320312 1001.42041015625 1003.02795410156 1014.47894287109 1016.90057373047 1008.67938232422 1012.32434082031 1007.67956542969 1004.16296386719 1010.79357910156 1010.75225830078 1010.72491455078 1020.74639892578 1025.29443359375 1027.60070800781 1020.18835449219 1018.10369873047 1014.92291259766 1012.15594482422 1017.18243408203 1013.3212890625 1013.39288330078 1013.87426757812 1011.67291259766 1017.38018798828 1017.24761962891 1021.95477294922 1015.52386474609 1009.97857666016 1009.29852294922 1008.75714111328 1005.29956054688 1015.01348876953 1001.50036621094 1006.53894042969 1004.64947509766 999.574157714844 1006.70959472656 1008.64343261719 1014.59478759766 1000.79534912109 997.152160644531 995.81298828125 988.244873046875 988.479675292969 990.760192871094 984.261962890625 983.513549804688 991.869750976562 989.808654785156 996.714599609375 1000.34313964844
943.661315917969 939.928955078125 941.304260253906 932.79541015625 929.1845703125 941.441223144531 947.4921875 939.388244628906 955.026977539062 958.060485839844 954.033508300781 972.241943359375 968.364990234375 976.378601074219 983.529357910156 977.543701171875 977.001708984375 980.120422363281 978.874938964844 979.4873046875 984.708374023438 992.161071777344 990.362243652344 996.503601074219 997.6318359375 988.708618164062 979.434997558594 979.938781738281 988.706726074219 984.012329101562 982.745483398438 978.124328613281 979.829284667969 980.683044433594 976.049987792969 979.14404296875 981.704711914062 985.82666015625 987.449096679688 995.358581542969 992.742858886719 997.729858398438 1002.53399658203 1005.52563476562 1013.28497314453 1011.19415283203 1004.34619140625 1018.05651855469 1006.78521728516 1000.25604248047 992.750183105469 992.298400878906 993.579772949219 993.58984375 994.793090820312 983.353271484375 981.296813964844 974.593322753906 977.00732421875 973.318542480469 972.257568359375 984.033264160156 987.576171875 978.42333984375 974.163879394531 976.938598632812 983.625427246094 981.740173339844 991.766479492188 992.43798828125 998.073913574219 989.577026367188 992.468322753906 994.710876464844 995.641662597656 992.302795410156 993.864135742188 999.263488769531 998.111145019531 997.016540527344 995.041442871094 997.810729980469 996.239379882812 1001.36389160156 1003.83349609375 1001.44879150391 989.20556640625 992.684143066406 995.740112304688 993.859375 990.401916503906 985.589660644531 989.914611816406 993.744750976562 992.859619140625 998.958435058594 999.434692382812 1003.10852050781 1005.67303466797 1003.70477294922 1009.63232421875 1010.36108398438 1012.51672363281 1010.36553955078 1006.90521240234 1001.29809570312 1007.19171142578 1013.22125244141 1007.85046386719 1023.16809082031 1019.16046142578 1029.38989257812 1026.94750976562 1022.92523193359 1020.05145263672 1012.03552246094 1013.77362060547 1012.26214599609 1010.37951660156 1014.83306884766 1005.31182861328 1007.81109619141 1016.02178955078 1029.53930664062 1018.59814453125 1019.73278808594 1011.71069335938 1003.56005859375 1002.48052978516 1002.13153076172 1013.68957519531 1000.34808349609 994.190673828125 999.853759765625 997.922485351562 992.711242675781 1003.54364013672 1006.97552490234 996.415710449219 1003.57995605469 994.845336914062 993.206420898438 994.408630371094 987.592224121094 992.865783691406 988.822570800781 988.019287109375 981.109375 987.517517089844 992.36279296875
939.318237304688 943.849304199219 934.152465820312 934.963195800781 934.633239746094 938.357971191406 946.535034179688 943.039001464844 959.2451171875 959.092651367188 962.093139648438 972.742919921875 975.341613769531 980.805847167969 984.018615722656 983.430114746094 983.215759277344 985.250732421875 981.2939453125 975.440124511719 977.99169921875 981.658203125 989.014892578125 994.355041503906 988.641174316406 984.487609863281 980.350402832031 982.900207519531 982.927124023438 984.654846191406 972.19970703125 976.003845214844 985.105834960938 979.525756835938 983.920166015625 979.656494140625 985.514343261719 992.607482910156 993.358642578125 997.175964355469 997.381225585938 1003.94311523438 1006.58728027344 1004.43756103516 1008.2841796875 1001.88061523438 1008.18084716797 1008.63452148438 1011.04022216797 1004.67718505859 993.424377441406 994.722839355469 994.946411132812 990.710693359375 987.614685058594 983.685913085938 983.169799804688 975.762512207031 975.2783203125 979.544921875 977.890502929688 989.004638671875 986.81689453125 982.442687988281 980.996520996094 971.916564941406 978.096984863281 974.325805664062 987.606079101562 993.765625 991.278564453125 984.813354492188 981.119445800781 993.3623046875 992.854187011719 983.093566894531 996.59375 1007.47686767578 1000.23931884766 998.704895019531 1003.42230224609 1004.80310058594 1003.15258789062 1009.42901611328 1014.65106201172 999.883422851562 1002.81781005859 1004.26715087891 999.129211425781 990.403747558594 985.166625976562 984.871398925781 985.9375 995.186950683594 998.873596191406 1006.48095703125 993.598205566406 1002.76678466797 1007.45758056641 1009.71527099609 1007.88616943359 1008.20434570312 1001.53997802734 1008.89105224609 1008.94946289062 1003.89569091797 1006.03247070312 1018.61535644531 1020.22760009766 1020.84765625 1027.96533203125 1025.83349609375 1032.64318847656 1033.70959472656 1025.44567871094 1017.54992675781 1018.4443359375 1021.26977539062 1019.64630126953 1015.16064453125 1012.65155029297 1012.94262695312 1016.93310546875 1017.41809082031 1014.7080078125 1013.38647460938 1009.06872558594 1008.86022949219 1007.15478515625 996.391235351562 996.550598144531 999.250549316406 996.242004394531 994.514465332031 995.652587890625 998.6455078125 1004.96142578125 997.774353027344 993.547485351562 986.806640625 993.263732910156 992.143432617188 987.494018554688 985.008056640625 995.828125 989.9072265625 985.361267089844 986.443359375 987.106628417969 991.825805664062
947.44189453125 942.789245605469 939.393615722656 934.816772460938 939.884216308594 939.274047851562 936.057250976562 949.798034667969 954.927612304688 957.668823242188 952.776184082031 964.674011230469 970.174072265625 982.475524902344 984.543701171875 979.600891113281 977.182861328125 973.917358398438 982.858947753906 976.868225097656 971.625305175781 969.503234863281 994.453552246094 988.970642089844 989.4033203125 988.595581054688 982.340759277344 982.97509765625 988.182312011719 982.0927734375 980.639099121094 983.611694335938 973.872741699219 980.491943359375 983.0078125 990.244995117188 994.151733398438 995.644958496094 993.32666015625 998.399780273438 1000.837890625 999.657165527344 1001.31719970703 1002.78265380859 998.651428222656 991.008422851562 1010.88806152344 1012.80456542969 1014.32000732422 1004.61407470703 1011.28790283203 1001.80432128906 1002.48474121094 993.496459960938 989.088806152344 987.901977539062 992.033935546875 989.299682617188 982.443542480469 981.310424804688 989.513977050781 984.002563476562 981.443603515625 972.6259765625 975.71728515625 972.561950683594 976.042907714844 972.070617675781 983.661560058594 993.834350585938 997.093566894531 987.333435058594 984.148559570312 988.507385253906 993.932739257812 1000.43536376953 997.117797851562 1012.27154541016 1008.67010498047 999.744018554688 1002.01818847656 1009.07489013672 1012.45635986328 1014.04333496094 1011.34332275391 1007.43615722656 1006.23602294922 1000.87658691406 997.040405273438 997.524047851562 989.606994628906 991.335510253906 992.899963378906 988.273071289062 996.682189941406 995.754272460938 997.820434570312 1000.89141845703 998.098815917969 1009.83288574219 1008.77703857422 1009.45526123047 1007.42260742188 1012.97039794922 1008.71881103516 1008.99102783203 1012.39819335938 1014.18194580078 1023.94958496094 1030.50183105469 1024.89831542969 1036.70324707031 1037.90270996094 1038.28344726562 1035.3076171875 1027.49780273438 1028.70385742188 1029.42492675781 1021.10894775391 1013.17938232422 1012.38781738281 1017.07989501953 1016.44665527344 1011.72662353516 1008.54864501953 1013.42779541016 1004.59399414062 1008.11517333984 1005.52874755859 999.47314453125 989.564697265625 993.438537597656 992.806091308594 994.728881835938 988.191711425781 992.979553222656 993.805725097656 998.061889648438 995.294677734375 989.918395996094 989.571411132812 991.995483398438 985.975830078125 994.221069335938 985.018005371094 983.2724609375 986.092407226562 990.107482910156 994.725646972656 990.166259765625
950.60009765625 950.856994628906 951.115661621094 943.370056152344 938.646667480469 940.165588378906 936.163696289062 953.913818359375 959.6875 955.820678710938 951.996887207031 960.258544921875 965.876953125 979.376770019531 980.836853027344 978.600891113281 977.999389648438 975.038696289062 968.6884765625 970.197021484375 971.057922363281 977.533264160156 977.90576171875 983.991821289062 987.888610839844 992.452453613281 984.130432128906 979.552978515625 985.666442871094 983.102905273438 988.925964355469 982.038513183594 980.427307128906 988.90625 985.477722167969 989.717407226562 987.771850585938 990.548889160156 991.488037109375 998.022216796875 993.49169921875 1002.93627929688 993.322814941406 992.317749023438 995.296203613281 1008.60717773438 1008.93859863281 1007.86431884766 1011.02478027344 1007.91510009766 1005.38677978516 1013.45660400391 1004.68395996094 1000.43499755859 999.098327636719 999.626586914062 1002.97534179688 994.95703125 986.608581542969 982.388427734375 982.6474609375 975.615356445312 988.349060058594 977.3291015625 974.621337890625 978.032409667969 977.617858886719 975.225219726562 979.940734863281 986.617370605469 991.958984375 991.080078125 983.015625 990.402526855469 990.941284179688 997.882019042969 999.152526855469 999.217529296875 1004.8212890625 1010.39953613281 1003.87493896484 1010.28570556641 1011.10095214844 1007.47979736328 1012.68951416016 1003.98809814453 1006.33605957031 1003.18298339844 993.10888671875 999.271484375 987.536560058594 994.010986328125 988.765258789062 991.887573242188 992.718994140625 993.258422851562 996.821594238281 1000.3193359375 996.588806152344 1005.41400146484 1010.24377441406 1011.26599121094 1014.39215087891 1003.01031494141 1008.43786621094 1006.50640869141 1011.93505859375 1019.45129394531 1028.99328613281 1041.15307617188 1041.43786621094 1039.49426269531 1038.46008300781 1041.70935058594 1040.0283203125 1039.75390625 1027.95336914062 1026.05456542969 1027.24682617188 1016.98760986328 1022.25640869141 1024.39123535156 1019.93243408203 1003.9033203125 1004.48101806641 1006.15655517578 1004.12054443359 1006.0712890625 1005.69763183594 997.102722167969 991.983947753906 992.96142578125 986.297729492188 975.752380371094 981.884338378906 994.180786132812 997.81298828125 999.964904785156 999.8193359375 997.308959960938 990.412170410156 989.283081054688 987.306823730469 995.348083496094 975.602294921875 975.738525390625 989.186645507812 996.564636230469 998.0224609375 994.249328613281
943.949951171875 944.602722167969 953.312805175781 950.831604003906 951.79296875 947.220336914062 950.094177246094 952.43017578125 965.194396972656 957.890258789062 959.652526855469 961.75146484375 966.332763671875 976.774353027344 974.858215332031 986.622924804688 979.519714355469 972.862548828125 972.806762695312 964.255493164062 964.109619140625 971.952575683594 970.162414550781 974.537719726562 987.1875 989.842346191406 984.422180175781 986.81103515625 985.179931640625 983.769836425781 987.791442871094 981.073974609375 984.346740722656 983.477111816406 984.854614257812 992.8173828125 996.74658203125 996.465698242188 994.19775390625 995.560668945312 992.529052734375 989.435546875 993.930603027344 991.367797851562 993.246704101562 1010.67718505859 1012.35925292969 1006.22064208984 1004.91656494141 1009.91412353516 1012.20599365234 1009.03881835938 1009.01220703125 1005.99127197266 1006.73675537109 988.664489746094 989.102233886719 994.95263671875 993.055969238281 986.558349609375 979.114318847656 970.409423828125 969.426452636719 970.917053222656 974.679321289062 977.842895507812 974.165893554688 971.681274414062 976.713989257812 984.142578125 981.296325683594 979.976013183594 982.456787109375 990.263610839844 990.740478515625 984.823120117188 991.925415039062 1003.04058837891 996.470153808594 1012.00109863281 1005.92602539062 1007.03668212891 1003.03143310547 1005.068359375 1011.22229003906 1008.74169921875 1002.50750732422 1005.88842773438 1000.94012451172 995.7568359375 992.359252929688 992.832580566406 991.754455566406 996.255676269531 994.313049316406 993.697814941406 990.59423828125 995.86376953125 997.351989746094 1001.57904052734 1004.59307861328 1010.05139160156 1008.41613769531 1013.41748046875 1005.00573730469 1006.45947265625 1012.31555175781 1014.22973632812 1032.48449707031 1038.654296875 1043.97741699219 1042.36108398438 1038.45239257812 1049.47790527344 1044.14758300781 1043.24645996094 1038.43139648438 1031.37585449219 1029.82006835938 1019.71075439453 1014.76727294922 1012.43859863281 1008.35809326172 1003.84686279297 994.228576660156 993.011901855469 994.4892578125 998.7724609375 992.321350097656 995.9248046875 999.272644042969 989.035949707031 985.904418945312 977.184936523438 979.012329101562 987.846557617188 993.489562988281 999.171997070312 992.274230957031 991.77783203125 989.976379394531 985.772155761719 986.795776367188 981.558044433594 974.471862792969 980.495239257812 993.81201171875 999.267761230469 992.6806640625 992.048278808594
953.741638183594 950.780456542969 944.813354492188 941.320678710938 953.393920898438 949.406433105469 936.588195800781 946.442077636719 951.798034667969 961.783203125 965.762512207031 962.746887207031 961.950866699219 959.14501953125 974.528625488281 978.099731445312 972.845703125 976.528991699219 974.0009765625 966.165649414062 955.073120117188 961.275207519531 965.817932128906 967.315307617188 979.277160644531 978.130676269531 978.006713867188 985.87060546875 976.790588378906 980.891357421875 986.6318359375 983.256896972656 984.275085449219 982.524841308594 989.362243652344 982.408935546875 991.352966308594 991.79541015625 992.984130859375 990.715454101562 987.765869140625 986.920837402344 999.852722167969 991.839416503906 995.709655761719 998.360656738281 1008.29870605469 1003.88024902344 1011.11059570312 1007.82159423828 1014.93304443359 1011.19018554688 1010.15496826172 1008.23382568359 996.211181640625 991.341857910156 993.710327148438 990.7529296875 986.931213378906 980.916259765625 982.155578613281 978.5546875 977.804321289062 975.38818359375 977.325378417969 972.953918457031 983.298217773438 979.515563964844 986.588195800781 983.745849609375 979.514343261719 979.371948242188 980.535522460938 986.417053222656 983.862426757812 986.443786621094 982.439025878906 988.332824707031 991.634033203125 1002.06420898438 1000.45953369141 1006.23089599609 1008.10772705078 1012.58837890625 1011.62445068359 1008.26849365234 1001.76104736328 1002.68402099609 997.25732421875 1004.39715576172 1000.54376220703 997.443725585938 991.409362792969 999.433898925781 991.929443359375 995.806213378906 997.506103515625 999.271789550781 993.229125976562 1001.63146972656 1011.45977783203 1011.16369628906 1005.49255371094 1016.44775390625 1010.07708740234 1006.48352050781 1010.44342041016 1017.12786865234 1027.58947753906 1047.20837402344 1051.67907714844 1045.48571777344 1042.54248046875 1045.31213378906 1045.64453125 1048.3427734375 1042.85876464844 1029.9423828125 1015.99517822266 1011.19262695312 1017.20190429688 1018.45257568359 1008.39813232422 1002.10150146484 998.123901367188 988.259704589844 993.23779296875 996.461242675781 988.413024902344 995.045776367188 1004.22296142578 978.110778808594 978.590148925781 976.594177246094 975.391723632812 978.858764648438 986.930725097656 992.308776855469 990.116760253906 993.492797851562 992.543823242188 989.6328125 983.749938964844 982.245910644531 973.274353027344 977.982116699219 993.178771972656 987.619384765625 984.201293945312 979.903991699219
961.090698242188 949.687438964844 941.955932617188 943.878234863281 935.430114746094 941.602722167969 937.817749023438 940.511779785156 946.813171386719 945.945373535156 954.801025390625 963.697692871094 958.341247558594 956.722961425781 956.538024902344 969.754455566406 968.458068847656 961.688354492188 964.0478515625 960.648559570312 953.7294921875 953.640563964844 958.9384765625 963.384033203125 967.656005859375 980.851928710938 976.096984863281 976.536254882812 975.087524414062 976.515441894531 982.228698730469 973.70556640625 979.811767578125 979.659301757812 978.337951660156 981.499389648438 984.87451171875 993.754821777344 984.513793945312 984.137512207031 986.579711914062 992.152954101562 989.101745605469 995.991760253906 999.322570800781 1001.50799560547 1010.22833251953 999.950439453125 998.061096191406 990.851501464844 1004.05718994141 999.611083984375 998.499267578125 1004.48699951172 998.038391113281 993.102355957031 993.738586425781 989.725280761719 990.32177734375 982.840270996094 978.529235839844 980.958374023438 978.344543457031 980.252136230469 980.45654296875 982.959594726562 985.428527832031 997.08642578125 991.805480957031 983.325927734375 980.417114257812 981.966613769531 980.789489746094 978.755126953125 982.463500976562 987.554504394531 978.82958984375 981.10498046875 990.882263183594 992.275573730469 994.293518066406 1007.39935302734 1013.74908447266 1012.77319335938 1007.76953125 1003.52569580078 991.639587402344 995.630859375 997.061401367188 1002.5302734375 1005.32861328125 997.714111328125 996.830200195312 1006.75085449219 1000.37689208984 996.591430664062 998.694152832031 1003.44689941406 1003.76104736328 995.997497558594 1004.09857177734 1004.02484130859 1009.2822265625 1008.69860839844 1001.60699462891 1003.29650878906 1018.19879150391 1023.21948242188 1043.40393066406 1056.09802246094 1056.58447265625 1060.6904296875 1054.07678222656 1049.57409667969 1053.46862792969 1051.42346191406 1045.50524902344 1037.30322265625 1035.91906738281 1028.34753417969 1025.11840820312 1026.65661621094 1007.45690917969 999.37060546875 992.654541015625 991.108703613281 999.5322265625 995.754821777344 983.556701660156 985.195068359375 980.855407714844 986.946960449219 974.966552734375 974.906799316406 973.791198730469 987.875061035156 993.49609375 993.821594238281 985.475646972656 980.94091796875 984.941345214844 983.441223144531 986.738952636719 979.872131347656 977.542053222656 976.22314453125 980.040771484375 984.085205078125 987.158630371094 989.421081542969
965.217407226562 955.681518554688 945.772277832031 946.583312988281 942.578918457031 939.707580566406 928.619262695312 932.060913085938 937.44580078125 935.461730957031 943.983947753906 951.091918945312 948.592590332031 947.587158203125 949.984313964844 957.593505859375 960.728759765625 959.336669921875 958.453430175781 955.611022949219 953.627258300781 943.715087890625 953.22216796875 964.654479980469 974.616821289062 972.28271484375 963.958435058594 967.88818359375 969.10107421875 969.77294921875 971.755676269531 977.096801757812 978.7587890625 974.390014648438 978.419738769531 988.899169921875 973.460510253906 973.111694335938 966.703125 968.985412597656 983.804748535156 987.207885742188 986.780517578125 992.494079589844 997.423767089844 1003.89569091797 1003.84057617188 997.825012207031 989.713073730469 989.96875 988.114501953125 993.151794433594 993.373962402344 986.919128417969 988.218933105469 996.208679199219 1000.52557373047 1002.38775634766 992.247253417969 994.72412109375 984.384460449219 978.062744140625 986.55712890625 986.304077148438 985.617614746094 985.356384277344 983.77783203125 987.431518554688 983.752380371094 989.875671386719 979.307495117188 976.764526367188 978.635375976562 983.409057617188 986.871826171875 980.77490234375 984.391296386719 987.390380859375 992.587036132812 980.687438964844 990.166687011719 1010.20458984375 1012.87200927734 1013.07409667969 1003.8173828125 999.595886230469 1000.35650634766 991.382141113281 998.590637207031 1005.94189453125 998.278503417969 997.468139648438 1003.90698242188 1008.86315917969 1006.27703857422 998.613464355469 995.855529785156 998.209533691406 1001.53076171875 998.318542480469 1003.54748535156 1008.80499267578 1015.67358398438 1006.42950439453 1008.06951904297 1013.8916015625 1019.47967529297 1031.1875 1038.16857910156 1046.42749023438 1049.3779296875 1065.47375488281 1063.41076660156 1059.05261230469 1054.68603515625 1053.25073242188 1043.69567871094 1040.73303222656 1034.53430175781 1027.99597167969 1025.59887695312 1024.32824707031 1010.22137451172 996.27001953125 990.275817871094 990.014953613281 993.078186035156 980.405029296875 979.977661132812 982.79443359375 982.671142578125 980.200744628906 976.648498535156 972.149963378906 986.914978027344 985.805908203125 989.610107421875 983.125305175781 978.581848144531 969.566467285156 969.756713867188 972.496154785156 976.512878417969 978.739318847656 977.793273925781 979.105285644531 974.141845703125 982.518127441406 981.46142578125 986.032165527344
959.00439453125 961.273315429688 952.683532714844 937.898010253906 941.469482421875 946.151000976562 936.168884277344 936.511840820312 940.13525390625 939.568664550781 945.960144042969 947.251037597656 948.834045410156 950.911499023438 952.451843261719 950.000610351562 950.333679199219 954.733642578125 953.840087890625 945.158630371094 951.706481933594 955.489013671875 949.150024414062 959.4833984375 966.010681152344 965.80078125 963.079956054688 958.838256835938 966.043884277344 972.792175292969 974.7021484375 972.443420410156 973.422119140625 969.019775390625 975.669494628906 975.62109375 971.866760253906 965.641174316406 958.057678222656 968.915771484375 975.619384765625 978.838195800781 986.742126464844 986.551696777344 988.471618652344 997.806030273438 995.874206542969 985.416809082031 982.201721191406 988.373901367188 990.032531738281 997.982421875 997.179504394531 987.434204101562 985.204895019531 993.776672363281 998.326843261719 1006.09680175781 1000.50390625 992.223571777344 993.64111328125 985.591735839844 980.072875976562 987.057800292969 986.249267578125 985.094970703125 987.079895019531 989.620727539062 985.360778808594 990.468200683594 984.229797363281 980.233154296875 987.133483886719 985.947692871094 993.965454101562 993.196594238281 992.100769042969 991.316772460938 982.927856445312 986.238830566406 994.688781738281 1000.56671142578 1005.05358886719 1005.05822753906 998.575134277344 1002.94317626953 1002.83428955078 998.410095214844 1005.48107910156 1002.28900146484 1000.59063720703 994.101196289062 996.643310546875 1001.38555908203 1009.89819335938 1004.00555419922 996.215209960938 1001.2666015625 1004.77587890625 999.106750488281 1004.98455810547 1011.15124511719 1022.22650146484 1008.41467285156 1014.16400146484 1023.58062744141 1023.51037597656 1037.07678222656 1042.55493164062 1043.00402832031 1056.56567382812 1061.78369140625 1061.02160644531 1057.27075195312 1062.16809082031 1050.54211425781 1043.47534179688 1040.99255371094 1026.94128417969 1022.61218261719 1028.00634765625 1024.19506835938 1008.83209228516 1003.33380126953 993.233215332031 996.3583984375 989.603210449219 979.042297363281 975.049743652344 974.703796386719 978.560974121094 982.106506347656 970.022827148438 977.967468261719 978.969482421875 981.761535644531 981.374145507812 972.519775390625 970.499938964844 966.636657714844 970.374206542969 965.036010742188 980.2578125 979.752624511719 970.742492675781 969.000915527344 974.642333984375 979.287170410156 973.787719726562 977.639587402344
962.623352050781 954.243041992188 947.858581542969 939.324523925781 949.067993164062 941.177734375 945.56884765625 940.828552246094 945.800048828125 949.536071777344 942.913940429688 939.733581542969 941.68359375 947.295349121094 947.571960449219 943.780944824219 943.613464355469 950.633056640625 948.582092285156 954.18701171875 950.661499023438 950.200256347656 951.689270019531 959.109008789062 964.308532714844 957.427062988281 957.997802734375 955.646728515625 960.919799804688 965.027648925781 971.118530273438 973.106994628906 969.454040527344 971.187805175781 965.61962890625 973.423400878906 979.635803222656 970.736022949219 964.957824707031 974.112487792969 974.182189941406 978.307312011719 983.360961914062 984.486145019531 985.079223632812 996.053588867188 999.472290039062 982.959655761719 984.331909179688 989.103942871094 988.978271484375 999.457824707031 991.373718261719 992.034606933594 995.280029296875 994.572143554688 990.642456054688 992.9560546875 994.396179199219 988.6806640625 987.993896484375 980.236389160156 984.494445800781 986.740600585938 985.192016601562 984.880187988281 985.157897949219 981.747192382812 993.628967285156 987.961120605469 996.214599609375 986.276489257812 982.039123535156 984.993041992188 981.965209960938 989.924133300781 991.600830078125 990.038513183594 987.92041015625 989.936218261719 1000.24536132812 1000.59759521484 998.31103515625 1006.52770996094 997.458374023438 1007.95587158203 1005.43469238281 1003.68524169922 1008.47595214844 999.514953613281 997.517578125 1002.22833251953 994.729553222656 1001.24285888672 1002.40240478516 1004.13879394531 1008.66632080078 1004.51879882812 1004.69219970703 1008.27111816406 1005.150390625 1010.99847412109 1015.88696289062 1018.080078125 1013.79479980469 1020.26702880859 1026.22717285156 1033.23962402344 1048.29797363281 1048.99682617188 1053.86254882812 1060.73168945312 1062.32702636719 1068.70166015625 1058.63317871094 1058.06408691406 1052.60986328125 1048.04736328125 1044.97497558594 1041.77172851562 1036.88293457031 1030.353515625 1012.91558837891 1007.49725341797 1007.35565185547 999.497802734375 985.322692871094 985.8193359375 974.564270019531 984.594116210938 977.654846191406 972.462707519531 961.584167480469 967.929931640625 975.080688476562 979.245727539062 979.161010742188 973.9951171875 967.977172851562 968.505737304688 964.879760742188 968.021789550781 971.500061035156 970.706787109375 962.6015625 970.490783691406 970.786743164062 966.839416503906 970.627258300781 977.223876953125
961.394287109375 955.62353515625 940.266540527344 948.144470214844 948.736083984375 941.592834472656 947.530456542969 947.025390625 946.552307128906 949.346130371094 944.080932617188 938.972412109375 949.129760742188 943.101501464844 945.829650878906 937.956787109375 943.096435546875 952.197387695312 963.579406738281 957.029052734375 963.761779785156 953.426391601562 952.796447753906 959.808654785156 957.856018066406 958.652465820312 967.852478027344 958.216491699219 949.850646972656 948.30126953125 957.649658203125 957.580383300781 958.714111328125 970.260681152344 971.251159667969 969.544250488281 970.664733886719 965.103393554688 965.411193847656 972.970336914062 977.062255859375 970.309020996094 979.764221191406 983.337341308594 989.173583984375 991.200439453125 985.790893554688 986.967224121094 985.898803710938 979.708801269531 976.108764648438 986.651489257812 992.004150390625 1000.91540527344 1006.63604736328 997.620361328125 996.529174804688 1001.17864990234 997.381774902344 997.742309570312 992.280944824219 985.979431152344 991.711853027344 998.085083007812 989.974060058594 992.467224121094 984.215942382812 978.950500488281 986.535461425781 989.485107421875 986.0556640625 993.235595703125 993.067016601562 991.099914550781 998.013610839844 995.655334472656 993.515808105469 992.672607421875 994.058349609375 993.948669433594 997.508056640625 1003.55920410156 1001.82934570312 1004.85534667969 997.88525390625 1005.79779052734 1004.95428466797 1002.89239501953 1007.50866699219 1002.14544677734 992.707885742188 997.402770996094 994.551330566406 1004.99011230469 999.389099121094 1013.16882324219 1013.49731445312 1010.97320556641 1007.33416748047 1004.51721191406 1003.9287109375 1016.62469482422 1024.40551757812 1028.19665527344 1022.15911865234 1023.03588867188 1024.30493164062 1035.89318847656 1048.72900390625 1055.99084472656 1059.9443359375 1056.66027832031 1056.74633789062 1066.13610839844 1068.5498046875 1065.482421875 1059.24572753906 1062.74035644531 1058.30993652344 1037.6953125 1041.51428222656 1040.89721679688 1028.84875488281 1020.97180175781 1004.87194824219 999.1943359375 992.48291015625 977.883239746094 980.100952148438 982.356384277344 979.578491210938 970.510437011719 966.128784179688 972.497314453125 975.126403808594 974.899597167969 985.494995117188 971.527526855469 966.43603515625 967.990173339844 967.664733886719 967.766906738281 959.059875488281 967.645812988281 965.284973144531 967.205871582031 975.808166503906 972.921142578125 975.036254882812 976.984375
962.047058105469 958.683532714844 953.933654785156 950.338562011719 954.864013671875 952.857971191406 946.413940429688 943.353332519531 945.70654296875 950.274169921875 949.904235839844 945.076782226562 950.357299804688 951.195617675781 951.676696777344 946.487060546875 939.813720703125 951.203491210938 959.104858398438 960.505126953125 964.556335449219 956.530212402344 958.02099609375 965.092712402344 960.06640625 962.310668945312 967.032470703125 962.663818359375 949.829956054688 955.338989257812 955.07568359375 959.707275390625 953.172058105469 966.339477539062 969.375305175781 971.095397949219 970.833679199219 969.264038085938 959.901733398438 970.920715332031 973.11572265625 976.002075195312 974.390808105469 976.420349121094 989.807556152344 989.770202636719 988.571838378906 980.311584472656 983.231201171875 985.403381347656 989.84423828125 986.80615234375 993.98681640625 994.216064453125 1004.35113525391 1000.86083984375 1000.13604736328 1002.19976806641 1005.98150634766 1014.83282470703 996.854919433594 997.495788574219 1007.40142822266 1010.57232666016 1000.20257568359 994.555358886719 987.773681640625 984.645141601562 984.777648925781 983.962097167969 985.309326171875 987.248291015625 997.494384765625 992.239807128906 996.756652832031 993.107360839844 990.201599121094 993.433349609375 997.99267578125 992.239196777344 988.837585449219 997.876220703125 1008.75756835938 1005.15637207031 999.880859375 1004.03790283203 1011.37872314453 1003.50640869141 1003.46728515625 1003.45782470703 1006.03967285156 1005.82336425781 1000.43640136719 1007.66168212891 1007.80511474609 1011.01794433594 1012.96038818359 1009.50372314453 1015.21203613281 1020.08093261719 1008.29931640625 1015.08099365234 1021.68591308594 1030.23132324219 1025.15942382812 1022.78875732422 1022.06115722656 1031.93310546875 1038.615234375 1044.56274414062 1049.34020996094 1057.49133300781 1053.9716796875 1056.3779296875 1060.7490234375 1055.79382324219 1071.93640136719 1060.83569335938 1059.42834472656 1049.619140625 1043.58618164062 1044.50524902344 1027.76977539062 1018.37738037109 1009.99310302734 1007.40179443359 996.5419921875 992.051208496094 987.288269042969 984.221923828125 980.084899902344 978.404602050781 977.377014160156 973.401306152344 973.796020507812 980.718017578125 978.054077148438 970.427124023438 976.800598144531 963.205261230469 971.089599609375 975.92041015625 967.632080078125 970.768920898438 969.216125488281 974.984985351562 978.000183105469 971.379028320312 972.528442382812 964.083129882812
965.466918945312 968.101867675781 957.104370117188 948.468505859375 952.288391113281 951.829895019531 949.727172851562 942.386840820312 937.249145507812 945.437683105469 941.911193847656 952.322509765625 952.200439453125 950.902648925781 961.875305175781 955.771240234375 953.975402832031 959.30908203125 963.161560058594 964.677734375 969.28369140625 958.013244628906 955.601684570312 958.159912109375 965.169616699219 966.073486328125 967.815673828125 968.086181640625 960.423217773438 956.254943847656 959.896484375 957.678405761719 964.232788085938 969.552978515625 972.971374511719 981.487243652344 973.486328125 970.582641601562 969.49853515625 966.768859863281 976.285888671875 972.724670410156 959.066589355469 974.2529296875 974.707153320312 983.594604492188 975.7001953125 974.747436523438 982.415954589844 990.813110351562 988.472778320312 984.057678222656 997.847045898438 996.659301757812 1000.50646972656 1009.31207275391 1007.82641601562 1011.41632080078 1012.46166992188 1014.14807128906 1009.85333251953 1012.31805419922 1009.07464599609 1002.55981445312 1002.02893066406 1002.04669189453 993.372985839844 984.489562988281 985.107177734375 986.517822265625 991.181945800781 995.276550292969 995.807922363281 994.149963378906 1000.29754638672 1001.58020019531 999.677734375 998.154296875 999.227233886719 989.465209960938 992.201110839844 996.390625 1007.29034423828 998.781799316406 1005.58746337891 1008.53875732422 1008.39129638672 1008.67974853516 1010.54937744141 1013.84460449219 1006.29449462891 1008.54998779297 1003.95745849609 1004.54370117188 1009.67156982422 1011.44763183594 1021.27722167969 1023.59387207031 1019.79748535156 1007.16192626953 1014.88879394531 1012.63970947266 1015.76873779297 1021.75317382812 1018.16302490234 1029.68286132812 1025.830078125 1024.30688476562 1026.724609375 1035.1123046875 1046.44018554688 1053.3603515625 1055.50415039062 1055.37390136719 1056.59924316406 1059.82348632812 1061.02673339844 1065.68420410156 1060.15600585938 1053.36303710938 1044.0087890625 1043.44470214844 1044.3115234375 1026.56042480469 1015.19372558594 1006.43499755859 1003.60827636719 997.506225585938 987.288635253906 980.675842285156 987.220153808594 980.05029296875 975.801452636719 980.457214355469 975.354370117188 976.613525390625 971.150939941406 967.424255371094 967.526184082031 974.693603515625 969.46923828125 970.404113769531 967.021057128906 973.117858886719 976.143737792969 972.419799804688 982.179992675781 976.152282714844 977.292419433594 968.919189453125
963.880554199219 961.264831542969 962.796752929688 947.867858886719 952.974609375 951.007873535156 944.161376953125 941.763610839844 940.453857421875 946.543518066406 942.491027832031 959.436096191406 960.923461914062 965.49755859375 961.552307128906 961.620727539062 965.666625976562 961.292236328125 967.572021484375 965.435241699219 968.005065917969 953.429138183594 968.060668945312 969.170837402344 966.086791992188 968.437805175781 966.688354492188 960.89111328125 962.76611328125 953.708251953125 959.239318847656 955.977111816406 957.686157226562 965.70263671875 976.738342285156 978.968017578125 975.531433105469 978.259765625 972.306274414062 969.1982421875 968.822326660156 973.504760742188 965.017822265625 973.920532226562 982.514221191406 978.921752929688 979.544677734375 982.306091308594 988.3974609375 990.603759765625 987.894287109375 1000.19860839844 999.001708984375 1001.74108886719 1000.23382568359 1011.29986572266 1010.67053222656 1010.95794677734 1015.97064208984 1012.41918945312 1014.90124511719 1013.65899658203 1019.27319335938 1010.85498046875 1008.14117431641 1005.17559814453 992.400756835938 985.875427246094 996.824401855469 986.925842285156 993.072998046875 999.626159667969 1002.11456298828 994.990417480469 1000.2333984375 999.134643554688 1005.38330078125 1003.93530273438 1000.19458007812 994.714538574219 989.297546386719 991.642761230469 998.678344726562 996.636047363281 998.997009277344 1007.66461181641 1013.73901367188 1005.93786621094 1013.73352050781 1017.19165039062 1014.67364501953 1010.57092285156 1017.66766357422 1009.71411132812 1009.83746337891 1014.03497314453 1015.30505371094 1017.85443115234 1021.45135498047 1019.01959228516 1022.63470458984 1013.02331542969 1021.46954345703 1021.03527832031 1030.26403808594 1030.62854003906 1028.70043945312 1026.49597167969 1025.11267089844 1033.943359375 1044.64916992188 1054.78198242188 1049.13037109375 1054.67224121094 1052.86499023438 1044.19970703125 1050.43334960938 1055.05078125 1062.71899414062 1059.26416015625 1051.2822265625 1047.37841796875 1039.44616699219 1032.22705078125 1018.36273193359 1020.14331054688 1016.57379150391 998.194030761719 991.418334960938 977.158996582031 978.396606445312 985.736572265625 979.685546875 972.390686035156 972.572692871094 975.796875 970.434448242188 970.155029296875 966.050720214844 969.369506835938 965.57470703125 962.268981933594 967.426879882812 971.7529296875 971.865234375 978.82275390625 982.334716796875 969.725708007812 974.869873046875 970.893371582031
970.308776855469 964.227844238281 958.495849609375 951.713989257812 946.985046386719 944.609069824219 936.652221679688 939.291381835938 946.0625 958.440368652344 962.252990722656 963.741882324219 964.954772949219 972.612548828125 970.163452148438 965.594360351562 964.911254882812 967.700439453125 965.931457519531 962.831848144531 959.083801269531 961.761596679688 968.759033203125 964.28369140625 957.899475097656 975.934448242188 967.5 966.216247558594 960.929016113281 960.708190917969 962.10302734375 959.922119140625 961.021240234375 970.680603027344 975.682739257812 980.754760742188 978.727355957031 975.858215332031 975.606750488281 976.748901367188 968.514282226562 969.597351074219 959.877990722656 969.499938964844 974.633483886719 972.518981933594 970.200073242188 983.891723632812 983.834289550781 990.439086914062 987.984191894531 993.752868652344 996.992919921875 998.997802734375 1001.37756347656 1006.50213623047 1011.54541015625 1018.6005859375 1019.27093505859 1011.12982177734 1020.70349121094 1013.71697998047 1014.62420654297 1016.89147949219 1004.44720458984 992.07470703125 1002.69360351562 991.529724121094 989.632385253906 986.008422851562 996.181457519531 1000.81671142578 997.422607421875 987.864562988281 997.364196777344 993.60986328125 1002.52874755859 995.4736328125 993.645812988281 990.177429199219 990.635620117188 996.8671875 997.066162109375 1001.21130371094 996.127502441406 1007.25274658203 1009.66943359375 1009.11840820312 1005.98474121094 1014.44500732422 1010.45330810547 1014.3291015625 1018.97412109375 1015.89929199219 1012.14959716797 1022.32080078125 1017.98626708984 1018.43103027344 1021.19329833984 1025.45910644531 1018.99700927734 1023.05010986328 1024.25891113281 1022.02233886719 1020.20751953125 1029.94213867188 1026.74682617188 1026.47375488281 1028.89965820312 1042.9755859375 1051.64819335938 1051.83532714844 1051.63342285156 1046.50720214844 1052.56713867188 1041.17907714844 1060.48498535156 1054.64660644531 1050.79040527344 1056.52404785156 1046.84753417969 1034.658203125 1033.51318359375 1025.43115234375 1018.82232666016 1015.67401123047 1007.00311279297 1000.20159912109 994.023254394531 986.108093261719 983.3154296875 973.200927734375 978.102172851562 977.319580078125 973.721130371094 963.6064453125 974.139953613281 975.073852539062 969.803466796875 965.701843261719 958.453308105469 957.585510253906 962.88330078125 969.906860351562 977.040405273438 973.103210449219 975.318786621094 965.994323730469 968.536865234375 969.9658203125
963.761413574219 964.240234375 950.61767578125 948.229248046875 956.17578125 958.592346191406 943.135070800781 945.336547851562 954.826171875 962.939453125 965.844360351562 968.754760742188 968.596252441406 975.233764648438 981.026489257812 969.603576660156 963.985107421875 964.974670410156 964.022827148438 968.990539550781 968.166137695312 967.548095703125 970.416442871094 964.030944824219 971.359619140625 968.310180664062 966.066833496094 965.694519042969 960.577880859375 961.877075195312 964.272399902344 970.035705566406 970.301452636719 972.658508300781 983.546630859375 980.864440917969 976.002990722656 975.783264160156 975.482299804688 976.266052246094 965.237060546875 961.3896484375 965.87158203125 973.390869140625 970.275268554688 966.643615722656 968.251647949219 977.960693359375 985.806396484375 986.012145996094 991.876525878906 996.565734863281 995.648559570312 995.625793457031 1006.17181396484 1006.53137207031 1009.19750976562 1017.67883300781 1010.12164306641 1013.82537841797 1020.52325439453 1025.3671875 1022.228515625 1021.12646484375 1003.82421875 1001.58428955078 1000.92559814453 1002.15045166016 1003.7578125 997.374694824219 993.379211425781 994.654907226562 995.512268066406 993.216064453125 996.4267578125 1000.29235839844 1000.42706298828 989.169677734375 995.375671386719 990.622924804688 995.162963867188 993.928771972656 996.529968261719 1006.91564941406 996.148681640625 1003.44207763672 1002.10064697266 1008.43200683594 1010.33361816406 1002.95709228516 1009.79699707031 1015.38110351562 1026.52612304688 1019.55572509766 1020.25970458984 1017.85876464844 1018.04528808594 1021.79992675781 1014.24279785156 1017.94702148438 1023.38763427734 1025.59753417969 1028.54870605469 1025.32409667969 1027.13464355469 1026.08947753906 1034.45166015625 1036.43872070312 1024.1982421875 1032.30065917969 1043.23352050781 1048.97583007812 1047.80871582031 1046.42639160156 1045.00988769531 1046.73388671875 1047.26708984375 1050.95629882812 1046.3935546875 1042.66125488281 1041.14318847656 1035.22631835938 1029.54565429688 1026.25634765625 1022.98455810547 1014.70092773438 1010.21734619141 1007.13653564453 1002.02746582031 989.128295898438 979.040649414062 970.287170410156 977.198547363281 979.768920898438 975.096496582031 960.240661621094 966.621154785156 965.575744628906 964.621643066406 961.962829589844 956.017333984375 960.832946777344 956.568542480469 955.069641113281 969.73779296875 967.110778808594 961.567687988281 963.321960449219 974.195190429688 973.519409179688
960.367858886719 962.538146972656 949.676208496094 959.036315917969 959.97021484375 956.35546875 950.893920898438 939.103515625 946.232299804688 962.197875976562 963.76123046875 963.902221679688 970.245483398438 969.62744140625 974.185363769531 976.22119140625 972.092834472656 971.920288085938 977.301330566406 968.635375976562 973.528991699219 977.199523925781 964.857421875 969.795715332031 963.453186035156 967.809997558594 960.333374023438 962.986267089844 958.424865722656 957.964172363281 967.764709472656 972.5634765625 964.181640625 965.943054199219 972.370422363281 977.379638671875 974.051513671875 981.472412109375 980.712280273438 978.847717285156 980.144653320312 970.305297851562 975.593688964844 975.223388671875 975.016296386719 971.284362792969 974.177856445312 976.158630371094 978.790771484375 987.54248046875 997.534240722656 996.515258789062 995.490539550781 994.301086425781 994.594177246094 1005.88659667969 1006.90338134766 1010.25183105469 1014.44494628906 1018.88439941406 1017.73809814453 1019.60931396484 1017.72625732422 1011.81890869141 1010.90417480469 1007.95550537109 993.19140625 998.449462890625 999.176635742188 1006.07702636719 999.587097167969 999.833679199219 1000.37896728516 1004.09222412109 1010.59655761719 1011.26348876953 1003.63592529297 999.257690429688 1000.67840576172 993.762817382812 992.268920898438 1005.68725585938 1008.95910644531 1006.42810058594 1000.39978027344 995.649291992188 997.453857421875 1008.68243408203 1016.01654052734 1010.3037109375 1001.81213378906 1010.59741210938 1010.58221435547 1022.02142333984 1018.46368408203 1018.84417724609 1025.86462402344 1024.86352539062 1021.76586914062 1027.27197265625 1023.23126220703 1022.33062744141 1023.16735839844 1021.37615966797 1026.95031738281 1031.17590332031 1032.88562011719 1025.1708984375 1035.83374023438 1031.01708984375 1036.638671875 1034.99328613281 1032.83374023438 1035.39208984375 1037.13757324219 1041.08996582031 1048.47778320312 1047.48315429688 1042.01049804688 1035.958984375 1034.93444824219 1021.68310546875 1023.65209960938 1025.67504882812 1035.24194335938 1023.47808837891 1008.99719238281 1010.94036865234 1002.67755126953 987.51025390625 986.426635742188 979.380737304688 979.881286621094 978.869812011719 968.222717285156 964.400695800781 961.258728027344 959.642761230469 963.3115234375 965.851989746094 956.042114257812 948.095886230469 957.275695800781 951.931518554688 957.130554199219 967.31103515625 957.525817871094 952.604553222656 960.939270019531 973.175598144531
961.018188476562 958.566833496094 963.094665527344 966.604614257812 955.840270996094 948.440673828125 944.931030273438 944.473937988281 947.302001953125 948.184326171875 954.430358886719 959.102233886719 968.49169921875 973.104248046875 974.380249023438 980.560668945312 977.216857910156 975.725402832031 966.447998046875 967.607177734375 972.506958007812 976.18310546875 970.129638671875 969.63671875 970.92724609375 966.914855957031 959.5107421875 963.831604003906 957.940185546875 959.805419921875 971.064147949219 965.9296875 959.457641601562 967.080322265625 971.357971191406 975.382507324219 973.293395996094 979.69970703125 987.795837402344 988.616455078125 988.339477539062 986.4775390625 982.788696289062 984.9990234375 978.085693359375 979.771484375 969.157470703125 971.522521972656 973.522644042969 974.726867675781 983.087890625 992.049377441406 984.262756347656 986.162902832031 995.226013183594 999.5205078125 996.185913085938 1000.28778076172 1006.07562255859 1014.57745361328 1013.09503173828 1013.78686523438 1013.78839111328 1008.52984619141 1014.72338867188 1010.22369384766 996.70654296875 997.048828125 999.659484863281 1008.48248291016 1006.01989746094 1000.06652832031 1001.80639648438 1007.06140136719 1013.28918457031 1007.08709716797 996.857116699219 1001.27105712891 996.070617675781 1001.64569091797 995.982666015625 1005.60382080078 1006.18719482422 1007.5595703125 1005.04907226562 1002.40649414062 996.757080078125 1000.66296386719 1007.8662109375 1008.6025390625 1004.58563232422 1003.27600097656 1015.01721191406 1024.98742675781 1026.74890136719 1024.94323730469 1026.43237304688 1029.22265625 1030.505859375 1030.72900390625 1029.33947753906 1025.21997070312 1033.3759765625 1027.39038085938 1032.43322753906 1033.7822265625 1036.5517578125 1025.8427734375 1031.001953125 1030.53125 1029.38256835938 1029.26428222656 1033.02905273438 1029.48571777344 1044.34887695312 1034.06372070312 1035.62487792969 1035.54223632812 1027.86645507812 1021.53851318359 1023.59173583984 1023.67504882812 1019.94488525391 1022.41198730469 1022.19805908203 1017.43737792969 1008.11895751953 1010.00183105469 1003.77740478516 997.521484375 986.84423828125 980.485900878906 973.75 969.122680664062 967.515747070312 960.591430664062 962.468994140625 961.780517578125 957.861206054688 961.955444335938 959.07421875 960.998596191406 956.313171386719 957.858276367188 959.496459960938 956.919494628906 957.679443359375 954.111755371094 952.867980957031 976.859497070312
955.942260742188 957.812561035156 956.049133300781 960.219604492188 956.413024902344 942.071533203125 942.798278808594 949.66357421875 953.73291015625 956.705139160156 952.644470214844 961.605163574219 965.953979492188 969.207763671875 979.439208984375 984.454406738281 982.060241699219 962.345764160156 961.705505371094 973.522888183594 970.357238769531 973.622619628906 965.472473144531 966.225769042969 972.728698730469 967.802856445312 969.05029296875 969.339660644531 965.820373535156 967.798767089844 964.406311035156 969.783447265625 961.424194335938 964.251525878906 967.165222167969 975.315734863281 970.597900390625 973.671264648438 982.224731445312 983.195495605469 978.974243164062 979.9912109375 977.224548339844 976.361694335938 981.493774414062 982.129028320312 974.671875 970.384582519531 966.24658203125 963.902709960938 984.149047851562 984.61279296875 984.575866699219 973.834716796875 985.229125976562 987.696411132812 1005.74438476562 1008.41424560547 1009.97222900391 1008.15582275391 1010.75622558594 1020.66674804688 1015.62707519531 1018.90380859375 1019.23809814453 1017.47033691406 1005.87176513672 998.9794921875 1007.40844726562 1011.98510742188 1009.20202636719 1008.32214355469 1014.5361328125 1018.99176025391 1010.07965087891 1008.1435546875 997.745971679688 1000.37615966797 1000.08618164062 1002.6435546875 1000.56121826172 1000.54968261719 995.90966796875 997.718383789062 1000.94171142578 1008.37390136719 999.021850585938 1006.70379638672 998.352233886719 998.680419921875 1003.85675048828 1003.26794433594 1011.51507568359 1020.01483154297 1030.93408203125 1027.08837890625 1028.03430175781 1023.9072265625 1028.99926757812 1016.21453857422 1018.47143554688 1031.0419921875 1029.77258300781 1028.38952636719 1026.92346191406 1032.61572265625 1033.60180664062 1022.31848144531 1032.033203125 1027.06481933594 1024.85607910156 1026.3125 1026.51196289062 1038.25012207031 1040.17114257812 1038.38464355469 1031.5400390625 1028.37976074219 1026.59216308594 1017.05291748047 1025.9287109375 1023.53405761719 1020.42053222656 1020.58532714844 1019.09094238281 1013.4384765625 1010.76940917969 1008.68902587891 1000.29168701172 992.502685546875 981.357788085938 982.412658691406 977.374389648438 972.57177734375 958.965942382812 960.123596191406 962.130310058594 963.238891601562 966.704223632812 955.212158203125 957.59765625 956.8154296875 952.563781738281 953.260620117188 955.103820800781 944.45458984375 957.180541992188 963.527282714844 963.668884277344 967.978393554688
954.581665039062 952.771179199219 963.952880859375 952.477600097656 957.504211425781 950.089904785156 946.53173828125 945.058776855469 950.719787597656 952.239440917969 955.44091796875 961.224853515625 973.039794921875 970.259155273438 972.24609375 980.2568359375 978.500671386719 975.548706054688 962.426147460938 978.413452148438 981.538879394531 973.221130371094 963.308471679688 964.107055664062 976.2041015625 969.898742675781 963.496215820312 965.951354980469 970.491333007812 966.71728515625 967.861267089844 965.213500976562 962.474914550781 967.124816894531 972.917297363281 975.8251953125 975.373657226562 980.308044433594 976.763977050781 975.780090332031 983.34765625 980.454223632812 973.686096191406 975.674682617188 969.944152832031 970.930114746094 972.251831054688 970.230590820312 962.768798828125 979.276245117188 987.278198242188 987.514221191406 980.637451171875 967.671569824219 974.792663574219 986.670715332031 1000.55133056641 1003.37255859375 1007.59600830078 1012.82482910156 1019.56323242188 1015.59722900391 1024.48864746094 1022.17047119141 1020.49499511719 1017.63421630859 1008.96246337891 1008.78942871094 1003.81604003906 1014.13702392578 1015.49383544922 1018.361328125 1020.12854003906 1018.49475097656 1014.78302001953 1013.54302978516 1006.47747802734 999.94970703125 998.03369140625 1006.08349609375 1005.24859619141 1001.04791259766 1001.99200439453 1004.15850830078 1012.42687988281 1007.87384033203 1004.04083251953 1006.3427734375 1006.10803222656 998.183532714844 994.843505859375 1004.62457275391 1007.6142578125 1021.94818115234 1031.87145996094 1034.83630371094 1032.2587890625 1031.74865722656 1020.91613769531 1019.89508056641 1019.75964355469 1025.63671875 1034.42553710938 1025.5556640625 1016.56622314453 1030.615234375 1026.98107910156 1017.36810302734 1031.48779296875 1032.36950683594 1026.38391113281 1023.38208007812 1032.09631347656 1033.78234863281 1039.84924316406 1049.66967773438 1032.83483886719 1032.77722167969 1027.40649414062 1025.46618652344 1032.89721679688 1024.0185546875 1024.95812988281 1018.28729248047 1015.66766357422 1014.24761962891 1008.99041748047 1009.20983886719 994.693298339844 992.078674316406 985.475280761719 984.941101074219 978.206176757812 970.976257324219 969.683410644531 967.107543945312 967.820922851562 970.101440429688 973.826904296875 965.302856445312 962.39697265625 954.754638671875 940.662902832031 946.986267089844 952.349426269531 954.28759765625 951.573486328125 953.625183105469 959.622497558594 958.397521972656
947.331176757812 953.220520019531 953.624694824219 955.238586425781 952.037231445312 947.161926269531 950.809997558594 951.901611328125 945.945495605469 954.177490234375 956.167297363281 974.551696777344 976.135314941406 976.473266601562 979.459899902344 976.706787109375 977.426147460938 977.441833496094 978.802185058594 974.502990722656 984.327819824219 974.746154785156 967.747802734375 966.669494628906 964.569580078125 971.564880371094 966.512878417969 961.13330078125 962.331909179688 972.712219238281 963.3173828125 963.160461425781 956.073547363281 965.237243652344 964.035949707031 970.185119628906 971.196838378906 975.503051757812 970.28076171875 976.986083984375 983.305725097656 980.1669921875 977.543090820312 974.57666015625 975.041015625 974.445434570312 969.239196777344 973.226989746094 975.152038574219 983.258666992188 978.692077636719 984.225524902344 979.268737792969 972.147399902344 974.373413085938 990.06005859375 988.181701660156 997.750427246094 1004.81860351562 1010.78625488281 1013.00610351562 1030.93786621094 1028.14367675781 1032.40783691406 1025.95629882812 1025.65197753906 1014.87158203125 1009.53436279297 1007.89904785156 1009.54162597656 1015.23333740234 1026.5166015625 1026.35900878906 1017.51000976562 1010.64282226562 1015.58428955078 1015.87951660156 1000.65264892578 994.744079589844 999.291748046875 1005.7958984375 1001.10858154297 999.290832519531 998.8203125 999.210998535156 1003.95294189453 999.731323242188 1006.70373535156 1005.02624511719 1005.90179443359 1000.55603027344 1007.33801269531 1014.9052734375 1020.93615722656 1025.41943359375 1029.19372558594 1027.57763671875 1034.17785644531 1041.94213867188 1035.19848632812 1036.7060546875 1034.0146484375 1039.77893066406 1031.3974609375 1026.36291503906 1027.18005371094 1021.36578369141 1018.5078125 1025.26867675781 1026.84350585938 1023.98364257812 1018.11883544922 1026.07922363281 1036.40637207031 1043.57739257812 1041.40954589844 1038.93298339844 1024.11645507812 1024.01782226562 1022.82733154297 1028.35961914062 1024.35852050781 1013.333984375 1015.28106689453 1016.58099365234 1014.54522705078 1009.53698730469 1005.95446777344 1003.18835449219 998.357238769531 986.536193847656 982.128540039062 975.824096679688 975.856018066406 975.622741699219 962.784851074219 967.450500488281 983.571166992188 977.841247558594 966.048217773438 961.832702636719 953.990051269531 943.400451660156 944.670532226562 955.440368652344 955.358154296875 944.459594726562 953.099914550781 954.808410644531 949.043029785156
947.599060058594 945.65966796875 944.24365234375 950.366638183594 949.908081054688 948.616943359375 948.787353515625 951.811340332031 953.644165039062 956.962707519531 965.760559082031 974.045471191406 976.848205566406 979.888305664062 974.314758300781 977.693725585938 975.221984863281 979.355712890625 982.606567382812 974.692932128906 978.790222167969 970.342651367188 965.7041015625 956.560485839844 965.809265136719 961.451049804688 962.195861816406 953.108276367188 962.305480957031 973.252807617188 967.660827636719 958.349853515625 962.39794921875 967.557678222656 967.673278808594 970.041137695312 978.149780273438 978.056091308594 973.506042480469 966.604431152344 983.245666503906 983.258911132812 976.785705566406 976.60205078125 977.658996582031 980.934448242188 974.79443359375 979.349853515625 972.936462402344 987.804443359375 984.966247558594 992.861511230469 978.726379394531 978.147094726562 978.883850097656 985.710021972656 994.786010742188 996.873962402344 995.948791503906 1004.68414306641 1010.99816894531 1019.1240234375 1026.06225585938 1026.30810546875 1017.09350585938 1018.2841796875 1011.56903076172 1000.43542480469 1001.53826904297 1010.39422607422 1023.6953125 1027.15551757812 1029.90051269531 1014.27777099609 1020.14459228516 1018.0400390625 1015.44964599609 1011.69360351562 991.12451171875 999.180297851562 1010.62731933594 999.788024902344 999.026977539062 996.628601074219 1005.78930664062 999.982177734375 997.875732421875 1005.88751220703 1004.63745117188 1000.78497314453 1007.33612060547 1014.22302246094 1016.90496826172 1023.50671386719 1029.33947753906 1022.95568847656 1029.72351074219 1043.27111816406 1043.6513671875 1047.11022949219 1040.65246582031 1037.51818847656 1031.27648925781 1026.19714355469 1020.86779785156 1026.84509277344 1024.50537109375 1020.14916992188 1030.22290039062 1025.26525878906 1022.21185302734 1034.83959960938 1032.33679199219 1039.38818359375 1038.16296386719 1036.49877929688 1031.99108886719 1026.84460449219 1020.48016357422 1020.08306884766 1022.02471923828 1013.48565673828 1016.90344238281 1002.79205322266 1004.87896728516 1007.31286621094 1010.06762695312 1003.46466064453 1002.42596435547 987.796081542969 993.140380859375 978.804931640625 972.965026855469 971.481018066406 963.847229003906 964.352783203125 971.978332519531 974.694091796875 971.078063964844 968.55810546875 965.997802734375 957.842407226562 942.072387695312 951.017211914062 955.280944824219 957.364624023438 950.372314453125 955.807495117188 948.483215332031 951.755981445312
946.917053222656 941.450927734375 944.1142578125 949.767822265625 944.825561523438 940.748596191406 948.239562988281 954.452758789062 952.646484375 955.140319824219 962.502502441406 977.62451171875 973.355407714844 977.638427734375 972.491516113281 970.148559570312 975.808471679688 978.5556640625 976.971313476562 976.325256347656 979.276916503906 958.161071777344 957.936584472656 959.759094238281 958.884460449219 956.107971191406 958.757690429688 960.712341308594 962.324829101562 958.442932128906 963.251403808594 963.082824707031 963.982421875 966.20458984375 969.484619140625 979.133178710938 980.328735351562 979.883728027344 974.317565917969 978.605590820312 982.083068847656 981.941650390625 979.922729492188 985.95361328125 983.934509277344 976.911926269531 980.757873535156 982.003967285156 979.846008300781 987.839172363281 993.731506347656 995.346801757812 985.477661132812 998.230773925781 987.554931640625 986.497619628906 992.345336914062 1000.34844970703 1001.04107666016 1004.42297363281 1005.9931640625 1021.45635986328 1023.31689453125 1022.76055908203 1014.34216308594 1008.15344238281 1000.06146240234 1010.66021728516 1016.080078125 1014.82690429688 1019.1640625 1017.40185546875 1017.8388671875 1022.37384033203 1020.95031738281 1018.47686767578 1021.28601074219 1013.72241210938 1012.66058349609 1012.49169921875 1011.20989990234 1005.92547607422 999.6728515625 1011.51251220703 1007.07781982422 1014.60888671875 1007.06176757812 1011.88659667969 1010.78515625 1005.29034423828 1005.10723876953 1013.26794433594 1019.50555419922 1022.00604248047 1026.05749511719 1022.75524902344 1035.85668945312 1046.62194824219 1047.93127441406 1047.23217773438 1051.80688476562 1040.96166992188 1031.39807128906 1031.86254882812 1023.25933837891 1023.44366455078 1026.11779785156 1036.36328125 1026.61181640625 1023.8720703125 1028.77844238281 1027.12280273438 1028.54016113281 1034.08435058594 1040.90173339844 1041.66943359375 1036.73071289062 1031.95520019531 1021.19873046875 1014.12213134766 1018.57843017578 1022.59234619141 1008.54327392578 1000.10260009766 1007.91546630859 1001.00988769531 1002.12347412109 999.085632324219 989.822570800781 991.508056640625 989.210754394531 973.120422363281 971.494812011719 968.784057617188 969.014892578125 965.830627441406 962.468078613281 958.797241210938 965.228393554688 961.215270996094 975.684936523438 966.540954589844 957.785949707031 953.513122558594 955.017822265625 966.92626953125 958.899780273438 958.773254394531 947.57080078125 949.510803222656
