NCOLS 150
NROWS 37
XLLCORNER 7394249
YLLCORNER 4842809
CELLSIZE 30
NODATA_VALUE -9999
963.55810546875 967.4697265625 957.261352539062 970.691833496094 972.343872070312 970.581909179688 967.300476074219 968.574401855469 976.841552734375 978.5859375 984.100158691406 981.59130859375 977.822631835938 969.592590332031 970.034484863281 967.528991699219 966.495971679688 973.837524414062 976.919006347656 983.924987792969 986.906799316406 985.07763671875 986.948486328125 980.785766601562 984.675659179688 979.255615234375 972.269104003906 977.724060058594 995.206787109375 1001.04223632812 990.018859863281 989.180786132812 976.85791015625 988.639953613281 985.094360351562 984.897705078125 976.086242675781 981.863525390625 971.784912109375 978.619689941406 984.628540039062 978.932312011719 984.564758300781 981.434631347656 983.181457519531 977.328186035156 981.273681640625 981.948486328125 975.61962890625 976.304809570312 971.403137207031 972.798583984375 967.294738769531 967.370056152344 978.367614746094 986.960021972656 983.312561035156 978.044921875 971.736755371094 986.528442382812 995.078369140625 985.949951171875 983.849487304688 983.835632324219 983.128173828125 986.910400390625 990.378967285156 990.439453125 982.391540527344 990.645751953125 982.746032714844 984.210083007812 988.189758300781 991.322875976562 985.095947265625 978.564331054688 975.926940917969 975.400573730469 979.094177246094 979.803894042969 989.51708984375 995.397155761719 999.389282226562 996.659973144531 998.554992675781 998.005065917969 999.348754882812 991.198608398438 1003.22094726562 1010.10015869141 1003.84326171875 1000.86920166016 1009.32165527344 1008.41723632812 1003.96234130859 1004.48461914062 1011.02630615234 1006.50952148438 1001.07049560547 1005.53674316406 996.385375976562 1000.0771484375 992.796569824219 985.425170898438 991.31396484375 990.280578613281 992.166687011719 992.881652832031 990.602600097656 991.139099121094 989.303405761719 995.927612304688 998.103210449219 993.796997070312 992.964538574219 991.592529296875 988.584106445312 988.776306152344 993.962768554688 999.529541015625 991.041259765625 993.3818359375 1000.10784912109 992.421936035156 1004.19250488281 1003.81695556641 1014.44744873047 1011.05633544922 1003.72857666016 1006.17517089844 1010.00201416016 1018.12457275391 1021.13232421875 1010.56866455078 1014.34631347656 1012.61669921875 1020.84814453125 1023.49530029297 1034.15795898438 1032.58312988281 1046.04150390625 1058.63940429688 1062.64367675781 1073.62524414062 1074.01379394531 1085.34985351562 1099.99975585938 1112.58923339844 1108.28588867188 1108.32373046875
971.649780273438 974.2109375 970.52001953125 967.125366210938 968.365112304688 963.87451171875 964.369018554688 967.193420410156 976.169982910156 980.411804199219 976.449279785156 972.373474121094 969.650695800781 970.440063476562 967.540283203125 965.190856933594 961.119323730469 975.98291015625 975.73193359375 983.589538574219 977.283447265625 985.316162109375 976.768981933594 978.867553710938 976.668334960938 977.951904296875 980.3447265625 984.084899902344 988.133605957031 984.349060058594 985.758605957031 979.5302734375 974.265625 986.651977539062 983.707275390625 987.904602050781 975.426391601562 977.280944824219 973.904296875 977.110961914062 975.088928222656 974.881042480469 983.100280761719 977.575622558594 977.447082519531 976.759826660156 975.375122070312 968.694763183594 968.467346191406 971.929748535156 976.264282226562 975.240905761719 970.919189453125 967.553894042969 971.6083984375 979.823608398438 979.239685058594 978.880004882812 976.000854492188 991.900634765625 998.894409179688 991.057189941406 985.662170410156 982.973449707031 979.378173828125 985.710998535156 987.461608886719 983.285827636719 976.134521484375 978.572265625 973.763610839844 979.4921875 984.458435058594 988.095031738281 987.700256347656 991.55126953125 978.18359375 978.494934082031 986.658447265625 987.167724609375 995.431579589844 993.90380859375 994.883117675781 987.538330078125 978.8818359375 979.213928222656 977.871459960938 988.495910644531 998.784057617188 1004.22991943359 990.216491699219 1001.34204101562 997.913818359375 1006.09143066406 997.865234375 997.790405273438 1003.17913818359 995.694274902344 996.9189453125 994.976501464844 993.411987304688 991.448059082031 987.289245605469 986.61767578125 995.347534179688 989.135498046875 992.35009765625 996.717712402344 995.320983886719 993.72705078125 989.351135253906 1000.42034912109 1009.47497558594 1002.75610351562 996.406982421875 993.235656738281 990.907287597656 999.95458984375 998.013549804688 1003.70074462891 1007.12152099609 1000.53546142578 996.814147949219 1005.59552001953 1003.99285888672 1011.91467285156 1006.51086425781 1008.99499511719 1007.71527099609 1010.02227783203 1014.17236328125 1018.79089355469 1023.06634521484 1017.25549316406 1017.71917724609 1024.37316894531 1022.09069824219 1024.53369140625 1031.27807617188 1044.60546875 1057.86242675781 1066.05737304688 1071.89086914062 1081.30041503906 1087.90649414062 1094.01403808594 1101.01318359375 1113.15649414062 1121.06286621094 1122.7275390625
970.296203613281 967.023681640625 968.576171875 969.802001953125 963.625427246094 966.708374023438 959.983032226562 971.217224121094 971.568664550781 971.117126464844 972.396423339844 968.9873046875 969.024475097656 964.388061523438 966.149658203125 962.40966796875 970.856872558594 971.787536621094 975.866394042969 984.569091796875 983.068237304688 975.567749023438 978.877502441406 973.530517578125 975.587097167969 973.755432128906 981.035888671875 972.685791015625 982.34912109375 985.893737792969 979.346130371094 988.996887207031 982.371154785156 985.965881347656 988.022094726562 989.606323242188 985.607666015625 972.83837890625 975.392272949219 973.191223144531 971.319763183594 973.884216308594 966.449890136719 973.72998046875 971.510559082031 973.362487792969 973.004455566406 968.592163085938 970.194885253906 976.017944335938 978.1064453125 973.293579101562 965.266296386719 970.757629394531 968.812316894531 979.689453125 982.205810546875 980.607849121094 982.318298339844 987.883605957031 991.652954101562 998.432434082031 996.06298828125 989.540405273438 989.203430175781 989.9189453125 988.643249511719 973.390197753906 969.849243164062 962.896545410156 968.482971191406 971.173889160156 980.179016113281 983.454223632812 980.119750976562 988.825805664062 976.37109375 983.213928222656 984.09375 981.882629394531 988.5830078125 992.522644042969 983.984375 979.095520019531 975.443359375 971.005004882812 984.946655273438 985.665161132812 999.902587890625 1000.26586914062 993.589599609375 1002.68548583984 1004.3779296875 1002.50524902344 989.363525390625 995.430297851562 996.871337890625 1009.34527587891 1002.13464355469 995.115600585938 997.017700195312 988.965393066406 992.038269042969 989.712097167969 989.236450195312 980.826721191406 984.468383789062 989.511962890625 988.481201171875 982.960510253906 993.650939941406 1002.63958740234 1003.89971923828 998.640563964844 999.919250488281 996.760925292969 1001.85565185547 998.865905761719 1001.345703125 999.561462402344 997.930053710938 996.089782714844 990.191711425781 999.3046875 1007.93383789062 1009.43743896484 999.589477539062 1010.97174072266 1014.58282470703 1009.80102539062 1012.28594970703 1017.35095214844 1014.30169677734 1015.90130615234 1023.14221191406 1033.66979980469 1031.18640136719 1031.77404785156 1040.76281738281 1047.82568359375 1059.01794433594 1066.400390625 1081.6533203125 1096.14318847656 1113.42639160156 1109.63708496094 1113.72131347656 1118.15405273438 1126.73742675781 1136.43811035156
972.602233886719 975.454467773438 966.382995605469 965.392822265625 967.101806640625 963.211364746094 959.084838867188 961.889282226562 965.514221191406 965.881225585938 967.649169921875 966.101989746094 960.317443847656 968.582702636719 964.002258300781 975.401123046875 981.761535644531 976.688659667969 977.522155761719 976.8017578125 979.284729003906 979.867370605469 980.219665527344 971.1826171875 971.414001464844 974.361877441406 972.337707519531 967.369934082031 974.569641113281 977.1279296875 977.967468261719 976.128112792969 968.405944824219 987.281188964844 984.777099609375 983.621032714844 971.532043457031 967.659057617188 968.272399902344 970.745727539062 975.114013671875 973.952209472656 969.403991699219 978.091979980469 974.115173339844 978.527099609375 975.28515625 968.472045898438 977.073303222656 980.731811523438 974.30517578125 970.165710449219 969.667358398438 967.171508789062 966.581787109375 969.393371582031 980.431701660156 979.3564453125 987.567321777344 990.232727050781 985.433410644531 999.127319335938 997.252502441406 989.859741210938 983.716796875 990.198913574219 982.301391601562 977.229064941406 964.798706054688 963.814819335938 966.346984863281 973.523193359375 975.313537597656 977.320922851562 973.476928710938 979.466186523438 988.85107421875 986.874572753906 988.749206542969 988.761291503906 986.962097167969 988.8193359375 977.663146972656 978.226379394531 981.130432128906 984.394775390625 989.977111816406 991.355346679688 989.789855957031 991.398559570312 989.468811035156 997.842468261719 996.258117675781 994.082153320312 989.721130371094 993.494689941406 995.866333007812 1010.31225585938 1006.9921875 1001.18469238281 989.993957519531 980.1142578125 987.140686035156 988.544738769531 985.302490234375 984.788452148438 986.313293457031 985.250671386719 991.120178222656 986.726257324219 999.712341308594 1000.13665771484 1004.68902587891 999.955200195312 999.977172851562 1003.97937011719 1000.27502441406 997.240173339844 997.849853515625 996.249206542969 992.265747070312 998.449829101562 993.893615722656 1000.02471923828 1004.3291015625 1003.92694091797 1009.04132080078 1013.25744628906 1010.01403808594 1007.35772705078 1014.48675537109 1009.14666748047 1014.81506347656 1024.79907226562 1026.73547363281 1032.92224121094 1038.62036132812 1030.95373535156 1039.8310546875 1058.47583007812 1061.1103515625 1073.08264160156 1089.22521972656 1108.67907714844 1116.21264648438 1121.24560546875 1115.6005859375 1115.05261230469 1128.82507324219 1139.49243164062
972.649719238281 978.348510742188 969.924072265625 963.896118164062 968.783142089844 964.092834472656 962.98583984375 963.686889648438 964.715942382812 963.898986816406 966.205749511719 970.223510742188 972.930419921875 973.294738769531 976.415649414062 980.821228027344 976.310974121094 977.810974121094 981.335144042969 973.1005859375 990.317932128906 980.76904296875 978.506408691406 971.554443359375 973.56396484375 968.822082519531 966.048522949219 968.957458496094 969.514099121094 965.36572265625 973.461242675781 968.002624511719 969.478271484375 981.692565917969 986.368408203125 989.2119140625 982.953918457031 973.58203125 969.229309082031 972.127807617188 972.129943847656 980.012329101562 971.482666015625 973.206481933594 976.345520019531 971.814086914062 977.561462402344 969.086303710938 975.048400878906 978.887939453125 965.67919921875 969.620483398438 966.010314941406 971.578063964844 968.910400390625 970.759155273438 970.835327148438 978.03759765625 989.490173339844 995.63134765625 988.217163085938 983.61376953125 980.661193847656 989.470092773438 987.802856445312 986.078735351562 979.498901367188 963.687927246094 956.719055175781 961.620178222656 966.843688964844 973.094543457031 972.841003417969 964.283142089844 968.496215820312 975.908325195312 977.841674804688 984.524963378906 986.359680175781 990.51416015625 982.582336425781 982.033996582031 973.302062988281 970.615966796875 976.995788574219 992.742370605469 995.036010742188 989.552551269531 985.637756347656 982.914978027344 987.734375 988.021362304688 982.719299316406 990.103759765625 988.702880859375 992.629455566406 995.382934570312 1006.12463378906 1005.81610107422 999.940734863281 995.041931152344 986.057434082031 983.438232421875 983.171569824219 982.235229492188 982.497009277344 984.739013671875 985.026123046875 991.301940917969 989.932434082031 989.079772949219 996.908020019531 993.454406738281 1005.18774414062 1004.96954345703 1004.71472167969 997.3544921875 991.405944824219 986.191955566406 990.477905273438 996.156799316406 1002.21771240234 1001.10119628906 999.869873046875 1003.57678222656 1011.10656738281 1020.12744140625 1024.74755859375 1023.26666259766 1019.12725830078 1018.10144042969 1016.31750488281 1014.33807373047 1016.953125 1037.15954589844 1050.900390625 1048.54418945312 1044.68920898438 1055.01892089844 1065.31127929688 1076.79797363281 1086.96350097656 1094.42639160156 1108.66149902344 1120.349609375 1119.78625488281 1128.19506835938 1127.09399414062 1136.11950683594 1135.60168457031
966.773620605469 970.624206542969 963.63427734375 962.522888183594 960.411804199219 952.983032226562 967.225463867188 962.236145019531 954.580688476562 965.154663085938 968.770263671875 972.841796875 973.474731445312 974.076354980469 977.953308105469 976.316162109375 983.344299316406 980.827331542969 981.694885253906 985.478393554688 985.718566894531 974.940673828125 976.300109863281 968.951354980469 962.689697265625 968.463073730469 973.92529296875 971.922180175781 979.067504882812 972.075500488281 979.817443847656 975.4765625 979.387268066406 976.692443847656 990.310302734375 991.7548828125 985.787353515625 976.492797851562 978.341857910156 963.488952636719 977.896118164062 974.816040039062 971.506164550781 973.890625 978.68994140625 983.11328125 973.689025878906 973.862426757812 972.058227539062 973.643310546875 964.815307617188 970.116394042969 977.408813476562 973.955444335938 968.11669921875 968.769836425781 967.081420898438 976.369995117188 989.137512207031 989.665344238281 989.879089355469 980.717102050781 968.686096191406 981.374267578125 985.154602050781 980.723571777344 969.794189453125 955.648864746094 956.937255859375 958.289489746094 959.087951660156 972.149841308594 969.380981445312 960.275146484375 956.793762207031 970.5478515625 972.66259765625 975.232177734375 968.528137207031 983.367248535156 983.482055664062 980.684692382812 970.154174804688 967.861206054688 974.02392578125 993.088317871094 991.038757324219 990.388000488281 986.861511230469 981.913635253906 980.52490234375 989.408386230469 981.167724609375 987.211242675781 991.832702636719 985.796447753906 997.528686523438 991.6494140625 1005.67468261719 1004.38537597656 987.715759277344 997.488525390625 983.304443359375 981.754699707031 983.064270019531 983.79052734375 981.627319335938 987.477783203125 997.243896484375 987.817443847656 994.84619140625 987.715576171875 994.997253417969 990.533935546875 999.642272949219 998.544860839844 997.602294921875 987.471496582031 987.366516113281 986.480407714844 994.662048339844 1000.78326416016 997.478637695312 995.113891601562 1005.51153564453 1014.13079833984 1018.18017578125 1025.50927734375 1029.39184570312 1027.31518554688 1024.89697265625 1027.71923828125 1021.67791748047 1030.97436523438 1041.69616699219 1046.46069335938 1046.80786132812 1052.68273925781 1069.82421875 1071.62097167969 1084.44482421875 1096.37646484375 1097.69287109375 1114.37194824219 1124.16137695312 1128.90844726562 1133.06518554688 1145.40795898438 1150.30993652344 1146.03295898438
960.565307617188 962.195007324219 957.894592285156 961.624267578125 955.264892578125 958.12841796875 957.203369140625 951.082458496094 953.926574707031 964.097229003906 957.447204589844 962.019165039062 964.943054199219 972.55712890625 974.028381347656 979.23876953125 979.054931640625 979.134704589844 977.876159667969 987.434692382812 976.646545410156 974.303161621094 968.202026367188 966.632263183594 970.58740234375 969.296142578125 969.467224121094 981.62548828125 976.233947753906 971.079406738281 979.327880859375 982.042419433594 977.676574707031 983.82177734375 986.299011230469 986.806457519531 983.043823242188 980.839111328125 978.490966796875 980.690734863281 976.279846191406 968.716186523438 962.753479003906 970.360778808594 982.66943359375 975.401062011719 974.0048828125 973.998962402344 967.0439453125 976.335205078125 966.049377441406 969.368713378906 974.506530761719 971.067321777344 971.313659667969 968.218200683594 970.890930175781 975.612548828125 977.369140625 978.351989746094 980.006530761719 981.061828613281 978.718811035156 974.021179199219 974.18408203125 978.075256347656 967.374633789062 961.523986816406 967.184020996094 963.944274902344 959.676330566406 965.096862792969 976.202392578125 968.096923828125 968.959350585938 962.28466796875 967.391662597656 972.503356933594 973.46435546875 977.589233398438 972.009887695312 979.45654296875 979.12744140625 980.692321777344 984.969970703125 985.702880859375 989.067077636719 996.220642089844 989.852783203125 981.034118652344 986.258117675781 989.328247070312 985.03662109375 986.072692871094 987.033142089844 983.360473632812 986.580078125 987.570373535156 992.63134765625 993.374877929688 994.770141601562 991.796142578125 987.133972167969 981.112487792969 982.646728515625 984.350036621094 990.367919921875 998.156860351562 998.084838867188 999.816955566406 997.441467285156 993.142761230469 999.274963378906 991.980590820312 993.184509277344 992.883361816406 994.0078125 996.078125 991.122863769531 990.129821777344 994.3671875 993.43017578125 999.963806152344 1005.84088134766 1009.68743896484 1011.69543457031 1020.63977050781 1023.88232421875 1027.41296386719 1027.99841308594 1024.46154785156 1035.47302246094 1032.51037597656 1035.21020507812 1044.38330078125 1049.84765625 1059.26440429688 1065.72534179688 1077.56494140625 1082.57189941406 1096.07531738281 1104.88330078125 1105.56896972656 1113.625 1122.60083007812 1130.40490722656 1137.48217773438 1156.20544433594 1154.66125488281 1149.36218261719
943.664245605469 947.836547851562 949.683837890625 948.11865234375 946.633178710938 952.343933105469 953.353088378906 950.126708984375 956.107971191406 962.521057128906 962.537231445312 956.241882324219 969.749084472656 976.267944335938 985.980834960938 982.340759277344 978.923828125 981.608642578125 978.551635742188 977.349548339844 975.22119140625 969.067199707031 968.640869140625 964.932434082031 969.73291015625 975.987060546875 972.426452636719 972.324523925781 976.517822265625 973.756408691406 977.980224609375 985.355895996094 983.237060546875 978.869934082031 977.546020507812 976.446411132812 970.819396972656 971.37939453125 977.471008300781 974.176147460938 979.497314453125 978.158996582031 970.924621582031 968.818481445312 969.000305175781 966.8408203125 966.915832519531 974.930847167969 970.219604492188 972.595886230469 964.950561523438 968.029479980469 964.626831054688 968.608276367188 969.428039550781 966.688110351562 972.828247070312 963.764343261719 972.644836425781 978.181823730469 978.485229492188 980.845520019531 978.76025390625 973.668212890625 972.960388183594 983.400695800781 969.173034667969 969.679138183594 966.048400878906 970.5244140625 966.981994628906 966.645324707031 965.068969726562 974.438354492188 972.152709960938 968.091796875 974.743103027344 979.941101074219 974.323120117188 976.471008300781 968.290588378906 970.780700683594 970.029479980469 976.659973144531 988.783264160156 984.877502441406 984.937438964844 993.742004394531 990.845397949219 979.756225585938 978.370300292969 984.057312011719 983.886535644531 981.2392578125 985.26953125 982.265258789062 975.74658203125 978.809814453125 991.172119140625 991.494018554688 983.580017089844 981.173767089844 988.627075195312 990.971618652344 991.527404785156 992.279846191406 995.723876953125 992.456359863281 984.265563964844 985.563110351562 980.345703125 988.412902832031 983.322692871094 997.805419921875 993.435791015625 993.444580078125 989.550231933594 990.042907714844 997.3984375 998.070861816406 999.606079101562 1000.28405761719 1000.36755371094 1007.75073242188 1007.51220703125 1020.57189941406 1022.37237548828 1019.44195556641 1028.32067871094 1038.83764648438 1040.95629882812 1040.60107421875 1032.74255371094 1033.791015625 1052.66796875 1052.62573242188 1058.01416015625 1066.63256835938 1082.88159179688 1098.74853515625 1110.95642089844 1118.28747558594 1118.01770019531 1121.845703125 1134.72778320312 1138.70336914062 1150.04638671875 1155.32702636719 1152.21325683594 1140.10437011719
948.974060058594 948.474304199219 950.65087890625 951.99951171875 953.418212890625 952.9775390625 956.415832519531 956.973205566406 963.345947265625 959.898620605469 958.081481933594 957.228515625 965.944274902344 971.693176269531 975.781860351562 980.271118164062 968.239868164062 974.750854492188 974.946350097656 975.55517578125 971.781616210938 963.007019042969 960.561767578125 959.036743164062 962.256896972656 966.393615722656 973.588745117188 974.9892578125 980.467712402344 982.454711914062 979.413024902344 981.312622070312 979.024291992188 976.444458007812 966.852172851562 966.958801269531 975.092712402344 968.431274414062 964.940185546875 977.378845214844 973.022094726562 981.023864746094 975.640747070312 965.098693847656 967.991882324219 968.205993652344 967.728881835938 970.708801269531 974.64404296875 975.752258300781 971.992980957031 970.172790527344 971.901733398438 970.385620117188 969.721557617188 967.39111328125 963.826049804688 964.754638671875 970.131103515625 972.165649414062 973.130432128906 967.848327636719 965.611083984375 963.074096679688 971.351989746094 976.087524414062 973.065307617188 972.921752929688 970.455200195312 970.716613769531 965.119445800781 968.741149902344 966.603820800781 979.145446777344 975.21630859375 970.552062988281 975.907531738281 972.878173828125 974.536987304688 974.779602050781 972.241149902344 972.306884765625 967.569458007812 966.410461425781 968.603759765625 972.345275878906 977.007019042969 983.271240234375 983.479370117188 983.024780273438 980.123474121094 977.408630371094 976.344909667969 977.374084472656 977.191223144531 981.305541992188 977.291442871094 980.827758789062 993.628845214844 985.728393554688 987.135192871094 988.964965820312 981.412536621094 975.755126953125 976.2265625 983.016174316406 988.434143066406 985.892028808594 980.521423339844 977.659301757812 978.9814453125 991.439453125 996.866577148438 998.182739257812 1001.29962158203 1003.18798828125 997.195251464844 994.781188964844 1005.86975097656 1000.60461425781 999.86181640625 1000.44500732422 998.156921386719 1004.54577636719 1014.30255126953 1023.73114013672 1026.47717285156 1021.92944335938 1025.65209960938 1036.48669433594 1045.79760742188 1039.2373046875 1053.04089355469 1057.62487792969 1061.36120605469 1064.52221679688 1065.27490234375 1074.29187011719 1086.69653320312 1102.16101074219 1108.75268554688 1121.615234375 1122.01538085938 1128.29577636719 1140.80786132812 1150.34069824219 1153.6884765625 1161.05932617188 1163.01379394531 1151.20471191406
940.600830078125 947.102355957031 948.761413574219 960.942687988281 962.388366699219 956.658386230469 957.466918945312 969.192443847656 969.530578613281 970.35009765625 965.476684570312 965.760559082031 969.614929199219 981.200561523438 985.073303222656 980.061584472656 977.268127441406 977.098937988281 979.252319335938 977.077880859375 971.206909179688 962.580871582031 968.004272460938 964.303161621094 960.288940429688 971.441467285156 968.412841796875 974.900329589844 976.002197265625 977.394592285156 979.966735839844 982.423400878906 979.579406738281 965.164184570312 961.662475585938 969.588745117188 965.728149414062 964.39794921875 968.125061035156 972.4697265625 984.513977050781 980.865783691406 984.403198242188 969.557556152344 972.597839355469 970.705139160156 960.405456542969 964.8984375 965.776733398438 971.833190917969 971.839904785156 971.158447265625 970.415893554688 970.292907714844 967.7939453125 971.825317382812 970.998229980469 967.939575195312 971.16552734375 967.119750976562 979.168090820312 969.585632324219 965.480895996094 969.292358398438 976.448120117188 978.620788574219 972.989990234375 977.248168945312 976.044860839844 974.258911132812 966.499145507812 979.793273925781 983.192565917969 973.054992675781 969.175537109375 971.070556640625 967.611694335938 973.822143554688 970.914245605469 970.441711425781 968.133056640625 971.850219726562 966.373962402344 963.130676269531 961.965576171875 974.36962890625 972.350463867188 964.627014160156 972.455200195312 972.975463867188 974.756164550781 975.441772460938 979.997192382812 975.824951171875 976.165405273438 981.419860839844 984.630432128906 981.882507324219 985.834411621094 984.981628417969 986.284423828125 980.449768066406 982.205871582031 973.169677734375 972.264587402344 975.530700683594 978.145385742188 985.449035644531 985.717895507812 983.341003417969 991.012329101562 995.765563964844 998.483032226562 1003.17706298828 997.021240234375 1006.79943847656 1006.67974853516 1002.57354736328 1007.36694335938 1004.77984619141 1001.69866943359 1006.15612792969 996.37451171875 1005.0546875 1009.76837158203 1017.63372802734 1022.41400146484 1024.49230957031 1022.26898193359 1035.12036132812 1042.88146972656 1044.67846679688 1048.40808105469 1064.63293457031 1068.53686523438 1072.36669921875 1078.90551757812 1071.822265625 1091.42907714844 1105.03125 1119.55932617188 1125.23181152344 1133.25170898438 1138.33203125 1146.5380859375 1151.68627929688 1157.74694824219 1167.39086914062 1167.4375 1160.05834960938
947.209716796875 946.655151367188 947.193420410156 965.401062011719 960.922546386719 950.775390625 958.156799316406 966.716186523438 972.027954101562 974.182922363281 964.287292480469 962.16064453125 963.311279296875 976.69287109375 976.726806640625 979.098510742188 965.401245117188 967.242004394531 974.761535644531 981.891357421875 971.89794921875 969.23095703125 963.165649414062 960.151977539062 966.941040039062 964.022888183594 968.053344726562 974.426879882812 979.734558105469 976.279724121094 971.274597167969 975.994262695312 972.494873046875 972.371765136719 969.733520507812 972.986206054688 963.718444824219 973.00146484375 964.506530761719 961.126342773438 976.107116699219 979.614196777344 975.309204101562 979.745483398438 968.608093261719 969.083618164062 960.987854003906 955.962036132812 967.783386230469 974.890563964844 974.38720703125 977.458679199219 972.2880859375 969.638671875 973.40234375 978.005187988281 971.950622558594 965.609619140625 969.236267089844 971.760009765625 972.521667480469 968.491333007812 969.487121582031 968.920166015625 969.711059570312 967.096130371094 965.846557617188 973.297790527344 976.255493164062 967.017211914062 971.067077636719 982.867614746094 979.612060546875 966.926940917969 971.184509277344 975.661315917969 974.374145507812 970.275573730469 972.95703125 967.280151367188 976.51611328125 966.113464355469 968.676330566406 964.301452636719 967.229064941406 974.929565429688 969.407897949219 965.958984375 967.127868652344 972.367858886719 980.38916015625 975.898620605469 970.804565429688 973.593200683594 977.947021484375 982.170776367188 983.508605957031 989.459594726562 989.471069335938 983.736450195312 979.360595703125 977.771850585938 980.081176757812 987.440002441406 982.886840820312 983.311706542969 999.028137207031 990.841247558594 982.861206054688 990.118896484375 994.748962402344 1003.64416503906 1005.98126220703 1008.12182617188 1006.59747314453 1012.57574462891 1011.333984375 1012.60272216797 1010.29144287109 1006.75183105469 1005.33782958984 1004.13012695312 1004.5087890625 1014.6435546875 1012.79333496094 1020.98059082031 1033.30505371094 1033.05554199219 1024.55200195312 1041.94555664062 1053.88391113281 1052.89501953125 1060.4853515625 1060.990234375 1063.02416992188 1067.91198730469 1070.33837890625 1078.99719238281 1092.72045898438 1108.11291503906 1111.91345214844 1117.14099121094 1133.54541015625 1137.88842773438 1151.27331542969 1158.16088867188 1162.72570800781 1162.07312011719 1166.68908691406 1166.17175292969
945.462219238281 950.939880371094 953.623291015625 960.646789550781 961.891052246094 964.026306152344 958.449157714844 962.139892578125 970.907409667969 969.049560546875 966.801574707031 964.129333496094 968.956909179688 978.401916503906 977.881103515625 977.409729003906 973.2470703125 974.742919921875 971.234680175781 980.305419921875 972.671203613281 964.587646484375 970.866455078125 961.818481445312 962.948303222656 961.923461914062 962.080261230469 975.789855957031 975.820861816406 970.1826171875 965.975341796875 972.125854492188 964.575561523438 967.821105957031 971.025695800781 966.803283691406 971.117553710938 967.247253417969 963.663024902344 967.169372558594 967.111022949219 967.320983886719 973.920593261719 971.042236328125 958.356079101562 957.628356933594 960.047424316406 960.45703125 966.867919921875 970.691589355469 975.967224121094 966.392578125 971.663269042969 970.026916503906 966.361999511719 965.906982421875 958.682861328125 970.684387207031 969.892639160156 966.198974609375 969.876892089844 970.700439453125 962.447692871094 970.309020996094 966.843200683594 966.843872070312 965.53271484375 974.474792480469 973.213928222656 969.10986328125 972.658874511719 969.3984375 955.951538085938 968.335571289062 964.941101074219 974.097961425781 968.9951171875 966.68701171875 962.126892089844 968.776428222656 972.190612792969 968.722717285156 976.746337890625 969.154968261719 965.040710449219 977.703491210938 967.352600097656 963.704895019531 970.006958007812 974.130676269531 976.687438964844 973.69189453125 977.037536621094 971.677062988281 983.051879882812 984.500854492188 990.435424804688 990.414245605469 990.544189453125 984.445068359375 976.450134277344 983.770324707031 995.853149414062 992.111389160156 985.800048828125 995.939880371094 1002.55584716797 995.716064453125 995.242431640625 980.209594726562 994.996765136719 1009.35601806641 1010.97979736328 1008.73773193359 1016.79461669922 1008.25994873047 1004.42736816406 1009.94921875 1007.326171875 1008.10528564453 1002.62579345703 997.354248046875 992.882385253906 1007.41644287109 1023.27978515625 1032.29577636719 1035.49365234375 1030.49829101562 1036.57958984375 1045.20361328125 1059.31176757812 1054.02197265625 1063.08728027344 1058.67248535156 1066.37170410156 1064.88916015625 1076.77575683594 1074.01843261719 1089.76293945312 1102.92590332031 1111.365234375 1109.9306640625 1123.27099609375 1144.98986816406 1152.69323730469 1166.7744140625 1160.61877441406 1162.08483886719 1150.34716796875 1163.91247558594
958.763610839844 953.373352050781 956.838623046875 957.138061523438 958.176330566406 958.440368652344 958.467346191406 969.461547851562 960.401428222656 965.591857910156 960.732543945312 973.046875 972.134826660156 984.549621582031 985.356689453125 975.520202636719 974.519104003906 976.118286132812 973.671081542969 973.795532226562 973.985534667969 961.770629882812 958.76318359375 962.347900390625 960.826293945312 954.741271972656 957.616394042969 966.069885253906 973.048034667969 965.454833984375 968.569702148438 971.094909667969 969.814697265625 974.158020019531 975.35400390625 965.406921386719 958.386108398438 960.877319335938 966.089233398438 956.582336425781 964.596618652344 966.12548828125 963.796875 963.073913574219 956.741394042969 962.645874023438 957.929565429688 965.2548828125 971.307250976562 965.225769042969 974.269836425781 968.409729003906 969.652770996094 962.72607421875 966.887939453125 959.125 965.322998046875 974.920288085938 976.221801757812 972.164184570312 970.48388671875 970.379943847656 970.201843261719 973.671630859375 969.619262695312 970.8017578125 969.069885253906 967.952270507812 969.694519042969 966.273193359375 960.509460449219 958.294067382812 959.6708984375 961.590209960938 965.955871582031 973.25732421875 975.489501953125 969.724731445312 965.763427734375 966.653381347656 965.057067871094 972.343383789062 967.534362792969 971.100402832031 975.564819335938 974.690246582031 965.531921386719 966.943969726562 968.360290527344 968.462341308594 962.937133789062 964.537963867188 974.757568359375 973.85400390625 981.726806640625 983.842041015625 979.064270019531 976.231140136719 976.013061523438 981.31689453125 978.453857421875 987.28515625 995.512878417969 991.654724121094 1002.94622802734 1001.89459228516 1007.71539306641 994.326782226562 995.501953125 994.991149902344 993.371765136719 1005.31024169922 1002.09985351562 1002.12445068359 998.683227539062 1008.71960449219 1012.90844726562 1008.26879882812 1011.78918457031 1012.07452392578 1008.30090332031 995.0830078125 1000.14715576172 1009.0849609375 1020.86779785156 1029.22204589844 1031.19775390625 1029.25866699219 1040.38244628906 1052.41723632812 1061.73461914062 1062.6611328125 1061.51599121094 1063.74377441406 1063.78576660156 1072.29858398438 1068.67761230469 1073.34899902344 1084.48718261719 1095.658203125 1108.70910644531 1115.96154785156 1133.73034667969 1145.87756347656 1152.79602050781 1161.78466796875 1161.78564453125 1143.21020507812 1147.5673828125 1154.00915527344
953.328247070312 956.964050292969 958.720886230469 950.416076660156 960.829528808594 969.817199707031 970.624877929688 963.021057128906 968.139099121094 969.322509765625 965.39013671875 970.662658691406 977.6728515625 979.903747558594 992.415771484375 974.07470703125 971.803039550781 975.894348144531 970.778747558594 978.576782226562 974.216064453125 962.473327636719 961.850341796875 965.310607910156 955.967346191406 958.395690917969 962.090148925781 962.476989746094 965.724426269531 971.46044921875 966.346313476562 965.068237304688 964.271667480469 967.347595214844 968.053894042969 966.676879882812 967.731811523438 966.888244628906 968.480773925781 959.651733398438 971.20556640625 967.132934570312 952.710144042969 958.881042480469 961.8720703125 959.858520507812 960.757385253906 964.985412597656 959.067260742188 957.178039550781 965.392395019531 972.453063964844 972.592163085938 960.757751464844 963.046630859375 960.146606445312 964.019653320312 971.090759277344 976.50244140625 983.634826660156 975.42431640625 973.692993164062 972.845825195312 972.368347167969 970.528747558594 980.355407714844 979.886657714844 978.018798828125 970.570556640625 966.906066894531 967.553405761719 963.714233398438 955.232727050781 954.520935058594 959.002990722656 968.194458007812 973.176513671875 974.616638183594 969.619384765625 969.988952636719 967.363464355469 965.601928710938 964.281616210938 967.064270019531 976.037353515625 978.242736816406 963.277526855469 965.720642089844 969.478637695312 964.153930664062 969.168212890625 973.059020996094 974.351989746094 970.0078125 970.584777832031 977.931396484375 972.406433105469 977.504455566406 974.273803710938 983.673706054688 988.450256347656 998.285461425781 995.468444824219 1000.21258544922 998.713195800781 1004.92572021484 1009.45373535156 1001.83673095703 1000.11975097656 995.158081054688 993.427612304688 991.263000488281 997.053283691406 997.190124511719 1001.34112548828 1004.95220947266 1010.06359863281 1002.75103759766 1003.35894775391 1006.03198242188 1004.94519042969 994.853515625 998.701232910156 1004.70916748047 1019.17797851562 1034.79956054688 1031.12475585938 1034.16760253906 1037.5244140625 1049.96484375 1057.35583496094 1057.5771484375 1057.51599121094 1063.13793945312 1068.20275878906 1070.00695800781 1076.15356445312 1072.12365722656 1089.83081054688 1097.20886230469 1104.55505371094 1110.31774902344 1131.3134765625 1138.82507324219 1139.73876953125 1154.376953125 1151.20361328125 1141.560546875 1138.27185058594 1140.09753417969
953.398376464844 966.148986816406 965.833984375 958.246032714844 958.956604003906 969.561889648438 969.653869628906 968.802490234375 970.711669921875 966.031494140625 966.381774902344 971.046447753906 980.52880859375 981.614624023438 982.035888671875 977.541870117188 966.309814453125 973.360473632812 963.355163574219 967.166870117188 968.988220214844 969.401916503906 964.082885742188 960.326416015625 967.267944335938 964.283386230469 956.010375976562 954.249206542969 961.508728027344 967.508850097656 970.091979980469 970.798095703125 965.840881347656 965.06591796875 968.956909179688 977.385864257812 976.06005859375 976.167114257812 972.864868164062 967.913818359375 962.032043457031 955.199829101562 958.847290039062 950.460632324219 962.653137207031 974.2705078125 965.203674316406 955.350952148438 954.408386230469 967.889953613281 965.716674804688 974.488586425781 976.413452148438 962.573181152344 964.471618652344 956.55029296875 948.789855957031 961.042297363281 974.750732421875 974.119995117188 975.477233886719 972.643005371094 960.786682128906 970.01611328125 973.810241699219 972.471008300781 977.058715820312 983.808227539062 970.789916992188 965.641662597656 968.108337402344 967.074096679688 967.635498046875 964.283752441406 968.460571289062 977.089904785156 974.190490722656 970.966064453125 964.222412109375 968.339477539062 973.724243164062 968.0322265625 968.541015625 970.01708984375 976.833801269531 974.469116210938 971.782470703125 972.917358398438 966.164367675781 964.861511230469 969.275634765625 973.818542480469 979.758239746094 972.724670410156 972.877990722656 970.608764648438 974.107971191406 974.734375 986.143737792969 985.001770019531 987.951965332031 989.380432128906 990.390747070312 983.541687011719 997.755249023438 1006.09448242188 1005.44757080078 1000.37738037109 994.365905761719 988.917724609375 993.87451171875 988.254455566406 991.637145996094 997.789184570312 1010.59161376953 1010.42828369141 1010.52844238281 1011.82312011719 1002.10406494141 1010.70440673828 1002.60693359375 998.3662109375 1000.05108642578 1012.84411621094 1027.193359375 1027.49072265625 1030.48645019531 1033.46667480469 1039.39184570312 1035.71716308594 1047.17370605469 1055.10412597656 1052.87292480469 1059.65856933594 1067.16540527344 1079.359375 1077.88146972656 1078.35095214844 1092.95947265625 1100.9970703125 1108.02294921875 1122.85498046875 1133.94384765625 1139.90588378906 1133.60998535156 1140.73291015625 1139.455078125 1141.15661621094 1134.74084472656 1137.14196777344
958.578735351562 961.242797851562 969.7705078125 969.319946289062 970.825378417969 963.429016113281 972.358642578125 974.710632324219 964.136474609375 964.740112304688 968.566772460938 974.970458984375 979.087768554688 979.8291015625 970.970031738281 971.043273925781 960.730712890625 969.277038574219 972.112121582031 966.893005371094 969.691589355469 960.808166503906 959.87255859375 959.556884765625 955.5048828125 957.938537597656 957.000549316406 951.462829589844 958.828002929688 972.955139160156 972.305297851562 966.538635253906 968.317321777344 961.584228515625 958.132446289062 963.243835449219 970.811584472656 974.028503417969 960.604064941406 955.233276367188 955.919738769531 960.573303222656 963.773010253906 960.130798339844 960.583740234375 964.421325683594 962.369567871094 959.792846679688 961.436401367188 974.757385253906 972.300231933594 977.050598144531 974.589904785156 967.736755371094 962.883178710938 959.459777832031 958.278564453125 964.881958007812 969.400695800781 967.856384277344 969.967224121094 971.098022460938 959.619018554688 967.231079101562 968.429443359375 974.712585449219 977.286010742188 968.897766113281 967.80810546875 966.79736328125 969.651611328125 977.291320800781 974.570983886719 966.870239257812 974.523132324219 973.007080078125 965.248596191406 966.282531738281 971.389587402344 964.399719238281 961.618347167969 967.847045898438 960.892456054688 960.451538085938 967.895324707031 962.538391113281 955.030517578125 966.833312988281 973.832458496094 972.942260742188 974.922485351562 977.548583984375 975.729858398438 975.6708984375 973.2900390625 972.913269042969 971.22802734375 975.410400390625 978.461364746094 979.440063476562 984.040832519531 977.62255859375 988.049987792969 981.361511230469 983.9833984375 994.706176757812 994.329406738281 997.648132324219 995.750854492188 990.440368652344 988.254455566406 991.2734375 995.106689453125 1002.33673095703 1014.79614257812 1011.69714355469 1016.07641601562 1010.71588134766 1010.92340087891 1007.58050537109 1010.50872802734 1008.27520751953 1012.60882568359 1026.72961425781 1039.07397460938 1035.974609375 1038.17443847656 1039.32434082031 1035.40979003906 1034.11608886719 1037.68310546875 1053.65881347656 1059.12280273438 1056.51110839844 1057.16186523438 1074.60815429688 1074.37561035156 1081.51342773438 1097.13354492188 1104.265625 1117.83361816406 1122.13366699219 1129.50744628906 1130.0546875 1125.8642578125 1127.03259277344 1125.03894042969 1129.04699707031 1124.18090820312 1130.2724609375
960.948364257812 963.272705078125 974.060363769531 977.969848632812 971.506164550781 967.746704101562 969.2919921875 967.967895507812 967.609375 964.353698730469 969.139282226562 973.266174316406 971.567810058594 977.511169433594 982.359375 970.056518554688 964.121032714844 970.118530273438 962.331665039062 965.21142578125 958.694885253906 959.798767089844 963.385192871094 960.634033203125 966.391235351562 957.371643066406 963.983642578125 963.498596191406 962.2314453125 972.399841308594 972.185607910156 970.927429199219 956.030090332031 955.220581054688 965.136352539062 964.137023925781 966.608093261719 967.3515625 965.286804199219 959.245971679688 952.388244628906 951.602478027344 968.07568359375 968.601135253906 962.567687988281 963.469421386719 963.657287597656 954.283996582031 955.993957519531 965.55859375 969.218383789062 978.101257324219 967.555419921875 957.966857910156 960.826232910156 955.091369628906 957.821655273438 962.863708496094 975.424865722656 965.179809570312 959.594787597656 962.244018554688 952.63623046875 959.421447753906 961.950561523438 962.103759765625 971.489196777344 961.986145019531 960.911071777344 956.274169921875 968.921142578125 963.873596191406 967.454833984375 972.971435546875 965.955444335938 968.121154785156 970.572326660156 966.193298339844 962.874877929688 961.276306152344 959.935424804688 958.961975097656 959.034790039062 960.575500488281 956.314392089844 954.867065429688 957.565185546875 963.188659667969 967.898559570312 964.462951660156 971.894226074219 975.287475585938 980.369384765625 973.250549316406 971.830932617188 976.123901367188 969.778198242188 974.789855957031 972.396423339844 979.969909667969 985.758911132812 976.625366210938 965.906127929688 972.850463867188 974.480346679688 983.699829101562 988.233947753906 991.822021484375 989.95751953125 992.083557128906 980.671081542969 989.921203613281 1001.19073486328 1005.93927001953 1017.59942626953 1002.76611328125 1001.98175048828 1006.205078125 1007.85601806641 1013.70666503906 1014.13464355469 1017.03857421875 1018.82189941406 1031.04113769531 1033.3798828125 1034.62744140625 1039.66723632812 1034.74975585938 1035.78466796875 1036.5654296875 1037.01220703125 1042.47778320312 1059.54418945312 1057.16040039062 1070.21264648438 1078.66235351562 1073.40783691406 1082.44396972656 1095.66040039062 1106.31213378906 1116.55688476562 1117.39770507812 1122.15930175781 1126.30786132812 1118.55456542969 1119.08520507812 1108.404296875 1112.72863769531 1120.42163085938 1121.80297851562
959.976501464844 958.759033203125 966.528503417969 976.228576660156 973.426513671875 964.558654785156 974.20458984375 982.481018066406 966.445007324219 972.648254394531 976.512145996094 980.132385253906 979.105651855469 975.595703125 980.09326171875 982.471069335938 972.6044921875 968.565673828125 959.602233886719 955.37255859375 958.531005859375 960.596923828125 960.044738769531 957.196228027344 959.635803222656 962.742065429688 970.538146972656 969.264526367188 968.517700195312 962.845886230469 973.721557617188 963.975219726562 953.333435058594 960.03369140625 963.973693847656 962.402099609375 972.792419433594 963.082153320312 970.143859863281 958.602172851562 953.615539550781 959.221740722656 970.704650878906 969.833374023438 961.399841308594 959.64697265625 962.248901367188 956.500610351562 953.399780273438 958.235656738281 956.85302734375 960.511840820312 966.180053710938 956.619018554688 956.552978515625 955.897766113281 963.584777832031 958.823669433594 961.392333984375 960.526306152344 949.686828613281 954.128051757812 956.2412109375 950.951171875 956.802795410156 961.158325195312 961.726196289062 954.772644042969 959.532592773438 966.009460449219 956.861206054688 962.105651855469 961.721435546875 970.24072265625 968.731506347656 960.378479003906 961.930236816406 960.702819824219 961.077697753906 963.399536132812 964.030883789062 960.736877441406 958.60693359375 958.450988769531 951.546508789062 961.5234375 956.581359863281 969.24365234375 976.079040527344 966.623962402344 973.81005859375 980.521362304688 971.981811523438 977.766174316406 982.300598144531 975.221923828125 976.627868652344 981.740417480469 981.70703125 977.086059570312 983.517456054688 968.812927246094 967.252990722656 965.248291015625 971.906860351562 984.318420410156 986.303100585938 989.057434082031 989.087280273438 984.897033691406 985.801391601562 985.809204101562 999.222045898438 1000.27111816406 1008.7509765625 1009.12469482422 1002.06878662109 1008.05200195312 1010.91491699219 1013.37603759766 1018.50433349609 1021.44195556641 1016.22540283203 1025.74291992188 1037.15551757812 1034.7275390625 1034.24816894531 1036.703125 1033.04382324219 1028.51989746094 1033.38732910156 1037.14318847656 1063.15014648438 1068.25146484375 1077.51538085938 1080.66223144531 1083.7626953125 1086.60705566406 1087.50512695312 1103.87768554688 1106.04150390625 1108.37353515625 1112.00842285156 1110.02233886719 1110.11633300781 1099.84936523438 1103.63488769531 1105.95104980469 1107.9296875 1111.18383789062
963.169982910156 961.783996582031 967.784240722656 968.750427246094 969.981872558594 964.000366210938 974.293334960938 980.725158691406 980.226989746094 981.4619140625 978.395874023438 982.335144042969 982.982177734375 976.835083007812 972.921142578125 969.594787597656 968.949157714844 969.534240722656 966.015319824219 962.153015136719 959.795471191406 962.4013671875 961.586608886719 960.127868652344 968.060791015625 959.615356445312 958.3056640625 958.974731445312 950.824462890625 960.654541015625 965.710998535156 952.283813476562 962.043823242188 961.667297363281 962.806335449219 965.902709960938 968.929809570312 962.301452636719 962.278076171875 953.286254882812 950.248352050781 954.572326660156 967.313598632812 965.706604003906 956.306274414062 961.520080566406 963.696166992188 961.076965332031 952.290405273438 952.866882324219 954.329956054688 960.916381835938 950.548583984375 951.583984375 960.331481933594 964.619812011719 965.857666015625 960.94921875 954.030639648438 955.8271484375 957.556274414062 952.214416503906 945.308959960938 955.601196289062 964.833679199219 966.607055664062 966.273193359375 965.133483886719 965.638916015625 979.643249511719 964.199951171875 959.986083984375 964.376037597656 960.244812011719 964.067626953125 961.064819335938 955.33984375 959.468139648438 966.193054199219 959.849548339844 964.958251953125 968.428039550781 958.723266601562 958.749206542969 959.8125 957.288940429688 956.274475097656 966.648315429688 973.38134765625 970.324584960938 972.602600097656 973.609130859375 978.363098144531 980.005065917969 975.38330078125 972.773376464844 978.747131347656 987.124145507812 979.982116699219 977.483459472656 976.029235839844 967.205139160156 968.605041503906 969.973571777344 974.704772949219 979.875793457031 980.1689453125 989.349731445312 985.085266113281 984.121643066406 988.362182617188 997.063842773438 988.397338867188 1002.18835449219 997.386047363281 1005.12579345703 1002.14581298828 1012.17932128906 1009.12591552734 1012.46063232422 1028.38562011719 1020.37316894531 1021.89105224609 1021.51025390625 1031.43835449219 1030.46716308594 1033.66711425781 1026.99035644531 1031.24072265625 1029.58215332031 1032.11767578125 1039.01110839844 1064.0419921875 1078.85778808594 1085.51977539062 1094.67810058594 1091.123046875 1088.16125488281 1091.50219726562 1098.59167480469 1096.61047363281 1095.37890625 1101.38293457031 1094.81469726562 1091.82568359375 1085.20227050781 1084.13354492188 1097.22827148438 1099.61279296875 1103.32592773438
963.806884765625 969.786376953125 973.170104980469 971.663696289062 974.117004394531 971.248413085938 973.836242675781 974.279296875 978.102905273438 969.971252441406 966.460388183594 977.844787597656 974.826293945312 971.041076660156 973.682250976562 973.786193847656 963.0810546875 974.04345703125 966.88134765625 958.014770507812 968.5146484375 975.058837890625 965.878845214844 962.484619140625 966.873779296875 962.71728515625 961.6103515625 956.277587890625 962.323486328125 964.118408203125 966.770935058594 965.547302246094 958.034362792969 954.388122558594 961.631530761719 963.455749511719 959.430236816406 958.192016601562 957.643432617188 955.516174316406 954.478271484375 964.042785644531 967.512573242188 969.572021484375 965.890014648438 960.387634277344 960.640197753906 953.85546875 957.833557128906 959.481872558594 949.153503417969 945.841186523438 951.080810546875 955.116455078125 960.252014160156 959.796020507812 962.431335449219 961.371276855469 961.246704101562 952.854797363281 958.096374511719 953.008422851562 949.57177734375 958.861145019531 954.294067382812 967.428955078125 969.358947753906 966.728820800781 969.533813476562 967.650024414062 966.84912109375 959.170471191406 960.264892578125 962.86328125 961.136657714844 960.791076660156 959.056274414062 963.265319824219 971.336730957031 961.075866699219 962.155334472656 961.823303222656 959.806457519531 951.237121582031 955.213195800781 960.963134765625 963.716186523438 971.910888671875 968.559326171875 971.531982421875 967.452453613281 965.037902832031 968.973510742188 966.583312988281 963.195556640625 969.997741699219 976.014465332031 982.710815429688 980.257995605469 970.103332519531 976.740783691406 976.176818847656 979.254638671875 976.581237792969 979.087890625 968.9619140625 969.025329589844 977.029907226562 975.405212402344 985.870361328125 983.069274902344 989.937377929688 990.650695800781 992.206970214844 1000.46905517578 999.25244140625 1000.52478027344 1006.29595947266 1012.10278320312 1020.70776367188 1024.36096191406 1022.68994140625 1017.31774902344 1010.61102294922 1018.63146972656 1027.60717773438 1021.40185546875 1027.22631835938 1037.43298339844 1034.45104980469 1043.89636230469 1045.76062011719 1062.03271484375 1072.705078125 1080.41467285156 1091.78930664062 1090.90319824219 1089.42761230469 1092.2822265625 1091.54187011719 1085.46496582031 1077.61291503906 1083.16491699219 1084.1962890625 1079.30676269531 1079.2578125 1076.47546386719 1086.17224121094 1091.31372070312 1092.03869628906
969.987243652344 972.510925292969 971.386840820312 972.565246582031 978.986389160156 972.482116699219 969.755859375 972.636352539062 964.197937011719 963.423034667969 962.701232910156 966.037048339844 974.276550292969 978.398132324219 975.092163085938 984.723449707031 979.095581054688 974.205810546875 965.133178710938 959.138916015625 967.2578125 977.289306640625 970.035705566406 962.036682128906 964.761352539062 964.576416015625 959.913513183594 950.242370605469 948.203002929688 956.772644042969 956.342102050781 957.500732421875 951.070861816406 946.391052246094 952.127990722656 958.326782226562 959.04248046875 956.123168945312 954.431030273438 960.273864746094 959.883666992188 961.757690429688 963.822570800781 959.787475585938 959.346069335938 954.063049316406 954.2958984375 950.908813476562 950.780700683594 957.625366210938 954.151245117188 950.872802734375 951.765563964844 958.08935546875 958.8466796875 958.533996582031 955.61328125 958.725402832031 956.398620605469 953.860107421875 958.2578125 951.634338378906 954.536804199219 955.935546875 957.985595703125 958.9404296875 959.655700683594 965.868469238281 964.868286132812 973.843627929688 964.017822265625 959.587646484375 951.707702636719 955.519226074219 954.836242675781 962.773498535156 965.205017089844 970.298400878906 969.423583984375 967.388732910156 963.727111816406 963.723388671875 961.952697753906 962.119873046875 964.69189453125 966.277160644531 965.218322753906 971.367431640625 976.3125 964.692443847656 965.497802734375 968.026489257812 963.630187988281 977.916137695312 974.335632324219 969.049743652344 970.729064941406 984.883117675781 986.908935546875 974.601928710938 983.833557128906 974.308776855469 972.81494140625 966.12548828125 977.349182128906 981.902648925781 985.591674804688 979.796569824219 988.786865234375 988.052612304688 990.801879882812 987.560546875 983.186462402344 985.827209472656 985.784057617188 988.084533691406 997.432373046875 1014.93060302734 1009.72894287109 1013.84521484375 1015.4365234375 1015.81982421875 1005.58349609375 1009.0908203125 1011.33361816406 1019.60327148438 1032.52087402344 1033.36804199219 1044.19311523438 1041.90563964844 1039.06958007812 1050.93029785156 1069.66174316406 1071.59033203125 1077.23327636719 1088.04431152344 1083.134765625 1090.25219726562 1089.00720214844 1080.43286132812 1074.19616699219 1062.47534179688 1065.19982910156 1066.73876953125 1063.45080566406 1072.33825683594 1084.67614746094 1088.20947265625 1085.70788574219 1082.76599121094
976.832824707031 972.011474609375 974.77197265625 976.856567382812 971.012390136719 970.214111328125 968.246948242188 969.040100097656 971.876403808594 959.466003417969 960.06201171875 961.320190429688 974.837097167969 977.141723632812 970.85693359375 975.021911621094 976.151306152344 971.70703125 967.7861328125 963.336730957031 966.750427246094 972.373107910156 966.55810546875 962.534912109375 962.325866699219 954.632629394531 945.219848632812 949.344177246094 947.18701171875 951.295227050781 955.089233398438 954.047241210938 962.709289550781 950.6728515625 947.806213378906 954.430603027344 952.72119140625 953.863220214844 958.88037109375 958.556762695312 959.102722167969 957.811828613281 965.487487792969 956.947082519531 956.806396484375 961.326477050781 963.692260742188 957.61279296875 954.773071289062 954.370422363281 957.196166992188 944.226684570312 950.263549804688 959.541259765625 951.941833496094 959.0322265625 953.810913085938 957.568420410156 954.854797363281 953.23291015625 958.727844238281 953.139465332031 962.793640136719 965.467224121094 968.350769042969 961.380432128906 962.960266113281 960.935607910156 966.664489746094 968.709777832031 965.530456542969 956.835144042969 959.083068847656 957.893920898438 954.275390625 965.1923828125 965.086608886719 965.711975097656 971.198181152344 966.321472167969 964.806335449219 956.006408691406 962.681762695312 964.82373046875 962.166748046875 973.175537109375 967.813110351562 973.446350097656 976.591796875 964.912292480469 963.035095214844 964.29150390625 976.559692382812 967.288330078125 977.872802734375 968.993713378906 977.108093261719 986.40234375 981.447448730469 979.306823730469 979.88623046875 979.359802246094 969.900390625 964.187744140625 981.099243164062 983.716552734375 991.989990234375 990.41748046875 996.548645019531 987.646728515625 984.383911132812 982.205688476562 982.964965820312 980.441711425781 988.541625976562 991.036560058594 998.318542480469 1019.06555175781 1013.47113037109 1016.89221191406 1024.4638671875 1016.64025878906 1009.16198730469 1011.41455078125 1005.77758789062 1013.5859375 1024.25622558594 1038.87023925781 1048.26916503906 1038.8203125 1043.55139160156 1050.74291992188 1065.35729980469 1073.47644042969 1071.79650878906 1072.41662597656 1077.79150390625 1074.38500976562 1079.251953125 1067.94555664062 1062.57202148438 1058.17663574219 1050.03295898438 1052.77001953125 1055.24987792969 1054.72680664062 1071.49096679688 1075.16015625 1079.77038574219 1072.88208007812
972.664184570312 975.165283203125 969.767883300781 972.014038085938 971.533081054688 973.265808105469 973.842468261719 967.606140136719 974.172912597656 971.709655761719 966.655517578125 955.897521972656 966.503967285156 969.867248535156 969.177124023438 967.419372558594 966.648071289062 966.750732421875 970.404846191406 965.714294433594 964.104553222656 964.140625 959.638488769531 966.888732910156 965.016906738281 958.176452636719 949.296508789062 947.599975585938 941.819946289062 945.546997070312 952.542785644531 965.590881347656 956.606994628906 953.206481933594 943.082214355469 945.648315429688 945.456481933594 949.979309082031 945.848327636719 955.912292480469 952.649719238281 950.870544433594 953.425048828125 953.326904296875 952.960815429688 956.059509277344 956.503723144531 963.842163085938 956.927917480469 949.559509277344 947.415466308594 946.985778808594 942.896911621094 947.945251464844 954.873901367188 958.165283203125 953.848449707031 958.737976074219 953.842712402344 951.205627441406 958.069580078125 958.024108886719 959.924682617188 959.520446777344 953.409851074219 957.16259765625 961.16064453125 958.793090820312 962.692993164062 969.833679199219 965.839111328125 959.159240722656 962.724975585938 953.267517089844 960.459716796875 969.06103515625 970.47216796875 970.599060058594 968.550720214844 969.991455078125 960.224670410156 963.375366210938 961.038208007812 971.282470703125 956.341247558594 968.685546875 976.705444335938 963.998474121094 960.635070800781 964.062377929688 960.982604980469 963.174865722656 976.37548828125 973.605346679688 968.450927734375 976.811157226562 980.448059082031 985.644592285156 984.21044921875 981.347839355469 984.465209960938 988.689697265625 972.843933105469 969.048217773438 971.748901367188 980.489868164062 983.976013183594 983.684265136719 996.654541015625 996.321594238281 983.859191894531 987.069030761719 983.320556640625 981.801574707031 992.254699707031 996.215759277344 1000.81896972656 1013.24145507812 1009.79864501953 1017.93463134766 1019.28540039062 1013.22283935547 1013.69702148438 1017.6708984375 1011.38134765625 1011.474609375 1020.37768554688 1029.11096191406 1042.74340820312 1040.73828125 1047.16625976562 1054.24951171875 1061.08862304688 1071.72961425781 1068.48400878906 1064.93542480469 1071.76904296875 1070.46228027344 1059.74011230469 1056.80676269531 1052.79223632812 1047.22668457031 1042.7578125 1042.26110839844 1038.28344726562 1047.09423828125 1050.26989746094 1066.18627929688 1067.53747558594 1065.15576171875
973.156494140625 972.177001953125 969.083374023438 983.859619140625 978.903869628906 980.116943359375 968.831237792969 970.417724609375 966.655639648438 963.973876953125 969.956848144531 962.864074707031 962.6953125 965.029174804688 965.722961425781 967.954040527344 967.956970214844 960.302001953125 967.900451660156 974.1328125 970.24609375 967.209533691406 966.610961914062 960.828063964844 958.742492675781 949.561584472656 939.37109375 942.019348144531 939.4580078125 944.183532714844 952.486572265625 954.397827148438 952.539611816406 955.102172851562 943.471801757812 939.841003417969 955.821594238281 952.580017089844 949.90869140625 946.625732421875 947.915832519531 946.262756347656 949.917053222656 949.654968261719 957.292602539062 958.168151855469 960.054748535156 960.028991699219 953.848083496094 949.282775878906 957.834838867188 945.770935058594 950.392456054688 952.438110351562 946.228881835938 952.716064453125 956.48046875 963.083374023438 964.624328613281 955.332702636719 954.221130371094 950.981506347656 953.869812011719 957.1865234375 954.885986328125 950.563659667969 953.94921875 961.53369140625 961.455505371094 969.117736816406 966.134948730469 962.5244140625 961.816833496094 955.965148925781 956.950866699219 966.711181640625 971.101806640625 969.893432617188 960.828918457031 963.408081054688 968.217651367188 965.2509765625 964.0244140625 961.823303222656 974.777526855469 962.287475585938 970.315490722656 963.006713867188 959.955810546875 958.293823242188 964.008056640625 967.859802246094 975.568664550781 977.172485351562 973.424560546875 972.865173339844 977.880859375 980.391357421875 975.250305175781 974.945739746094 979.193725585938 985.541076660156 978.547790527344 982.116271972656 977.867919921875 979.796142578125 988.104858398438 985.828857421875 996.169555664062 1002.86279296875 1000.75067138672 993.277954101562 993.701354980469 991.838745117188 989.718383789062 996.01904296875 993.051940917969 998.181518554688 1010.87121582031 1014.34564208984 1002.71148681641 1006.91162109375 1015.67755126953 1012.43646240234 1006.12774658203 1011.58142089844 1017.72387695312 1029.35327148438 1035.13903808594 1036.17529296875 1047.15466308594 1054.55004882812 1060.90307617188 1069.91259765625 1069.08874511719 1072.62976074219 1071.46813964844 1060.89965820312 1051.08557128906 1048.30224609375 1037.42883300781 1032.93090820312 1041.47546386719 1037.23901367188 1037.02307128906 1039.64733886719 1044.04895019531 1054.47766113281 1047.60559082031 1048.42687988281
969.0244140625 967.595581054688 971.088623046875 976.436706542969 983.586608886719 981.18798828125 979.766784667969 970.920654296875 963.949890136719 962.594299316406 962.993713378906 959.4033203125 957.636535644531 962.693359375 964.82373046875 964.95166015625 965.179870605469 963.533020019531 962.236633300781 969.314819335938 969.402648925781 972.385925292969 965.369934082031 955.065246582031 953.750061035156 955.1025390625 948.912780761719 946.028076171875 942.310729980469 953.8232421875 948.648986816406 945.444213867188 945.455993652344 952.220520019531 953.705627441406 949.295349121094 948.893249511719 947.059814453125 950.939514160156 945.72314453125 946.094055175781 945.735046386719 942.68994140625 955.708618164062 950.035278320312 947.4150390625 957.311462402344 963.09716796875 957.27978515625 944.800598144531 946.286254882812 950.956420898438 955.836364746094 958.670104980469 951.887634277344 952.82470703125 955.720825195312 959.065368652344 965.636901855469 961.860961914062 958.893798828125 959.771850585938 956.522399902344 960.72607421875 960.832092285156 960.709594726562 960.282470703125 969.319213867188 963.725830078125 959.165405273438 963.876403808594 966.439270019531 968.540588378906 966.516418457031 971.813720703125 970.54638671875 966.633728027344 972.620544433594 968.498657226562 971.619201660156 962.018920898438 967.336547851562 965.674987792969 972.365295410156 974.066345214844 965.8837890625 963.025939941406 969.583251953125 960.51708984375 959.91943359375 956.33740234375 972.386901855469 967.320007324219 978.540771484375 970.772521972656 973.951843261719 973.14501953125 973.355834960938 968.881591796875 981.309936523438 981.980224609375 989.902221679688 979.187683105469 976.338073730469 981.021728515625 981.253662109375 991.814880371094 993.1875 993.108215332031 1000.95709228516 1007.60400390625 999.473510742188 998.549682617188 991.455261230469 1003.92749023438 1004.08972167969 1005.27032470703 1001.6669921875 1005.94122314453 1002.60876464844 1006.60321044922 1004.83056640625 1009.47308349609 1008.67132568359 1008.52386474609 1016.33721923828 1023.97186279297 1033.099609375 1040.33447265625 1029.4306640625 1035.41357421875 1041.72290039062 1053.05236816406 1062.04931640625 1064.49780273438 1065.25219726562 1066.35900878906 1058.66467285156 1038.96728515625 1041.50915527344 1037.90380859375 1034.7783203125 1028.15502929688 1030.64526367188 1027.0205078125 1034.01892089844 1040.58544921875 1049.42663574219 1044.03271484375 1047.38330078125
958.986877441406 966.368041992188 972.176879882812 984.603515625 985.321228027344 973.913024902344 969.739807128906 970.211975097656 964.479064941406 961.227783203125 959.928649902344 957.632873535156 951.377197265625 955.867065429688 960.178955078125 963.460205078125 963.648193359375 964.927124023438 953.370849609375 955.206665039062 960.952087402344 968.586242675781 971.470458984375 964.004089355469 953.036437988281 946.735595703125 952.907592773438 955.022888183594 948.255187988281 950.213806152344 945.680358886719 950.744018554688 954.344421386719 956.439025878906 952.900695800781 951.769226074219 947.109802246094 954.566650390625 949.697326660156 947.428771972656 952.013305664062 948.562622070312 949.845764160156 953.454040527344 950.166076660156 955.695556640625 961.462768554688 963.648620605469 960.635009765625 954.73681640625 955.883056640625 961.164123535156 956.631652832031 962.143310546875 951.567199707031 957.212951660156 959.256103515625 962.067626953125 970.593933105469 961.765441894531 961.263000488281 958.282775878906 964.267883300781 964.870910644531 969.433349609375 962.205871582031 959.368041992188 959.575378417969 966.219665527344 959.943237304688 958.977600097656 966.682556152344 970.229309082031 970.303466796875 966.534729003906 967.373046875 964.882934570312 973.109497070312 964.387634277344 968.631225585938 967.86669921875 963.920776367188 966.631286621094 980.485473632812 972.961059570312 971.261413574219 976.817504882812 967.459167480469 969.129455566406 969.22119140625 967.431518554688 970.008605957031 963.610107421875 974.452392578125 974.921875 969.402099609375 969.076721191406 970.665832519531 971.918518066406 982.819152832031 984.499206542969 980.353088378906 986.000732421875 989.660766601562 984.481750488281 991.758422851562 1002.36840820312 986.211303710938 994.833740234375 1004.07482910156 1008.95318603516 1003.00921630859 1006.42547607422 1006.79821777344 1009.21789550781 1013.35235595703 1005.41296386719 1002.14636230469 997.433532714844 998.942016601562 1008.87884521484 1014.88104248047 1014.2451171875 1013.21014404297 1009.24133300781 1018.70715332031 1030.33410644531 1034.51904296875 1033.69909667969 1032.36267089844 1035.78918457031 1038.23303222656 1048.63134765625 1053.88220214844 1062.89611816406 1061.13684082031 1060.72717285156 1063.03149414062 1054.17102050781 1043.14074707031 1036.99816894531 1030.60717773438 1023.35321044922 1021.47650146484 1027.36975097656 1028.97705078125 1031.13061523438 1033.78015136719 1033.4267578125 1044.68615722656
956.569396972656 966.069030761719 974.82421875 976.754028320312 978.138305664062 969.476501464844 961.8984375 960.479614257812 956.391418457031 960.042236328125 961.844482421875 955.719421386719 954.649841308594 951.592651367188 952.65234375 952.990905761719 961.013793945312 961.079528808594 961.201416015625 955.203857421875 955.044189453125 968.845947265625 966.614807128906 955.605407714844 950.260986328125 957.065979003906 959.859252929688 956.763000488281 948.914672851562 942.906433105469 956.05810546875 952.186706542969 951.4794921875 952.351257324219 946.556701660156 953.749145507812 950.465209960938 951.084411621094 953.756530761719 951.385803222656 951.0029296875 952.902526855469 950.598022460938 948.701171875 949.877685546875 961.700073242188 962.38134765625 968.006958007812 957.519470214844 951.359497070312 954.630004882812 955.792053222656 960.537414550781 970.372497558594 964.686157226562 954.341186523438 969.520080566406 970.860900878906 969.548889160156 970.006469726562 964.216552734375 957.767944335938 958.628662109375 963.345275878906 974.334838867188 959.630859375 956.23095703125 961.078918457031 960.881958007812 968.62109375 966.704772949219 960.44140625 968.698913574219 965.536254882812 966.759216308594 961.906311035156 959.57763671875 966.997802734375 964.419799804688 959.377380371094 960.062866210938 968.214294433594 973.651123046875 978.788208007812 963.930908203125 972.168090820312 981.220031738281 979.834777832031 972.418273925781 968.811889648438 974.097778320312 972.341552734375 970.056274414062 964.7666015625 961.313659667969 963.36962890625 969.406066894531 976.649841308594 967.533813476562 982.33984375 988.5400390625 983.794250488281 980.899597167969 985.449462890625 986.606506347656 992.334106445312 992.320007324219 1000.029296875 1003.11474609375 1012.69677734375 1011.95788574219 1012.47473144531 1019.65167236328 1028.12536621094 1021.31585693359 1019.47088623047 1019.7666015625 1014.02117919922 1001.66339111328 999.927978515625 1010.02465820312 1018.14343261719 1021.30279541016 1024.09973144531 1012.86254882812 1022.23699951172 1026.51733398438 1029.19421386719 1036.35168457031 1036.40075683594 1042.95471191406 1036.25183105469 1043.02502441406 1057.06994628906 1055.29187011719 1053.38488769531 1050.79907226562 1057.07299804688 1047.86791992188 1039.33288574219 1030.97131347656 1027.19958496094 1028.81164550781 1025.71923828125 1023.94720458984 1019.40167236328 1027.92956542969 1024.58923339844 1031.54284667969 1028.55310058594
958.302917480469 967.29443359375 965.787475585938 962.503295898438 960.296569824219 964.871398925781 962.909484863281 957.263610839844 950.210693359375 958.106018066406 957.44091796875 955.599609375 954.707702636719 949.037475585938 951.1298828125 954.184936523438 959.964538574219 962.339111328125 957.999267578125 950.251953125 950.810852050781 961.642944335938 953.780822753906 946.891418457031 942.504089355469 946.501647949219 949.124145507812 957.265319824219 951.242248535156 937.070922851562 943.436462402344 945.2314453125 946.089904785156 944.121032714844 944.798889160156 942.317504882812 950.800231933594 960.914916992188 951.138122558594 956.5908203125 952.938354492188 951.694763183594 951.225280761719 953.398254394531 947.265075683594 965.097534179688 964.994812011719 964.467041015625 963.466247558594 954.858032226562 967.056701660156 961.448974609375 969.689453125 967.251770019531 971.429992675781 966.216674804688 973.895874023438 972.145812988281 974.459350585938 966.147827148438 966.64013671875 957.912170410156 963.530456542969 962.313781738281 964.509216308594 953.797790527344 958.0166015625 955.036071777344 960.950378417969 968.022399902344 966.488830566406 964.017822265625 969.43994140625 972.324768066406 968.385070800781 974.7392578125 971.60009765625 970.747192382812 968.350524902344 959.644287109375 965.036865234375 968.552978515625 979.584777832031 974.281860351562 969.116027832031 972.451599121094 981.341125488281 977.704162597656 976.342407226562 979.111328125 976.024658203125 979.979919433594 978.964477539062 963.970520019531 965.812072753906 975.410888671875 980.990600585938 980.221984863281 980.149658203125 985.273681640625 977.799926757812 981.374755859375 980.193786621094 990.042846679688 987.607543945312 998.613464355469 994.846252441406 1006.35009765625 1000.74951171875 1007.43182373047 1009.06597900391 1016.99340820312 1021.63348388672 1018.11309814453 1028.68933105469 1035.26916503906 1032.28942871094 1024.86706542969 1016.97845458984 1004.39385986328 1010.76965332031 1022.06988525391 1023.10894775391 1030.53979492188 1019.56817626953 1018.78759765625 1021.19812011719 1036.94409179688 1029.11083984375 1034.71398925781 1047.03295898438 1042.4599609375 1054.77307128906 1061.45678710938 1055.61181640625 1055.97448730469 1054.95141601562 1047.44458007812 1042.12097167969 1042.24267578125 1032.45617675781 1024.03625488281 1025.46374511719 1036.06005859375 1025.90661621094 1024.96484375 1020.27014160156 1022.15753173828 1027.10815429688 1021.74676513672
950.343139648438 959.621948242188 964.066101074219 948.67919921875 949.131896972656 951.519470214844 950.785766601562 947.867797851562 949.460327148438 946.744689941406 947.65869140625 949.630676269531 943.5302734375 948.251159667969 944.159729003906 949.841918945312 960.756042480469 956.340576171875 953.076049804688 953.082214355469 953.988891601562 957.584899902344 954.275939941406 945.923522949219 943.5810546875 939.906311035156 939.916625976562 945.990783691406 952.927062988281 948.2041015625 945.899841308594 940.287170410156 951.919799804688 948.467102050781 945.861389160156 958.247985839844 957.215270996094 951.307006835938 949.098876953125 957.730285644531 959.812377929688 954.757202148438 956.839111328125 955.257446289062 950.505249023438 960.405456542969 960.116943359375 964.955078125 964.187805175781 960.58056640625 961.335571289062 961.141418457031 975.103820800781 968.384948730469 969.542785644531 972.234069824219 977.413208007812 976.845581054688 970.576293945312 966.708129882812 968.978576660156 964.80908203125 961.170104980469 956.616271972656 965.230529785156 960.070983886719 954.857727050781 956.398681640625 963.054870605469 969.244140625 973.914855957031 969.016174316406 975.642150878906 965.40380859375 969.048828125 969.24169921875 977.298950195312 974.580444335938 968.920288085938 970.901489257812 964.558227539062 971.750366210938 980.366760253906 980.125244140625 974.905639648438 968.469604492188 974.333374023438 978.121948242188 977.151977539062 976.302124023438 978.134521484375 982.546203613281 976.078735351562 968.660949707031 971.923706054688 976.760070800781 984.021301269531 983.258117675781 986.606262207031 982.2958984375 979.463439941406 990.539367675781 989.102172851562 990.537536621094 988.344604492188 996.750915527344 1007.15301513672 1013.80572509766 1001.22320556641 1005.87274169922 1010.12725830078 1017.671875 1020.91052246094 1027.57739257812 1024.65466308594 1029.00244140625 1032.48803710938 1026.1494140625 1025.94750976562 1032.22729492188 1022.55511474609 1020.31365966797 1027.66857910156 1029.42541503906 1014.20971679688 1016.99987792969 1021.41729736328 1030.75146484375 1031.07653808594 1034.22497558594 1042.91418457031 1052.71850585938 1055.94738769531 1056.13488769531 1056.01940917969 1058.75244140625 1050.36511230469 1045.06433105469 1036.83325195312 1031.75659179688 1027.95886230469 1020.40795898438 1018.69836425781 1026.71789550781 1025.80932617188 1016.11126708984 1010.18188476562 1017.61596679688 1024.35302734375 1014.47576904297
956.9794921875 963.430786132812 960.055236816406 954.334716796875 956.883544921875 952.36572265625 959.337341308594 944.527038574219 948.616577148438 946.803833007812 943.297180175781 940.577453613281 933.182067871094 944.358581542969 951.077331542969 947.335571289062 945.287414550781 941.596618652344 951.72216796875 952.438781738281 942.654296875 955.666442871094 942.686706542969 942.140197753906 946.182495117188 949.774047851562 942.383850097656 943.954956054688 952.938781738281 952.611877441406 950.667114257812 939.184753417969 947.897888183594 941.739562988281 951.439270019531 954.297119140625 962.015808105469 959.971252441406 952.0986328125 953.761657714844 957.871826171875 953.636840820312 951.733703613281 958.187866210938 963.238891601562 966.170043945312 956.750854492188 968.975646972656 961.259216308594 961.914672851562 970.349243164062 966.300842285156 974.1318359375 970.167358398438 969.68212890625 983.800720214844 976.463623046875 975.877258300781 969.674011230469 972.035339355469 965.439514160156 969.783203125 957.562927246094 962.822143554688 963.943542480469 959.146057128906 955.552795410156 960.356384277344 972.788208007812 968.051818847656 978.637939453125 975.268737792969 970.712829589844 961.410949707031 964.457885742188 972.8740234375 972.813293457031 975.697082519531 979.448486328125 970.154968261719 967.1279296875 974.639709472656 977.340759277344 977.218811035156 971.557006835938 976.818237304688 982.278137207031 977.904479980469 983.159362792969 980.400634765625 977.724243164062 976.312744140625 975.577270507812 969.860656738281 972.402587890625 984.405700683594 982.177917480469 987.774353027344 984.222351074219 981.669067382812 983.45263671875 992.131530761719 991.46533203125 987.630126953125 986.883728027344 987.957702636719 998.007507324219 1001.67401123047 1010.78271484375 1008.53137207031 1009.24456787109 1011.50848388672 1018.396484375 1016.57458496094 1016.43414306641 1025.97546386719 1023.3681640625 1033.95068359375 1039.60656738281 1038.9443359375 1029.59692382812 1024.16003417969 1033.61669921875 1030.64733886719 1030.17785644531 1024.87731933594 1025.76928710938 1030.52392578125 1031.76623535156 1027.90686035156 1037.80322265625 1043.14538574219 1049.658203125 1050.4111328125 1047.84411621094 1040.78063964844 1044.50061035156 1043.38757324219 1037.15576171875 1023.21295166016 1023.17694091797 1007.16497802734 1018.52972412109 1020.82977294922 1017.33135986328 1009.21356201172 1009.12731933594 1003.7822265625 1009.42651367188 1012.52124023438
957.045715332031 968.218811035156 956.819213867188 951.443298339844 949.947448730469 948.370910644531 947.294067382812 946.022705078125 943.238464355469 944.447937011719 933.887268066406 935.029296875 933.47802734375 938.656433105469 941.507080078125 946.765991210938 940.115173339844 943.480285644531 948.017028808594 951.656982421875 952.549011230469 951.588806152344 949.842834472656 943.62890625 943.625671386719 944.111999511719 951.29296875 947.59521484375 951.953308105469 948.429016113281 944.681640625 947.570251464844 949.314025878906 955.697937011719 958.77392578125 962.247131347656 966.42236328125 962.353271484375 959.146240234375 968.062805175781 963.250183105469 960.088562011719 958.397155761719 956.716125488281 963.031188964844 964.407836914062 966.323486328125 969.066162109375 969.173706054688 968.345703125 961.444885253906 965.647583007812 973.799499511719 973.379699707031 978.868774414062 985.919677734375 984.41015625 982.909851074219 968.857238769531 973.966918945312 966.019653320312 969.217102050781 958.429809570312 963.139038085938 956.644836425781 970.251098632812 964.120727539062 974.314514160156 975.089294433594 974.919921875 974.470031738281 974.035522460938 972.529296875 973.332946777344 974.23681640625 973.021667480469 977.278930664062 977.138610839844 982.574096679688 968.966491699219 971.326904296875 979.066467285156 981.129089355469 975.149108886719 974.188415527344 979.181518554688 979.271118164062 985.90869140625 975.006591796875 973.799743652344 974.326782226562 974.308776855469 978.536376953125 978.395446777344 981.316528320312 983.109252929688 990.394958496094 991.215637207031 982.47607421875 976.046142578125 977.701843261719 991.350219726562 998.866088867188 996.263916015625 993.001953125 989.435668945312 996.756164550781 1004.98498535156 1006.60382080078 1016.5380859375 1020.21966552734 1021.23425292969 1024.3505859375 1019.76727294922 1025.04113769531 1029.126953125 1034.82629394531 1041.00915527344 1042.56323242188 1039.89685058594 1034.52526855469 1033.81164550781 1035.94274902344 1039.51049804688 1036.38415527344 1026.23754882812 1027.71325683594 1023.25561523438 1023.18475341797 1021.41882324219 1039.57116699219 1038.09521484375 1045.49621582031 1041.63000488281 1035.28967285156 1041.16833496094 1042.81555175781 1036.44616699219 1029.20202636719 1025.30590820312 1019.35614013672 1018.94805908203 1014.51318359375 1018.61193847656 1015.49145507812 1009.36102294922 1003.44610595703 1006.53295898438 1002.9091796875 1007.24237060547
961.041137695312 966.176086425781 962.488891601562 950.958679199219 953.972412109375 951.606811523438 944.709716796875 945.524169921875 944.30712890625 937.146667480469 933.41259765625 936.671142578125 936.054016113281 941.457824707031 940.52587890625 934.369750976562 948.760986328125 945.834594726562 948.430297851562 952.801330566406 953.697875976562 948.195495605469 949.231994628906 945.681518554688 943.563354492188 946.432800292969 949.864990234375 942.062133789062 948.178283691406 945.157104492188 943.408996582031 941.249328613281 950.500915527344 950.405944824219 943.380676269531 953.181335449219 958.769897460938 965.939453125 965.69140625 971.598205566406 971.885864257812 963.406555175781 954.618225097656 958.076782226562 965.39990234375 962.527770996094 967.281799316406 966.331176757812 969.868713378906 969.970397949219 970.816528320312 977.574401855469 978.840576171875 974.833923339844 979.611877441406 980.755432128906 987.557800292969 976.084777832031 968.828063964844 972.501037597656 973.133361816406 967.727661132812 957.175415039062 957.088806152344 963.691467285156 967.548706054688 959.55517578125 967.5595703125 979.72119140625 976.376708984375 975.370239257812 967.909301757812 971.936706542969 981.599609375 978.447265625 977.872741699219 982.730773925781 984.088562011719 983.301208496094 971.650512695312 981.595275878906 978.153747558594 981.958557128906 982.556762695312 984.463806152344 988.772399902344 979.02880859375 982.371826171875 981.065795898438 982.0771484375 978.550537109375 976.901611328125 974.625610351562 981.53271484375 987.359313964844 989.49072265625 984.186584472656 991.934692382812 985.695434570312 985.467163085938 995.599914550781 988.040283203125 999.960632324219 992.403747558594 989.578186035156 993.576965332031 998.512817382812 1009.76507568359 1015.78338623047 1020.10693359375 1019.7060546875 1030.14587402344 1023.46569824219 1026.40075683594 1038.98522949219 1024.90979003906 1033.64794921875 1038.88940429688 1039.14050292969 1040.74475097656 1036.423828125 1033.64440917969 1038.30847167969 1036.78308105469 1029.63049316406 1024.23828125 1031.20727539062 1024.01049804688 1024.48461914062 1021.90350341797 1024.33984375 1031.04748535156 1037.548828125 1045.35925292969 1045.28173828125 1044.01184082031 1039.49145507812 1038.17395019531 1037.99584960938 1024.68273925781 1017.44012451172 1011.13031005859 1014.52044677734 1015.10699462891 1013.40447998047 1005.376953125 995.330078125 1000.45751953125 1008.99792480469 999.419128417969
966.823791503906 965.876220703125 958.39306640625 951.426452636719 947.465454101562 948.391357421875 941.06005859375 927.35546875 935.107238769531 932.244812011719 932.361755371094 933.85888671875 944.167358398438 940.649780273438 936.110168457031 938.544006347656 945.857299804688 954.893310546875 952.219787597656 955.699829101562 961.051147460938 956.409729003906 946.089172363281 948.893920898438 945.199401855469 946.056579589844 951.309814453125 949.2099609375 950.481384277344 951.216552734375 947.242248535156 957.379150390625 955.862731933594 960.768676757812 949.551696777344 953.273864746094 958.439392089844 962.657958984375 961.718078613281 971.8515625 974.498168945312 970.708068847656 969.009155273438 968.476440429688 962.857421875 976.589721679688 976.480041503906 975.33935546875 970.878723144531 974.626770019531 982.372192382812 979.646667480469 988.199340820312 979.885925292969 979.480529785156 978.242309570312 982.390930175781 977.487121582031 974.666076660156 965.453247070312 968.9833984375 972.697021484375 962.129150390625 962.787475585938 967.553466796875 972.43359375 966.479125976562 972.824768066406 963.794555664062 964.246826171875 971.677429199219 971.396423339844 971.732421875 981.345825195312 982.953247070312 977.417602539062 983.050476074219 972.109924316406 974.934936523438 979.116760253906 978.612487792969 984.504821777344 987.953491210938 994.901489257812 984.482971191406 981.691772460938 981.351928710938 973.24951171875 978.894165039062 981.269409179688 985.574584960938 982.581237792969 980.559814453125 986.355651855469 988.105407714844 987.315490722656 987.905517578125 987.189270019531 980.59814453125 980.186279296875 983.334045410156 984.393920898438 990.525451660156 988.6357421875 990.439819335938 994.419555664062 1002.43786621094 1009.75500488281 1010.85192871094 1010.72100830078 1015.29742431641 1025.07055664062 1024.55310058594 1033.33947753906 1034.96447753906 1027.77941894531 1033.04187011719 1039.39660644531 1038.04235839844 1037.30297851562 1040.11560058594 1034.67346191406 1032.77307128906 1024.31762695312 1024.11828613281 1014.94232177734 1022.14373779297 1021.83325195312 1020.39733886719 1016.87237548828 1026.85168457031 1021.35986328125 1032.04638671875 1030.06994628906 1040.30981445312 1042.33435058594 1049.42346191406 1046.708984375 1043.04772949219 1033.52990722656 1029.70886230469 1011.83056640625 1008.84460449219 1020.13305664062 1012.693359375 991.049438476562 1000.81158447266 1003.89434814453 997.143127441406 1006.11907958984
955.015319824219 957.282287597656 951.117126464844 952.163024902344 949.7578125 941.046752929688 937.879638671875 933.858581542969 936.69287109375 933.021911621094 929.879333496094 939.926025390625 940.188110351562 937.656799316406 935.184509277344 945.530883789062 952.93359375 968.340148925781 965.429138183594 961.611511230469 965.679138183594 963.068115234375 954.615783691406 951.081726074219 953.025939941406 959.657775878906 947.648132324219 957.622619628906 948.944213867188 955.531982421875 957.69287109375 956.9228515625 953.373901367188 950.526672363281 952.150451660156 954.0361328125 959.483459472656 960.952270507812 965.219848632812 968.796752929688 972.875549316406 966.395385742188 959.695434570312 963.156921386719 971.983947753906 972.712524414062 980.687255859375 978.566345214844 972.639465332031 973.259887695312 982.886962890625 982.198547363281 984.530883789062 987.385009765625 984.698669433594 973.131164550781 972.3193359375 977.739990234375 977.081665039062 968.915344238281 971.503723144531 968.356201171875 980.830383300781 972.617492675781 967.267028808594 971.441955566406 973.359313964844 969.950927734375 963.348022460938 969.090148925781 974.955871582031 977.373291015625 984.438720703125 980.434753417969 980.439575195312 980.899230957031 978.184936523438 978.899169921875 981.562377929688 975.984558105469 979.424682617188 989.892028808594 992.818969726562 996.3994140625 987.823059082031 983.305908203125 982.42529296875 980.825988769531 980.614624023438 978.607971191406 977.848449707031 975.823486328125 974.413208007812 978.466491699219 986.382507324219 983.631225585938 986.806884765625 989.232482910156 994.365905761719 999.369506835938 994.87646484375 997.046264648438 993.940979003906 995.648803710938 993.24169921875 1003.55108642578 1007.06481933594 1012.83740234375 1014.03070068359 1012.67877197266 1024.43811035156 1028.24267578125 1029.94702148438 1035.40734863281 1035.51293945312 1033.50634765625 1038.93981933594 1042.82385253906 1043.74560546875 1042.82946777344 1039.03283691406 1030.9072265625 1034.87426757812 1038.34362792969 1025.66491699219 1025.33581542969 1022.44427490234 1023.14147949219 1012.78686523438 1009.05346679688 1008.17547607422 1017.34661865234 1024.27783203125 1026.95788574219 1034.04309082031 1035.18212890625 1050.92700195312 1046.16076660156 1042.94775390625 1025.27697753906 1014.95385742188 1001.02862548828 1006.17175292969 1017.24102783203 1007.24157714844 1007.92022705078 1002.71063232422 998.176574707031 992.673217773438 996.026245117188
950.946533203125 948.028503417969 956.579345703125 951.477478027344 945.0517578125 953.310974121094 947.693054199219 946.440368652344 942.060302734375 943.960083007812 939.888732910156 941.459533691406 943.300354003906 941.988464355469 944.572387695312 941.580871582031 957.757080078125 963.394836425781 962.903564453125 968.049926757812 972.485046386719 971.921447753906 962.1494140625 961.464599609375 963.141662597656 959.736694335938 962.687866210938 960.289794921875 961.644958496094 963.984680175781 959.619018554688 966.339172363281 963.263061523438 956.692504882812 953.839233398438 957.370971679688 957.603149414062 961.885925292969 970.247375488281 968.213745117188 974.768920898438 965.744201660156 974.249145507812 961.4873046875 970.764343261719 978.173156738281 989.904052734375 989.33203125 982.723693847656 976.908996582031 991.877197265625 983.066955566406 984.334106445312 983.690490722656 987.585205078125 976.371154785156 977.996520996094 976.483093261719 983.273559570312 982.521606445312 974.055908203125 975.713684082031 981.291198730469 982.02197265625 972.763000488281 977.181579589844 971.006164550781 965.059936523438 971.583679199219 966.033996582031 972.005126953125 979.911315917969 986.673645019531 983.601684570312 981.609985351562 984.638244628906 983.321655273438 987.148681640625 984.735412597656 983.512145996094 967.539672851562 977.664733886719 987.775939941406 991.762817382812 984.663879394531 982.294616699219 983.629699707031 980.031982421875 978.940307617188 977.967529296875 976.851623535156 975.466735839844 969.330871582031 980.177185058594 990.179870605469 996.170837402344 988.62939453125 988.407653808594 999.916137695312 1002.12493896484 1002.61676025391 1001.46044921875 991.160888671875 994.061279296875 997.982055664062 1002.96563720703 1005.86596679688 1013.11181640625 1008.54754638672 1011.91528320312 1027.36767578125 1024.61572265625 1029.75122070312 1034.27233886719 1031.24255371094 1037.19653320312 1037.85229492188 1045.51086425781 1045.22473144531 1048.41516113281 1050.87634277344 1048.01831054688 1042.36901855469 1037.91589355469 1033.71484375 1026.17517089844 1019.14221191406 1020.07269287109 1018.20251464844 1015.98724365234 1007.32635498047 1013.55926513672 1023.68029785156 1032.51977539062 1034.3134765625 1032.29931640625 1036.59692382812 1035.19458007812 1026.58618164062 1018.69580078125 1007.09698486328 998.541564941406 1001.37213134766 1008.43188476562 1006.90740966797 1000.08050537109 992.730102539062 989.783569335938 997.361938476562 1007.05639648438
949.477661132812 943.657287597656 949.222106933594 946.540649414062 940.595275878906 945.733703613281 951.913452148438 947.310668945312 944.178955078125 944.644836425781 949.390197753906 952.130676269531 950.0947265625 953.774475097656 955.077087402344 951.005554199219 960.26220703125 960.980895996094 969.269836425781 969.388305664062 973.457702636719 978.967529296875 970.728881835938 967.799255371094 970.3330078125 973.735961914062 972.72802734375 974.737426757812 965.802185058594 968.693176269531 963.428283691406 959.483154296875 954.19287109375 952.094970703125 950.63720703125 954.414855957031 952.381652832031 961.699523925781 972.598266601562 980.746887207031 971.884765625 974.074523925781 981.996520996094 972.205139160156 981.351684570312 989.762329101562 995.802185058594 991.187255859375 984.607666015625 982.039733886719 984.56787109375 981.916381835938 987.763671875 990.007202148438 990.313903808594 985.405517578125 978.516906738281 977.403198242188 979.903198242188 973.294738769531 973.362243652344 978.109375 980.034057617188 974.235229492188 972.366577148438 980.249267578125 979.954895019531 979.219482421875 974.688598632812 970.270385742188 977.718078613281 980.100341796875 978.968811035156 990.027221679688 983.864501953125 984.290954589844 981.368286132812 986.230346679688 988.633361816406 981.352966308594 983.820007324219 979.352844238281 982.546203613281 980.608520507812 987.26953125 973.40771484375 980.446044921875 981.402282714844 984.174865722656 979.772216796875 983.855407714844 983.214721679688 982.35791015625 984.965759277344 995.742065429688 998.172424316406 996.3623046875 995.180114746094 1005.22906494141 999.794921875 1004.09375 996.604125976562 991.242553710938 994.734313964844 996.733947753906 1002.40985107422 1006.31072998047 1016.36047363281 1022.30303955078 1019.20257568359 1017.24871826172 1024.96862792969 1027.32482910156 1033.39807128906 1031.14123535156 1033.84411621094 1033.23681640625 1036.58325195312 1042.61364746094 1037.48413085938 1041.88330078125 1046.23071289062 1046.66967773438 1043.23510742188 1035.87060546875 1031.45458984375 1023.25689697266 1018.80065917969 1011.48388671875 1013.68048095703 1010.60632324219 1016.19329833984 1028.29150390625 1034.77941894531 1030.09521484375 1026.84387207031 1032.33190917969 1032.32189941406 1025.40930175781 1019.64483642578 1013.05517578125 1004.85339355469 1003.52178955078 1000.50042724609 1009.81658935547 996.458068847656 990.385131835938 991.862670898438 997.761962890625 999.838989257812
949.969543457031 948.141906738281 947.476135253906 943.081848144531 939.35107421875 941.894409179688 942.294555664062 945.51904296875 946.962951660156 943.790649414062 947.541076660156 952.8720703125 961.376525878906 967.549987792969 956.361999511719 959.669555664062 954.521057128906 966.683471679688 977.031982421875 978.148010253906 976.21337890625 978.575500488281 981.246398925781 979.579467773438 978.796020507812 976.15234375 969.6962890625 971.189819335938 969.510986328125 972.117431640625 963.372436523438 947.449890136719 951.037719726562 950.4912109375 952.603332519531 960.05908203125 959.181945800781 969.88671875 974.581665039062 984.73095703125 979.223083496094 974.819580078125 983.406066894531 983.967834472656 983.326843261719 987.720520019531 996.854248046875 998.112731933594 986.964111328125 980.306030273438 986.043212890625 989.861328125 994.073364257812 998.391479492188 1002.58380126953 1000.17327880859 988.516784667969 980.318237304688 980.06396484375 966.02197265625 973.708374023438 984.725524902344 980.034240722656 967.548461914062 972.739501953125 982.532958984375 982.116516113281 978.987121582031 975.032348632812 972.356079101562 978.804382324219 984.784301757812 980.839294433594 990.005249023438 993.486877441406 989.532470703125 979.48388671875 975.819030761719 979.212036132812 991.561279296875 995.339050292969 994.231567382812 992.931762695312 992.59765625 986.576416015625 978.806091308594 980.689270019531 985.222839355469 984.128295898438 981.519287109375 983.345092773438 978.830688476562 985.394226074219 993.584716796875 990.843444824219 1002.25744628906 1007.03466796875 1011.31939697266 1005.96478271484 1002.66436767578 1002.81213378906 999.17919921875 1003.66595458984 997.799499511719 1007.84332275391 1006.25146484375 1004.57171630859 1008.13592529297 1015.41235351562 1020.35266113281 1020.15203857422 1027.91784667969 1029.43896484375 1027.00793457031 1016.54650878906 1031.19311523438 1030.44213867188 1035.30249023438 1040.04443359375 1035.330078125 1038.03466796875 1034.05126953125 1033.63647460938 1033.28979492188 1032.19201660156 1026.63793945312 1020.15240478516 1018.11566162109 1023.80267333984 1009.65704345703 1010.71148681641 1019.28454589844 1022.45819091797 1022.17474365234 1021.65209960938 1022.40509033203 1032.361328125 1029.44995117188 1031.42260742188 1018.33172607422 1007.75201416016 1008.42376708984 1003.92456054688 1001.15386962891 999.126770019531 995.486206054688 996.0654296875 987.506530761719 993.411987304688 997.869995117188
