NCOLS 150
NROWS 37
XLLCORNER 7394249
YLLCORNER 4842179
CELLSIZE 30
NODATA_VALUE -9999
963.328430175781 980.099792480469 974.421203613281 971.621459960938 975.255310058594 981.396118164062 970.723388671875 977.776611328125 966.988098144531 968.742065429688 965.105895996094 968.530883789062 969.533447265625 961.420776367188 966.81689453125 971.021423339844 964.591674804688 956.758544921875 968.293762207031 966.9658203125 966.614135742188 966.998474121094 970.388549804688 964.1318359375 964.210815429688 948.234252929688 942.804260253906 955.272216796875 967.383911132812 962.834289550781 951.898193359375 961.323120117188 949.248352050781 942.447143554688 948.134399414062 946.132141113281 950.6025390625 953.845031738281 962.015686035156 947.854553222656 944.032470703125 955.514465332031 959.182983398438 961.595703125 960.1083984375 954.806030273438 946.911987304688 946.950927734375 950.14208984375 951.797302246094 944.716613769531 947.130859375 943.96826171875 953.669860839844 955.950561523438 954.674926757812 953.054382324219 947.334655761719 954.327880859375 958.030456542969 957.728332519531 957.156188964844 965.3466796875 967.431396484375 963.218688964844 963.76220703125 960.940734863281 961.341979980469 963.633483886719 960.408325195312 955.899597167969 964.379028320312 954.860229492188 956.854614257812 960.04052734375 964.525451660156 964.851440429688 963.348754882812 957.204528808594 959.072875976562 963.431945800781 964.197265625 960.422424316406 972.083984375 966.268920898438 956.685791015625 966.576232910156 962.395812988281 960.673095703125 956.90087890625 957.537963867188 970.9658203125 975.908508300781 978.443908691406 981.40234375 985.31201171875 979.0341796875 981.0888671875 979.851867675781 976.890197753906 970.838317871094 970.271118164062 974.234191894531 979.728576660156 985.213256835938 987.005615234375 990.92041015625 990.625549316406 984.535461425781 996.9619140625 1001.43762207031 999.467407226562 993.785461425781 991.200866699219 990.314575195312 996.053405761719 992.911987304688 987.913208007812 998.130126953125 990.743041992188 999.671203613281 993.48974609375 1005.38421630859 1000.57415771484 1006.98675537109 1003.87335205078 1010.01995849609 1016.48547363281 1030.40100097656 1032.35900878906 1042.41455078125 1047.3740234375 1056.41149902344 1058.3203125 1070.66711425781 1071.38903808594 1078.69946289062 1071.47998046875 1063.87548828125 1064.97668457031 1063.48425292969 1065.36340332031 1057.37390136719 1066.23852539062 1070.85168457031 1068.71447753906 1065.85620117188 1067.39514160156 1066.19274902344 1078.33923339844
961.232788085938 963.746215820312 962.700988769531 961.962341308594 972.455688476562 963.83349609375 973.14990234375 964.8779296875 973.256652832031 969.263488769531 966.051635742188 967.381652832031 974.795349121094 970.739379882812 965.821838378906 964.387573242188 969.458984375 963.076721191406 960.664978027344 966.46337890625 962.868041992188 970.459106445312 961.451354980469 966.297912597656 955.511413574219 951.336853027344 947.425231933594 954.362060546875 957.241088867188 951.87841796875 959.799133300781 958.33544921875 954.503967285156 956.673034667969 951.548278808594 948.343688964844 948.16162109375 955.136535644531 958.274780273438 943.735717773438 943.369079589844 956.364013671875 956.365173339844 959.113403320312 956.118713378906 960.322998046875 950.696044921875 945.854248046875 952.269653320312 945.491821289062 942.219177246094 942.531372070312 952.662353515625 963.896545410156 964.577819824219 959.298400878906 952.864929199219 951.349609375 958.999572753906 957.901550292969 962.903381347656 962.233337402344 959.225219726562 955.987060546875 964.790161132812 974.142211914062 969.417785644531 971.105346679688 964.467346191406 963.039611816406 965.435485839844 961.038452148438 964.180725097656 958.445068359375 968.817565917969 970.7822265625 968.969482421875 960.073181152344 959.463439941406 967.234497070312 959.634582519531 965.937683105469 968.484436035156 965.449279785156 963.515808105469 956.486572265625 966.571899414062 962.954040527344 968.009826660156 963.322570800781 961.914367675781 961.612609863281 965.024963378906 973.624816894531 978.741821289062 976.476928710938 977.199829101562 980.077209472656 980.523132324219 978.536376953125 972.665344238281 971.473510742188 975.458923339844 972.493103027344 981.54296875 990.831604003906 990.021301269531 984.580017089844 987.259887695312 1004.31323242188 1000.541015625 1000.67889404297 991.6015625 990.520385742188 990.005310058594 987.095947265625 987.017883300781 974.427917480469 989.077575683594 990.939636230469 1000.44622802734 996.13525390625 995.333557128906 998.8671875 1002.47332763672 1001.75030517578 1012.73638916016 1014.77081298828 1026.85974121094 1033.18420410156 1044.14624023438 1045.72009277344 1047.87451171875 1050.06372070312 1057.74145507812 1059.34777832031 1058.47509765625 1074.58935546875 1061.79956054688 1056.37841796875 1049.19360351562 1051.2021484375 1050.32800292969 1051.22436523438 1059.83068847656 1059.49206542969 1056.123046875 1057.3037109375 1061.6396484375 1068.78784179688
955.872192382812 958.572387695312 953.297241210938 962.913696289062 970.082824707031 971.359558105469 971.830810546875 967.462036132812 971.468872070312 965.632995605469 960.486389160156 966.544860839844 967.078186035156 969.475891113281 965.418762207031 968.558044433594 960.695251464844 956.877014160156 959.491394042969 971.174743652344 966.698486328125 969.154235839844 962.713745117188 966.26953125 957.222595214844 946.456237792969 947.809204101562 947.58349609375 953.611877441406 948.217529296875 959.304016113281 965.40234375 957.962890625 957.953308105469 955.305725097656 953.413269042969 949.156616210938 952.438171386719 948.609252929688 946.51220703125 953.937438964844 949.894836425781 947.262451171875 951.195617675781 956.580627441406 962.2080078125 961.699462890625 958.140808105469 956.321838378906 951.952697753906 945.526000976562 949.6953125 952.271850585938 960.241638183594 957.937927246094 952.088012695312 957.32373046875 965.991821289062 965.196533203125 963.769836425781 965.177612304688 964.525146484375 958.007629394531 958.825073242188 961.108825683594 963.861572265625 968.827575683594 964.992553710938 962.670227050781 963.010192871094 959.418151855469 959.717590332031 951.1826171875 964.831970214844 960.842102050781 967.084045410156 965.584228515625 959.245300292969 968.317199707031 973.24462890625 955.858642578125 969.159423828125 966.784729003906 967.886535644531 961.021789550781 965.241149902344 974.49267578125 963.439392089844 960.29296875 961.765197753906 964.224304199219 961.030456542969 969.087097167969 976.374389648438 979.032287597656 973.572875976562 972.892944335938 979.424743652344 975.22216796875 977.663757324219 975.367553710938 973.061340332031 980.455444335938 980.748474121094 985.345031738281 986.96337890625 990.761169433594 989.603332519531 990.116821289062 1001.50512695312 999.171875 997.613647460938 996.923217773438 985.19580078125 980.57470703125 985.542236328125 976.753540039062 981.934875488281 990.168823242188 998.970153808594 993.84619140625 993.698364257812 1002.73364257812 999.028747558594 999.171081542969 1007.82061767578 1014.99096679688 1015.95062255859 1022.96228027344 1028.64819335938 1038.14758300781 1038.32446289062 1036.10168457031 1040.36340332031 1049.22521972656 1052.15393066406 1054.90686035156 1056.51770019531 1053.36767578125 1044.77575683594 1044.56066894531 1041.30517578125 1045.16320800781 1038.26281738281 1044.22290039062 1053.40246582031 1054.64819335938 1057.56042480469 1051.85571289062 1058.05517578125
942.703430175781 946.615112304688 955.750793457031 962.025451660156 971.750915527344 973.476623535156 972.228759765625 967.585021972656 965.194946289062 963.689086914062 964.556640625 955.886169433594 966.257202148438 974.820922851562 963.559204101562 962.344787597656 957.532409667969 954.557556152344 962.330627441406 966.205322265625 967.170104980469 960.880920410156 963.746643066406 960.470703125 957.33447265625 951.404479980469 949.659606933594 949.502380371094 952.326843261719 943.484619140625 955.901000976562 954.198120117188 959.12451171875 949.782531738281 951.07080078125 946.476379394531 957.492248535156 950.050170898438 942.6103515625 953.991577148438 942.326110839844 945.391845703125 948.787780761719 954.505493164062 960.020690917969 955.65771484375 951.960021972656 958.211975097656 950.903991699219 948.760925292969 950.91162109375 953.691162109375 953.742980957031 950.524169921875 958.59521484375 951.911560058594 959.889404296875 968.094909667969 965.582702636719 961.08056640625 961.695922851562 952.423278808594 960.472351074219 958.521362304688 966.812194824219 960.651916503906 964.069152832031 962.475830078125 961.91845703125 956.469421386719 967.121520996094 958.240844726562 954.046936035156 962.027282714844 971.412170410156 963.536376953125 966.069763183594 963.912414550781 961.681823730469 965.370178222656 967.244201660156 977.790710449219 980.290710449219 981.321228027344 977.273803710938 977.121276855469 968.672241210938 964.999755859375 960.056945800781 955.63671875 968.833679199219 963.858825683594 974.091674804688 972.166137695312 972.359375 969.453735351562 972.15966796875 973.723205566406 974.739929199219 971.948120117188 972.174255371094 977.591064453125 984.302734375 985.523864746094 987.043518066406 992.734741210938 997.296508789062 998.403442382812 995.086059570312 1005.87133789062 1008.82873535156 999.842590332031 995.074890136719 994.505859375 988.917053222656 985.625915527344 988.9326171875 987.366455078125 998.143737792969 1011.94793701172 1002.22607421875 1007.74932861328 1003.48950195312 1002.27062988281 1004.30462646484 1010.35504150391 1021.98413085938 1020.26666259766 1026.94079589844 1031.42114257812 1031.45874023438 1030.38464355469 1034.68273925781 1037.98962402344 1032.12841796875 1045.87854003906 1046.92321777344 1050.8505859375 1050.43359375 1034.9169921875 1034.32580566406 1034.37719726562 1024.43151855469 1039.80871582031 1044.83093261719 1047.2509765625 1049.61242675781 1047.84619140625 1050.3359375 1044.67065429688
939.472351074219 940.166198730469 949.810119628906 960.162414550781 969.708801269531 970.843078613281 970.755187988281 962.107849121094 970.389831542969 961.761291503906 960.989501953125 949.174865722656 961.462036132812 967.038269042969 953.790405273438 949.758911132812 949.436767578125 956.94189453125 954.965454101562 950.039306640625 959.685302734375 956.061340332031 948.86962890625 947.414489746094 952.905883789062 951.739868164062 947.985595703125 950.694885253906 945.442138671875 940.465209960938 947.435241699219 952.266174316406 950.549926757812 947.9130859375 945.694641113281 953.722717285156 954.625122070312 941.719421386719 943.093566894531 945.533081054688 944.884155273438 951.419372558594 946.744995117188 953.141479492188 949.08447265625 950.707763671875 951.806762695312 952.960510253906 954.406494140625 942.659301757812 953.979858398438 963.850219726562 948.972534179688 954.338195800781 953.244445800781 951.133666992188 960.805053710938 964.899780273438 969.240905761719 969.477722167969 957.906127929688 955.668029785156 957.045654296875 965.13330078125 969.77099609375 964.246154785156 958.588256835938 959.404418945312 957.815063476562 959.725036621094 969.140502929688 969.503234863281 966.810546875 968.44287109375 972.684814453125 970.78173828125 972.555114746094 973.350158691406 964.0830078125 964.920959472656 966.64013671875 980.695434570312 983.6552734375 978.023193359375 970.118041992188 968.640197753906 973.407409667969 971.371276855469 966.591552734375 969.572082519531 980.367736816406 970.78955078125 974.214050292969 976.016662597656 975.728881835938 976.96044921875 965.650817871094 971.052978515625 972.815246582031 979.073791503906 961.896850585938 979.762084960938 978.771118164062 988.526245117188 993.524353027344 994.612426757812 1005.50988769531 1013.14105224609 1008.32537841797 1000.55895996094 1004.92816162109 1011.30352783203 996.858459472656 1001.00415039062 989.613403320312 986.361877441406 989.76025390625 999.857604980469 1003.77551269531 1003.21411132812 1009.66076660156 1004.24963378906 1002.20538330078 1014.00482177734 1023.73315429688 1020.97735595703 1021.28387451172 1016.70355224609 1021.21154785156 1028.61059570312 1024.77502441406 1024.45654296875 1027.6337890625 1029.23266601562 1029.28930664062 1041.11267089844 1042.21789550781 1049.71801757812 1034.40441894531 1042.03527832031 1036.89562988281 1028.88305664062 1028.33715820312 1035.95141601562 1035.39208984375 1037.26318359375 1040.91918945312 1036.89416503906 1034.36535644531 1042.05004882812
937.938781738281 941.126953125 943.187622070312 954.935241699219 966.518310546875 963.628845214844 963.261657714844 961.780639648438 968.790832519531 961.147766113281 960.757507324219 949.573486328125 961.695068359375 962.686645507812 944.367370605469 945.470825195312 945.808776855469 946.822937011719 952.218383789062 951.017578125 942.813415527344 955.851318359375 955.86962890625 952.366821289062 940.024841308594 947.648559570312 945.509338378906 947.275512695312 944.520141601562 934.976867675781 943.443908691406 948.387390136719 949.502075195312 951.750122070312 948.476318359375 947.3251953125 952.60498046875 949.482299804688 943.842895507812 942.014770507812 945.258239746094 950.396240234375 945.9765625 956.449523925781 951.548522949219 949.698425292969 957.426879882812 953.353759765625 953.444763183594 954.378356933594 952.485229492188 952.949768066406 949.554077148438 955.205993652344 956.681701660156 961.785278320312 965.398071289062 975.331787109375 967.229675292969 965.889709472656 966.032592773438 961.355712890625 966.101257324219 968.770874023438 967.83740234375 960.619201660156 957.095581054688 960.746520996094 968.678405761719 964.068786621094 970.053100585938 968.784484863281 969.487670898438 967.287048339844 970.098754882812 974.498901367188 972.118286132812 971.652282714844 968.320068359375 970.829406738281 969.051391601562 979.196960449219 976.29638671875 982.129760742188 971.306762695312 977.016479492188 983.956787109375 970.860595703125 967.338439941406 975.402282714844 973.341674804688 970.448974609375 974.759033203125 969.759338378906 971.340026855469 973.203674316406 975.607849121094 970.270263671875 969.792114257812 972.507263183594 971.935241699219 973.059997558594 972.742980957031 989.514892578125 992.246826171875 996.361206054688 1002.61968994141 1004.41857910156 1005.42163085938 1000.21319580078 1005.98889160156 1006.32727050781 1002.74816894531 996.083190917969 986.921325683594 988.195007324219 994.528686523438 1002.81127929688 1008.15832519531 1008.35089111328 1003.63458251953 1015.06530761719 1008.92816162109 1017.57751464844 1020.59613037109 1013.61065673828 1015.92645263672 1019.72839355469 1017.36981201172 1027.04541015625 1023.40148925781 1024.59509277344 1029.07653808594 1029.23657226562 1031.45495605469 1031.21435546875 1038.48449707031 1046.42004394531 1042.49072265625 1040.38354492188 1040.29443359375 1034.90478515625 1032.25 1026.501953125 1033.74609375 1036.21850585938 1038.59436035156 1038.37280273438 1027.54431152344 1031.80383300781
939.563842773438 935.764282226562 944.189880371094 957.755432128906 953.065246582031 945.4423828125 964.104187011719 962.87939453125 959.467590332031 957.998107910156 954.997009277344 950.269226074219 955.844543457031 954.025817871094 947.187377929688 939.084533691406 939.164489746094 951.067565917969 952.932800292969 948.359558105469 955.303161621094 945.432189941406 952.341796875 953.631103515625 944.951965332031 947.361511230469 947.218444824219 938.571838378906 945.559326171875 941.889282226562 946.76318359375 943.892700195312 944.939147949219 953.928955078125 946.555236816406 956.928466796875 943.779541015625 951.768676757812 946.245727539062 943.49169921875 944.248779296875 953.48046875 945.054260253906 957.712036132812 953.33349609375 961.947814941406 963.714172363281 973.579711914062 969.178649902344 968.123962402344 958.468627929688 957.59716796875 961.305297851562 960.80517578125 957.648864746094 961.128356933594 961.839599609375 965.550903320312 969.024658203125 971.450378417969 965.617492675781 966.958435058594 963.387756347656 967.996643066406 965.340270996094 962.802490234375 961.544799804688 962.398620605469 970.893310546875 969.431762695312 974.646423339844 969.235534667969 967.962707519531 968.552062988281 967.015625 968.119567871094 972.813293457031 967.14697265625 968.08349609375 958.475463867188 971.565002441406 970.678833007812 981.146728515625 976.667602539062 980.432556152344 983.0576171875 980.706115722656 977.18408203125 975.862915039062 982.53564453125 970.9560546875 967.989318847656 974.776550292969 972.679809570312 979.028930664062 971.4873046875 977.430908203125 969.050537109375 969.698913574219 961.283630371094 970.18017578125 978.547119140625 985.407775878906 993.438903808594 992.067199707031 998.464477539062 1006.45404052734 1013.62225341797 1005.84191894531 1009.34661865234 1013.17303466797 1008.31481933594 1002.77386474609 1006.00982666016 993.998413085938 995.021911621094 1000.13226318359 1008.08673095703 1011.93829345703 1012.68737792969 1015.34692382812 1015.10717773438 1016.66778564453 1025.28295898438 1017.85559082031 1015.67230224609 1010.58557128906 1022.11737060547 1025.30859375 1026.31335449219 1026.85461425781 1022.18835449219 1021.22912597656 1030.82800292969 1035.96923828125 1032.25561523438 1036.44738769531 1038.85424804688 1043.16418457031 1033.50036621094 1033.69165039062 1039.29223632812 1032.3203125 1027.66259765625 1032.21459960938 1035.24816894531 1036.56384277344 1031.43505859375 1024.419921875 1021.34222412109
946.125 937.766479492188 950.162841796875 960.408264160156 957.471557617188 952.571350097656 958.327331542969 955.895080566406 957.754699707031 955.780334472656 948.603515625 953.048828125 953.545288085938 950.220642089844 947.505065917969 947.892883300781 942.852416992188 945.7626953125 946.309448242188 947.207641601562 946.305969238281 948.557250976562 950.61572265625 948.611938476562 943.513977050781 947.542907714844 960.964416503906 949.335998535156 940.957885742188 950.477661132812 957.5224609375 947.380310058594 949.266296386719 948.524719238281 947.712829589844 948.655456542969 949.412719726562 950.50048828125 954.650695800781 958.110107421875 958.204772949219 956.928894042969 952.642639160156 961.265686035156 960.717834472656 967.167663574219 971.774169921875 970.143615722656 975.837219238281 977.277465820312 970.986267089844 975.834655761719 967.973266601562 964.797729492188 957.353332519531 965.061218261719 967.430969238281 966.730285644531 970.846496582031 969.055053710938 975.980834960938 971.555541992188 971.525329589844 969.720092773438 962.431030273438 966.693115234375 966.756652832031 967.126831054688 971.912536621094 974.188171386719 980.427856445312 964.748718261719 977.837097167969 974.065002441406 968.753540039062 970.083557128906 971.391235351562 970.589599609375 965.532043457031 971.527465820312 971.202758789062 976.026550292969 977.521667480469 980.405151367188 974.059692382812 975.23046875 975.753112792969 972.650207519531 976.3759765625 971.792053222656 979.271545410156 968.680969238281 977.669494628906 971.405456542969 978.768371582031 978.206359863281 983.440246582031 968.303344726562 966.147521972656 977.451782226562 969.569458007812 977.883605957031 986.730163574219 992.405883789062 1002.05419921875 1010.62066650391 1018.90490722656 1014.83850097656 1003.64880371094 1017.25720214844 1006.87884521484 1006.36511230469 1004.67913818359 1006.51165771484 1009.12835693359 1007.47943115234 1009.46801757812 1012.11163330078 1017.34722900391 1020.42211914062 1025.32250976562 1021.57696533203 1024.90954589844 1020.09094238281 1021.43225097656 1021.22955322266 1023.42510986328 1020.73089599609 1030.30383300781 1029.17858886719 1028.68383789062 1029.63122558594 1026.13708496094 1036.78918457031 1039.00744628906 1034.24267578125 1031.47497558594 1031.13415527344 1032.6328125 1028.49499511719 1030.37316894531 1030.52429199219 1027.36584472656 1021.18072509766 1034.14074707031 1028.46923828125 1036.26611328125 1029.96118164062 1020.07263183594 1018.79449462891
949.493041992188 949.878967285156 954.993591308594 951.981384277344 958.509094238281 958.75732421875 950.683532714844 957.023498535156 945.028198242188 950.85400390625 942.857299804688 948.12890625 956.508850097656 947.705810546875 937.095520019531 943.606811523438 944.0068359375 948.747009277344 945.669006347656 941.16162109375 937.187805175781 946.862243652344 941.808532714844 949.126647949219 944.80908203125 953.074523925781 958.215087890625 951.207458496094 954.994934082031 949.117553710938 955.24365234375 951.261474609375 949.84912109375 945.453247070312 951.457153320312 951.048889160156 952.4365234375 951.201965332031 957.714172363281 960.953552246094 955.377075195312 958.389709472656 960.190856933594 960.334167480469 961.092895507812 974.228149414062 976.692321777344 971.547973632812 973.9677734375 974.440795898438 978.820373535156 978.450134277344 973.032165527344 970.15966796875 966.494934082031 972.184204101562 965.722351074219 963.309936523438 968.341369628906 967.202331542969 973.207946777344 970.0234375 966.136413574219 969.636352539062 966.340637207031 967.344543457031 970.206970214844 965.515197753906 978.241455078125 976.511535644531 975.837219238281 971.326538085938 982.855895996094 980.023376464844 979.376342773438 985.678405761719 973.116821289062 969.897094726562 973.441101074219 973.330932617188 976.221252441406 975.494140625 976.395446777344 977.815307617188 977.263549804688 974.067565917969 976.61328125 975.855285644531 969.634033203125 975.895629882812 981.300048828125 974.872985839844 976.408264160156 975.12451171875 981.6162109375 979.928100585938 983.052307128906 976.107727050781 974.766235351562 972.382202148438 983.375305175781 993.766723632812 997.702270507812 1003.99780273438 1003.37219238281 1010.66546630859 1018.60473632812 1010.43298339844 1014.34979248047 1007.92395019531 1007.13201904297 1003.68713378906 1010.6220703125 1012.65930175781 1016.50701904297 1015.72399902344 1013.24768066406 1016.86187744141 1025.07373046875 1016.73999023438 1020.67456054688 1022.02911376953 1025.1103515625 1028.98291015625 1023.90112304688 1018.56134033203 1027.43737792969 1029.42443847656 1037.34143066406 1032.98315429688 1032.86389160156 1034.49963378906 1030.65319824219 1027.87805175781 1035.58117675781 1034.02014160156 1040.57189941406 1033.48547363281 1033.63952636719 1020.28021240234 1023.20434570312 1016.84527587891 1016.67834472656 1018.2578125 1033.4560546875 1034.80224609375 1036.9970703125 1034.92651367188 1034.615234375 1022.95550537109
951.025207519531 947.803527832031 950.318298339844 956.620239257812 964.577453613281 953.355834960938 948.213195800781 944.622619628906 936.512634277344 952.054504394531 945.764770507812 938.820007324219 944.768676757812 947.764892578125 952.874755859375 944.189086914062 950.496520996094 946.331237792969 940.610473632812 946.093566894531 947.478698730469 947.77392578125 953.810424804688 955.246826171875 957.530822753906 956.265991210938 956.299499511719 949.181091308594 953.598937988281 956.7275390625 951.061706542969 946.382202148438 944.637756347656 947.767822265625 947.460693359375 954.623596191406 965.644104003906 959.04248046875 958.627258300781 955.586364746094 955.454345703125 957.954284667969 962.150207519531 960.905944824219 975.057922363281 980.561828613281 979.106262207031 977.922668457031 977.640075683594 972.745666503906 970.552001953125 979.661743164062 980.865356445312 976.607421875 972.195434570312 961.334106445312 967.508361816406 960.69775390625 974.007568359375 978.757751464844 972.372253417969 975.185424804688 971.63037109375 966.877380371094 973.058288574219 967.885498046875 969.874633789062 966.776611328125 978.71875 978.211791992188 980.734191894531 978.206481933594 979.948608398438 983.293151855469 980.621337890625 976.3154296875 976.016296386719 972.029602050781 969.642578125 973.849975585938 979.021911621094 974.709167480469 980.324523925781 974.308654785156 982.767395019531 980.664428710938 971.813659667969 973.265625 969.947265625 973.15771484375 974.623229980469 969.099365234375 968.129211425781 976.803833007812 974.850524902344 983.095031738281 980.333312988281 975.421630859375 972.8623046875 971.875183105469 980.295959472656 988.702819824219 1001.56121826172 995.876953125 1004.11773681641 1003.28540039062 1001.11871337891 998.979309082031 1006.23699951172 1014.41162109375 1013.19415283203 1006.04174804688 1003.70617675781 1014.14221191406 1019.90399169922 1022.01519775391 1021.27075195312 1024.84118652344 1028.64172363281 1031.083984375 1036.18676757812 1028.80261230469 1031.36669921875 1034.96252441406 1032.22827148438 1029.64233398438 1030.32397460938 1032.88842773438 1027.35107421875 1040.01977539062 1048.43359375 1043.2470703125 1031.552734375 1037.466796875 1036.15698242188 1036.39868164062 1032.47875976562 1034.94506835938 1032.59167480469 1027.23583984375 1031.93322753906 1013.96417236328 1020.15216064453 1017.03234863281 1025.234375 1021.06945800781 1027.22241210938 1034.43969726562 1039.31457519531 1033.76171875
940.562072753906 942.019104003906 952.403503417969 954.954711914062 956.0166015625 955.357360839844 940.820739746094 937.482055664062 933.732177734375 945.255676269531 937.700073242188 940.016235351562 945.560852050781 951.668884277344 951.146301269531 951.812683105469 954.045043945312 956.122375488281 943.627319335938 953.0654296875 953.226928710938 944.485168457031 946.27197265625 946.712036132812 954.813659667969 956.159362792969 955.253723144531 950.96240234375 957.017211914062 955.419128417969 957.285095214844 959.241638183594 950.821044921875 948.274047851562 951.727722167969 961.414733886719 961.881652832031 962.581176757812 964.912536621094 953.068237304688 952.172424316406 958.669799804688 962.212463378906 971.900451660156 975.603759765625 974.2353515625 979.876831054688 989.976196289062 981.110961914062 972.666931152344 979.083618164062 975.361022949219 974.863647460938 980.100769042969 977.207275390625 969.23583984375 967.335083007812 971.673461914062 967.27392578125 980.994567871094 978.176818847656 970.3671875 972.936096191406 977.014892578125 971.68701171875 968.373291015625 964.629028320312 967.68994140625 971.752807617188 983.684509277344 978.413757324219 978.404602050781 978.422790527344 978.176208496094 980.496520996094 978.870788574219 977.815002441406 981.142944335938 976.973754882812 975.872009277344 968.958251953125 978.219787597656 975.996459960938 986.436584472656 983.373779296875 991.135681152344 982.38525390625 987.479187011719 974.812072753906 975.520629882812 973.426940917969 966.097778320312 965.058227539062 971.774719238281 987.247131347656 981.759948730469 985.754272460938 984.28759765625 978.817565917969 985.374816894531 983.649780273438 987.070739746094 992.144775390625 996.417602539062 994.476196289062 1000.79724121094 999.9541015625 1007.64147949219 1005.47833251953 1014.37664794922 1021.67950439453 1015.05133056641 1020.9345703125 1015.79260253906 1028.55773925781 1025.55847167969 1027.142578125 1030.04016113281 1036.99572753906 1039.1884765625 1038.21325683594 1039.55126953125 1030.74462890625 1030.50134277344 1031.75402832031 1035.71252441406 1024.27160644531 1028.09008789062 1027.83422851562 1044.80041503906 1041.28991699219 1036.79711914062 1039.1904296875 1031.39343261719 1035.57556152344 1030.65344238281 1035.40466308594 1035.5224609375 1023.23754882812 1020.15509033203 1018.64569091797 1009.81372070312 1007.35131835938 1016.03240966797 1014.29486083984 1018.63677978516 1014.20428466797 1007.90557861328 1025.92260742188 1033.53088378906
938.538330078125 953.128845214844 952.076049804688 947.413391113281 947.20068359375 954.712158203125 944.234924316406 942.102111816406 937.658813476562 939.17724609375 933.711853027344 947.138854980469 940.689086914062 952.127258300781 953.14404296875 950.622741699219 953.321838378906 946.176086425781 953.714965820312 964.141235351562 958.704223632812 945.86083984375 950.80908203125 950.36083984375 954.523864746094 958.989379882812 954.774291992188 961.727844238281 964.3310546875 966.515197753906 960.141357421875 958.357604980469 952.119812011719 948.240661621094 953.945373535156 963.677429199219 965.906860351562 962.984252929688 958.580444335938 952.046020507812 950.247009277344 958.258972167969 963.667297363281 968.602478027344 975.02099609375 976.766723632812 977.183349609375 988.206970214844 987.652282714844 981.62451171875 977.501953125 979.015502929688 975.553405761719 981.235107421875 977.878967285156 985.794006347656 973.796875 974.466125488281 978.982055664062 984.191528320312 975.948974609375 967.533996582031 983.774536132812 977.627868652344 975.329650878906 964.378784179688 964.332641601562 966.552429199219 970.817260742188 975.401123046875 980.903930664062 985.969055175781 983.093322753906 982.192565917969 975.610168457031 979.694519042969 978.744995117188 977.520202636719 979.236877441406 979.507934570312 979.324951171875 979.252563476562 994.772216796875 989.541259765625 987.987365722656 986.495666503906 985.648010253906 975.871215820312 977.901428222656 978.6142578125 973.763244628906 965.842102050781 970.351867675781 974.900512695312 988.877563476562 987.581115722656 991.928955078125 990.763671875 991.55126953125 1000.4169921875 991.242065429688 980.829223632812 988.640380859375 996.977661132812 992.628845214844 997.823913574219 1001.51300048828 1013.51690673828 1016.32000732422 1016.4873046875 1017.25079345703 1023.31701660156 1018.03100585938 1026.60180664062 1028.29028320312 1035.46667480469 1032.69860839844 1042.46484375 1044.8173828125 1046.54089355469 1045.1689453125 1048.54113769531 1038.90295410156 1031.15539550781 1024.83654785156 1025.96423339844 1020.19067382812 1026.74768066406 1030.49072265625 1026.4375 1030.27709960938 1028.94665527344 1039.68872070312 1039.46240234375 1037.39819335938 1031.609375 1032.08093261719 1027.96398925781 1024.89990234375 1021.13507080078 1016.74304199219 1012.87353515625 1022.05078125 1014.53723144531 1009.45770263672 1019.17742919922 1005.39624023438 1002.26727294922 1010.45050048828 1019.33532714844
956.718017578125 952.094787597656 952.654479980469 951.961608886719 951.596618652344 952.030944824219 949.844909667969 937.335327148438 938.319885253906 945.234130859375 935.527221679688 943.054382324219 948.099792480469 948.429016113281 947.332275390625 953.108459472656 954.858337402344 961.268188476562 962.788513183594 969.802429199219 955.740905761719 950.593994140625 950.990417480469 945.402587890625 951.149658203125 958.521362304688 956.446472167969 961.284423828125 959.702453613281 957.154724121094 961.596984863281 956.203002929688 950.936157226562 953.7646484375 956.53662109375 965.816162109375 965.191101074219 966.702331542969 960.16455078125 954.509948730469 958.929260253906 957.777099609375 961.828674316406 974.298950195312 975.393981933594 975.264282226562 979.962036132812 983.573547363281 994.279479980469 988.947570800781 989.703552246094 986.472106933594 993.274108886719 986.771728515625 978.161743164062 987.31689453125 973.943664550781 977.297058105469 979.872863769531 978.123901367188 971.291076660156 971.471801757812 972.828308105469 975.225830078125 969.696960449219 970.176818847656 969.221313476562 969.390747070312 966.28955078125 968.894226074219 978.436889648438 990.088195800781 980.77490234375 984.410217285156 987.771362304688 986.830200195312 982.487243652344 990.665710449219 979.527587890625 984.720764160156 985.258911132812 987.168090820312 990.560913085938 996.957092285156 989.378234863281 985.760498046875 990.421508789062 979.017211914062 972.694763183594 968.874084472656 972.539306640625 973.844970703125 965.271667480469 975.27197265625 988.856567382812 995.34716796875 1000.15625 995.717163085938 996.423095703125 989.444885253906 984.8779296875 990.934936523438 987.57958984375 996.5693359375 1007.31829833984 1006.96966552734 1019.11651611328 1022.2587890625 1020.87347412109 1015.7998046875 1014.31964111328 1020.49963378906 1027.78125 1033.56848144531 1029.341796875 1034.09997558594 1038.20703125 1045.98791503906 1042.6318359375 1050.11572265625 1047.86865234375 1039.3125 1033.73815917969 1026.27124023438 1030.22802734375 1021.60363769531 1017.45666503906 1017.57464599609 1021.97229003906 1027.80310058594 1015.55920410156 1024.11987304688 1029.43383789062 1032.60534667969 1033.96008300781 1026.80541992188 1030.48474121094 1027.82202148438 1020.63580322266 1013.73498535156 1019.13879394531 1011.21856689453 1014.01684570312 1013.19494628906 1005.34173583984 1008.404296875 999.451293945312 996.382568359375 1004.5927734375 1007.28436279297
950.796569824219 954.619567871094 948.008911132812 940.729675292969 947.151977539062 949.257019042969 945.038208007812 944.321105957031 946.380920410156 937.278442382812 939.592102050781 942.168090820312 949.4287109375 953.35400390625 951.633361816406 952.945861816406 960.980224609375 958.183349609375 964.781982421875 966.378295898438 964.28173828125 959.55322265625 960.673950195312 958.431335449219 954.453247070312 953.981384277344 963.51611328125 958.880798339844 959.991027832031 959.464416503906 970.862915039062 965.230895996094 952.983093261719 960.415893554688 961.227416992188 968.976867675781 964.127197265625 962.901916503906 959.910827636719 956.065979003906 959.583679199219 953.4765625 967.140747070312 970.799133300781 976.033142089844 974.352661132812 980.310913085938 989.123229980469 992.830383300781 988.578186035156 991.528259277344 992.538635253906 994.792358398438 986.754333496094 979.529174804688 979.400939941406 971.400634765625 973.838806152344 975.090393066406 972.924377441406 968.486267089844 956.8603515625 961.652587890625 962.184509277344 970.317810058594 966.710388183594 969.195007324219 961.833984375 968.517944335938 971.658020019531 971.200988769531 976.453857421875 980.280029296875 983.585266113281 989.910095214844 994.994567871094 985.388122558594 989.684326171875 984.447265625 979.909240722656 983.901672363281 983.794555664062 991.305786132812 987.911926269531 995.549621582031 990.829040527344 992.390991210938 991.272644042969 977.686218261719 975.294860839844 978.581848144531 977.751708984375 972.794921875 978.518859863281 987.265319824219 992.725463867188 999.904663085938 996.580627441406 985.185913085938 996.102783203125 991.974548339844 997.063171386719 996.284851074219 997.579040527344 998.738830566406 1006.22320556641 1010.53076171875 1016.55346679688 1018.06768798828 1011.94610595703 1019.83544921875 1021.41625976562 1033.078125 1040.95288085938 1037.46179199219 1036.14147949219 1037.693359375 1032.99694824219 1044.28137207031 1039.21264648438 1046.44921875 1043.10864257812 1038.2470703125 1037.00146484375 1028.11694335938 1029.49792480469 1024.62365722656 1015.86486816406 1013.50830078125 1016.02398681641 1016.38226318359 1021.72784423828 1024.82531738281 1031.08630371094 1035.79040527344 1028.84716796875 1025.34387207031 1019.42022705078 1019.84606933594 1025.11682128906 1019.13159179688 1015.92156982422 1018.57537841797 1006.52587890625 997.260620117188 994.424621582031 987.608459472656 995.870239257812 1000.06304931641 992.464050292969
943.579650878906 946.631042480469 946.101501464844 943.257080078125 943.422424316406 945.73486328125 932.839233398438 945.703247070312 938.033081054688 939.50830078125 948.87451171875 953.375061035156 949.405883789062 960.869079589844 959.087280273438 957.093139648438 970.077514648438 966.604736328125 969.846496582031 973.094543457031 968.271423339844 960.753295898438 971.896850585938 960.104064941406 971.380187988281 968.139770507812 965.691528320312 961.197875976562 962.81787109375 966.085876464844 964.596435546875 965.961853027344 959.945007324219 962.126037597656 967.5126953125 975.319030761719 973.681030273438 971.801147460938 973.937194824219 961.9501953125 966.822448730469 962.850830078125 972.026733398438 979.957885742188 978.825012207031 982.142333984375 986.958190917969 990.91357421875 988.884155273438 992.457214355469 996.072814941406 1002.51214599609 1007.38824462891 990.306518554688 990.757385253906 970.901062011719 976.362487792969 978.651489257812 970.624572753906 971.716186523438 967.792419433594 958.968811035156 959.946960449219 968.189147949219 964.416198730469 978.905090332031 971.749572753906 968.9267578125 972.379699707031 970.968322753906 973.373291015625 982.626586914062 976.780944824219 987.427551269531 993.643920898438 989.181213378906 980.745178222656 981.602844238281 981.238403320312 980.65966796875 983.088989257812 983.384582519531 988.700561523438 995.638366699219 991.573059082031 987.948974609375 989.210021972656 990.023376464844 974.119812011719 972.386657714844 984.2197265625 982.214904785156 983.040588378906 980.844421386719 987.627807617188 989.826843261719 989.218688964844 996.376953125 982.270202636719 995.5703125 1001.80523681641 998.7705078125 997.414794921875 1000.58441162109 1000.98876953125 997.602783203125 1002.32635498047 1013.27624511719 1017.21472167969 1019.28668212891 1019.87780761719 1029.17944335938 1031.57788085938 1044.7705078125 1044.57409667969 1032.60400390625 1028.14221191406 1027.75256347656 1039.15747070312 1030.40441894531 1038.40905761719 1046.43896484375 1043.76220703125 1040.55029296875 1033.52282714844 1025.76062011719 1027.52172851562 1023.13952636719 1010.03961181641 1014.90191650391 1014.95141601562 1017.68237304688 1026.05725097656 1030.02380371094 1031.95300292969 1034.66821289062 1017.42816162109 1019.05871582031 1021.73114013672 1024.6435546875 1020.03271484375 1008.65600585938 1011.24267578125 1007.23565673828 997.255554199219 993.494079589844 997.486328125 1001.32580566406 988.9033203125 990.889770507812
942.994384765625 952.041015625 944.45849609375 943.859069824219 951.8271484375 937.442138671875 938.183959960938 945.816772460938 941.763000488281 947.075378417969 944.966979980469 946.494934082031 954.268310546875 961.963806152344 967.868957519531 973.796752929688 968.483093261719 974.029418945312 968.261840820312 971.94970703125 966.695983886719 972.847290039062 975.989929199219 980.357360839844 974.71484375 969.733703613281 976.091857910156 968.769836425781 964.602233886719 962.423217773438 956.457763671875 964.396362304688 969.58447265625 973.21630859375 973.394104003906 977.610961914062 981.294189453125 978.461669921875 977.230712890625 967.339416503906 968.307556152344 969.64794921875 973.538818359375 983.260375976562 979.129943847656 983.298767089844 984.526550292969 986.947875976562 994.730041503906 987.207946777344 987.533325195312 995.618957519531 993.559326171875 994.183715820312 996.74365234375 982.535827636719 982.724792480469 981.586853027344 979.9013671875 970.852844238281 974.069458007812 976.869201660156 970.807678222656 961.945007324219 968.166381835938 972.528442382812 983.014221191406 968.503723144531 969.538818359375 977.946594238281 978.609619140625 988.10009765625 986.75830078125 986.765258789062 979.890441894531 987.486938476562 991.799072265625 997.712951660156 987.797302246094 987.405700683594 984.977294921875 984.143127441406 997.240173339844 1001.44714355469 995.362854003906 993.635925292969 989.281982421875 982.782470703125 975.870544433594 980.433471679688 982.5673828125 981.086486816406 987.872924804688 989.187561035156 989.741394042969 984.44384765625 991.4482421875 996.930358886719 990.624938964844 991.268981933594 998.172241210938 997.034790039062 993.529663085938 1005.09069824219 1002.41937255859 999.115966796875 1002.79431152344 1013.34088134766 1023.32513427734 1022.06274414062 1026.15771484375 1021.74530029297 1030.71105957031 1042.73876953125 1035.07165527344 1029.51257324219 1034.5771484375 1037.10766601562 1033.39904785156 1032.28930664062 1038.88073730469 1045.77990722656 1043.25012207031 1042.07934570312 1035.13403320312 1031.01391601562 1024.3759765625 1017.49041748047 1016.66729736328 1013.02795410156 1017.09747314453 1013.49365234375 1018.05804443359 1028.80163574219 1038.50927734375 1029.05737304688 1012.64086914062 1017.16442871094 1015.88146972656 1019.4833984375 1017.17919921875 1009.37213134766 1011.45941162109 1009.11676025391 1005.03796386719 1000.65222167969 995.731628417969 996.080078125 996.386840820312 991.886962890625
941.410400390625 945.261962890625 942.603454589844 937.246765136719 942.533935546875 936.336975097656 936.874877929688 939.659912109375 941.149108886719 949.94873046875 939.369018554688 953.827392578125 964.230590820312 974.300537109375 966.704895019531 961.127258300781 970.3212890625 970.728759765625 964.772766113281 972.629150390625 975.245910644531 971.692016601562 978.461547851562 989.891174316406 985.996826171875 977.374694824219 982.734497070312 973.588195800781 965.613891601562 961.636047363281 958.664428710938 960.739929199219 968.591003417969 972.997436523438 975.744079589844 982.121215820312 987.060485839844 988.272338867188 981.431945800781 975.242370605469 970.6630859375 970.409240722656 981.089050292969 976.7001953125 983.923645019531 993.264404296875 992.642150878906 992.97216796875 983.888122558594 978.103271484375 988.516052246094 985.706909179688 985.540344238281 989.432250976562 998.798706054688 988.144348144531 988.325378417969 976.478332519531 981.674499511719 967.740295410156 973.928100585938 974.052734375 968.617309570312 965.037109375 967.110168457031 984.390258789062 982.898254394531 981.712524414062 980.1572265625 970.857788085938 976.83251953125 983.704406738281 978.029663085938 974.502624511719 978.337829589844 994.787963867188 999.930053710938 1003.10760498047 986.731384277344 985.888366699219 990.33203125 997.790954589844 1004.81658935547 1007.06072998047 1002.70758056641 988.82275390625 985.485229492188 981.689819335938 983.934387207031 983.049499511719 980.118225097656 984.803344726562 978.044616699219 983.890258789062 987.216552734375 994.266967773438 997.184692382812 1000.83868408203 990.845458984375 989.971984863281 987.400268554688 999.132446289062 997.025024414062 995.645446777344 1000.51153564453 1002.41613769531 1007.21697998047 1009.63635253906 1026.70910644531 1026.33386230469 1024.1484375 1021.12347412109 1028.49353027344 1026.02099609375 1024.45935058594 1030.82202148438 1034.07153320312 1030.36669921875 1031.61901855469 1032.03515625 1034.89233398438 1041.94860839844 1033.81237792969 1035.8515625 1029.95654296875 1026.04333496094 1019.24078369141 1019.36700439453 1016.25109863281 1005.86413574219 1007.40942382812 1008.05316162109 1012.34118652344 1019.892578125 1028.8818359375 1017.94519042969 1016.65826416016 1024.8154296875 1015.48492431641 1010.38189697266 1007.6572265625 1002.79516601562 1002.34497070312 995.397277832031 987.420043945312 989.545715332031 979.891845703125 996.033569335938 994.200866699219 994.487060546875
935.054565429688 939.348693847656 934.927551269531 934.997009277344 938.264099121094 931.930603027344 938.911987304688 931.055053710938 937.482177734375 939.871765136719 946.335388183594 949.397644042969 968.285461425781 972.508117675781 974.882751464844 967.204040527344 973.326721191406 972.294555664062 972.213806152344 976.30517578125 982.695495605469 973.834716796875 986.111694335938 997.027160644531 994.438903808594 992.93017578125 987.0009765625 974.47998046875 969.187866210938 969.043518066406 960.015441894531 964.936950683594 970.139038085938 972.730590820312 981.024169921875 984.857482910156 983.448425292969 983.941833496094 983.119934082031 980.214782714844 965.907165527344 978.703247070312 984.134704589844 988.502380371094 1003.53479003906 1006.02386474609 1004.74359130859 996.920471191406 989.46728515625 993.203430175781 987.494750976562 981.940307617188 983.500549316406 990.223449707031 999.462585449219 989.482849121094 986.750793457031 979.015014648438 984.194519042969 968.244079589844 973.471862792969 972.029174804688 972.233703613281 972.393920898438 976.468811035156 988.549560546875 982.418334960938 981.146118164062 983.484497070312 986.227722167969 984.036560058594 978.111755371094 974.676818847656 977.205078125 984.336120605469 986.928955078125 994.213317871094 1001.60498046875 988.647277832031 976.409423828125 982.781860351562 1000.0068359375 1006.38629150391 994.171142578125 997.801696777344 998.239929199219 987.431640625 992.129211425781 981.5830078125 986.646484375 984.100524902344 983.328002929688 976.072326660156 983.709289550781 988.832214355469 1005.47149658203 1003.17083740234 994.848999023438 1002.88037109375 992.382873535156 987.635009765625 1003.03399658203 1004.88897705078 1002.86968994141 999.615173339844 1000.76867675781 1011.74255371094 1015.00317382812 1025.26904296875 1014.86767578125 1025.4091796875 1025.15478515625 1022.81213378906 1020.50732421875 1014.41174316406 1021.671875 1023.39508056641 1018.21160888672 1016.72790527344 1027.00268554688 1034.8818359375 1034.6904296875 1031.92687988281 1026.45227050781 1028.39758300781 1021.67272949219 1013.61187744141 1014.08709716797 1019.77960205078 1007.31280517578 1003.49401855469 1008.31860351562 1005.81774902344 1016.4345703125 1019.31011962891 1014.71813964844 1012.09832763672 1012.49926757812 1001.81060791016 995.919982910156 1002.26641845703 988.847229003906 994.592834472656 989.722229003906 982.925231933594 984.160522460938 986.874816894531 992.327880859375 995.611694335938 999.7509765625
925.037170410156 939.328552246094 937.286376953125 933.295776367188 932.390502929688 931.938110351562 943.928833007812 947.65673828125 944.067504882812 945.430725097656 950.024047851562 948.384643554688 966.050903320312 972.770874023438 974.787048339844 961.341552734375 968.339172363281 972.021850585938 973.545776367188 968.566040039062 975.963500976562 975.355712890625 981.839233398438 990.094299316406 993.151062011719 995.981201171875 989.682067871094 975.103881835938 977.653991699219 966.974853515625 969.569702148438 974.186706542969 974.640319824219 982.236511230469 975.904052734375 979.364318847656 985.375549316406 989.130859375 987.507385253906 980.272277832031 979.403625488281 986.93798828125 997.881591796875 988.691040039062 1009.60119628906 1010.06896972656 1004.58941650391 1003.06915283203 1006.79644775391 1001.27185058594 985.395263671875 989.574829101562 985.418029785156 980.767700195312 989.316345214844 986.1640625 977.480102539062 986.509033203125 986.923767089844 975.817565917969 961.858581542969 967.491943359375 969.524108886719 971.1611328125 979.916320800781 985.002258300781 981.7255859375 985.730041503906 983.458679199219 986.599792480469 988.599182128906 977.66357421875 983.374694824219 986.553649902344 984.434692382812 992.454040527344 991.727966308594 999.097595214844 999.734313964844 988.412292480469 987.7890625 994.66796875 1003.52655029297 998.512268066406 1003.2451171875 991.5537109375 991.044128417969 988.681884765625 983.880432128906 985.085815429688 989.466186523438 982.5205078125 985.409118652344 987.5615234375 993.166564941406 999.256225585938 1001.26373291016 999.168701171875 1001.7568359375 1000.91290283203 1003.75756835938 1000.19165039062 1010.58758544922 1012.83178710938 1003.51611328125 1015.57385253906 1011.47772216797 1019.05157470703 1022.66131591797 1021.62365722656 1026.59191894531 1025.53088378906 1028.1435546875 1023.185546875 1012.22912597656 1016.71832275391 1023.43914794922 1018.86334228516 1028.78344726562 1022.66571044922 1024.20654296875 1026.62341308594 1036.78063964844 1023.77972412109 1019.83483886719 1022.89898681641 1017.96173095703 1015.81176757812 1005.48193359375 1005.72058105469 1007.17431640625 1008.52972412109 1007.28216552734 1011.27044677734 1018.96264648438 1022.98236083984 1017.62603759766 1015.63391113281 1004.91485595703 994.855529785156 988.906433105469 992.855651855469 988.500183105469 994.458618164062 986.820373535156 996.387329101562 990.153137207031 989.894714355469 999.939270019531 998.831359863281
930.76025390625 938.581359863281 932.6689453125 932.977111816406 929.539489746094 930.839660644531 934.962829589844 943.545349121094 946.182373046875 949.599060058594 958.720153808594 969.401977539062 977.259765625 972.460998535156 978.58447265625 971.586486816406 973.557006835938 974.939819335938 970.725280761719 966.010681152344 974.046875 985.299621582031 989.505187988281 994.94091796875 991.640014648438 994.711303710938 988.223327636719 979.688293457031 976.133117675781 978.359619140625 981.177429199219 974.591735839844 982.7109375 987.494934082031 981.57470703125 980.132446289062 982.862609863281 992.561767578125 999.503234863281 1001.62811279297 994.531005859375 992.80908203125 997.7001953125 996.669250488281 1003.51080322266 1006.81408691406 1007.66430664062 1011.81951904297 1007.92309570312 1005.85302734375 993.847534179688 991.29833984375 992.8955078125 989.668518066406 992.492065429688 982.805541992188 984.095336914062 986.776062011719 987.683898925781 978.408203125 966.6669921875 962.527099609375 969.815307617188 970.902587890625 980.685485839844 982.29443359375 978.454772949219 983.069641113281 977.062255859375 980.223327636719 983.946533203125 989.021423339844 994.496337890625 991.149047851562 994.565368652344 986.200073242188 996.839904785156 996.794616699219 997.30322265625 996.143432617188 998.496276855469 990.512878417969 1000.25646972656 1000.12866210938 995.467834472656 995.669311523438 990.191101074219 996.972106933594 988.028625488281 987.41796875 985.760864257812 990.6923828125 989.322143554688 979.962097167969 990.706298828125 991.771423339844 1001.33013916016 1004.44812011719 1008.1513671875 1009.18432617188 1008.19927978516 1005.96649169922 997.744140625 1003.12542724609 999.414306640625 1012.53527832031 1011.62414550781 1016.88354492188 1027.78637695312 1026.13049316406 1015.88928222656 1023.00225830078 1030.36889648438 1022.29064941406 1022.27252197266 1029.63012695312 1031.52038574219 1019.14581298828 1016.79266357422 1017.18188476562 1011.43572998047 1011.40509033203 1021.84204101562 1025.14343261719 1018.37902832031 1020.1513671875 1023.27532958984 1011.12756347656 1007.22033691406 1005.95751953125 1010.75988769531 1010.58941650391 1011.14916992188 1011.72045898438 1028.55017089844 1030.8037109375 1027.4951171875 1004.72161865234 1004.29931640625 1001.58355712891 993.115478515625 982.150085449219 982.217712402344 985.963684082031 990.941772460938 992.897583007812 993.109802246094 995.255065917969 996.263977050781 1000.96850585938
925.420593261719 934.215454101562 939.471557617188 932.951416015625 933.195068359375 936.830688476562 930.483825683594 944.989501953125 955.497497558594 954.376586914062 974.419738769531 980.373779296875 978.668884277344 989.501647949219 995.8486328125 978.605102539062 980.15625 977.450927734375 969.569885253906 978.3203125 978.175170898438 979.654357910156 987.95654296875 994.217529296875 990.521179199219 994.470947265625 978.922668457031 984.430053710938 980.384887695312 983.861633300781 987.381469726562 981.865539550781 980.494384765625 979.246154785156 987.313110351562 981.914916992188 988.613159179688 996.287170410156 997.640014648438 998.475158691406 1003.87078857422 1003.79846191406 1007.35211181641 1007.39581298828 1009.69396972656 1010.71234130859 1014.58209228516 1017.00219726562 1016.55535888672 1002.78497314453 998.598754882812 995.703247070312 993.693420410156 994.294372558594 990.669555664062 985.7646484375 981.41064453125 986.989929199219 980.601440429688 980.299560546875 969.734375 975.554809570312 982.079711914062 972.653503417969 981.690856933594 976.17529296875 978.800842285156 975.535217285156 979.246215820312 984.084411621094 981.00439453125 984.628112792969 992.022338867188 990.874877929688 989.290100097656 991.1083984375 993.626342773438 993.066040039062 992.566223144531 1003.51470947266 1004.45910644531 1000.09918212891 1006.3291015625 995.454650878906 993.105712890625 993.645446777344 994.115051269531 996.974914550781 982.719482421875 982.2880859375 987.534362792969 982.979553222656 985.711242675781 990.859497070312 990.502136230469 997.900390625 998.699584960938 1004.70037841797 1013.25524902344 1006.54742431641 1002.77410888672 1003.98889160156 1004.90075683594 999.323364257812 1003.60260009766 1008.89221191406 1005.06915283203 1013.43725585938 1027.45141601562 1032.96337890625 1024.71398925781 1018.44128417969 1019.32763671875 1028.26904296875 1026.47839355469 1027.96337890625 1033.83227539062 1035.33801269531 1030.19421386719 1020.5029296875 1011.20849609375 1015.36639404297 1019.84613037109 1021.77770996094 1015.99334716797 1019.52569580078 1018.91436767578 1009.78265380859 999.970275878906 1008.38317871094 1012.85522460938 1011.78887939453 1013.41229248047 1015.17572021484 1018.736328125 1022.98687744141 1018.76702880859 1004.27935791016 1003.10949707031 996.651428222656 997.581237792969 991.802429199219 981.063842773438 980.5751953125 991.527404785156 989.433898925781 987.77294921875 983.784423828125 985.727172851562 998.861511230469
938.333923339844 946.500183105469 942.449829101562 941.334289550781 940.807434082031 937.086059570312 937.470397949219 939.696655273438 950.096496582031 968.263061523438 980.362915039062 983.315979003906 987.041809082031 988.613464355469 989.548767089844 984.564880371094 982.663818359375 972.0986328125 965.425659179688 971.569458007812 974.933288574219 981.769470214844 987.152709960938 988.678466796875 982.874450683594 986.383972167969 984.365173339844 991.243713378906 984.988891601562 991.072021484375 991.173461914062 983.069519042969 978.344604492188 980.409912109375 982.714172363281 984.436401367188 988.922546386719 996.135498046875 997.738830566406 1009.19934082031 1012.28393554688 1013.20935058594 1007.97747802734 1007.67877197266 1004.69262695312 1008.35504150391 1004.39831542969 1021.73675537109 1010.33422851562 1005.48193359375 1004.39337158203 998.241760253906 998.661376953125 998.8095703125 989.950256347656 991.247802734375 981.90087890625 980.447509765625 977.53955078125 973.708740234375 968.647155761719 963.998352050781 972.431213378906 982.88916015625 975.273315429688 975.97265625 971.557861328125 968.218078613281 978.114440917969 974.226501464844 972.483520507812 984.0244140625 986.043151855469 993.700622558594 991.565551757812 988.476501464844 988.092834472656 990.595886230469 1003.08172607422 1010.56298828125 1011.15911865234 1012.54296875 1012.09405517578 995.429565429688 991.60107421875 996.170104980469 999.873962402344 1000.04614257812 990.632934570312 988.721130371094 991.217468261719 984.169555664062 992.034118652344 989.260192871094 995.657958984375 994.55419921875 1001.18316650391 1004.08972167969 1006.20013427734 1006.50225830078 1008.36206054688 1006.05725097656 1008.93664550781 1006.34429931641 1010.07952880859 1016.3984375 1012.03289794922 1021.89221191406 1028.462890625 1030.42761230469 1028.52514648438 1029.65051269531 1023.72027587891 1030.14367675781 1024.75646972656 1032.72314453125 1036.34448242188 1034.92272949219 1039.73352050781 1029.63073730469 1028.06616210938 1021.34197998047 1017.42138671875 1013.65777587891 1010.64892578125 1011.50952148438 1017.87078857422 1010.81237792969 1005.4736328125 1005.10198974609 1002.92791748047 1001.05651855469 1007.08245849609 1003.85516357422 998.572448730469 1011.20056152344 1013.04510498047 1012.40783691406 1008.76416015625 997.182678222656 995.989013671875 990.673706054688 984.603820800781 981.216491699219 987.60546875 987.908203125 978.498901367188 976.00732421875 988.949951171875 986.837768554688
944.249267578125 951.225524902344 944.21142578125 946.025085449219 951.739868164062 939.908142089844 940.586853027344 945.668579101562 949.652954101562 958.357666015625 977.684936523438 975.765808105469 973.719299316406 980.229919433594 992.563903808594 983.384826660156 983.388854980469 973.429809570312 965.504028320312 969.101745605469 969.0263671875 971.854370117188 978.684631347656 991.230407714844 985.974426269531 990.564758300781 985.472412109375 998.488342285156 985.766540527344 984.733215332031 981.462219238281 982.614807128906 984.336486816406 993.18115234375 985.245056152344 990.509582519531 990.447509765625 987.629150390625 995.323608398438 1004.80798339844 1006.32922363281 1007.11114501953 1009.22418212891 1005.14404296875 1002.85504150391 1001.70581054688 1005.61090087891 1015.64575195312 1016.05352783203 999.191040039062 998.021301269531 1003.82708740234 993.611022949219 996.324157714844 984.908752441406 986.807678222656 986.31005859375 980.588500976562 978.102844238281 982.710266113281 978.162841796875 977.777587890625 976.3251953125 972.328735351562 975.628112792969 976.538208007812 973.356567382812 968.755615234375 972.036499023438 982.636901855469 977.686950683594 984.855346679688 987.834594726562 981.98388671875 983.770874023438 1000.99389648438 991.118896484375 996.172241210938 1001.68994140625 1011.14318847656 1012.68713378906 1009.14135742188 1011.31408691406 1008.04998779297 998.017700195312 996.345458984375 1003.23657226562 996.045654296875 1001.34307861328 1000.60552978516 1001.89331054688 997.278869628906 994.60693359375 995.516540527344 999.24853515625 998.947509765625 1001.75964355469 1001.18731689453 1003.44512939453 1000.83557128906 1011.54217529297 1009.21423339844 1012.30853271484 1014.39916992188 1012.49243164062 1012.41857910156 1011.7373046875 1019.73852539062 1027.46032714844 1032.82336425781 1032.94299316406 1036.85791015625 1028.89282226562 1034.26586914062 1027.93542480469 1030.53039550781 1034.81127929688 1034.03430175781 1043.44995117188 1038.7666015625 1030.90795898438 1014.58898925781 1019.72668457031 1003.73095703125 1008.74346923828 1011.11492919922 1009.75476074219 1004.57489013672 1002.61926269531 1004.73327636719 998.222900390625 998.22607421875 995.741149902344 998.523010253906 1001.40692138672 997.176818847656 1012.24066162109 1005.91448974609 1010.59790039062 999.019897460938 988.545532226562 985.648620605469 985.003601074219 990.074462890625 986.427124023438 978.55859375 979.535766601562 977.05517578125 980.782104492188 979.719421386719
945.815734863281 952.935668945312 951.404235839844 946.369201660156 945.018859863281 937.746826171875 940.871520996094 941.761657714844 947.117126464844 948.312622070312 967.493713378906 971.389709472656 980.025695800781 974.091735839844 977.665832519531 981.987854003906 982.978942871094 968.622802734375 971.088134765625 974.5537109375 969.085632324219 963.872802734375 969.853942871094 982.371887207031 999.859497070312 990.973083496094 990.955688476562 992.695495605469 991.844543457031 981.83251953125 976.130065917969 974.016357421875 981.171020507812 987.550048828125 982.295227050781 993.911987304688 995.230712890625 993.790100097656 998.391235351562 1004.58831787109 1001.56042480469 989.713012695312 999.539489746094 994.625244140625 999.511047363281 1005.53167724609 1004.02496337891 1005.65093994141 996.449340820312 994.498107910156 998.740295410156 994.724609375 996.862609863281 987.740600585938 988.819458007812 985.416809082031 986.238891601562 981.378967285156 981.939453125 976.419128417969 973.661743164062 971.164367675781 975.5126953125 976.514831542969 975.639831542969 973.445556640625 981.227355957031 974.919921875 977.206420898438 984.595947265625 986.396423339844 991.154113769531 987.478637695312 980.230590820312 982.759582519531 993.237060546875 996.660400390625 996.325500488281 1006.96459960938 1016.36236572266 1011.74896240234 1001.50115966797 1001.6796875 1001.87237548828 1001.37628173828 998.145568847656 1005.32934570312 994.730407714844 999.524047851562 999.122192382812 993.457214355469 998.599731445312 1005.94653320312 996.595642089844 994.786376953125 1000.93774414062 994.215026855469 998.205871582031 996.064514160156 1002.89709472656 1008.41943359375 998.846862792969 1008.20953369141 1016.74011230469 1018.85577392578 1014.82409667969 1016.57141113281 1023.3359375 1029.87951660156 1029.86767578125 1037.91918945312 1026.26342773438 1029.95373535156 1031.99597167969 1030.20166015625 1035.25939941406 1041.48669433594 1038.06030273438 1031.84997558594 1031.13159179688 1035.59582519531 1021.93884277344 1017.03314208984 1016.05139160156 1007.08624267578 1006.98828125 1005.56872558594 1009.07019042969 1004.83874511719 997.577697753906 1000.20220947266 998.436950683594 987.355285644531 991.613525390625 993.328552246094 997.127990722656 995.144836425781 1004.14984130859 1008.47741699219 997.187194824219 990.473388671875 986.006958007812 993.159912109375 984.423828125 982.293640136719 979.405334472656 973.037841796875 982.750427246094 980.461547851562 974.794799804688
961.2802734375 954.0126953125 949.738464355469 942.651977539062 942.32373046875 933.489074707031 937.07763671875 940.945190429688 937.623779296875 960.77587890625 962.762573242188 967.390319824219 979.190246582031 971.320251464844 973.752197265625 969.736267089844 976.5107421875 973.179260253906 967.732849121094 966.3115234375 971.312561035156 968.382141113281 977.090759277344 984.41650390625 1001.59539794922 1001.45892333984 998.212036132812 992.825317382812 981.555419921875 980.267272949219 975.09423828125 985.771728515625 989.13037109375 988.244812011719 985.993225097656 983.098449707031 985.157409667969 989.027893066406 996.546020507812 1001.60607910156 992.352478027344 992.960083007812 998.109252929688 996.455261230469 992.4501953125 997.400573730469 1010.24243164062 1002.37414550781 992.357849121094 994.48779296875 1004.70031738281 994.528930664062 993.644592285156 990.544555664062 987.839599609375 991.077758789062 990.943603515625 985.110717773438 985.272644042969 978.175109863281 978.987060546875 973.323059082031 963.793579101562 970.667175292969 970.116394042969 974.481506347656 974.907287597656 979.917053222656 977.829467773438 979.912353515625 994.874084472656 993.88330078125 978.795043945312 984.570251464844 988.113891601562 987.64208984375 991.912536621094 996.125061035156 996.956848144531 1009.46136474609 1009.69329833984 999.492980957031 1008.63940429688 1007.13464355469 1005.16900634766 1001.31994628906 1004.99957275391 994.297302246094 993.358459472656 998.375671386719 997.488037109375 1000.18542480469 1007.24206542969 993.689025878906 993.614990234375 991.479797363281 1003.48065185547 1004.60028076172 998.643249511719 1007.96643066406 1003.52569580078 1010.23724365234 1011.61334228516 1004.29107666016 1013.13635253906 1013.58465576172 1018.06927490234 1028.73059082031 1031.9765625 1035.69177246094 1036.72192382812 1041.50537109375 1039.18481445312 1034.15234375 1036.13488769531 1046.68518066406 1042.45434570312 1042.19592285156 1034.78503417969 1036.009765625 1035.34143066406 1029.25756835938 1017.12896728516 1010.45434570312 1013.39270019531 1003.05737304688 994.497863769531 1008.48852539062 997.697082519531 1001.12738037109 996.7958984375 995.210571289062 989.322937011719 991.721862792969 989.904968261719 994.910949707031 992.496643066406 994.6240234375 994.785705566406 991.472473144531 984.200073242188 982.5263671875 988.2490234375 979.612060546875 978.381286621094 975.108337402344 978.684692382812 971.867065429688 977.449157714844 977.918884277344
955.804931640625 953.433166503906 946.584106445312 945.019592285156 937.458251953125 940.653991699219 940.4326171875 938.249450683594 952.919006347656 960.243530273438 963.033630371094 962.695678710938 969.495544433594 967.92919921875 965.678771972656 972.627807617188 969.166564941406 969.755798339844 964.336547851562 957.201721191406 957.272277832031 963.934326171875 972.1337890625 978.612548828125 983.610107421875 987.271545410156 989.845886230469 983.163940429688 973.731140136719 974.16748046875 980.943542480469 987.698425292969 985.244140625 985.186340332031 989.708557128906 978.656799316406 987.601745605469 990.502685546875 989.324279785156 994.641052246094 986.53271484375 995.246459960938 997.374694824219 1002.55603027344 996.94775390625 1000.61676025391 1001.19470214844 1005.71563720703 1000.58929443359 1009.14367675781 1007.28009033203 1003.24652099609 1001.11889648438 997.886596679688 994.452270507812 991.110168457031 984.127136230469 984.1337890625 985.853393554688 989.167175292969 983.570617675781 975.456665039062 969.728271484375 969.158142089844 962.030639648438 973.471435546875 981.817932128906 981.236328125 990.651489257812 976.394226074219 990.083190917969 992.553894042969 973.300720214844 977.47021484375 984.921264648438 993.430603027344 987.424438476562 993.559753417969 990.048583984375 995.568359375 1003.25775146484 1003.94891357422 1013.38159179688 1020.60528564453 1016.28436279297 1012.51300048828 998.570495605469 991.54541015625 995.256286621094 1003.1826171875 1000.04431152344 999.313232421875 1004.00189208984 991.0419921875 986.668212890625 996.196594238281 996.637634277344 1001.56109619141 1009.15783691406 1004.30120849609 1003.59893798828 1009.18322753906 1012.20245361328 1004.40936279297 1016.99420166016 1018.37786865234 1025.40673828125 1035.37878417969 1035.78430175781 1042.076171875 1042.91418457031 1038.13696289062 1044.50256347656 1039.361328125 1038.07080078125 1040.76159667969 1044.07897949219 1040.8056640625 1040.91186523438 1034.70776367188 1034.03930664062 1026.17834472656 1019.01361083984 1015.62213134766 1012.50335693359 1003.35925292969 999.826354980469 998.004699707031 993.826904296875 994.149780273438 994.451049804688 983.450256347656 983.333984375 990.598815917969 997.458374023438 996.398498535156 992.852966308594 994.512512207031 979.75341796875 984.113647460938 987.954956054688 987.430053710938 987.466857910156 982.682006835938 976.766662597656 982.958435058594 971.933654785156 974.38916015625 975.152099609375 972.425476074219
955.690734863281 956.371520996094 952.799621582031 943.34521484375 944.223815917969 939.496215820312 940.315979003906 938.158874511719 949.128234863281 958.384765625 965.407653808594 966.963928222656 966.332397460938 959.596984863281 954.445068359375 961.10791015625 963.576354980469 962.076599121094 955.901000976562 952.630493164062 950.301574707031 953.593444824219 960.293518066406 972.793823242188 975.429809570312 977.822937011719 979.296142578125 977.782165527344 977.468994140625 969.013549804688 974.054382324219 975.872741699219 986.631103515625 991.902709960938 984.692565917969 976.463928222656 980.719177246094 994.268615722656 997.907104492188 995.065185546875 991.463195800781 986.142333984375 988.679992675781 1001.30450439453 1002.62182617188 993.205383300781 998.881408691406 1002.56964111328 1010.03063964844 1013.94635009766 1002.81823730469 1002.79803466797 997.899230957031 994.457336425781 999.724548339844 988.174194335938 991.468383789062 989.024108886719 983.130065917969 990.060363769531 990.850402832031 979.393737792969 974.00146484375 971.97802734375 971.666259765625 981.762878417969 983.0107421875 977.444519042969 986.891235351562 988.356323242188 991.382934570312 990.154663085938 989.3369140625 979.897827148438 984.586059570312 979.283081054688 978.804931640625 991.659240722656 983.390075683594 989.691345214844 990.433776855469 995.666015625 1004.13793945312 1012.21112060547 1018.24353027344 1012.89703369141 997.198669433594 997.974426269531 1002.33428955078 1001.33227539062 997.432006835938 1000.89447021484 994.615600585938 990.16015625 990.183715820312 995.910705566406 999.638549804688 1004.10955810547 1009.88336181641 1005.39025878906 1005.41973876953 1010.14202880859 1011.06457519531 1008.04583740234 1007.19537353516 1021.44665527344 1029.51489257812 1041.57580566406 1048.021484375 1043.51428222656 1048.02941894531 1046.70642089844 1056.1796875 1056.83508300781 1054.14477539062 1048.15209960938 1045.6064453125 1041.03112792969 1038.80041503906 1042.1005859375 1034.89343261719 1026.48022460938 1006.89587402344 1014.24426269531 1018.00238037109 1002.21594238281 995.181823730469 991.470825195312 997.645629882812 990.9912109375 982.152587890625 976.427612304688 984.7001953125 992.403564453125 987.519836425781 983.759887695312 989.520141601562 982.1181640625 981.725708007812 980.922790527344 979.356628417969 984.742004394531 981.891540527344 980.402221679688 976.909729003906 977.544982910156 971.463500976562 968.388916015625 980.908142089844 976.950622558594
956.80810546875 966.679992675781 950.485412597656 938.567565917969 939.900268554688 941.4091796875 938.173828125 944.5966796875 946.014343261719 952.547546386719 959.776062011719 966.014404296875 961.048034667969 960.110534667969 965.718688964844 958.427001953125 955.685974121094 957.942443847656 952.025573730469 949.365661621094 950.046447753906 955.05126953125 957.245483398438 960.941711425781 963.228088378906 968.04443359375 969.337158203125 962.217956542969 964.97509765625 967.161254882812 959.747680664062 969.552062988281 981.044677734375 976.795471191406 976.996643066406 972.928100585938 979.3916015625 986.019409179688 990.902587890625 989.598876953125 985.7607421875 988.665893554688 987.990661621094 994.19873046875 996.674621582031 995.782897949219 1002.45263671875 998.107971191406 1004.88763427734 1007.96545410156 1008.03356933594 1008.89996337891 1000.66619873047 991.910827636719 984.975463867188 992.912353515625 993.869873046875 996.725708007812 991.351989746094 986.545104980469 988.009704589844 981.232727050781 982.791076660156 985.266967773438 987.587829589844 987.344909667969 983.967651367188 977.869995117188 979.891784667969 989.283081054688 988.651062011719 987.57763671875 984.078369140625 982.437438964844 985.009521484375 990.931823730469 990.913757324219 989.487365722656 989.413635253906 989.932678222656 987.37744140625 996.7822265625 1006.89819335938 1012.61419677734 1010.93084716797 1005.23425292969 998.874389648438 1002.67883300781 1003.24523925781 1003.07702636719 1007.22332763672 1005.02856445312 993.218627929688 994.609802246094 996.236633300781 997.268493652344 1001.18707275391 1000.57232666016 1019.76312255859 1013.52288818359 1006.53753662109 1012.03619384766 1010.19476318359 1010.25341796875 1006.63354492188 1021.85095214844 1025.80627441406 1040.28881835938 1040.49829101562 1035.04052734375 1044.65710449219 1051.0341796875 1062.74951171875 1061.17785644531 1058.54455566406 1054.27368164062 1047.86853027344 1039.79455566406 1045.09130859375 1041.07482910156 1040.39855957031 1032.40197753906 1019.77618408203 1010.63409423828 1009.19696044922 995.642150878906 991.309509277344 985.153015136719 980.65576171875 976.729736328125 983.911682128906 984.614562988281 992.701538085938 981.714782714844 983.817565917969 981.332824707031 981.423522949219 977.065002441406 979.60107421875 972.093444824219 970.648498535156 978.48193359375 980.984497070312 980.438842773438 972.081237792969 972.409912109375 971.54052734375 970.551147460938 985.492065429688 985.50048828125
961.780944824219 947.828735351562 939.247436523438 946.098327636719 940.854675292969 939.826538085938 943.166015625 945.887878417969 946.588134765625 944.08837890625 950.796813964844 957.820739746094 948.11865234375 960.593200683594 960.976318359375 951.428527832031 957.744812011719 954.468017578125 957.012878417969 954.820434570312 954.088989257812 954.064880371094 954.105712890625 958.002197265625 962.712097167969 965.353393554688 964.521240234375 965.185913085938 963.453552246094 969.380493164062 964.560913085938 967.615966796875 971.286010742188 977.263610839844 977.3359375 977.870971679688 978.384338378906 975.743957519531 982.6826171875 982.44775390625 984.727661132812 994.989135742188 990.340515136719 990.196533203125 995.014770507812 999.08056640625 1000.76580810547 998.094299316406 1004.71820068359 997.936279296875 994.940124511719 1000.67669677734 992.23388671875 994.760498046875 980.752807617188 986.002197265625 996.543273925781 996.905639648438 991.040466308594 987.111572265625 991.083312988281 990.194641113281 989.830993652344 982.912719726562 982.022155761719 984.554443359375 982.398376464844 981.413696289062 990.253967285156 991.763366699219 1000.25756835938 996.849731445312 991.890930175781 983.589538574219 987.627136230469 988.875732421875 987.232238769531 991.925903320312 993.705444335938 993.781982421875 996.412719726562 996.46337890625 1009.60729980469 1004.88629150391 1001.61572265625 998.871459960938 1007.57934570312 1014.20812988281 1008.95239257812 1005.54339599609 998.569458007812 997.538452148438 990.996459960938 991.58740234375 1002.09228515625 1007.86511230469 1001.63897705078 1007.08868408203 1012.69250488281 1017.21795654297 1005.86187744141 1003.44451904297 1007.73541259766 1015.55682373047 1007.26458740234 1020.31768798828 1022.63635253906 1039.30078125 1051.07592773438 1040.99829101562 1047.72778320312 1059.15087890625 1058.435546875 1064.57849121094 1067.80676269531 1068.48974609375 1055.60778808594 1056.20495605469 1055.97229003906 1047.66516113281 1043.15637207031 1027.65515136719 1010.71539306641 1003.00402832031 1011.76916503906 1004.37689208984 986.427368164062 983.862548828125 974.55615234375 977.540283203125 978.16650390625 984.826721191406 984.494873046875 984.881896972656 982.1923828125 978.478210449219 976.941467285156 977.768920898438 981.410522460938 967.142456054688 965.5341796875 973.766479492188 972.481689453125 969.584289550781 967.446899414062 971.337280273438 967.337829589844 969.198669433594 983.310363769531 986.836730957031
955.678283691406 942.748107910156 940.839660644531 945.754821777344 939.337951660156 940.618713378906 944.268981933594 947.967529296875 937.989929199219 945.014221191406 943.329895019531 949.592529296875 947.733276367188 951.036315917969 949.636901855469 954.620544433594 951.662231445312 958.163635253906 952.105163574219 957.303588867188 955.03173828125 967.509460449219 958.954406738281 950.301574707031 954.613342285156 956.072387695312 956.267639160156 954.675903320312 958.599365234375 967.474243164062 968.2353515625 966.369384765625 970.914855957031 973.276123046875 973.167907714844 963.935791015625 966.879821777344 975.878967285156 974.627868652344 975.865295410156 982.995300292969 977.063171386719 983.06005859375 989.650512695312 990.802062988281 1001.83587646484 1000.86315917969 997.746704101562 1001.52026367188 1001.89111328125 1002.92803955078 996.900390625 1001.05944824219 999.815856933594 985.50146484375 991.787658691406 997.490661621094 997.970520019531 988.022277832031 984.123962402344 983.111450195312 986.755554199219 988.778991699219 983.595397949219 982.917602539062 989.499328613281 986.074340820312 982.934448242188 989.507507324219 992.964172363281 999.022216796875 994.880981445312 992.007751464844 988.783142089844 985.182861328125 994.168701171875 987.3193359375 989.651000976562 991.555603027344 997.560363769531 1004.35809326172 1000.10247802734 1007.373046875 1013.49157714844 1002.01165771484 1010.92724609375 1010.07946777344 1005.82135009766 1005.94299316406 1009.26373291016 999.714904785156 1001.26531982422 1001.1953125 1005.57305908203 1007.60144042969 1000.03997802734 1007.48211669922 1010.26245117188 1014.93817138672 1011.77551269531 1006.123046875 1005.55187988281 1009.77423095703 1015.93981933594 1014.72735595703 1020.50256347656 1029.44470214844 1038.79113769531 1048.16833496094 1049.24963378906 1059.44189453125 1062.36193847656 1063.47241210938 1061.97631835938 1069.66259765625 1070.05224609375 1059.4521484375 1062.15783691406 1066.35986328125 1054.91259765625 1041.10229492188 1030.57080078125 1016.29534912109 1010.67395019531 1011.06689453125 997.854919433594 985.432373046875 978.402282714844 978.525695800781 977.550964355469 977.10498046875 971.360595703125 976.265075683594 977.139221191406 982.507873535156 982.411743164062 977.873596191406 980.364318847656 976.551940917969 969.175231933594 965.548217773438 975.336730957031 967.507568359375 964.559326171875 970.208129882812 968.566772460938 965.470336914062 968.583068847656 980.047912597656 986.172485351562
963.087036132812 954.258605957031 949.940307617188 952.528137207031 946.823852539062 945.706970214844 947.019409179688 944.311706542969 938.861877441406 935.9462890625 942.573364257812 940.217041015625 952.042236328125 942.087707519531 946.875305175781 943.419921875 957.607360839844 958.114562988281 951.593933105469 949.397338867188 960.196411132812 965.435302734375 958.209228515625 955.832458496094 970.437194824219 966.355590820312 955.821228027344 960.197814941406 955.736267089844 962.6787109375 962.5654296875 968.485717773438 969.815490722656 969.476196289062 964.94287109375 963.683776855469 961.598449707031 960.082641601562 966.329406738281 970.35009765625 972.88720703125 978.08837890625 971.340881347656 979.660400390625 981.878845214844 989.193908691406 995.616638183594 993.4345703125 991.5625 996.030395507812 990.135131835938 992.467102050781 987.977905273438 998.308410644531 988.817321777344 995.701110839844 1001.89978027344 1001.40441894531 994.979370117188 985.846557617188 996.135192871094 992.866821289062 988.888610839844 997.249328613281 998.697570800781 991.010314941406 986.656433105469 990.052734375 981.22900390625 991.504821777344 1000.23498535156 1003.18432617188 990.769653320312 984.331115722656 988.799194335938 987.597900390625 982.864868164062 984.75927734375 987.730590820312 994.732421875 1000.70489501953 999.59619140625 1004.01989746094 1001.76104736328 1003.65051269531 1002.77020263672 1007.02203369141 997.618896484375 1002.52862548828 1009.30310058594 1003.05920410156 1001.23858642578 998.119934082031 999.357421875 1003.63909912109 1009.41375732422 1015.10308837891 1023.65844726562 1021.07238769531 1012.87957763672 1015.50482177734 1008.94183349609 1017.35034179688 1018.53210449219 1018.34906005859 1025.58483886719 1031.35620117188 1036.99462890625 1041.38269042969 1058.75341796875 1056.65222167969 1062.67236328125 1068.7392578125 1069.2099609375 1069.86303710938 1074.64013671875 1072.90771484375 1064.62377929688 1059.0634765625 1055.28356933594 1034.67651367188 1024.83996582031 1021.37005615234 1023.21105957031 1005.86871337891 999.42626953125 996.502197265625 984.708679199219 983.6337890625 988.788513183594 976.325439453125 979.754211425781 982.16064453125 976.22216796875 984.794738769531 975.962341308594 983.081481933594 979.316711425781 976.363891601562 982.698425292969 971.620849609375 975.82861328125 962.981079101562 967.308410644531 967.386535644531 971.006286621094 976.457763671875 979.793212890625 982.619262695312 986.565307617188
965.560424804688 968.412048339844 953.127868652344 955.104614257812 962.197021484375 957.307189941406 945.669616699219 952.133361816406 938.476013183594 946.10693359375 946.159240722656 946.401733398438 950.846984863281 950.298583984375 947.937194824219 952.214233398438 951.723266601562 948.495727539062 948.649780273438 960.3642578125 956.031127929688 955.452392578125 958.261901855469 962.821350097656 969.995056152344 965.668518066406 965.348083496094 962.639892578125 960.432495117188 959.121032714844 950.783569335938 969.623046875 969.527099609375 969.382934570312 966.831665039062 961.214965820312 961.363159179688 959.375427246094 957.734130859375 966.111755371094 968.404541015625 975.442687988281 977.7275390625 982.09619140625 979.552856445312 987.972717285156 985.091674804688 987.900573730469 983.288146972656 981.944396972656 994.281066894531 992.424865722656 992.057189941406 995.395202636719 992.728759765625 996.053527832031 998.094543457031 998.90234375 996.1044921875 997.717712402344 992.879333496094 990.193908691406 995.034240722656 1004.10241699219 997.567443847656 994.348815917969 994.137756347656 989.392456054688 984.052001953125 991.154846191406 1000.69146728516 996.677124023438 986.3935546875 988.482788085938 985.670288085938 985.595153808594 987.694702148438 989.198669433594 988.321228027344 990.759765625 995.304260253906 1003.54309082031 1001.33276367188 1007.7294921875 1004.15551757812 1006.36059570312 1010.74084472656 1010.51513671875 1008.00177001953 1006.74133300781 999.090576171875 990.46435546875 1000.04028320312 998.594360351562 1007.14501953125 1013.16680908203 1018.90173339844 1019.05065917969 1019.314453125 1018.68078613281 1009.58544921875 1018.29547119141 1021.83337402344 1025.10119628906 1030.51245117188 1026.74694824219 1042.42004394531 1034.6669921875 1040.46936035156 1048.50830078125 1052.92260742188 1059.87634277344 1062.00048828125 1071.42248535156 1067.40869140625 1066.20483398438 1069.6572265625 1065.2890625 1066.05810546875 1053.40148925781 1040.74694824219 1025.62194824219 1032.39233398438 1023.89056396484 1010.81744384766 1006.70489501953 996.108276367188 993.579895019531 993.065490722656 995.417114257812 993.509338378906 987.971496582031 977.742248535156 975.96337890625 973.497863769531 980.518432617188 982.586730957031 983.186706542969 976.3154296875 971.036315917969 967.416809082031 968.732849121094 975.805236816406 967.086181640625 967.328430175781 976.728332519531 973.587829589844 974.993408203125 979.913818359375 978.339294433594
959.160583496094 964.879455566406 958.8359375 955.29736328125 969.207885742188 957.275268554688 946.257995605469 951.867553710938 948.377624511719 948.595520019531 945.254028320312 942.83447265625 947.742980957031 951.6728515625 952.008728027344 947.775268554688 947.782348632812 951.604919433594 946.138061523438 950.11083984375 945.842956542969 945.633056640625 946.661804199219 952.86328125 965.379150390625 969.680969238281 964.301635742188 969.711730957031 962.719970703125 965.170532226562 955.536010742188 965.861755371094 963.459777832031 967.415344238281 967.620727539062 965.697204589844 956.997924804688 949.312561035156 955.301452636719 964.720886230469 973.537719726562 968.882934570312 972.962097167969 977.454528808594 976.866760253906 984.594604492188 983.717651367188 980.678771972656 984.584289550781 977.972412109375 980.0859375 989.636840820312 994.514709472656 1001.62133789062 993.806518554688 994.810791015625 1007.90930175781 1003.1787109375 1004.33892822266 999.539123535156 996.741027832031 997.456909179688 993.819152832031 1001.57440185547 1000.58795166016 997.263488769531 988.507934570312 995.053161621094 991.865661621094 990.03564453125 993.434631347656 991.961059570312 994.561889648438 994.588256835938 986.492431640625 987.343811035156 991.946655273438 987.670593261719 976.915893554688 983.307922363281 992.697509765625 996.067626953125 995.388366699219 999.702697753906 1002.10003662109 1005.43878173828 1015.32409667969 1016.37780761719 1009.52575683594 1002.05145263672 1009.31018066406 1001.06927490234 1004.15179443359 1002.35565185547 1009.74560546875 1012.51440429688 1023.17510986328 1025.26525878906 1013.13336181641 1018.90972900391 1019.82904052734 1018.59637451172 1023.91693115234 1016.86242675781 1031.40161132812 1035.66870117188 1040.87512207031 1041.78662109375 1042.27941894531 1042.29858398438 1050.94274902344 1051.99621582031 1067.74194335938 1064.79248046875 1062.25317382812 1050.39196777344 1054.88891601562 1055.6298828125 1055.59838867188 1043.86242675781 1030.56750488281 1030.65576171875 1030.76489257812 1025.1494140625 1018.41369628906 1008.45257568359 994.696472167969 994.361999511719 998.683959960938 993.194702148438 988.404602050781 989.399475097656 983.3701171875 978.630126953125 976.300170898438 975.212524414062 978.907897949219 980.621948242188 977.866882324219 976.596984863281 968.217529296875 970.461059570312 970.039428710938 972.663452148438 974.056274414062 983.821411132812 974.382141113281 973.101806640625 973.632080078125 969.710327148438
968.480163574219 970.702026367188 967.530944824219 949.257080078125 950.548522949219 954.792236328125 945.757690429688 948.786315917969 943.555358886719 942.604064941406 940.047119140625 948.911743164062 953.966430664062 957.933532714844 955.352172851562 954.811889648438 954.186279296875 954.76708984375 939.186767578125 943.257873535156 947.504516601562 943.954162597656 945.200256347656 952.614624023438 961.235229492188 972.1328125 969.303100585938 970.624450683594 960.209167480469 957.577209472656 959.9140625 972.550842285156 965.505981445312 967.334411621094 965.066467285156 964.578552246094 960.564208984375 961.970397949219 958.223876953125 964.883056640625 966.782836914062 968.563659667969 970.431884765625 968.619506835938 973.58154296875 982.589111328125 984.927490234375 977.017822265625 977.945617675781 979.909240722656 982.623291015625 984.154174804688 995.007995605469 996.006530761719 1002.13104248047 1006.30426025391 1011.98071289062 1006.06817626953 1003.67687988281 1002.98431396484 1000.86358642578 1000.55767822266 990.416809082031 1002.43347167969 995.197387695312 983.711853027344 993.20068359375 996.980285644531 992.192565917969 992.266479492188 989.043334960938 994.503051757812 994.645629882812 992.488403320312 992.9140625 998.892578125 987.312622070312 983.613586425781 980.92919921875 985.412170410156 992.916625976562 997.074340820312 997.943969726562 999.277526855469 1005.29693603516 1000.13293457031 1008.84698486328 1013.79992675781 1009.44458007812 1010.69714355469 1011.84619140625 999.326110839844 1000.66937255859 1006.29327392578 1014.52130126953 1014.04309082031 1019.85864257812 1016.43933105469 1024.80822753906 1018.63525390625 1020.82458496094 1019.07305908203 1016.79547119141 1018.15704345703 1023.98516845703 1034.40551757812 1037.46838378906 1042.525390625 1044.57446289062 1051.76000976562 1055.89904785156 1053.17126464844 1062.89416503906 1067.96655273438 1053.94677734375 1051.01293945312 1054.43310546875 1048.01306152344 1046.56481933594 1043.42993164062 1035.40405273438 1031.93249511719 1033.83435058594 1029.44970703125 1021.49133300781 1007.77960205078 1006.50506591797 994.126647949219 994.485900878906 998.503967285156 996.683776855469 990.114318847656 982.195251464844 978.604370117188 978.664123535156 973.704162597656 971.866516113281 974.169067382812 976.076843261719 979.404113769531 973.652954101562 972.86376953125 969.954956054688 968.08544921875 973.226501464844 985.297241210938 978.953674316406 978.572021484375 967.155517578125 970.340209960938
960.276977539062 967.459533691406 955.932373046875 945.169921875 949.022155761719 949.043518066406 945.282348632812 945.260925292969 942.548889160156 938.921630859375 945.893005371094 957.3720703125 960.825500488281 965.108032226562 958.112670898438 960.541870117188 957.796630859375 955.187377929688 950.020080566406 947.870971679688 948.669372558594 955.109375 954.174133300781 963.190795898438 959.271911621094 968.291931152344 969.480224609375 968.726501464844 959.711120605469 959.43212890625 953.788513183594 965.566162109375 963.975219726562 971.599426269531 965.403259277344 963.308715820312 967.96240234375 960.885925292969 966.195556640625 972.041320800781 967.02099609375 967.079956054688 965.482360839844 966.296936035156 969.095886230469 973.297302246094 977.842346191406 974.522277832031 976.290954589844 984.130126953125 984.079833984375 988.414123535156 1002.62915039062 999.030151367188 1003.73590087891 1010.40277099609 1012.74835205078 1016.03717041016 1014.29986572266 997.560180664062 992.973266601562 996.782470703125 995.925048828125 999.466430664062 999.685485839844 995.493469238281 1002.56976318359 1005.39282226562 998.485900878906 998.427307128906 990.538635253906 998.748657226562 994.983642578125 995.608276367188 991.9189453125 997.019226074219 991.806030273438 989.516540527344 990.390808105469 991.748229980469 994.610107421875 998.299438476562 994.805236816406 990.484436035156 993.901428222656 1004.63000488281 1012.71557617188 1013.65277099609 1008.6572265625 1010.36834716797 1009.12292480469 1006.47882080078 999.314208984375 1002.58489990234 1014.21673583984 1017.9208984375 1015.63433837891 1030.75561523438 1024.53979492188 1015.14642333984 1020.16790771484 1023.48913574219 1020.5966796875 1018.37390136719 1020.98284912109 1031.53967285156 1039.7763671875 1034.65539550781 1045.98974609375 1046.79016113281 1053.12854003906 1059.50964355469 1053.35107421875 1060.82556152344 1056.27954101562 1049.58056640625 1049.43237304688 1041.95104980469 1038.05139160156 1040.24975585938 1036.55798339844 1030.69372558594 1038.63659667969 1021.31225585938 1017.91125488281 1015.48834228516 1013.97454833984 1007.57897949219 999.384887695312 1004.06030273438 990.901489257812 985.611511230469 979.696228027344 986.073425292969 978.197509765625 975.011840820312 974.088745117188 973.343322753906 980.040893554688 966.270690917969 963.926391601562 962.564514160156 968.680419921875 975.564575195312 973.853149414062 980.468505859375 973.462158203125 976.14111328125 973.238952636719 964.473083496094
966.22314453125 968.591125488281 963.215209960938 950.950134277344 949.934326171875 947.205383300781 937.976806640625 938.299438476562 943.370422363281 940.201232910156 950.869445800781 950.842895507812 960.899597167969 966.302307128906 966.824462890625 970.985595703125 964.576721191406 961.066162109375 958.513366699219 952.501953125 958.118713378906 957.588623046875 958.515930175781 962.180541992188 961.27685546875 970.873901367188 971.582824707031 964.170715332031 958.191040039062 954.123962402344 958.960021972656 962.718383789062 963.258728027344 970.604553222656 977.056396484375 978.499694824219 980.008239746094 979.751159667969 976.164916992188 974.264038085938 975.559936523438 966.6982421875 971.015686035156 976.868103027344 968.674438476562 969.721923828125 982.724670410156 974.527038574219 975.957946777344 986.214050292969 982.368774414062 985.550354003906 991.218872070312 994.837280273438 996.16357421875 1002.40606689453 1006.42504882812 1010.67687988281 1007.60864257812 1006.66412353516 1006.24053955078 1004.04211425781 1001.11651611328 1008.99407958984 1001.36181640625 1000.63330078125 1004.38940429688 1002.86627197266 996.732238769531 1000.50561523438 996.064575195312 994.63330078125 992.450500488281 999.719665527344 994.438598632812 997.56591796875 997.714477539062 995.589233398438 995.144226074219 993.56982421875 1002.18310546875 991.753479003906 996.03173828125 988.877990722656 995.269653320312 1004.81182861328 1008.33532714844 1010.52868652344 1017.81695556641 1017.072265625 1014.53295898438 1009.82055664062 1004.18658447266 1014.29766845703 1020.84368896484 1022.64465332031 1026.35339355469 1026.03686523438 1023.95074462891 1025.00634765625 1034.01892089844 1035.15466308594 1019.82659912109 1019.73620605469 1021.55999755859 1030.15087890625 1030.49743652344 1027.97839355469 1040.38732910156 1047.8203125 1044.44494628906 1051.41735839844 1052.00244140625 1047.89990234375 1048.26672363281 1046.03271484375 1040.88977050781 1033.98046875 1025.70886230469 1035.49450683594 1043.03405761719 1039.1650390625 1029.56518554688 1024.13073730469 1027.40161132812 1023.60668945312 1015.47125244141 1004.33734130859 997.572387695312 998.022766113281 989.815002441406 979.085266113281 986.671691894531 980.378051757812 975.920715332031 977.348388671875 969.803649902344 967.765075683594 961.863830566406 963.905883789062 963.329956054688 966.046875 970.177795410156 972.334045410156 973.713989257812 969.884643554688 964.772033691406 962.656799316406 964.791748046875 965.64306640625
964.198303222656 976.426025390625 961.716186523438 951.274658203125 954.498168945312 949.293090820312 945.901306152344 939.564758300781 941.428588867188 943.040222167969 958.373168945312 956.0400390625 968.402099609375 969.549987792969 971.465759277344 976.482177734375 973.7939453125 960.361267089844 961.660583496094 951.383483886719 957.992126464844 965.000061035156 964.528625488281 957.868041992188 968.4248046875 966.420471191406 965.088684082031 962.043212890625 954.107543945312 952.791625976562 960.892272949219 961.408996582031 970.799987792969 969.290588378906 969.981201171875 985.667663574219 984.568481445312 979.63916015625 983.984436035156 984.150329589844 980.06640625 976.001770019531 971.964538574219 969.62890625 967.681884765625 975.320068359375 982.450256347656 976.5439453125 979.416015625 976.623168945312 987.475708007812 986.637512207031 995.277221679688 988.020202636719 999.046997070312 1008.90557861328 1003.94317626953 999.321655273438 1004.41094970703 1012.47705078125 1008.98266601562 1011.07702636719 1004.69586181641 1007.71228027344 1001.99578857422 1002.68560791016 1007.40344238281 1009.81072998047 999.447143554688 1005.58135986328 1001.66931152344 1002.72998046875 1001.52056884766 1005.05999755859 1004.02117919922 1002.77337646484 997.955810546875 1002.14569091797 1000.09033203125 998.861022949219 993.542358398438 995.600158691406 988.02392578125 990.646118164062 1001.13806152344 1002.72973632812 998.701110839844 1002.21746826172 1010.34619140625 1003.89605712891 1007.07244873047 1006.45172119141 1010.11962890625 1019.62847900391 1021.94616699219 1024.80053710938 1026.69921875 1020.16619873047 1027.19799804688 1027.83093261719 1047.63610839844 1034.38500976562 1024.66552734375 1024.9140625 1028.12072753906 1026.2763671875 1040.99682617188 1032.41674804688 1038.61657714844 1042.81774902344 1047.38879394531 1047.28332519531 1048.70520019531 1039.60095214844 1049.95971679688 1037.70080566406 1028.89733886719 1039.26257324219 1036.74035644531 1037.52795410156 1035.60522460938 1038.52709960938 1027.49877929688 1023.38989257812 1022.47045898438 1024.90283203125 1012.44390869141 1006.70013427734 1004.79248046875 990.92041015625 982.691101074219 974.1923828125 982.641845703125 978.943237304688 968.730224609375 972.987854003906 964.492309570312 965.322387695312 960.954650878906 967.112976074219 967.589050292969 964.113708496094 959.869750976562 962.513549804688 963.851257324219 960.043884277344 961.674133300781 950.298828125 955.187316894531 964.751586914062
