NCOLS 150
NROWS 37
XLLCORNER 7394249
YLLCORNER 4843229
CELLSIZE 30
NODATA_VALUE -9999
955.707092285156 946.5576171875 951.198791503906 956.165954589844 955.084228515625 945.724975585938 939.553039550781 939.157043457031 950.580749511719 953.842895507812 957.331359863281 953.170104980469 953.021484375 961.974670410156 960.444030761719 966.518493652344 970.780517578125 965.586486816406 966.088562011719 970.727233886719 981.774475097656 979.948608398438 980.068786621094 987.06787109375 1001.60809326172 1001.93701171875 1009.62750244141 1013.78198242188 1008.9013671875 1010.48040771484 1012.63928222656 1007.80255126953 1005.97869873047 1007.77416992188 1010.974609375 1015.23699951172 1007.86456298828 1016.81701660156 1017.76959228516 1015.83349609375 1017.92156982422 1027.38037109375 1023.80749511719 1016.49951171875 1011.23907470703 1003.8740234375 1004.09069824219 1010.16302490234 996.475891113281 989.554931640625 993.514953613281 997.856628417969 1006.32281494141 1003.15112304688 1003.84246826172 1007.65631103516 1008.46441650391 1010.43316650391 1021.71313476562 1022.59423828125 1019.42816162109 1014.65563964844 1016.88842773438 1022.27288818359 1017.88830566406 1014.59197998047 1023.67828369141 1018.21075439453 1023.63360595703 1022.39190673828 1019.42974853516 1020.77709960938 1013.93524169922 1015.78179931641 1012.14709472656 1009.94946289062 1011.92266845703 1007.123046875 1010.51977539062 1013.82836914062 1020.98992919922 1009.78369140625 1008.24731445312 1015.26586914062 1012.76788330078 1020.583984375 1011.85192871094 1015.38153076172 1015.20452880859 1020.33911132812 1021.92681884766 1036.01416015625 1034.03771972656 1023.56085205078 1026.041015625 1024.53466796875 1021.57763671875 1016.80499267578 1011.47088623047 1013.80462646484 1005.46728515625 994.572143554688 1001.22064208984 1004.01751708984 1014.29559326172 1010.57183837891 997.6025390625 990.659790039062 983.48046875 979.211547851562 968.532348632812 955.8037109375 943.366333007812 942.985168457031 941.379760742188 940.917175292969 942.67333984375 951.784423828125 962.374328613281 973.249450683594 974.91064453125 988.121337890625 993.921203613281 1005.4091796875 1009.33465576172 1024.88696289062 1026.51672363281 1035.5302734375 1033.9560546875 1041.02880859375 1052.67260742188 1051.70849609375 1053.10034179688 1054.78393554688 1058.66149902344 1052.015625 1058.12158203125 1055.02331542969 1061.12951660156 1072.7548828125 1082.57958984375 1091.86303710938 1111.0771484375 1122.82312011719 1112.84545898438 1115.22729492188 1110.19091796875 1112.29333496094 1116.30932617188 1120.97778320312
943.531555175781 941.025573730469 946.3076171875 946.893127441406 952.182006835938 952.036743164062 942.203369140625 941.968139648438 950.704833984375 955.718994140625 953.6826171875 954.231506347656 957.895751953125 952.756530761719 956.203186035156 958.519470214844 961.762573242188 971.387634277344 968.312194824219 972.627746582031 967.911376953125 977.567199707031 983.524597167969 979.415649414062 998.619079589844 1001.48156738281 1007.65686035156 1014.85919189453 1000.71313476562 1003.99011230469 1013.28619384766 1012.41772460938 1006.18817138672 1004.43145751953 1014.48522949219 1006.50219726562 1015.591796875 1015.146484375 1013.41760253906 1009.34008789062 1014.18743896484 1020.32336425781 1028.15747070312 1017.6328125 1009.05419921875 998.157775878906 998.072937011719 990.070190429688 990.769348144531 992.504455566406 987.21533203125 986.418029785156 995.562744140625 998.940185546875 1000.20837402344 996.275756835938 1006.01586914062 1006.00805664062 1021.24938964844 1021.45446777344 1016.80017089844 1022.19470214844 1021.58831787109 1025.17724609375 1021.17767333984 1014.21075439453 1019.52142333984 1021.31793212891 1022.71374511719 1026.75036621094 1019.48089599609 1019.52490234375 1009.53381347656 1011.09106445312 1008.998046875 998.956176757812 996.655212402344 1007.08514404297 1009.29595947266 1007.39685058594 1011.06567382812 1008.51812744141 1000.51037597656 1013.78582763672 1014.17321777344 1003.70513916016 1006.91748046875 1010.27899169922 1020.07537841797 1018.64288330078 1023.92376708984 1028.98461914062 1027.1982421875 1026.65539550781 1023.73254394531 1019.10083007812 1016.73913574219 1018.7109375 1011.83435058594 1011.39788818359 1011.77001953125 1004.73065185547 1005.85186767578 1011.08099365234 1013.12921142578 1011.57427978516 1010.94036865234 1000.26715087891 980.205627441406 972.831481933594 969.613037109375 952.713134765625 944.620788574219 944.585876464844 936.605651855469 940.232299804688 943.893737792969 964.245178222656 974.007385253906 976.177001953125 986.739685058594 990.3701171875 1001.60711669922 1004.05938720703 1010.85534667969 1014.99108886719 1029.54211425781 1036.30114746094 1035.11010742188 1050.0771484375 1049.77880859375 1048.36376953125 1051.24169921875 1055.07348632812 1050.80627441406 1055.80944824219 1053.01794433594 1055.22216796875 1066.58703613281 1066.47155761719 1088.53173828125 1095.62780761719 1099.966796875 1102.94091796875 1103.06579589844 1109.31066894531 1105.98205566406 1123.64270019531 1117.82092285156 1126.31689453125
940.756286621094 941.05712890625 947.731323242188 945.925109863281 953.651428222656 959.881225585938 957.987060546875 963.356079101562 951.37451171875 956.807922363281 953.62890625 958.898742675781 963.801391601562 962.096313476562 969.3603515625 964.85498046875 960.77783203125 971.878173828125 971.355590820312 968.21484375 963.476806640625 974.489868164062 986.284301757812 992.396545410156 1007.26135253906 1004.99603271484 1012.19549560547 1003.81982421875 1002.6416015625 1006.94506835938 1007.328125 1002.28747558594 1004.10211181641 1009.38293457031 1019.11749267578 1016.61737060547 1020.91674804688 1015.05322265625 1013.45581054688 1008.33740234375 1006.61883544922 1021.66253662109 1022.49578857422 1016.87005615234 1005.86682128906 1002.548828125 1002.06011962891 1005.22241210938 996.066772460938 992.361999511719 987.102111816406 987.551086425781 985.663757324219 985.117309570312 999.285888671875 1002.77893066406 1003.15991210938 994.019897460938 1010.25970458984 1013.14392089844 1014.52374267578 1014.16174316406 1020.63177490234 1018.30609130859 1013.29931640625 1014.96783447266 1021.96899414062 1019.03485107422 1011.68060302734 1010.47106933594 1011.78198242188 1020.3037109375 1019.69287109375 1002.26818847656 996.899108886719 997.345336914062 1005.98608398438 1004.95562744141 996.2109375 1001.51000976562 1003.1640625 998.099243164062 1001.27081298828 1001.67163085938 1007.71722412109 1010.30902099609 1013.92486572266 1018.78771972656 1011.04010009766 1009.00305175781 1017.82281494141 1028.94458007812 1028.62561035156 1023.58532714844 1020.68853759766 1016.82470703125 1015.73791503906 1011.09002685547 1006.68145751953 1009.689453125 1007.73065185547 1006.22204589844 1004.71765136719 1011.51672363281 1008.76422119141 1012.83740234375 1009.76574707031 996.997619628906 977.354614257812 964.469665527344 954.099853515625 948.390075683594 949.690979003906 948.287963867188 941.252075195312 941.901550292969 946.042541503906 958.02734375 976.648193359375 995.261108398438 997.64892578125 1004.81854248047 1003.95513916016 1006.46545410156 1017.24237060547 1018.06677246094 1029.6865234375 1031.03881835938 1042.47973632812 1044.14282226562 1038.31005859375 1042.31896972656 1051.41528320312 1058.76391601562 1067.73779296875 1063.16088867188 1067.70202636719 1065.93676757812 1068.111328125 1071.92456054688 1077.38928222656 1084.24194335938 1083.25732421875 1086.17309570312 1097.50048828125 1103.98693847656 1112.1875 1115.41088867188 1113.94006347656 1119.623046875
946.626220703125 947.33251953125 947.805236816406 954.147644042969 952.845642089844 957.953002929688 959.300659179688 959.539489746094 962.845153808594 965.012817382812 960.726440429688 969.267700195312 966.261779785156 971.822814941406 965.311218261719 962.0166015625 967.863586425781 975.259582519531 971.386901855469 966.999450683594 964.777648925781 968.710327148438 990.658081054688 994.103820800781 996.457641601562 995.129760742188 996.926940917969 999.871704101562 1007.12493896484 1005.05603027344 1001.20648193359 1001.779296875 1009.23791503906 1007.88195800781 1013.64025878906 1007.70526123047 1018.466796875 1018.11114501953 1016.94616699219 1022.87188720703 1011.63555908203 1014.58654785156 1014.75872802734 1014.29168701172 1004.49621582031 1003.8349609375 1001.25390625 1004.30603027344 1001.50109863281 990.759521484375 983.207580566406 987.923156738281 982.775329589844 986.49658203125 993.738037109375 998.722961425781 1002.4453125 996.52685546875 1002.47473144531 1002.32739257812 1004.03948974609 1000.23590087891 1005.11682128906 1013.23779296875 1018.06048583984 1010.74877929688 1017.11083984375 1014.70697021484 1013.71508789062 1005.67492675781 1008.08776855469 1007.11462402344 1007.20599365234 1010.11212158203 1004.91009521484 1004.12811279297 1001.76171875 996.309814453125 992.809692382812 993.461791992188 997.065734863281 998.80322265625 1000.84039306641 993.586730957031 1005.90734863281 1007.73565673828 1006.85803222656 1011.15228271484 1003.78570556641 1009.48358154297 1011.08239746094 1025.76916503906 1027.2587890625 1024.53930664062 1023.06335449219 1015.20007324219 1010.07165527344 1012.67749023438 1002.73980712891 1007.35559082031 1002.63690185547 1000.75415039062 998.596557617188 1009.15832519531 1002.93957519531 1010.17437744141 1008.59185791016 995.596801757812 988.200622558594 969.276428222656 956.48779296875 949.600463867188 945.425415039062 951.348815917969 941.336059570312 946.083251953125 950.418579101562 967.758056640625 983.304931640625 984.980041503906 994.990295410156 996.111145019531 1006.88397216797 1012.69165039062 1016.70288085938 1025.93725585938 1038.7587890625 1039.505859375 1045.80053710938 1046.06555175781 1044.0400390625 1042.3564453125 1053.05871582031 1050.80334472656 1056.658203125 1069.15014648438 1072.97253417969 1070.20092773438 1076.22973632812 1065.00512695312 1076.82055664062 1082.67126464844 1084.71984863281 1079.72534179688 1093.83862304688 1099.72900390625 1100.14660644531 1104.36535644531 1115.68786621094 1124.81408691406
947.603088378906 948.575378417969 951.017517089844 959.002990722656 955.549926757812 958.447875976562 967.223754882812 964.26611328125 967.454650878906 970.723022460938 964.805725097656 966.532043457031 973.5810546875 970.58251953125 966.825622558594 955.998474121094 961.551574707031 969.978149414062 974.802307128906 968.126647949219 968.404602050781 976.898742675781 987.266174316406 991.210266113281 987.548706054688 992.333923339844 996.997436523438 993.307434082031 1001.16375732422 994.841735839844 996.039672851562 992.142578125 999.843505859375 1003.65405273438 1007.87493896484 1007.8466796875 1008.73205566406 1013.88024902344 1012.8271484375 1017.11102294922 1018.80755615234 1014.2919921875 1003.82055664062 1007.36956787109 1002.72955322266 1001.81140136719 1007.35424804688 1003.64605712891 998.457458496094 984.474304199219 978.887390136719 978.534729003906 979.744262695312 983.976135253906 986.623413085938 991.885131835938 998.093017578125 1001.43927001953 1003.32312011719 1014.93859863281 1001.62097167969 1005.40350341797 1001.07275390625 1008.03326416016 1017.84167480469 1020.94342041016 1012.38903808594 1013.55236816406 1012.40991210938 1008.73681640625 1011.75354003906 1010.26458740234 1003.42291259766 1005.24859619141 1002.15362548828 1000.02990722656 996.103820800781 990.380554199219 993.884094238281 985.549255371094 984.65966796875 984.321472167969 988.465698242188 993.826721191406 1009.005859375 1006.65057373047 1007.32159423828 1004.37237548828 1014.07177734375 1017.91540527344 1018.5703125 1021.12841796875 1017.40173339844 1020.35180664062 1013.24664306641 1016.64251708984 1011.89782714844 1008.29223632812 1008.771484375 999.980285644531 1001.62689208984 996.985412597656 1002.89434814453 1012.08233642578 1009.35760498047 1005.84417724609 1001.85162353516 994.292419433594 983.132934570312 967.612670898438 959.729736328125 943.716979980469 945.726806640625 942.198181152344 944.653503417969 952.427978515625 954.994812011719 959.399047851562 980.960327148438 991.260375976562 1001.69476318359 1005.13940429688 1016.60894775391 1020.96630859375 1016.58435058594 1025.02770996094 1034.26611328125 1041.08251953125 1038.53051757812 1037.34240722656 1037.8896484375 1031.66027832031 1046.57922363281 1052.86755371094 1051.18225097656 1054.86633300781 1056.95654296875 1064.54077148438 1071.35559082031 1069.0107421875 1075.64990234375 1074.26574707031 1065.72106933594 1078.55444335938 1082.49963378906 1099.85180664062 1105.3955078125 1104.1826171875 1109.69982910156 1115.40869140625
947.162414550781 955.361328125 959.046447753906 959.879028320312 959.845336914062 965.676208496094 964.629150390625 963.499938964844 970.204833984375 963.461364746094 970.781860351562 966.633361816406 974.44873046875 980.668762207031 973.772644042969 964.08984375 965.9296875 964.171752929688 970.939453125 974.654418945312 967.739013671875 980.333251953125 985.195129394531 1000.92034912109 989.491638183594 991.937438964844 990.453002929688 982.521362304688 989.787109375 990.153930664062 985.79248046875 988.117309570312 998.025939941406 991.579406738281 996.468078613281 997.487731933594 1006.73919677734 1007.0380859375 1009.67175292969 1013.01062011719 1012.47393798828 1010.51287841797 1000.05737304688 996.261840820312 994.219299316406 994.788269042969 995.22119140625 999.026916503906 989.788696289062 991.794860839844 986.0927734375 980.48681640625 988.540161132812 979.309448242188 988.337646484375 994.912719726562 1001.83306884766 995.1484375 999.490356445312 1006.89263916016 1011.71032714844 1009.10638427734 1013.87860107422 1016.28460693359 1015.39233398438 1010.13195800781 1008.1201171875 1005.79583740234 1006.08197021484 1011.58581542969 1004.98944091797 1014.75170898438 1008.48577880859 996.463134765625 996.781921386719 999.888671875 999.105590820312 993.951232910156 991.513977050781 983.166931152344 983.053771972656 991.040344238281 990.812744140625 1001.63555908203 1011.04132080078 1011.20520019531 1004.05279541016 1012.33477783203 1014.50665283203 1016.74249267578 1016.01116943359 1015.13464355469 1018.89398193359 1020.11956787109 1011.95770263672 1017.83441162109 1021.92626953125 1009.22857666016 1008.63806152344 1011.24523925781 1008.94281005859 1004.69537353516 1007.22821044922 1008.07836914062 1004.57214355469 1005.23168945312 998.381958007812 989.418884277344 968.241516113281 966.969604492188 956.391418457031 952.200134277344 951.92138671875 952.258178710938 947.141906738281 960.233459472656 963.361511230469 968.565734863281 978.363891601562 984.876892089844 991.591857910156 1004.17010498047 1019.11322021484 1017.83978271484 1020.21160888672 1022.21704101562 1030.12060546875 1028.89465332031 1031.26525878906 1021.87567138672 1028.20153808594 1038.70324707031 1045.45495605469 1050.23889160156 1053.81127929688 1056.94750976562 1048.22497558594 1057.69860839844 1066.76794433594 1068.85571289062 1078.33544921875 1082.35620117188 1073.400390625 1078.029296875 1087.28198242188 1105.71911621094 1111.80224609375 1105.87854003906 1110.52612304688 1116.14001464844
944.761535644531 951.131408691406 950.209045410156 954.126159667969 954.133605957031 959.760986328125 957.20947265625 964.897155761719 956.576110839844 962.899719238281 970.940063476562 973.175231933594 968.241088867188 985.613098144531 970.618041992188 964.953918457031 971.648193359375 976.243713378906 965.095581054688 968.028137207031 962.29345703125 976.859313964844 987.592468261719 999.895263671875 999.815979003906 985.698059082031 991.993347167969 988.0234375 992.8662109375 993.030822753906 977.26513671875 988.341857910156 991.650939941406 1000.09631347656 1008.20776367188 1004.96545410156 1007.09844970703 1014.27465820312 1008.46331787109 1010.49200439453 1009.22845458984 1006.39916992188 994.110168457031 994.329833984375 990.202941894531 986.630798339844 999.397033691406 995.21240234375 992.869567871094 976.767639160156 980.212768554688 984.1064453125 994.237915039062 983.138122558594 983.586669921875 993.563110351562 998.142272949219 1004.93792724609 1015.16998291016 1012.16119384766 1009.13714599609 1009.51531982422 1018.29260253906 1015.52844238281 1009.95703125 1006.46411132812 1003.8232421875 1007.39324951172 1010.60247802734 1007.30059814453 1008.16369628906 1012.53833007812 1004.27520751953 999.974487304688 994.763000488281 991.698547363281 993.807495117188 994.741882324219 993.532287597656 989.951049804688 986.292602539062 992.416137695312 997.064758300781 1001.92321777344 1002.58850097656 1005.57745361328 1000.79913330078 1004.4306640625 1011.71978759766 1020.45684814453 1021.46411132812 1012.08557128906 1017.62921142578 1030.14416503906 1023.38061523438 1021.97131347656 1025.9423828125 1024.60485839844 1019.89880371094 1022.33514404297 1007.62884521484 1002.84906005859 1012.71618652344 1007.46069335938 1022.2890625 1010.46221923828 1000.17730712891 987.931701660156 977.162109375 968.645874023438 953.577575683594 949.825866699219 955.0078125 954.802795410156 960.885986328125 965.962768554688 974.469970703125 979.175842285156 985.886596679688 994.356384277344 990.196411132812 1009.24798583984 1015.7529296875 1013.03747558594 1022.14721679688 1024.68859863281 1026.54956054688 1028.50939941406 1022.66638183594 1020.01287841797 1025.43811035156 1041.32592773438 1037.88635253906 1040.22204589844 1042.4873046875 1052.79138183594 1050.56018066406 1055.2060546875 1060.20080566406 1061.49084472656 1067.50463867188 1067.79614257812 1075.73303222656 1086.73132324219 1090.77307128906 1110.17456054688 1118.21264648438 1108.24194335938 1107.22241210938 1114.95068359375
946.75 954.251403808594 955.635559082031 950.485412597656 954.672790527344 960.235961914062 961.649963378906 963.784118652344 966.519958496094 966.446228027344 969.864440917969 970.049194335938 974.216918945312 975.735290527344 978.860961914062 974.898681640625 974.4169921875 976.900024414062 973.288757324219 968.367736816406 962.286560058594 974.942016601562 981.602722167969 989.99462890625 991.757934570312 992.016174316406 990.064758300781 990.266540527344 994.399108886719 986.0322265625 985.887451171875 986.692504882812 989.300537109375 991.39697265625 1000.76458740234 999.167419433594 1007.35461425781 998.219177246094 1007.44799804688 1014.14196777344 1012.60571289062 1002.78869628906 992.562133789062 993.270935058594 988.394958496094 984.352905273438 990.334045410156 982.226867675781 983.020629882812 982.350158691406 982.711791992188 984.655151367188 992.342102050781 987.996826171875 987.02392578125 992.403869628906 999.007507324219 996.879455566406 1011.37115478516 1009.95947265625 1008.55792236328 1008.74920654297 1010.94281005859 1003.28106689453 1004.81164550781 999.730102539062 997.936340332031 1002.85308837891 1007.63049316406 1011.07012939453 1001.45550537109 995.865295410156 997.309020996094 994.600402832031 994.442077636719 992.612915039062 987.719787597656 990.126770019531 994.051208496094 992.623718261719 996.861267089844 984.819763183594 994.777404785156 992.629333496094 1007.93341064453 1007.41583251953 1009.74981689453 1000.70306396484 1015.47839355469 1011.40356445312 1020.23608398438 1019.38165283203 1019.39758300781 1027.10400390625 1028.75170898438 1026.02490234375 1023.74584960938 1015.50897216797 1017.29870605469 1014.59228515625 1009.74224853516 999.812561035156 1001.8056640625 1015.12786865234 1011.89141845703 1011.44885253906 1005.76989746094 994.592102050781 977.514404296875 970.031677246094 966.225280761719 954.662658691406 956.705993652344 957.834716796875 963.079895019531 967.643737792969 972.528747558594 972.597900390625 990.281494140625 999.70751953125 1002.37097167969 1003.49951171875 1012.76190185547 1016.69976806641 1026.88024902344 1024.94458007812 1029.13098144531 1022.67419433594 1020.95782470703 1024.73547363281 1036.19299316406 1036.23962402344 1041.95715332031 1038.71923828125 1035.85729980469 1043.93933105469 1045.65747070312 1045.77197265625 1056.77270507812 1072.42224121094 1067.84130859375 1069.82482910156 1074.88134765625 1081.32897949219 1093.92199707031 1109.07788085938 1114.96557617188 1108.19226074219 1107.72839355469 1115.44213867188
943.958618164062 954.06787109375 955.594604492188 963.755737304688 967.638793945312 967.4677734375 962.609130859375 964.478149414062 965.28955078125 964.323608398438 971.446655273438 975.577697753906 979.100952148438 980.183654785156 977.126708984375 979.375061035156 977.950256347656 981.733276367188 975.377868652344 970.823608398438 971.585754394531 975.751953125 984.30322265625 984.226501464844 988.976196289062 992.869079589844 985.3349609375 986.621704101562 995.291931152344 984.7265625 981.556701660156 982.635498046875 987.426696777344 992.597290039062 991.710876464844 996.911071777344 992.955993652344 994.296997070312 1005.40447998047 1008.39331054688 1008.64154052734 998.29443359375 991.052856445312 1000.10430908203 998.566345214844 984.256774902344 979.005249023438 979.505981445312 982.2138671875 977.877258300781 981.009033203125 983.782104492188 985.121459960938 986.272888183594 986.27099609375 988.874450683594 994.078491210938 996.174682617188 1002.90942382812 1009.26318359375 1002.27471923828 1001.32806396484 1004.20739746094 1000.53857421875 1002.89685058594 1004.32403564453 999.838684082031 1000.55914306641 997.760498046875 1001.77758789062 1003.12872314453 992.192016601562 993.992370605469 994.068542480469 995.229797363281 1000.68951416016 992.773254394531 989.120300292969 1000.34649658203 998.952697753906 989.762329101562 981.161499023438 980.761047363281 992.8955078125 1004.55834960938 1002.19329833984 1003.79486083984 1001.35125732422 1010.40502929688 1012.19250488281 1013.34631347656 1014.61633300781 1021.44604492188 1021.07904052734 1030.72863769531 1029.91760253906 1031.18444824219 1027.18029785156 1017.59509277344 1020.94342041016 1006.95074462891 1008.71069335938 995.15869140625 1008.28985595703 1010.66082763672 1008.50317382812 1003.81036376953 984.721435546875 983.375305175781 979.051696777344 976.959045410156 966.212524414062 956.307739257812 945.416442871094 962.454345703125 970.552490234375 974.297546386719 980.339111328125 973.419372558594 987.948791503906 998.615356445312 1006.59497070312 1019.76849365234 1020.91809082031 1022.09564208984 1020.72137451172 1022.49285888672 1022.79913330078 1027.12414550781 1029.88818359375 1033.67126464844 1036.7841796875 1028.67724609375 1036.34521484375 1035.47546386719 1038.59997558594 1044.05126953125 1039.46960449219 1049.32434082031 1057.7431640625 1064.43017578125 1064.24304199219 1071.80090332031 1088.27795410156 1094.04797363281 1100.64440917969 1112.47351074219 1112.08142089844 1113.5107421875 1123.88916015625
948.904724121094 955.777587890625 956.86669921875 964.621032714844 969.099060058594 976.693725585938 973.708435058594 964.97119140625 968.103820800781 966.245849609375 970.044250488281 970.967407226562 978.763366699219 977.08642578125 975.963500976562 970.8935546875 977.907287597656 979.911682128906 982.528076171875 982.948547363281 978.683715820312 979.434753417969 987.231872558594 993.074951171875 991.740417480469 985.019592285156 988.498168945312 988.732849121094 985.124816894531 985.895263671875 984.093872070312 982.730529785156 987.14208984375 989.426330566406 993.866760253906 989.393981933594 990.225769042969 998.3798828125 992.308776855469 994.235290527344 986.105895996094 997.062133789062 993.757202148438 992.379272460938 988.483276367188 987.589660644531 982.836669921875 984.245361328125 981.4814453125 975.640319824219 976.97412109375 966.762268066406 980.144897460938 978.080688476562 987.657653808594 991.280029296875 998.489624023438 995.155639648438 1006.83154296875 1006.23132324219 997.739929199219 989.967834472656 989.947326660156 987.186645507812 991.494445800781 1002.64215087891 1004.03247070312 1002.14276123047 994.6591796875 990.464782714844 995.738098144531 993.664123535156 991.316589355469 993.041931152344 993.556884765625 1000.32122802734 996.156494140625 998.423034667969 1005.10241699219 999.290222167969 989.348876953125 991.745483398438 984.064880371094 992.190002441406 1003.822265625 1004.18151855469 1008.57098388672 1005.74499511719 1007.00042724609 1009.37628173828 1008.71716308594 1015.72900390625 1019.84350585938 1029.5419921875 1014.26947021484 1024.05847167969 1012.10046386719 1020.25909423828 1022.81024169922 1020.69134521484 1008.93347167969 1001.36138916016 993.460632324219 1004.20098876953 1000.55078125 1003.72235107422 993.807006835938 989.254028320312 986.199401855469 985.7666015625 984.194458007812 969.273071289062 961.084777832031 955.36328125 960.025329589844 963.081970214844 973.60009765625 973.293518066406 970.823974609375 984.839416503906 992.953002929688 1002.75720214844 1024.15588378906 1018.96270751953 1021.34973144531 1023.27117919922 1020.52392578125 1037.93811035156 1031.43298339844 1028.15539550781 1027.146484375 1034.22241210938 1023.07604980469 1033.97485351562 1033.78674316406 1034.81506347656 1033.51416015625 1039.73889160156 1041.98864746094 1043.60693359375 1051.33557128906 1059.40307617188 1070.90710449219 1075.88488769531 1094.97607421875 1095.95935058594 1110.77648925781 1119.17761230469 1120.2490234375 1122.82568359375
953.202514648438 962.9560546875 961.999877929688 965.809265136719 974.186584472656 974.368957519531 965.544738769531 966.872375488281 973.168701171875 967.855895996094 972.700134277344 978.463134765625 976.796936035156 972.348815917969 975.783752441406 974.8310546875 979.027770996094 989.02734375 977.144409179688 980.569213867188 971.257385253906 986.480773925781 994.701782226562 992.4130859375 987.673583984375 986.164672851562 993.523010253906 989.643676757812 988.176696777344 983.633544921875 986.721008300781 991.042358398438 992.129272460938 986.754089355469 994.533203125 984.407836914062 981.950439453125 992.076293945312 997.974243164062 985.67724609375 992.380676269531 996.484924316406 991.744995117188 986.285278320312 982.845275878906 980.767028808594 986.18701171875 983.228088378906 985.09423828125 974.979248046875 984.98583984375 981.886474609375 981.227722167969 986.646545410156 988.143493652344 996.744689941406 993.257080078125 1005.43493652344 1010.78802490234 996.502014160156 993.556701660156 983.765441894531 989.644287109375 992.142883300781 990.366027832031 998.283386230469 993.741882324219 993.0302734375 990.875915527344 989.793029785156 990.427429199219 991.759643554688 994.615295410156 989.572082519531 995.215270996094 999.0087890625 997.236022949219 1004.40832519531 999.918090820312 993.280578613281 992.050170898438 994.353332519531 995.369934082031 1004.08380126953 1009.57562255859 1005.42230224609 1015.51910400391 1015.38958740234 1010.21472167969 1021.52777099609 1008.55902099609 1014.29852294922 1016.50616455078 1011.81286621094 1018.57287597656 1013.61810302734 1014.50549316406 1007.05108642578 1005.98785400391 1010.44702148438 1004.96337890625 996.021606445312 992.37548828125 996.1904296875 998.545227050781 991.400024414062 993.433044433594 994.272827148438 998.524597167969 993.3671875 984.688415527344 979.204162597656 968.650146484375 971.609741210938 967.830505371094 964.037231445312 967.901184082031 970.397827148438 979.602966308594 983.921508789062 990.822937011719 993.80615234375 1010.63366699219 1006.91070556641 1017.25579833984 1013.72662353516 1020.82464599609 1033.87280273438 1032.48083496094 1029.74365234375 1023.73120117188 1024.4619140625 1019.06011962891 1015.19317626953 1025.6328125 1028.70043945312 1026.44921875 1030.48510742188 1037.92346191406 1037.76989746094 1047.15649414062 1054.45385742188 1068.40576171875 1080.11743164062 1090.87023925781 1092.78564453125 1103.93188476562 1113.26428222656 1115.56420898438 1125.67443847656
957.794372558594 954.227172851562 960.23095703125 961.125549316406 963.93408203125 971.109008789062 968.568359375 975.81201171875 974.971557617188 968.088806152344 968.925964355469 975.675354003906 969.6513671875 967.953857421875 974.107177734375 978.781433105469 981.250061035156 980.714599609375 979.137939453125 979.652648925781 989.778198242188 990.128112792969 992.558227539062 984.263549804688 989.237243652344 989.746154785156 987.089172363281 989.304504394531 991.559204101562 990.478576660156 988.42822265625 992.052978515625 983.302490234375 986.077392578125 985.436889648438 986.157409667969 990.35693359375 980.717834472656 991.939514160156 994.198547363281 985.03662109375 995.364196777344 987.214172363281 983.389282226562 975.635437011719 980.130615234375 984.381103515625 983.570190429688 980.978881835938 976.863586425781 980.521362304688 979.311218261719 978.44091796875 981.700744628906 987.609130859375 994.9853515625 993.259887695312 999.005554199219 1003.07446289062 998.245544433594 984.7412109375 985.304382324219 984.908142089844 988.856323242188 992.900817871094 987.913024902344 990.47265625 990.651306152344 998.11962890625 990.259521484375 991.708251953125 991.697631835938 989.866027832031 989.863464355469 989.462036132812 990.563110351562 992.177856445312 991.995300292969 993.049682617188 990.772705078125 991.657409667969 995.689147949219 1000.84283447266 1002.21502685547 1002.41204833984 1007.68780517578 1016.45074462891 1012.96667480469 1021.41235351562 1011.01037597656 1007.31488037109 1005.97003173828 1009.71948242188 1011.04119873047 1010.21447753906 1014.11383056641 1009.56451416016 1006.89758300781 996.155578613281 1001.01287841797 1004.32928466797 991.449829101562 990.043395996094 995.983825683594 996.470153808594 993.578002929688 1001.31634521484 1004.65490722656 1010.04895019531 999.533813476562 987.844421386719 983.216247558594 987.156372070312 983.354858398438 977.27783203125 955.836730957031 959.816589355469 966.147338867188 972.867736816406 985.173400878906 983.675659179688 994.499694824219 1008.47003173828 1008.29608154297 1016.21063232422 1017.19201660156 1019.83959960938 1030.8896484375 1032.44958496094 1022.96179199219 1021.53723144531 1015.36334228516 1017.90826416016 1009.54925537109 1021.60211181641 1022.31781005859 1021.10174560547 1029.88171386719 1038.33129882812 1043.439453125 1056.37927246094 1059.5849609375 1064.63684082031 1075.16235351562 1091.38354492188 1100.45166015625 1107.85217285156 1105.8310546875 1114.24523925781 1112.52819824219
957.610656738281 949.559814453125 953.282653808594 953.465148925781 965.259887695312 965.948669433594 967.111572265625 971.562377929688 973.738830566406 975.474975585938 974.945251464844 974.468627929688 971.67236328125 972.340026855469 979.470336914062 976.807434082031 975.941528320312 980.610534667969 978.294189453125 986.103881835938 987.613403320312 988.738647460938 989.984375 983.400146484375 984.363830566406 984.233337402344 982.719543457031 984.3037109375 992.403564453125 994.913269042969 994.006591796875 985.564697265625 978.616882324219 996.670654296875 993.734191894531 987.062133789062 988.144897460938 980.548156738281 986.684936523438 982.453063964844 981.163757324219 988.50341796875 985.848999023438 980.046813964844 977.173156738281 973.898742675781 981.68701171875 983.876159667969 975.735900878906 981.132019042969 975.041748046875 971.875671386719 971.348388671875 977.371459960938 980.045959472656 988.042907714844 990.705932617188 989.274536132812 999.251525878906 987.554931640625 983.741271972656 989.672729492188 984.249877929688 985.996520996094 980.150573730469 985.58642578125 989.922973632812 997.131530761719 991.321838378906 980.863098144531 989.044921875 991.382080078125 979.5068359375 982.503601074219 993.418823242188 993.082214355469 990.400024414062 989.473571777344 997.237121582031 993.156433105469 996.318420410156 997.880859375 997.193664550781 999.577941894531 1008.07238769531 1002.09918212891 1009.48455810547 1020.80639648438 1027.19189453125 1015.16217041016 1015.18957519531 1011.58984375 1012.7236328125 1009.78833007812 1005.90783691406 1013.75830078125 1008.56018066406 998.034973144531 992.410278320312 1003.46148681641 990.197021484375 994.80908203125 992.632629394531 995.858825683594 992.609252929688 994.366882324219 1001.99426269531 996.036499023438 994.992614746094 990.448791503906 989.24462890625 996.012817382812 995.188049316406 998.288757324219 984.285705566406 979.025817871094 969.245483398438 977.182922363281 976.044494628906 987.529113769531 992.020690917969 993.694091796875 999.552307128906 1014.33062744141 1016.31585693359 1021.53424072266 1015.22967529297 1021.40850830078 1020.02453613281 1019.20172119141 1019.83319091797 1016.18395996094 1012.98590087891 1015.14178466797 1017.09027099609 1016.68432617188 1021.34173583984 1039.35437011719 1044.84704589844 1061.3671875 1059.62365722656 1073.57861328125 1075.14990234375 1077.08422851562 1088.77893066406 1095.6005859375 1092.20043945312 1101.37316894531 1108.92956542969 1116.17260742188
950.869323730469 952.267456054688 950.302734375 957.714721679688 962.852905273438 964.978942871094 966.486694335938 968.429870605469 979.606018066406 984.177734375 984.312133789062 980.735595703125 971.566589355469 972.855712890625 973.649780273438 972.279846191406 979.200744628906 976.543395996094 978.429748535156 977.403076171875 981.68310546875 981.95556640625 987.267700195312 985.663330078125 977.213928222656 978.838989257812 971.195495605469 980.881591796875 981.641906738281 989.028381347656 994.916381835938 992.819702148438 997.51611328125 1001.83294677734 992.133056640625 983.373413085938 981.836547851562 984.604858398438 986.181579589844 973.480773925781 982.82470703125 989.780639648438 984.1015625 976.869689941406 976.117126464844 980.89794921875 976.268310546875 974.823913574219 982.992980957031 977.667236328125 974.218627929688 976.2314453125 975.317810058594 971.636047363281 982.133544921875 986.929809570312 988.531860351562 994.981079101562 990.780578613281 980.148498535156 979.572204589844 985.107238769531 987.51220703125 988.503479003906 986.559509277344 985.279418945312 983.111022949219 983.285949707031 971.636901855469 972.024841308594 973.317504882812 985.691467285156 988.167846679688 994.131103515625 991.60498046875 987.946044921875 988.64697265625 996.64306640625 992.290588378906 995.938659667969 1005.15435791016 997.14013671875 988.110900878906 996.324890136719 1006.29962158203 1012.16271972656 1013.48107910156 1015.62957763672 1018.90148925781 1014.18475341797 1007.69769287109 1008.25903320312 1002.30834960938 1010.50146484375 1009.39562988281 1009.60919189453 1006.169921875 997.750732421875 996.3603515625 996.835632324219 1002.81036376953 995.636596679688 989.991271972656 990.061828613281 991.744567871094 987.242004394531 996.199401855469 998.308349609375 992.100463867188 995.42333984375 993.530822753906 999.114135742188 997.533996582031 988.191711425781 993.318420410156 985.511108398438 986.520202636719 986.325622558594 983.686340332031 989.896911621094 992.58251953125 993.482971191406 1009.20422363281 1008.61926269531 1015.48815917969 1013.85266113281 1012.53173828125 1020.59399414062 1017.10217285156 1017.96520996094 1011.08233642578 1010.55981445312 1010.84600830078 1013.09136962891 1019.99627685547 1031.54406738281 1031.05822753906 1042.46447753906 1052.95776367188 1072.84765625 1069.42858886719 1068.31774902344 1075.84118652344 1078.46484375 1081.52368164062 1082.24621582031 1085.97155761719 1100.70080566406 1106.50708007812 1114.55090332031
946.575073242188 950.505859375 961.63525390625 965.2216796875 971.784057617188 961.461547851562 961.908996582031 970.181091308594 977.002136230469 983.648193359375 991.977416992188 978.30322265625 971.774230957031 969.756469726562 975.364929199219 983.012817382812 985.54052734375 976.3662109375 969.809875488281 979.412475585938 976.890380859375 974.022583007812 969.923583984375 978.966735839844 988.483825683594 980.244567871094 973.880126953125 972.988952636719 978.882995605469 980.759460449219 986.380004882812 991.564758300781 990.430236816406 987.624328613281 989.606384277344 982.94775390625 981.630065917969 985.331970214844 975.500854492188 972.8642578125 978.399291992188 983.881652832031 987.188110351562 991.182434082031 988.398803710938 985.553161621094 981.536987304688 972.939270019531 972.231628417969 972.894470214844 974.452575683594 970.075744628906 976.694458007812 972.442260742188 973.22705078125 977.730163574219 971.852294921875 985.045166015625 986.768737792969 978.537231445312 980.401611328125 979.460754394531 987.319458007812 990.037963867188 985.059997558594 990.2998046875 981.165893554688 977.670715332031 966.761901855469 969.208740234375 983.411682128906 990.223266601562 985.217041015625 995.23876953125 990.079406738281 997.926513671875 992.380432128906 996.021545410156 988.277465820312 990.860534667969 1009.27655029297 1006.54510498047 997.510131835938 998.092529296875 1010.01971435547 1025.0849609375 1020.71124267578 1010.28686523438 1017.4140625 1014.21673583984 1015.10034179688 1009.93041992188 1008.03674316406 1003.95947265625 1014.03393554688 1006.1484375 1001.05310058594 1003.30261230469 998.976440429688 1000.26416015625 989.819519042969 990.294128417969 993.290161132812 985.610473632812 989.968017578125 983.539184570312 985.893127441406 989.52734375 986.876708984375 991.737854003906 991.519897460938 990.52490234375 989.557006835938 998.49658203125 1006.24169921875 1005.12707519531 996.622253417969 991.935180664062 980.834655761719 987.621459960938 979.506713867188 993.145690917969 1008.42321777344 1012.91577148438 1016.58630371094 1016.03112792969 1012.39465332031 1011.35119628906 1018.15600585938 1012.10925292969 1007.94488525391 1008.72760009766 1009.76007080078 1009.14038085938 1009.57135009766 1031.94995117188 1035.48815917969 1038.94714355469 1057.57312011719 1067.75305175781 1078.48608398438 1086.86877441406 1076.82641601562 1077.54431152344 1077.97595214844 1085.88586425781 1088.87329101562 1104.69750976562 1104.64343261719 1114.50817871094
947.998107910156 957.391235351562 969.070922851562 965.08203125 969.8583984375 963.196533203125 968.458251953125 974.11181640625 970.093811035156 973.593688964844 977.448547363281 969.865234375 976.597473144531 969.302673339844 976.246276855469 973.933227539062 977.679626464844 975.492248535156 973.189819335938 979.710021972656 977.519714355469 974.946105957031 979.426330566406 986.313171386719 986.156921386719 976.247680664062 966.598571777344 972.020385742188 977.853881835938 981.288391113281 984.562622070312 981.788513183594 990.41015625 993.856994628906 981.938842773438 975.919799804688 974.662719726562 977.999755859375 977.532104492188 981.202026367188 975.161010742188 981.519104003906 975.216857910156 982.81591796875 983.100036621094 984.361083984375 980.935729980469 971.865783691406 964.873962402344 964.0791015625 973.77978515625 978.896484375 976.120666503906 983.34814453125 975.567749023438 968.916259765625 967.825622558594 973.534851074219 982.542846679688 980.399291992188 984.976623535156 985.747253417969 981.681396484375 985.383239746094 983.841979980469 986.146057128906 989.464782714844 977.969787597656 969.689025878906 968.429870605469 973.579833984375 981.365600585938 980.73193359375 987.533569335938 983.085510253906 995.781616210938 993.641540527344 988.296752929688 988.56591796875 985.973449707031 1000.55944824219 1004.63079833984 998.405883789062 996.3740234375 1004.56408691406 1017.92083740234 1017.86987304688 1015.78869628906 1008.95709228516 1005.23388671875 1010.73907470703 1007.42230224609 1012.59515380859 1011.70819091797 1011.74261474609 1005.41546630859 999.075561523438 994.998291015625 993.126281738281 990.619506835938 987.322021484375 984.0693359375 989.036193847656 985.442810058594 982.161437988281 991.688415527344 991.384582519531 986.474670410156 987.139038085938 984.4892578125 989.26953125 989.354736328125 990.703491210938 1002.31207275391 1000.72357177734 1011.32531738281 1006.41027832031 998.20556640625 991.5224609375 989.912841796875 988.905029296875 985.787231445312 1001.80889892578 998.111267089844 1005.88397216797 1006.57281494141 1008.81597900391 1012.49426269531 1015.25219726562 1010.67913818359 1018.22406005859 1016.11511230469 1011.57385253906 1019.42724609375 1021.77325439453 1033.84252929688 1038.00146484375 1039.97241210938 1053.61999511719 1065.22375488281 1074.32092285156 1092.13671875 1094.60949707031 1089.73291015625 1094.71179199219 1103.11975097656 1100.45080566406 1109.22644042969 1113.26293945312 1114.62683105469
947.936706542969 956.988891601562 963.642761230469 966.868408203125 967.942810058594 974.716613769531 971.753967285156 970.384582519531 965.320251464844 964.468017578125 968.587524414062 970.251770019531 964.248657226562 965.156188964844 971.02685546875 972.476684570312 984.746643066406 984.664367675781 979.948120117188 979.980224609375 977.964599609375 975.116882324219 975.925415039062 976.960571289062 980.969421386719 974.635681152344 975.483581542969 981.39697265625 988.065734863281 986.169311523438 983.688598632812 978.704345703125 992.281311035156 985.28466796875 987.553588867188 977.146179199219 976.172180175781 982.808288574219 981.306457519531 982.0625 973.210388183594 974.88525390625 981.074951171875 974.015380859375 976.043884277344 979.908447265625 976.809020996094 967.776000976562 961.465515136719 969.63720703125 977.817749023438 983.796142578125 977.6015625 976.803283691406 973.29931640625 964.82275390625 968.018310546875 969.56494140625 968.821044921875 974.325012207031 984.020812988281 986.432434082031 988.22607421875 979.048034667969 977.64697265625 981.572692871094 981.952026367188 977.98193359375 978.031433105469 968.124877929688 963.895263671875 976.144104003906 973.566223144531 977.783142089844 985.328491210938 994.315795898438 990.686279296875 986.16796875 989.921630859375 987.131958007812 998.687438964844 1001.13415527344 995.416076660156 994.386901855469 999.579650878906 1008.47979736328 1019.45837402344 1012.35601806641 1008.05908203125 1008.67706298828 1015.32537841797 1009.46691894531 1013.18688964844 1007.80444335938 1006.26489257812 1002.87158203125 995.671691894531 997.768981933594 993.80615234375 988.265319824219 990.876037597656 990.844909667969 987.570373535156 986.763793945312 984.981018066406 987.407104492188 985.279968261719 985.6083984375 994.054443359375 991.896667480469 996.608032226562 993.699340820312 998.801696777344 1002.72875976562 995.396057128906 1004.51550292969 1006.27874755859 1004.64678955078 1000.58697509766 992.251647949219 998.075805664062 986.598571777344 992.869140625 992.415466308594 1004.97290039062 1005.08166503906 1004.92877197266 1009.12976074219 1017.47686767578 1012.03143310547 1020.67028808594 1012.26635742188 1020.0888671875 1030.30224609375 1033.53845214844 1037.92822265625 1047.43359375 1052.38562011719 1061.23815917969 1067.24377441406 1071.95178222656 1095.81945800781 1098.60681152344 1092.58459472656 1099.6103515625 1115.63269042969 1115.44494628906 1118.3798828125 1115.97497558594 1125.01403808594
949.766296386719 959.942077636719 965.60546875 968.795715332031 967.230224609375 967.687927246094 971.255004882812 967.528991699219 959.605895996094 951.908813476562 962.675354003906 965.895568847656 971.801391601562 970.790710449219 963.355834960938 975.630187988281 987.843872070312 984.295959472656 973.772705078125 979.832946777344 971.21337890625 966.050354003906 972.480346679688 975.632263183594 978.347961425781 978.398986816406 978.881530761719 972.607666015625 979.747619628906 983.359985351562 980.410095214844 984.580200195312 989.792419433594 987.5693359375 980.567199707031 983.741394042969 989.967041015625 987.029418945312 983.400451660156 980.530517578125 973.439697265625 974.347961425781 988.140686035156 981.685791015625 977.540649414062 968.184387207031 971.127746582031 961.563354492188 966.576965332031 968.999450683594 974.250061035156 977.386901855469 980.906433105469 980.786499023438 977.871826171875 969.59765625 963.00634765625 976.628784179688 973.393310546875 973.633911132812 983.751831054688 984.830627441406 983.159118652344 977.523010253906 977.389282226562 978.225402832031 973.492065429688 968.687561035156 971.429016113281 970.914916992188 970.59228515625 964.963073730469 976.432800292969 980.792846679688 983.184509277344 987.186218261719 986.241943359375 988.220275878906 992.928405761719 992.210327148438 993.909545898438 995.254333496094 992.641784667969 988.991027832031 997.348388671875 996.530029296875 1000.14587402344 1002.24554443359 1014.62280273438 1014.33331298828 1008.76110839844 1011.29840087891 995.858764648438 995.349182128906 991.871643066406 1002.18182373047 999.095642089844 993.85546875 991.055725097656 984.703430175781 985.841430664062 989.680480957031 994.010498046875 989.058410644531 980.603210449219 990.413208007812 995.584106445312 989.179382324219 990.294311523438 992.446716308594 991.242980957031 993.091979980469 998.785522460938 991.968872070312 985.224792480469 999.126220703125 995.316711425781 990.901428222656 996.9482421875 998.704040527344 993.422119140625 994.76611328125 995.211486816406 998.722351074219 1002.75213623047 1007.078125 999.467041015625 1018.41345214844 1023.01739501953 1015.93560791016 1019.76245117188 1035.77136230469 1025.54321289062 1030.96948242188 1035.19836425781 1042.83825683594 1054.72827148438 1052.1474609375 1055.44921875 1069.22180175781 1076.63110351562 1090.58471679688 1098.12939453125 1103.25939941406 1107.6162109375 1115.99560546875 1121.10559082031 1129.9345703125 1126.97741699219 1136.51489257812
949.305358886719 954.920715332031 960.51220703125 966.505004882812 963.336303710938 960.714477539062 959.645812988281 961.354736328125 957.285095214844 963.878173828125 960.17529296875 962.513610839844 971.281982421875 970.756713867188 975.700561523438 975.432800292969 973.551330566406 979.441467285156 961.567565917969 967.970153808594 959.394897460938 964.022705078125 967.955932617188 968.285278320312 977.301330566406 967.474731445312 972.258850097656 981.873901367188 987.361450195312 979.531127929688 974.959289550781 982.402282714844 979.382263183594 979.056884765625 974.577026367188 983.829284667969 984.625122070312 991.843627929688 989.395690917969 985.757507324219 971.929870605469 972.110107421875 977.568603515625 972.128356933594 975.660034179688 966.362060546875 959.100280761719 964.713073730469 966.3271484375 965.439392089844 982.75146484375 981.532531738281 982.515747070312 977.220825195312 977.866149902344 971.555419921875 964.3447265625 973.259582519531 967.123229980469 974.040649414062 986.47802734375 975.4228515625 974.858581542969 982.08447265625 984.591430664062 980.063720703125 979.622924804688 968.810913085938 971.028259277344 969.706115722656 966.797180175781 971.523742675781 975.856689453125 973.081481933594 974.058837890625 979.022155761719 981.445556640625 978.045837402344 982.720153808594 991.17724609375 992.208435058594 988.512329101562 983.8408203125 985.326477050781 990.313354492188 982.989868164062 992.36572265625 1001.74438476562 1007.31909179688 1004.49456787109 1009.61614990234 998.476318359375 994.138916015625 984.673645019531 987.584899902344 988.340454101562 993.014038085938 990.271057128906 990.518310546875 980.038818359375 984.556762695312 990.187683105469 992.1162109375 986.615966796875 984.687255859375 983.699157714844 988.076416015625 986.754760742188 987.893127441406 991.647827148438 1001.04345703125 999.093017578125 997.631774902344 995.302917480469 984.162048339844 992.336364746094 996.301147460938 998.134399414062 999.735656738281 986.830017089844 1000.26782226562 992.399536132812 997.87744140625 1002.67565917969 1006.62091064453 1000.24163818359 1007.19104003906 1019.03485107422 1018.57836914062 1012.40844726562 1023.7265625 1035.53930664062 1032.4248046875 1036.19165039062 1038.56335449219 1042.87438964844 1057.11975097656 1062.9169921875 1067.7724609375 1076.73803710938 1085.6748046875 1094.57287597656 1103.29162597656 1116.05578613281 1117.92541503906 1120.701171875 1126.72241210938 1134.12121582031 1143.39233398438 1153.89990234375
933.993774414062 942.774963378906 945.679443359375 944.439880371094 950.41943359375 954.498413085938 954.453002929688 959.86767578125 959.737976074219 953.78369140625 959.658813476562 968.917236328125 974.073791503906 976.698425292969 970.957824707031 966.04296875 975.854309082031 984.005798339844 969.882141113281 961.989074707031 968.784057617188 961.140686035156 960.08251953125 965.309387207031 969.126403808594 975.765075683594 982.569702148438 973.508544921875 970.975219726562 973.438659667969 982.203735351562 970.340942382812 980.089538574219 984.336303710938 984.935485839844 987.721008300781 976.664428710938 978.967956542969 983.012390136719 987.287536621094 975.003662109375 969.117919921875 970.294067382812 968.359130859375 970.326599121094 963.85400390625 956.549194335938 958.462829589844 967.327270507812 975.513977050781 973.158996582031 981.804992675781 983.890625 986.753967285156 980.903747558594 970.968139648438 970.078674316406 967.4755859375 962.998657226562 975.830932617188 979.691223144531 983.204772949219 985.580749511719 977.28662109375 980.604736328125 983.783264160156 978.248840332031 978.631469726562 971.147216796875 967.293579101562 963.862548828125 963.870849609375 974.659484863281 962.574096679688 968.502868652344 976.08837890625 977.138244628906 974.6123046875 982.676208496094 988.819396972656 986.281311035156 988.422424316406 975.190612792969 985.499938964844 982.315368652344 975.693481445312 992.458984375 996.504333496094 996.041564941406 1004.51635742188 997.305114746094 997.246459960938 996.221801757812 987.86865234375 985.047546386719 991.044616699219 989.90869140625 993.58154296875 986.508239746094 988.0458984375 989.204040527344 992.021423339844 990.68359375 990.454345703125 985.882934570312 986.969848632812 980.801940917969 982.921691894531 989.3447265625 986.388854980469 988.754760742188 992.3251953125 995.766723632812 992.866455078125 1001.99468994141 994.841674804688 991.39453125 993.316223144531 999.849853515625 990.026550292969 995.005065917969 1001.08422851562 994.331420898438 1000.99176025391 1001.97534179688 1005.326171875 1009.49481201172 1013.11126708984 1018.45587158203 1026.63146972656 1032.70764160156 1038.05859375 1042.56079101562 1047.64221191406 1038.05480957031 1041.48522949219 1058.09252929688 1061.25891113281 1069.78601074219 1094.32275390625 1101.73315429688 1098.85607910156 1098.962890625 1113.09375 1114.74743652344 1127.24450683594 1132.90881347656 1142.4013671875 1150.82983398438 1154.10595703125
935.892578125 936.404418945312 938.346557617188 941.076477050781 944.312438964844 940.557189941406 949.263854980469 955.569702148438 956.415771484375 958.51025390625 964.972045898438 969.7939453125 981.017333984375 972.092590332031 971.654357910156 972.330871582031 974.207885742188 975.456176757812 972.875854492188 964.553588867188 966.582946777344 963.840576171875 963.304016113281 961.0361328125 964.832702636719 969.814086914062 973.177734375 976.539367675781 965.584350585938 967.43017578125 971.9599609375 980.564575195312 976.203552246094 985.977172851562 982.941284179688 984.917785644531 973.282348632812 981.899108886719 975.097229003906 983.629333496094 978.546569824219 972.711975097656 966.031433105469 972.287109375 969.853698730469 960.408569335938 955.734191894531 960.212585449219 968.77001953125 980.519897460938 979.877197265625 984.736022949219 971.603271484375 979.262634277344 981.21337890625 968.739624023438 967.063415527344 971.158264160156 972.687133789062 967.753662109375 974.240844726562 980.05078125 987.848876953125 978.890808105469 983.317016601562 979.220886230469 982.989318847656 978.765502929688 975.283081054688 966.781005859375 961.574279785156 959.037658691406 967.503234863281 963.173217773438 964.353210449219 967.324645996094 971.151977539062 978.770812988281 977.860900878906 989.256958007812 986.319030761719 984.826416015625 973.015502929688 978.196411132812 979.511962890625 988.303466796875 990.230529785156 993.345458984375 994.086059570312 996.640808105469 989.554870605469 989.149475097656 996.332397460938 999.636901855469 986.986633300781 995.701538085938 992.87109375 1004.29553222656 993.372924804688 987.924133300781 992.088745117188 992.872985839844 986.169616699219 985.0458984375 990.560180664062 990.368347167969 986.391052246094 989.670532226562 983.811462402344 988.984191894531 994.833435058594 993.723205566406 979.444030761719 993.656982421875 1002.62524414062 995.972106933594 993.284912109375 994.036804199219 986.123046875 990.558288574219 995.287963867188 996.443420410156 999.997619628906 1008.50915527344 1012.57946777344 1017.36859130859 1013.67407226562 1019.67919921875 1019.54486083984 1029.03588867188 1033.09484863281 1039.41918945312 1040.17077636719 1040.56201171875 1042.22497558594 1048.04895019531 1063.56494140625 1072.42651367188 1078.05114746094 1089.99841308594 1105.5712890625 1107.58825683594 1103.42626953125 1116.27746582031 1124.4794921875 1135.18505859375 1146.68176269531 1150.57421875 1152.91772460938 1160.14733886719
940.699523925781 938.199035644531 946.987609863281 946.546630859375 951.014587402344 953.775634765625 952.297424316406 956.52978515625 963.29638671875 965.923522949219 968.089477539062 973.067687988281 970.189697265625 974.953796386719 972.944396972656 976.618469238281 971.067932128906 980.604064941406 980.981567382812 959.895385742188 960.943176269531 957.919677734375 958.682189941406 965.233947753906 969.855773925781 967.367370605469 962.756225585938 974.601623535156 975.760925292969 969.038452148438 980.356506347656 979.960815429688 977.972961425781 985.086975097656 987.534790039062 981.550964355469 977.03271484375 974.149047851562 975.069580078125 974.853820800781 975.602844238281 972.876220703125 969.018249511719 961.80712890625 964.063537597656 961.939819335938 968.426086425781 971.740478515625 975.657958984375 973.791320800781 979.38916015625 976.011413574219 968.56640625 968.670837402344 966.970092773438 963.244812011719 962.940551757812 972.78955078125 976.087097167969 979.900329589844 976.185485839844 979.417907714844 977.076782226562 975.920227050781 977.774841308594 976.844543457031 983.00732421875 983.131164550781 972.2509765625 959.736389160156 965.445190429688 968.197143554688 970.778625488281 959.816040039062 961.737548828125 967.352722167969 969.990112304688 973.620483398438 982.896301269531 977.790283203125 977.379577636719 982.178344726562 982.226989746094 973.655639648438 978.577270507812 977.102661132812 989.128479003906 988.119750976562 987.461181640625 988.714721679688 989.153015136719 988.789855957031 990.42529296875 990.475769042969 988.229370117188 991.016662597656 985.664794921875 992.797424316406 995.402587890625 990.031127929688 990.880554199219 990.437561035156 983.297302246094 984.675415039062 990.54443359375 985.043212890625 989.638977050781 986.1513671875 985.253173828125 992.662170410156 993.265319824219 991.6630859375 995.105285644531 998.333374023438 996.603271484375 997.389404296875 997.8798828125 997.203125 997.68701171875 998.313049316406 1002.14483642578 1001.85980224609 1001.56097412109 1003.77508544922 1013.61871337891 1011.75756835938 1016.25231933594 1017.97601318359 1020.01788330078 1033.36608886719 1033.67150878906 1038.90625 1044.48449707031 1038.13146972656 1045.5400390625 1051.95397949219 1062.75390625 1073.931640625 1078.39782714844 1087.54711914062 1105.32995605469 1107.83996582031 1112.88122558594 1126.40515136719 1134.70471191406 1144.59948730469 1149.69494628906 1158.1455078125 1158.21252441406 1166.86389160156
945.4560546875 949.611999511719 948.54296875 952.351867675781 952.989990234375 958.733947753906 959.478454589844 958.533813476562 962.974365234375 966.684143066406 967.816101074219 968.787414550781 972.427612304688 974.597717285156 976.075988769531 970.998962402344 976.415893554688 976.621765136719 975.240783691406 970.580688476562 968.185180664062 963.852111816406 962.002502441406 962.47265625 970.127136230469 963.789855957031 964.760559082031 977.785949707031 977.002075195312 984.062744140625 980.794799804688 973.373046875 980.817077636719 982.772399902344 982.870788574219 974.256774902344 968.612670898438 974.228698730469 973.674926757812 967.165405273438 965.845397949219 962.611083984375 970.689819335938 959.236511230469 960.937866210938 964.907470703125 970.340576171875 972.827575683594 972.756042480469 973.889892578125 968.932983398438 967.780212402344 962.860473632812 969.043151855469 972.925109863281 971.791687011719 970.140502929688 979.426391601562 974.880126953125 983.86572265625 982.957641601562 989.058532714844 984.432434082031 978.638610839844 970.827697753906 977.207336425781 978.463317871094 978.505554199219 970.875122070312 963.405639648438 957.961303710938 956.814025878906 963.573364257812 961.00048828125 969.47021484375 967.633056640625 974.771545410156 977.683532714844 978.039001464844 985.0625 990.683837890625 975.45654296875 971.801635742188 968.188293457031 972.817321777344 972.470764160156 977.954223632812 984.257995605469 988.078674316406 983.199523925781 984.787231445312 984.02099609375 988.941772460938 990.081481933594 989.786499023438 986.931213378906 989.750793457031 985.114074707031 985.050903320312 988.094360351562 979.694641113281 984.813415527344 988.746032714844 987.951110839844 978.914245605469 977.837036132812 987.117126464844 990.190246582031 989.78857421875 996.788757324219 996.8154296875 998.079467773438 998.194274902344 1001.24487304688 998.05419921875 993.198791503906 993.323364257812 995.367858886719 1003.14947509766 1018.51208496094 1003.39324951172 1007.39996337891 1013.56158447266 999.90576171875 1004.43804931641 1012.66229248047 1010.77874755859 1016.26556396484 1019.61956787109 1029.53540039062 1035.61987304688 1043.1435546875 1054.03759765625 1057.29602050781 1053.11572265625 1061.11328125 1073.75451660156 1078.68359375 1096.29846191406 1107.04858398438 1113.96069335938 1106.52429199219 1127.36279296875 1137.98083496094 1137.2509765625 1150.30139160156 1157.57873535156 1166.6650390625 1160.94152832031 1170.94445800781
949.120788574219 956.764526367188 955.859680175781 962.394836425781 964.06591796875 964.855041503906 960.013061523438 967.309265136719 963.61279296875 965.626892089844 968.248168945312 968.428833007812 965.912475585938 968.799377441406 976.228149414062 974.248840332031 977.770324707031 975.798583984375 971.820068359375 970.5751953125 976.458251953125 971.224182128906 965.347473144531 965.302429199219 971.982727050781 971.547058105469 963.717956542969 974.07958984375 985.603271484375 993.494445800781 974.36474609375 975.779052734375 972.896362304688 981.694213867188 973.760192871094 966.640502929688 967.149719238281 967.471374511719 969.041015625 960.155639648438 969.383544921875 963.893493652344 968.885986328125 957.464538574219 959.758972167969 956.68701171875 964.241027832031 969.8173828125 967.82373046875 967.459899902344 963.085815429688 968.587158203125 978.373229980469 969.895080566406 975.81591796875 978.0458984375 973.504272460938 975.975463867188 971.467468261719 974.186218261719 984.894775390625 983.757690429688 976.181457519531 979.064697265625 974.672241210938 974.299499511719 982.314086914062 981.606567382812 965.039672851562 955.973510742188 960.624328613281 962.248718261719 966.940185546875 972.730651855469 972.818725585938 974.55078125 974.044921875 976.856567382812 977.641479492188 986.129638671875 977.710327148438 968.333740234375 966.333801269531 981.310119628906 973.685852050781 975.30078125 976.524047851562 978.080261230469 983.24169921875 983.274475097656 979.238098144531 983.321166992188 987.605712890625 989.212341308594 985.251098632812 987.495727539062 982.882019042969 988.930725097656 982.259704589844 984.282653808594 979.426025390625 986.587280273438 987.187316894531 988.332580566406 978.116455078125 979.616271972656 989.165893554688 982.156677246094 985.390014648438 986.311340332031 997.858642578125 999.468139648438 1010.21740722656 1002.44409179688 994.624328613281 1002.06066894531 1004.24914550781 1006.92297363281 1017.96057128906 1016.45294189453 1007.25512695312 1006.22491455078 1005.87420654297 1013.037109375 1013.06817626953 1014.03399658203 1018.45062255859 1017.45025634766 1022.73223876953 1028.65600585938 1039.61999511719 1048.58142089844 1051.57238769531 1062.0146484375 1059.21765136719 1073.26879882812 1075.58117675781 1075.57543945312 1085.78735351562 1096.98303222656 1104.0146484375 1105.19677734375 1126.51428222656 1135.42199707031 1140.98291015625 1146.22534179688 1154.15161132812 1166.47937011719 1167.6962890625 1163.8701171875
949.42431640625 953.987609863281 957.891052246094 962.349304199219 968.315246582031 971.256408691406 965.507202148438 967.362609863281 962.599548339844 960.303527832031 968.020324707031 967.253173828125 971.386535644531 968.884704589844 968.010498046875 973.411804199219 975.207641601562 970.072875976562 973.407775878906 968.920593261719 970.925537109375 975.288696289062 967.654174804688 966.891174316406 961.559875488281 976.372924804688 974.232727050781 971.950012207031 979.800842285156 978.84326171875 978.042114257812 975.43017578125 978.684265136719 972.658081054688 974.732177734375 970.399841308594 966.860534667969 963.44140625 961.415466308594 958.256042480469 965.090881347656 957.913696289062 962.496337890625 959.825988769531 961.131286621094 964.916381835938 966.684814453125 965.6181640625 962.469787597656 968.699523925781 973.812438964844 968.988708496094 970.780517578125 972.589233398438 977.5478515625 981.909301757812 975.510925292969 974.789611816406 968.860778808594 962.02978515625 968.053344726562 970.75341796875 970.338562011719 975.126708984375 972.780090332031 978.534973144531 977.65673828125 968.366455078125 976.239990234375 965.739135742188 972.531066894531 963.231018066406 960.590026855469 969.041687011719 968.983764648438 967.651489257812 977.007141113281 972.160095214844 977.623901367188 976.306030273438 970.760498046875 969.180908203125 963.575805664062 971.009948730469 971.368286132812 967.364440917969 970.31787109375 981.923217773438 985.064880371094 980.475708007812 972.971313476562 977.465087890625 992.343017578125 994.285888671875 987.130798339844 975.7333984375 977.360046386719 984.690795898438 988.632995605469 980.704711914062 982.911437988281 976.098693847656 974.67724609375 986.688354492188 988.516784667969 994.257202148438 988.851013183594 992.868408203125 992.20068359375 991.098205566406 998.704650878906 1004.34448242188 1002.87127685547 1002.7802734375 1004.73986816406 1013.64410400391 1007.45526123047 1010.27075195312 1025.44921875 1027.39624023438 1010.84484863281 1002.14270019531 1002.41253662109 1019.81109619141 1013.79565429688 1024.40783691406 1015.44586181641 1024.74938964844 1031.68566894531 1038.6796875 1038.10400390625 1045.21057128906 1058.83898925781 1064.01501464844 1071.30151367188 1073.71765136719 1082.11376953125 1074.5947265625 1084.52062988281 1094.99890136719 1104.70031738281 1113.32897949219 1121.89477539062 1128.857421875 1132.4736328125 1140.84997558594 1153.46325683594 1158.20593261719 1159.86083984375 1154.88232421875
949.329406738281 946.815856933594 944.527709960938 959.806518554688 958.748474121094 961.46484375 974.533935546875 971.094177246094 968.558654785156 970.901733398438 969.865234375 962.793273925781 973.540466308594 969.878295898438 978.834533691406 980.954833984375 976.463623046875 976.041198730469 980.839111328125 977.514099121094 967.832214355469 972.69091796875 974.023620605469 966.556274414062 962.219604492188 969.686218261719 971.210998535156 958.916748046875 962.935791015625 977.56787109375 979.897216796875 973.726257324219 980.176574707031 977.299926757812 975.468383789062 962.372253417969 967.35009765625 953.531433105469 958.837097167969 962.629821777344 954.607482910156 959.573181152344 959.899475097656 954.49658203125 958.438598632812 962.899047851562 966.397705078125 964.565856933594 974.072937011719 969.465515136719 967.206787109375 958.653564453125 960.851684570312 964.751037597656 977.575317382812 984.194396972656 982.932250976562 973.452087402344 968.676574707031 965.382690429688 971.081665039062 973.261962890625 967.366821289062 969.025634765625 968.508117675781 973.904235839844 972.345764160156 964.7900390625 962.208129882812 969.654052734375 966.708618164062 964.812744140625 959.847412109375 972.326049804688 970.41650390625 971.378295898438 972.370910644531 970.559997558594 975.495971679688 968.176635742188 969.254028320312 970.095703125 967.35205078125 966.44580078125 976.35791015625 972.537902832031 966.647277832031 963.077697753906 967.829833984375 964.92626953125 965.919372558594 972.793273925781 980.631286621094 981.619567871094 970.585083007812 976.578491210938 978.207458496094 977.713562011719 992.526611328125 985.321838378906 977.290405273438 977.30126953125 978.6259765625 994.97119140625 1001.81506347656 996.736083984375 991.9814453125 1000.43347167969 996.507568359375 995.298583984375 993.68359375 991.116149902344 1001.09857177734 1003.16851806641 1001.21343994141 1014.23510742188 1021.40979003906 1017.57116699219 1028.82543945312 1027.64965820312 1020.85437011719 1017.07977294922 1021.27270507812 1021.93920898438 1019.21807861328 1017.53698730469 1014.49169921875 1023.20080566406 1032.64965820312 1035.02587890625 1042.93298339844 1053.685546875 1061.93212890625 1068.36364746094 1073.02124023438 1078.84997558594 1088.31604003906 1084.09130859375 1093.09094238281 1098.33203125 1095.35766601562 1113.93774414062 1116.87976074219 1128.6318359375 1135.90380859375 1136.36926269531 1138.96887207031 1155.54345703125 1156.3671875 1162.2607421875
955.064025878906 948.917114257812 948.818603515625 956.228881835938 964.728637695312 969.318481445312 970.357727050781 977.843322753906 973.639831542969 971.509460449219 969.583068847656 966.62255859375 972.287780761719 981.114318847656 988.232604980469 983.310546875 979.747375488281 975.699462890625 981.472717285156 974.190673828125 968.778381347656 973.192504882812 962.822814941406 963.388732910156 958.77734375 963.576477050781 967.890197753906 953.9072265625 966.11962890625 979.041015625 970.6083984375 973.257385253906 971.338500976562 962.374877929688 972.221557617188 968.2685546875 964.245483398438 950.649841308594 955.154907226562 957.587097167969 956.504577636719 957.272216796875 962.533813476562 965.631591796875 962.386657714844 959.704833984375 965.779846191406 961.3916015625 962.0458984375 970.6015625 968.599365234375 958.002075195312 964.201110839844 962.711608886719 967.630676269531 978.841125488281 973.666137695312 970.299377441406 966.590698242188 969.02734375 969.646728515625 973.705383300781 966.903259277344 965.0234375 961.101989746094 965.1123046875 970.191467285156 977.51416015625 964.365295410156 964.580505371094 965.981323242188 960.645812988281 951.126525878906 963.293762207031 972.155517578125 974.254577636719 975.368835449219 968.163024902344 963.242736816406 963.602722167969 971.800170898438 980.147399902344 972.178527832031 968.231201171875 971.711364746094 965.731140136719 967.508544921875 963.149841308594 965.005004882812 965.937622070312 959.779235839844 969.422973632812 966.842895507812 970.599609375 968.9619140625 969.433349609375 970.784484863281 981.449523925781 983.5615234375 979.833129882812 977.532165527344 975.18115234375 977.69384765625 989.679626464844 1002.28240966797 997.74072265625 990.116882324219 991.927795410156 989.699829101562 991.593872070312 996.07470703125 999.187927246094 1001.33093261719 1005.71044921875 1002.81665039062 1013.95672607422 1019.40014648438 1017.47009277344 1023.67712402344 1028.33178710938 1022.5869140625 1019.94000244141 1025.42321777344 1018.78631591797 1030.91394042969 1021.05670166016 1028.38537597656 1020.27911376953 1037.12902832031 1038.55651855469 1050.1103515625 1059.18676757812 1068.55334472656 1074.6748046875 1073.23583984375 1077.41674804688 1089.50646972656 1094.60083007812 1092.90588378906 1097.9443359375 1097.17150878906 1105.79064941406 1110.94750976562 1119.56298828125 1131.83654785156 1131.02404785156 1141.787109375 1150.8037109375 1153.80480957031 1151.44689941406
959.738464355469 955.994018554688 950.145202636719 961.328552246094 968.637817382812 977.949645996094 970.64208984375 973.421875 970.337280273438 973.982055664062 971.245849609375 981.059753417969 977.573181152344 976.674865722656 986.04541015625 994.129638671875 986.554443359375 978.813110351562 983.380004882812 977.305786132812 977.414123535156 970.06396484375 959.22265625 961.500366210938 964.033996582031 955.185119628906 955.983520507812 955.742309570312 967.429809570312 964.52783203125 969.088134765625 976.640563964844 965.478576660156 968.202819824219 973.001892089844 961.562744140625 958.814025878906 955.300354003906 957.079650878906 959.372375488281 958.281066894531 952.884521484375 955.156127929688 960.806701660156 965.385009765625 959.492126464844 956.495666503906 962.043151855469 968.396301269531 975.713012695312 967.214050292969 965.498840332031 957.683532714844 957.0625 965.821960449219 966.596618652344 963.170715332031 967.580078125 958.061401367188 961.355041503906 966.2705078125 969.446228027344 966.997802734375 974.899719238281 969.651306152344 968.605346679688 965.673706054688 969.403625488281 962.724060058594 959.321472167969 971.38818359375 963.377868652344 961.299621582031 957.939025878906 973.720825195312 972.1767578125 974.706970214844 972.738830566406 962.642150878906 957.902160644531 964.480163574219 967.141479492188 969.358581542969 971.052917480469 970.311828613281 972.351989746094 972.1337890625 966.020080566406 963.623840332031 969.032348632812 965.780700683594 966.211364746094 966.840393066406 969.856262207031 970.623718261719 980.216613769531 970.757446289062 966.210754394531 976.61376953125 978.725402832031 979.238342285156 987.843627929688 987.625549316406 1000.10528564453 999.101684570312 989.563903808594 986.379943847656 986.150085449219 989.074340820312 996.7939453125 1002.07177734375 998.676879882812 1001.47790527344 1009.85998535156 1012.65374755859 1011.54180908203 1013.53118896484 1014.49847412109 1023.18780517578 1015.78234863281 1021.65063476562 1027.44812011719 1026.20874023438 1027.43518066406 1024.21411132812 1039.31127929688 1029.98962402344 1032.11145019531 1030.04467773438 1041.71838378906 1048.86486816406 1060.62377929688 1066.76953125 1074.22729492188 1079.5517578125 1083.6875 1086.33337402344 1096.44543457031 1098.80151367188 1089.47033691406 1090.90893554688 1103.20690917969 1107.92822265625 1117.78063964844 1137.57141113281 1140.83581542969 1144.94848632812 1136.68273925781 1144.08215332031 1151.04895019531
962.073547363281 957.405578613281 957.161987304688 961.52587890625 969.534729003906 964.951904296875 972.250610351562 979.531921386719 971.400817871094 962.351135253906 975.804077148438 974.400573730469 978.480529785156 980.057983398438 977.258850097656 984.811889648438 984.069519042969 973.299438476562 981.631225585938 987.302185058594 976.788391113281 979.124755859375 969.294372558594 958.597534179688 964.009521484375 963.707214355469 956.630310058594 951.324829101562 967.289916992188 970.536926269531 968.402160644531 972.167724609375 972.118286132812 972.042602539062 973.393981933594 963.040344238281 970.071960449219 971.339416503906 963.658752441406 959.7392578125 956.256774902344 960.768920898438 956.162963867188 961.736267089844 963.045043945312 961.720397949219 955.966064453125 963.673950195312 964.403442382812 977.396545410156 967.608642578125 966.946838378906 956.9560546875 955.755310058594 953.679504394531 956.470886230469 968.4130859375 971.924255371094 962.416687011719 963.503967285156 959.39892578125 963.418701171875 970.123291015625 971.564392089844 975.182067871094 972.24853515625 960.964172363281 964.243591308594 956.626708984375 963.335693359375 972.104614257812 968.173889160156 964.48486328125 965.141174316406 968.026977539062 970.187927246094 979.228942871094 970.646606445312 960.609802246094 959.458129882812 958.82177734375 964.206665039062 967.406066894531 976.57861328125 974.979309082031 981.972534179688 980.402648925781 970.260314941406 965.938598632812 964.6337890625 968.300231933594 968.349182128906 973.162353515625 968.47119140625 979.896362304688 984.396423339844 976.9755859375 976.015563964844 978.628601074219 976.720947265625 979.623474121094 981.576477050781 993.795959472656 995.955200195312 991.669799804688 989.950134277344 982.827697753906 980.611389160156 993.530517578125 990.13525390625 995.8349609375 990.103881835938 1000.0576171875 1005.16845703125 1008.93420410156 1003.78332519531 1006.60754394531 1010.15246582031 1015.51251220703 1020.81854248047 1014.56030273438 1015.69915771484 1023.23773193359 1024.97497558594 1026.33874511719 1035.26293945312 1030.3369140625 1027.28881835938 1035.33813476562 1045.64807128906 1054.14379882812 1066.318359375 1074.14184570312 1075.23571777344 1077.25524902344 1083.92651367188 1091.32751464844 1097.65258789062 1094.57861328125 1094.97497558594 1088.94860839844 1099.82250976562 1117.21423339844 1120.90393066406 1131.32336425781 1137.49890136719 1132.56982421875 1131.32971191406 1133.82421875 1142.89208984375
961.657775878906 953.635681152344 950.988220214844 958.122253417969 961.682250976562 967.18994140625 976.516357421875 976.504516601562 970.392395019531 971.685791015625 975.037048339844 968.748352050781 971.935424804688 976.735595703125 973.852233886719 978.22021484375 977.863342285156 983.864196777344 980.960693359375 977.787780761719 977.299438476562 970.24169921875 968.338073730469 979.169555664062 973.242126464844 963.810913085938 961.326904296875 958.572570800781 956.109619140625 967.485595703125 963.127746582031 966.302490234375 971.944152832031 967.717224121094 968.454162597656 973.756408691406 975.997802734375 969.041625976562 967.380615234375 962.345947265625 951.079284667969 957.473266601562 953.847351074219 965.367004394531 963.38427734375 960.534912109375 961.619873046875 966.181701660156 963.66064453125 964.36181640625 961.428466796875 959.542053222656 960.539367675781 959.546997070312 954.884216308594 962.995300292969 973.039855957031 971.1005859375 969.563842773438 959.183166503906 959.060729980469 965.267028808594 966.387878417969 966.505798339844 957.094909667969 962.390075683594 956.703430175781 963.768188476562 962.140686035156 971.810363769531 972.435607910156 964.585998535156 965.304443359375 960.178527832031 959.653015136719 971.299072265625 976.414978027344 968.0439453125 974.282409667969 964.255126953125 965.49267578125 967.555114746094 962.901672363281 970.678955078125 969.677734375 975.070495605469 980.653137207031 970.169189453125 970.255065917969 963.481079101562 972.12158203125 970.209655761719 974.168640136719 977.227233886719 978.597778320312 983.467651367188 974.885864257812 974.444641113281 976.687805175781 975.84130859375 979.641723632812 980.330932617188 988.394653320312 990.735107421875 989.050354003906 981.813537597656 979.987670898438 983.633056640625 994.79443359375 991.218383789062 983.661560058594 992.696533203125 993.148193359375 1004.74066162109 1004.84490966797 1005.03515625 1013.00823974609 1016.31188964844 1013.37609863281 1020.228515625 1019.77923583984 1022.52874755859 1031.47485351562 1024.44848632812 1029.10119628906 1035.30187988281 1029.2978515625 1030.98291015625 1040.48315429688 1044.13598632812 1055.107421875 1073.66357421875 1082.76904296875 1083.94201660156 1086.15539550781 1088.62219238281 1089.26879882812 1099.47998046875 1097.92810058594 1101.37438964844 1092.93884277344 1098.68115234375 1113.70788574219 1120.857421875 1125.03491210938 1129.93566894531 1120.16271972656 1119.46960449219 1125.35791015625 1136.564453125
955.104309082031 957.789123535156 960.996948242188 969.201416015625 969.551147460938 968.333740234375 977.053344726562 972.854675292969 980.40283203125 977.393127441406 980.850219726562 977.848937988281 975.65234375 967.832275390625 977.134582519531 977.116088867188 978.060852050781 975.884399414062 974.648864746094 978.023071289062 978.266662597656 974.504150390625 981.248596191406 965.137390136719 967.828186035156 962.354675292969 957.839233398438 956.156616210938 959.587646484375 960.585144042969 970.538391113281 966.655822753906 965.608276367188 959.169799804688 958.801086425781 970.021545410156 976.795471191406 961.778503417969 970.557067871094 954.711120605469 953.032836914062 936.355163574219 949.635009765625 961.792541503906 962.506896972656 964.4169921875 971.9326171875 971.771118164062 966.508239746094 968.270446777344 957.589965820312 957.0126953125 959.276245117188 954.547485351562 967.009399414062 969.558837890625 963.395080566406 961.540954589844 965.183715820312 962.112670898438 960.004211425781 967.1123046875 971.14208984375 966.546569824219 956.073181152344 950.57373046875 956.675354003906 963.180541992188 969.707824707031 968.591125488281 970.791442871094 960.428039550781 952.3486328125 952.166687011719 958.075073242188 964.737365722656 965.469970703125 961.753112792969 969.171997070312 977.818176269531 968.23291015625 960.444152832031 965.763488769531 972.888366699219 972.534912109375 974.214904785156 978.48876953125 976.08056640625 969.588562011719 970.250244140625 966.373718261719 968.742919921875 971.90478515625 972.764404296875 973.543151855469 979.108215332031 976.00927734375 973.101501464844 975.506713867188 987.0537109375 976.80419921875 978.351440429688 982.428466796875 978.990234375 981.295288085938 977.3603515625 975.90673828125 981.273742675781 986.171447753906 986.675109863281 983.696411132812 986.711242675781 995.680786132812 992.482604980469 994.332458496094 1002.55676269531 1006.16479492188 1011.37841796875 1017.79498291016 1016.10308837891 1015.96557617188 1026.724609375 1026.37060546875 1029.79931640625 1033.3876953125 1029.91076660156 1030.8671875 1036.93798828125 1043.55163574219 1045.40380859375 1050.67517089844 1069.44946289062 1066.54675292969 1089.57702636719 1089.82397460938 1089.18994140625 1085.33020019531 1102.16198730469 1087.72021484375 1102.12377929688 1097.13818359375 1090.56530761719 1097.20422363281 1114.56921386719 1117.78918457031 1126.14965820312 1119.11267089844 1116.77453613281 1122.70678710938 1128.72485351562
967.050964355469 968.957946777344 963.512573242188 975.574523925781 970.101440429688 966.306396484375 973.340637207031 977.935668945312 977.809692382812 987.599426269531 980.987121582031 986.069274902344 986.72216796875 979.34765625 980.634948730469 969.02783203125 979.060424804688 978.641296386719 974.658386230469 974.888000488281 971.19970703125 968.99658203125 968.082153320312 967.537475585938 963.072875976562 961.47265625 966.536682128906 963.475158691406 967.941101074219 967.512634277344 966.06591796875 961.750854492188 965.712097167969 958.770812988281 955.361999511719 964.486694335938 968.450927734375 966.959899902344 963.378845214844 958.404846191406 947.205688476562 943.632690429688 949.182800292969 954.815124511719 959.4443359375 958.087158203125 967.106323242188 971.831115722656 965.693481445312 963.200561523438 965.993530273438 956.206237792969 964.320251464844 953.495178222656 961.791870117188 959.283142089844 958.172180175781 961.573974609375 955.419860839844 965.438415527344 963.596557617188 960.483764648438 962.984558105469 963.535217285156 955.234558105469 950.847412109375 953.26171875 957.922607421875 958.5166015625 967.376525878906 976.820739746094 963.733947753906 957.906494140625 955.883056640625 953.290893554688 961.801696777344 960.698364257812 965.471374511719 968.149597167969 971.45654296875 963.675903320312 958.111572265625 960.738464355469 964.940368652344 966.178527832031 967.711120605469 969.336669921875 966.475891113281 970.237731933594 968.511535644531 977.013122558594 969.850830078125 972.620239257812 977.371704101562 969.587097167969 974.159545898438 971.181945800781 968.511474609375 972.130493164062 977.061828613281 972.136474609375 972.292907714844 985.212158203125 986.389343261719 976.446594238281 977.155029296875 984.533630371094 987.816955566406 986.825012207031 985.646057128906 988.113586425781 993.287292480469 992.196594238281 990.994079589844 991.277404785156 999.829528808594 999.478088378906 1007.48120117188 1015.77410888672 1008.35534667969 1020.90893554688 1018.34954833984 1028.47705078125 1025.98693847656 1028.43688964844 1023.58331298828 1036.84899902344 1033.21887207031 1039.52355957031 1056.29760742188 1064.13073730469 1065.74731445312 1072.68322753906 1084.21252441406 1094.35864257812 1088.40405273438 1085.08190917969 1095.07006835938 1094.02380371094 1095.82116699219 1099.68408203125 1089.98779296875 1090.23901367188 1097.15490722656 1106.74060058594 1106.45593261719 1114.35729980469 1111.31103515625 1113.33837890625 1114.46826171875
963.090148925781 970.566162109375 976.619079589844 974.565063476562 976.394897460938 969.389404296875 972.665466308594 974.685974121094 974.358337402344 979.678283691406 977.16064453125 980.611633300781 985.037170410156 987.786865234375 977.188232421875 974.872680664062 970.306945800781 969.394226074219 969.2802734375 963.846557617188 966.178283691406 961.767333984375 955.511901855469 956.909423828125 958.827514648438 964.159484863281 974.041198730469 962.847961425781 958.708374023438 967.551635742188 967.020446777344 969.675048828125 959.546447753906 963.372131347656 964.339111328125 962.384216308594 967.165832519531 969.921691894531 970.190979003906 958.709777832031 952.845092773438 950.944213867188 954.699523925781 950.721862792969 956.741027832031 949.729553222656 952.439697265625 954.856994628906 953.836669921875 949.17724609375 954.741821289062 955.453063964844 955.764831542969 957.934936523438 956.148010253906 956.455627441406 959.280151367188 954.767333984375 955.170471191406 955.922058105469 958.234680175781 958.331237792969 968.921875 959.283142089844 956.138916015625 947.3662109375 954.726928710938 958.567016601562 961.796325683594 964.831604003906 960.118957519531 965.25537109375 956.016235351562 956.288330078125 953.263671875 960.55419921875 959.842651367188 963.85546875 966.72314453125 957.939880371094 958.593872070312 964.946105957031 958.607482910156 961.610900878906 971.054626464844 971.216430664062 965.206909179688 967.990051269531 968.776489257812 956.059204101562 961.605285644531 974.486572265625 978.133178710938 970.371276855469 974.998107910156 976.487243652344 974.30908203125 978.108520507812 969.716369628906 979.221069335938 974.557983398438 971.079162597656 974.999084472656 974.148193359375 981.326965332031 977.017150878906 972.248229980469 975.021545410156 987.060424804688 985.193542480469 974.157653808594 990.957946777344 992.9375 997.981018066406 997.86181640625 999.809020996094 1002.64270019531 1006.71496582031 1014.47344970703 1006.90844726562 1016.56103515625 1013.11492919922 1025.11633300781 1024.00390625 1025.67443847656 1034.5048828125 1028.99890136719 1029.8134765625 1038.25256347656 1048.73583984375 1061.54406738281 1064.2314453125 1074.47119140625 1088.02368164062 1094.63781738281 1088.82214355469 1092.25170898438 1089.564453125 1093.552734375 1089.92590332031 1089.21667480469 1086.71154785156 1080.68774414062 1081.70288085938 1093.39392089844 1099.26354980469 1089.24365234375 1096.58776855469 1111.38916015625 1110.42224121094
967.806823730469 972.886535644531 975.386108398438 974.624633789062 971.637512207031 973.108947753906 970.09912109375 972.411376953125 980.25146484375 971.405639648438 971.62939453125 979.790771484375 981.458312988281 973.906921386719 974.520629882812 979.699951171875 978.867919921875 974.84033203125 972.025573730469 966.382202148438 961.830993652344 962.984008789062 964.803527832031 961.635070800781 965.580444335938 959.282165527344 957.374206542969 963.176391601562 967.460205078125 965.705871582031 972.686828613281 964.910278320312 962.78369140625 957.896667480469 966.67578125 965.280090332031 967.761474609375 968.213928222656 961.409362792969 954.712280273438 953.001953125 958.570861816406 955.724365234375 954.324035644531 959.869323730469 955.260681152344 951.1416015625 950.701538085938 946.9716796875 948.985717773438 957.190673828125 957.319580078125 954.131408691406 958.99853515625 963.236633300781 951.900817871094 955.139221191406 952.202087402344 954.080749511719 952.685363769531 955.107299804688 956.358459472656 957.789794921875 952.435607910156 954.454223632812 958.504150390625 955.489379882812 958.394104003906 961.896850585938 975.774780273438 966.538757324219 968.486755371094 963.939025878906 961.352294921875 955.937927246094 954.977478027344 954.4638671875 957.912231445312 956.417541503906 960.820922851562 960.070434570312 962.267578125 961.347229003906 958.279907226562 967.939025878906 969.117370605469 962.950073242188 962.342407226562 965.331420898438 960.354431152344 963.606872558594 975.169250488281 976.537902832031 976.933898925781 970.870361328125 973.971252441406 981.273864746094 980.380310058594 977.846740722656 959.625122070312 965.844299316406 976.777587890625 973.114562988281 982.904602050781 988.295104980469 979.382629394531 985.033508300781 985.386779785156 998.375732421875 989.452453613281 990.265502929688 986.864135742188 989.64208984375 997.424560546875 989.590454101562 990.345642089844 994.051696777344 1000.62329101562 1000.70611572266 1009.14624023438 1011.80993652344 1012.35797119141 1027.53784179688 1033.47619628906 1031.63928222656 1030.97729492188 1028.78112792969 1037.05261230469 1041.28601074219 1051.23718261719 1057.32922363281 1062.05078125 1064.97253417969 1078.93432617188 1087.40051269531 1092.14294433594 1090.568359375 1085.8974609375 1086.94482421875 1082.07543945312 1076.96032714844 1075.67272949219 1080.30615234375 1080.99584960938 1077.78198242188 1083.88159179688 1076.76879882812 1082.39855957031 1093.65734863281 1104.751953125
973.16455078125 977.373962402344 976.756713867188 971.019653320312 966.53466796875 972.72265625 972.447875976562 976.853698730469 976.358947753906 979.157409667969 976.262084960938 976.724975585938 980.731201171875 973.122497558594 973.565979003906 972.411987304688 971.589233398438 971.745727539062 975.252746582031 962.449584960938 958.886413574219 959.647644042969 960.401245117188 959.242614746094 960.629150390625 960.813720703125 951.86328125 953.451293945312 959.449401855469 961.745788574219 970.750061035156 965.443298339844 963.570190429688 960.218078613281 956.616882324219 969.234802246094 963.821411132812 953.325927734375 951.947387695312 951.229797363281 953.549926757812 959.833862304688 955.932556152344 963.159973144531 954.570495605469 959.500305175781 958.675537109375 943.928161621094 943.482360839844 945.165771484375 949.035217285156 944.635437011719 951.678466796875 957.5966796875 947.930969238281 953.373413085938 960.840698242188 957.161437988281 953.421081542969 951.475646972656 954.917175292969 951.034301757812 952.302734375 954.775451660156 954.472900390625 959.706726074219 963.690307617188 957.497680664062 963.941467285156 963.255737304688 966.640075683594 965.955932617188 962.327453613281 960.724731445312 951.046264648438 956.7890625 954.063659667969 961.200744628906 961.410583496094 963.882934570312 963.483703613281 963.962158203125 961.052124023438 964.967712402344 962.861633300781 967.885375976562 958.123107910156 967.849487304688 966.763793945312 971.105895996094 972.274230957031 974.22021484375 971.094909667969 975.826110839844 974.309143066406 980.171997070312 982.903686523438 977.363586425781 978.975280761719 964.954528808594 970.825256347656 970.754821777344 969.007141113281 983.291198730469 975.34619140625 980.032165527344 995.890075683594 992.648254394531 992.382019042969 991.737609863281 993.554992675781 988.713256835938 984.11083984375 987.650512695312 985.2314453125 988.610473632812 988.248352050781 992.868041992188 1006.96881103516 1001.08941650391 1016.97479248047 1020.0986328125 1032.81958007812 1029.15991210938 1015.73162841797 1021.52514648438 1029.54553222656 1035.33642578125 1035.85534667969 1049.40026855469 1063.82824707031 1064.59741210938 1063.74206542969 1077.01782226562 1079.28601074219 1086.42468261719 1088.33666992188 1085.14025878906 1073.146484375 1070.61865234375 1065.70068359375 1069.67578125 1073.28601074219 1077.03479003906 1073.63195800781 1073.93347167969 1075.08483886719 1067.60485839844 1079.33837890625 1084.87670898438
968.257629394531 965.658264160156 971.099670410156 971.860595703125 973.328186035156 976.675903320312 972.1728515625 970.137512207031 975.451354980469 978.430541992188 972.688781738281 979.441528320312 975.022155761719 973.975219726562 976.163269042969 970.387023925781 975.191589355469 977.489379882812 967.132446289062 968.348571777344 963.681823730469 953.218444824219 955.335388183594 952.156494140625 949.548400878906 945.564514160156 951.599975585938 948.009887695312 958.822265625 955.61376953125 963.479614257812 965.578308105469 958.723266601562 956.316223144531 960.548828125 958.434936523438 963.146911621094 959.690490722656 947.857666015625 947.493103027344 949.297607421875 954.694030761719 947.317993164062 957.198486328125 953.871765136719 956.725219726562 954.355834960938 946.249267578125 943.806823730469 945.236877441406 947.355224609375 942.089721679688 949.897033691406 950.760437011719 954.647766113281 960.993774414062 956.435119628906 950.959655761719 956.521667480469 949.051330566406 947.313110351562 949.131530761719 949.091552734375 950.169006347656 951.545043945312 954.783508300781 962.932861328125 967.770324707031 968.228393554688 957.41796875 965.029296875 971.262756347656 961.374450683594 955.651428222656 960.116394042969 956.197875976562 960.396118164062 965.025756835938 967.763122558594 962.959777832031 967.356384277344 964.968872070312 955.566833496094 963.422607421875 961.30517578125 963.024353027344 962.158447265625 957.404907226562 964.412231445312 960.021545410156 962.140319824219 963.780578613281 975.011779785156 979.436584472656 977.324462890625 982.783325195312 982.798828125 972.289123535156 976.514587402344 975.575256347656 971.451721191406 972.845092773438 969.355407714844 976.398315429688 980.165344238281 983.225891113281 987.43994140625 998.530151367188 995.448974609375 999.007934570312 987.823547363281 988.296081542969 979.80859375 985.400207519531 991.742004394531 994.257141113281 997.76220703125 1002.78070068359 999.66552734375 1003.19195556641 1004.15899658203 1019.25164794922 1022.07043457031 1023.48071289062 1020.31665039062 1020.77532958984 1018.74780273438 1021.41424560547 1027.74328613281 1034.74853515625 1053.54260253906 1060.47875976562 1067.05480957031 1074.13354492188 1084.65380859375 1091.40869140625 1086.23669433594 1080.615234375 1073.91662597656 1064.64111328125 1052.21789550781 1058.60168457031 1054.50439453125 1054.47827148438 1064.72253417969 1068.4833984375 1068.21813964844 1070.32739257812 1065.96887207031 1067.23486328125
958.472290039062 968.466796875 968.591674804688 972.602722167969 969.847534179688 973.710815429688 973.241455078125 962.420776367188 960.851745605469 971.308532714844 968.197631835938 959.945617675781 970.554382324219 980.798828125 981.317443847656 977.697814941406 969.7314453125 975.033752441406 972.617797851562 969.876281738281 961.876281738281 946.950500488281 950.684509277344 948.661315917969 945.6181640625 942.245727539062 958.724975585938 948.637756347656 949.861755371094 954.209716796875 956.672241210938 955.771179199219 955.325439453125 953.025329589844 962.182861328125 965.126281738281 954.972351074219 951.887878417969 954.306884765625 949.542114257812 953.674072265625 954.281005859375 958.790222167969 961.283813476562 962.461669921875 958.6669921875 947.882202148438 947.712341308594 956.325439453125 953.013854980469 951.790405273438 952.464721679688 951.828552246094 956.002746582031 965.302001953125 962.519409179688 954.983093261719 952.636169433594 958.748107910156 959.701049804688 952.947631835938 953.408020019531 957.3212890625 947.8232421875 959.171569824219 962.88330078125 959.947998046875 968.7392578125 959.771484375 959.781494140625 959.24267578125 961.886657714844 967.738342285156 954.797241210938 954.283874511719 954.112121582031 963.504089355469 971.40283203125 967.959838867188 966.08837890625 960.743835449219 960.957946777344 958.844604492188 967.680419921875 964.237854003906 957.254638671875 955.761535644531 960.526672363281 961.313293457031 960.441711425781 969.482177734375 969.3134765625 979.889953613281 978.078857421875 978.388244628906 976.840881347656 976.307861328125 976.201782226562 973.141967773438 981.910461425781 980.650207519531 975.284545898438 965.993225097656 981.502197265625 982.165954589844 985.604309082031 994.190307617188 998.46044921875 995.77490234375 999.239440917969 996.291625976562 990.089416503906 984.695739746094 984.989501953125 997.955749511719 1003.1572265625 999.3125 1003.23608398438 1012.19927978516 1009.64184570312 1005.91137695312 1017.20513916016 1018.84771728516 1020.94067382812 1023.56195068359 1021.23052978516 1017.37213134766 1029.31311035156 1024.15197753906 1036.68676757812 1050.60693359375 1058.00939941406 1065.9287109375 1064.58520507812 1079.53857421875 1081.87365722656 1076.76721191406 1071.60131835938 1066.55200195312 1058.37084960938 1052.09753417969 1043.59838867188 1044.25842285156 1047.68566894531 1056.42980957031 1065.79748535156 1069.81115722656 1067.3984375 1059.19982910156 1059.78625488281
