NCOLS 150
NROWS 37
XLLCORNER 7394249
YLLCORNER 4842449
CELLSIZE 30
NODATA_VALUE -9999
948.713684082031 960.584350585938 951.832336425781 952.609436035156 949.67041015625 963.098083496094 971.634521484375 973.070373535156 975.129699707031 974.409484863281 968.20751953125 977.84765625 987.147033691406 994.512634277344 982.866271972656 982.775756835938 981.019592285156 975.225036621094 972.406555175781 968.231689453125 964.938659667969 964.32177734375 959.581665039062 953.100463867188 961.152465820312 968.244689941406 963.509826660156 966.41015625 967.790466308594 970.949340820312 973.304077148438 976.564697265625 983.228881835938 973.495727539062 972.44091796875 976.095520019531 972.780639648438 971.1669921875 966.956176757812 967.882202148438 962.929077148438 962.089172363281 961.137268066406 967.903015136719 958.983703613281 954.643920898438 960.85302734375 974.102966308594 972.143798828125 972.218444824219 974.157104492188 971.92041015625 967.666198730469 967.594909667969 968.103637695312 974.146484375 973.261352539062 967.685119628906 966.560485839844 969.16064453125 961.447326660156 956.739562988281 958.889221191406 958.024963378906 959.418334960938 969.013549804688 977.761779785156 977.063415527344 971.134094238281 965.248657226562 968.274841308594 964.629577636719 977.76611328125 980.553833007812 971.507568359375 980.786010742188 977.5625 979.970703125 969.596984863281 968.907165527344 967.586608886719 966.729187011719 969.494689941406 972.806762695312 977.743957519531 972.041809082031 973.868591308594 964.673706054688 963.455627441406 957.785522460938 964.904052734375 972.024475097656 980.099731445312 977.660034179688 975.626770019531 975.006103515625 966.295776367188 976.136779785156 983.844909667969 975.905334472656 988.443786621094 977.798645019531 979.615966796875 981.532165527344 985.437316894531 989.2197265625 989.879760742188 992.530029296875 999.791931152344 990.588317871094 993.410461425781 1002.59173583984 1001.39544677734 1000.27264404297 1006.06719970703 1005.45422363281 1019.52899169922 1015.51165771484 1022.001953125 1017.04473876953 1013.73199462891 1011.93103027344 1013.2294921875 1002.9365234375 1009.86077880859 1018.57147216797 1016.91418457031 1026.81616210938 1027.70397949219 1031.23669433594 1035.14514160156 1039.27966308594 1047.99011230469 1062.27465820312 1069.91638183594 1071.82055664062 1063.76416015625 1076.24060058594 1083.44897460938 1098.01501464844 1089.64453125 1101.48181152344 1103.79040527344 1105.22888183594 1129.35803222656 1139.62084960938 1146.19116210938 1157.05920410156 1162.052734375 1162.35925292969
947.459289550781 957.179321289062 958.454162597656 953.861938476562 946.807983398438 960.953125 965.142700195312 962.56396484375 965.579711914062 971.375061035156 972.594482421875 977.33447265625 982.804260253906 983.758056640625 975.885803222656 979.065307617188 976.070129394531 976.3408203125 969.782592773438 962.252319335938 962.395935058594 968.159362792969 954.844299316406 955.058044433594 955.377380371094 966.622253417969 969.849609375 969.947875976562 974.914428710938 968.078247070312 982.510559082031 984.700012207031 978.918701171875 971.154174804688 971.4619140625 969.485412597656 974.138305664062 960.778869628906 962.605407714844 963.062622070312 956.268676757812 951.893920898438 959.83935546875 958.672973632812 959.001892089844 962.293151855469 963.285827636719 965.320373535156 969.961791992188 965.307983398438 974.270751953125 966.163757324219 962.385498046875 963.386901855469 961.699829101562 963.57080078125 968.142883300781 966.411926269531 964.229858398438 959.665893554688 959.705139160156 963.319274902344 951.859252929688 950.832458496094 960.776489257812 970.374389648438 972.487060546875 978.905090332031 970.7744140625 969.895629882812 965.103881835938 970.87255859375 977.136169433594 973.400329589844 974.789733886719 977.4345703125 976.776428222656 975.617980957031 975.491760253906 964.342651367188 964.3486328125 967.931457519531 963.170349121094 959.696105957031 971.403381347656 966.447998046875 964.931457519531 963.71240234375 973.7734375 969.062072753906 964.29833984375 973.580627441406 974.530334472656 977.52490234375 975.486083984375 974.028259277344 969.478515625 981.295227050781 980.632141113281 983.514587402344 982.922729492188 987.308898925781 981.675842285156 976.97265625 977.250305175781 985.644287109375 990.122314453125 989.803588867188 990.49609375 984.003356933594 984.134460449219 994.2158203125 1000.47473144531 992.929077148438 993.858581542969 1008.96881103516 1019.85754394531 1023.84124755859 1019.98950195312 1028.88916015625 1016.93798828125 1018.19982910156 1015.23272705078 1014.10852050781 1011.80743408203 1014.53857421875 1021.00549316406 1024.91906738281 1033.93688964844 1030.8349609375 1039.99365234375 1039.15100097656 1054.1962890625 1059.66931152344 1077.85754394531 1078.95385742188 1077.47937011719 1079.92919921875 1084.75769042969 1097.28637695312 1097.87768554688 1097.765625 1097.9150390625 1106.00732421875 1121.98559570312 1138.56689453125 1139.02514648438 1145.85864257812 1154.3544921875 1161.10034179688
943.001403808594 964.075012207031 957.471740722656 954.443908691406 952.962280273438 953.151611328125 970.713500976562 967.823425292969 964.877197265625 974.282470703125 979.840698242188 971.095275878906 978.481384277344 978.5458984375 972.987243652344 974.60791015625 969.71044921875 972.155212402344 969.053588867188 968.902526855469 970.32275390625 960.447082519531 955.180053710938 956.752319335938 961.428466796875 959.390441894531 965.41552734375 964.643859863281 968.303405761719 969.559875488281 974.446533203125 981.381042480469 974.797058105469 971.097351074219 966.707153320312 969.642761230469 974.172668457031 961.647033691406 967.887573242188 960.824951171875 962.928649902344 949.512878417969 955.102722167969 953.029602050781 963.496276855469 962.979064941406 964.090942382812 964.927978515625 971.775268554688 966.032043457031 965.3154296875 955.622375488281 966.602905273438 958.431213378906 964.389953613281 964.247375488281 963.101867675781 967.758666992188 964.011108398438 959.004638671875 958.991271972656 955.453491210938 947.159484863281 957.779907226562 961.690673828125 960.7666015625 964.955993652344 967.086120605469 968.868835449219 963.350952148438 963.309265136719 963.689453125 973.34033203125 968.946166992188 972.697387695312 976.152954101562 976.476928710938 969.910339355469 980.024780273438 972.718078613281 966.695678710938 963.402770996094 961.625854492188 964.747619628906 973.184326171875 977.580017089844 977.593200683594 970.565979003906 963.222961425781 970.975402832031 968.134460449219 968.405212402344 976.558471679688 971.854797363281 984.843688964844 975.753967285156 979.480834960938 974.384216308594 974.295837402344 977.554504394531 975.141479492188 974.300964355469 979.429138183594 980.322631835938 984.375366210938 989.534912109375 986.15673828125 989.500244140625 988.778625488281 988.223815917969 989.177490234375 987.808654785156 990.290893554688 996.650207519531 993.068359375 996.776550292969 1002.13427734375 1011.861328125 1016.77099609375 1019.40502929688 1026.08178710938 1021.22778320312 1020.6943359375 1024.13854980469 1018.2451171875 1022.89306640625 1028.80883789062 1030.60327148438 1042.92956542969 1036.97387695312 1046.32568359375 1042.76000976562 1059.24377441406 1068.89038085938 1086.59143066406 1088.8779296875 1092.69604492188 1087.08569335938 1098.01989746094 1103.68212890625 1095.99072265625 1101.97644042969 1098.09484863281 1102.81298828125 1114.62426757812 1128.70727539062 1139.83850097656 1137.18823242188 1140.50317382812 1141.13427734375
962.541442871094 967.573181152344 957.62890625 960.042053222656 958.255065917969 964.001892089844 963.963195800781 971.435363769531 974.831726074219 976.37353515625 972.126892089844 978.708679199219 977.801330566406 987.861022949219 976.787658691406 978.486206054688 973.171203613281 965.231384277344 978.693359375 973.477783203125 970.603881835938 961.3525390625 959.109619140625 969.719421386719 965.678771972656 956.166625976562 957.866394042969 958.749877929688 961.239685058594 977.081298828125 974.581420898438 976.409606933594 970.592834472656 971.025024414062 969.279235839844 974.46533203125 964.662292480469 963.078002929688 961.022399902344 965.112915039062 953.933959960938 951.293823242188 955.109619140625 951.132507324219 949.211364746094 967.443115234375 964.518005371094 961.948181152344 961.301208496094 963.392272949219 949.422912597656 950.888366699219 952.661499023438 958.769470214844 954.239868164062 950.829345703125 956.167785644531 957.790710449219 961.932189941406 959.147705078125 953.857360839844 951.486511230469 950.235534667969 949.142517089844 941.0947265625 948.356201171875 953.714111328125 954.791259765625 961.079772949219 968.979614257812 964.748046875 963.496948242188 965.312255859375 970.000244140625 975.595703125 966.297546386719 973.520324707031 968.486206054688 974.362548828125 968.459655761719 967.566772460938 962.495056152344 964.172241210938 968.783142089844 966.4150390625 970.508605957031 970.471801757812 971.303161621094 968.850891113281 967.768432617188 970.166137695312 968.518981933594 973.91455078125 977.004028320312 972.193603515625 977.837524414062 975.815856933594 972.478454589844 981.398559570312 971.007446289062 971.211791992188 976.695922851562 979.8779296875 982.974731445312 983.254821777344 980.368774414062 986.806213378906 993.505004882812 985.716735839844 989.933837890625 999.277526855469 991.073913574219 992.009765625 994.198181152344 991.794921875 995.698181152344 992.299743652344 999.160461425781 1012.88647460938 1019.31915283203 1033.25939941406 1032.39135742188 1022.92224121094 1020.77703857422 1029.49645996094 1027.98071289062 1029.1806640625 1038.31274414062 1039.48278808594 1042.05151367188 1044.38977050781 1047.87780761719 1060.95935058594 1076.56787109375 1085.46398925781 1097.47241210938 1098.06982421875 1098.86657714844 1099.36755371094 1096.11303710938 1101.12133789062 1101.93920898438 1104.23181152344 1101.54516601562 1106.31188964844 1118.35974121094 1130.3798828125 1126.51159667969 1120.85302734375 1125.77856445312
962.589660644531 956.533752441406 961.635314941406 957.865661621094 968.157836914062 966.575378417969 975.391967773438 975.015014648438 970.289245605469 971.356567382812 972.436340332031 974.871398925781 980.141540527344 975.540283203125 979.931823730469 982.225280761719 973.623657226562 975.119384765625 979.04150390625 975.173095703125 963.987426757812 965.945922851562 967.611022949219 969.014770507812 966.979187011719 965.90966796875 955.599182128906 953.977233886719 956.704040527344 969.191467285156 971.348388671875 974.011169433594 974.00927734375 967.564453125 962.974243164062 975.818237304688 969.97802734375 970.410461425781 966.567932128906 963.2744140625 951.850219726562 957.338256835938 955.492492675781 954.748413085938 956.580505371094 967.714172363281 964.580444335938 964.525451660156 966.640930175781 962.923461914062 948.834106445312 947.849365234375 944.08154296875 953.273132324219 946.603820800781 942.712646484375 939.96923828125 955.651000976562 950.720642089844 956.40625 952.984924316406 956.557434082031 958.571655273438 946.292297363281 942.274475097656 960.488647460938 961.610595703125 958.408386230469 965.570861816406 963.66552734375 962.386291503906 965.957092285156 965.348510742188 976.399169921875 975.413513183594 968.929077148438 971.008117675781 965.499755859375 965.514526367188 978.578063964844 975.562805175781 969.317138671875 964.7734375 965.953979492188 971.680358886719 968.669982910156 971.974426269531 969.993591308594 973.512390136719 972.441345214844 972.985290527344 982.000549316406 978.615234375 979.53759765625 969.276428222656 968.969055175781 970.560668945312 975.118713378906 972.932189941406 974.7021484375 971.555114746094 974.080810546875 984.558959960938 978.624267578125 983.447631835938 982.031311035156 983.499084472656 985.013000488281 994.239929199219 995.913757324219 994.374633789062 987.102783203125 987.976867675781 987.795166015625 992.730041503906 1004.09393310547 994.754089355469 1006.76202392578 1013.82977294922 1018.37463378906 1017.62219238281 1022.35278320312 1033.47912597656 1031.85229492188 1031.68994140625 1027.47717285156 1025.17297363281 1040.99572753906 1034.16967773438 1040.30358886719 1040.13928222656 1060.38232421875 1067.42053222656 1069.88830566406 1091.1689453125 1088.79138183594 1101.83227539062 1095.13061523438 1101.28918457031 1093.025390625 1098.72082519531 1097.52990722656 1099.44958496094 1098.61962890625 1101.9248046875 1111.82727050781 1121.55358886719 1129.73461914062 1125.36584472656 1116.27001953125
959.340148925781 953.627136230469 958.497009277344 962.66845703125 968.346008300781 973.624572753906 973.981323242188 970.496765136719 967.569885253906 962.287170410156 975.464111328125 980.748413085938 978.976806640625 972.058898925781 976.050476074219 970.683410644531 967.560729980469 971.787048339844 974.307983398438 970.427734375 967.170043945312 961.176696777344 959.578308105469 964.150512695312 961.740783691406 963.309143066406 960.828552246094 953.461303710938 962.60546875 970.928894042969 966.470153808594 967.239807128906 973.435546875 970.787353515625 973.908996582031 971.37939453125 976.462524414062 969.930908203125 960.802978515625 967.37646484375 962.491882324219 958.40869140625 958.048522949219 953.825744628906 963.075866699219 968.923156738281 961.077209472656 968.567810058594 972.65087890625 960.852355957031 950.871276855469 940.292419433594 935.593322753906 941.849914550781 945.867553710938 956.478515625 958.86669921875 960.69189453125 955.667785644531 956.6083984375 951.462707519531 957.081909179688 953.904846191406 952.299438476562 954.682434082031 961.32568359375 960.413391113281 954.620056152344 961.659240722656 955.590637207031 957.443115234375 958.595520019531 975.357055664062 965.923095703125 967.402648925781 970.021911621094 962.648681640625 961.891296386719 961.14892578125 963.890441894531 967.85888671875 967.45751953125 963.059814453125 974.914306640625 965.17626953125 958.050109863281 961.999633789062 962.841552734375 971.785766601562 972.580383300781 979.151306152344 978.789428710938 982.26123046875 972.219299316406 969.050964355469 967.584838867188 980.149597167969 982.676208496094 981.863647460938 977.967895507812 985.777038574219 978.298461914062 984.764221191406 984.521484375 988.288696289062 984.594116210938 982.83251953125 993.340942382812 990.750549316406 987.713806152344 981.94775390625 990.497619628906 994.745666503906 992.325622558594 998.530944824219 999.045104980469 1004.95892333984 1005.94952392578 1007.46936035156 1014.74200439453 1018.46752929688 1021.97076416016 1031.474609375 1036.56030273438 1032.10778808594 1032.08764648438 1028.44274902344 1033.78784179688 1041.88623046875 1041.8974609375 1045.384765625 1057.50732421875 1066.33557128906 1074.60766601562 1083.55493164062 1092.48901367188 1095.12805175781 1092.06726074219 1094.77380371094 1084.93103027344 1092.83264160156 1093.44201660156 1100.00988769531 1106.42333984375 1111.28686523438 1110.31518554688 1115.44030761719 1114.27966308594 1116.658203125 1117.81188964844
956.396667480469 966.722229003906 960.750854492188 965.542846679688 973.848571777344 978.804321289062 964.97119140625 970.600463867188 971.191345214844 961.307800292969 974.450256347656 979.670471191406 981.45166015625 976.518981933594 973.567016601562 975.847595214844 970.845764160156 974.451232910156 969.815307617188 968.458068847656 959.82958984375 959.925109863281 967.860778808594 970.411010742188 967.006408691406 970.717529296875 966.670166015625 961.444274902344 956.707702636719 963.434448242188 970.093505859375 961.705017089844 963.81689453125 966.987670898438 964.364013671875 967.435974121094 970.902221679688 955.295166015625 959.436950683594 957.6962890625 952.935241699219 964.365966796875 964.114074707031 959.152160644531 957.404663085938 955.669494628906 959.780822753906 960.610656738281 959.226318359375 956.230651855469 952.50732421875 948.544738769531 949.454162597656 942.065185546875 944.919189453125 950.638000488281 960.303283691406 959.191589355469 958.760314941406 947.758544921875 947.371276855469 948.568542480469 961.573486328125 959.635009765625 957.669555664062 963.580810546875 962.170349121094 962.763305664062 956.719360351562 948.741394042969 958.990051269531 962.9130859375 962.777404785156 966.050598144531 970.332092285156 962.770202636719 963.724426269531 955.338317871094 959.619567871094 960.458312988281 962.720336914062 958.868041992188 963.123962402344 970.867797851562 958.494934082031 956.652221679688 959.422302246094 961.299499511719 966.849365234375 967.675231933594 985.546020507812 983.678405761719 980.59765625 971.322448730469 973.904479980469 973.610290527344 975.647094726562 977.42578125 982.851867675781 981.343566894531 968.9375 982.609130859375 979.7353515625 983.984985351562 976.695739746094 976.96630859375 986.8125 988.098937988281 985.878662109375 984.395202636719 988.990051269531 984.454284667969 981.827331542969 991.630676269531 999.308837890625 1002.62023925781 1015.42694091797 1002.35534667969 1009.35607910156 1012.42425537109 1012.51416015625 1024.169921875 1028.84533691406 1034.41650390625 1038.76965332031 1028.42456054688 1026.98449707031 1031.63952636719 1036.9794921875 1039.35693359375 1049.08325195312 1052.61462402344 1062.12170410156 1070.12390136719 1069.28686523438 1085.18237304688 1091.79821777344 1094.41479492188 1094.35961914062 1090.41674804688 1087.89782714844 1098.36767578125 1096.7041015625 1103.49548339844 1100.24816894531 1102.74951171875 1107.67993164062 1105.97351074219 1100.62854003906 1106.43041992188
966.455627441406 960.314208984375 967.328186035156 973.453002929688 978.560791015625 977.610229492188 966.966430664062 969.471435546875 972.608215332031 965.927429199219 966.070983886719 979.470764160156 978.47607421875 974.396545410156 975.941284179688 964.71923828125 969.706481933594 975.97802734375 972.024047851562 961.296081542969 958.999938964844 963.912353515625 965.386413574219 967.633728027344 966.901428222656 960.035217285156 956.849060058594 956.779174804688 955.440612792969 961.649169921875 961.804870605469 961.883605957031 949.321228027344 953.748046875 960.730407714844 957.804931640625 961.417846679688 962.746154785156 963.588256835938 960.84130859375 953.94091796875 958.370666503906 960.116271972656 968.85791015625 966.694091796875 957.145263671875 956.576110839844 954.874755859375 960.665222167969 956.511474609375 949.187438964844 953.189025878906 951.924987792969 951.138366699219 946.806518554688 956.849487304688 958.363037109375 951.880249023438 951.052124023438 948.473083496094 954.853637695312 955.331787109375 968.964904785156 974.481994628906 965.685913085938 963.752990722656 949.860900878906 956.911804199219 960.554565429688 955.988220214844 960.164123535156 956.460571289062 962.827514648438 966.593994140625 969.519958496094 961.447570800781 955.25146484375 956.878601074219 958.790283203125 959.586669921875 960.167358398438 958.848022460938 957.756958007812 959.403076171875 958.541076660156 953.617614746094 955.304077148438 962.329956054688 967.644653320312 970.03369140625 976.146850585938 979.328430175781 968.491027832031 970.408752441406 966.610290527344 971.096984863281 977.089050292969 983.62744140625 986.475891113281 978.520629882812 973.312805175781 980.909301757812 973.951843261719 975.810974121094 981.204833984375 975.704467773438 983.462219238281 991.336120605469 983.049011230469 987.198608398438 989.413818359375 988.064880371094 983.988830566406 988.983947753906 988.268615722656 994.79248046875 999.78466796875 1001.90948486328 1006.08428955078 1008.580078125 1011.73083496094 1013.06225585938 1016.09387207031 1014.63726806641 1027.80236816406 1030.46630859375 1026.91577148438 1034.24951171875 1033.79260253906 1035.28198242188 1044.21508789062 1053.41882324219 1069.95422363281 1074.64501953125 1077.52551269531 1085.00244140625 1089.81286621094 1093.37817382812 1098.02819824219 1086.74426269531 1091.27221679688 1085.84497070312 1091.66821289062 1090.47717285156 1094.11401367188 1098.53356933594 1097.72680664062 1093.84216308594 1090.31787109375 1095.17846679688
957.398010253906 972.052551269531 972.016662597656 975.164001464844 968.766723632812 975.785095214844 975.887145996094 971.872802734375 964.835083007812 965.758117675781 975.80322265625 975.958862304688 976.557800292969 983.293151855469 984.02587890625 971.992431640625 971.179809570312 972.429809570312 966.74951171875 960.454467773438 961.667785644531 958.5244140625 964.291320800781 967.261169433594 959.835205078125 960.188720703125 958.092590332031 953.383178710938 959.378723144531 959.749694824219 973.481323242188 965.14404296875 964.752319335938 958.204345703125 958.568786621094 961.687622070312 968.105041503906 960.183349609375 960.873962402344 961.420043945312 957.272583007812 952.513671875 960.57421875 958.0224609375 954.467834472656 952.358642578125 953.218505859375 957.726684570312 958.681213378906 964.823425292969 946.898986816406 953.712890625 958.402221679688 954.018615722656 956.586669921875 953.388549804688 956.530700683594 950.835327148438 954.385498046875 952.132690429688 955.792236328125 957.766296386719 961.087768554688 968.387878417969 972.675964355469 959.063232421875 949.051940917969 955.992553710938 953.05029296875 952.084838867188 945.759887695312 947.097412109375 960.482482910156 959.404602050781 960.139770507812 964.004211425781 959.702758789062 964.663269042969 959.554077148438 961.512573242188 962.667236328125 959.819152832031 954.062683105469 956.603454589844 953.829040527344 957.714782714844 958.638610839844 969.08349609375 967.640319824219 962.792724609375 959.637756347656 971.227600097656 961.334106445312 963.692810058594 971.258483886719 967.572143554688 977.950012207031 986.829711914062 985.178405761719 979.172607421875 981.010803222656 975.106262207031 968.852172851562 973.161437988281 973.408752441406 981.88671875 985.963562011719 984.665161132812 984.477600097656 983.783386230469 983.122375488281 990.316223144531 987.811340332031 987.990844726562 991.546569824219 993.373901367188 1002.29809570312 990.324279785156 998.301574707031 1004.95111083984 1005.16845703125 1004.82562255859 1004.87493896484 1011.57800292969 1019.88415527344 1031.83874511719 1025.4384765625 1030.68249511719 1038.19848632812 1043.18688964844 1046.14697265625 1061.02868652344 1072.09899902344 1079.37365722656 1080.57263183594 1093.86804199219 1095.27514648438 1094.70556640625 1094.822265625 1085.74401855469 1080.33264160156 1076.66369628906 1083.41149902344 1079.3115234375 1087.14501953125 1084.24096679688 1085.27001953125 1086.75341796875 1087.39184570312 1092.18371582031
953.773315429688 963.434509277344 970.190246582031 973.968872070312 975.708435058594 976.268737792969 970.57470703125 969.596496582031 960.904357910156 971.279357910156 971.08935546875 964.579833984375 965.521240234375 977.204650878906 970.477294921875 964.068298339844 964.6474609375 969.003051757812 970.965881347656 968.948913574219 956.485229492188 955.040649414062 960.971984863281 969.362426757812 957.477233886719 957.491882324219 940.914611816406 957.398620605469 962.742004394531 956.003662109375 968.873291015625 963.146728515625 963.535888671875 959.244201660156 959.204284667969 963.407531738281 970.537109375 962.078125 949.36083984375 961.869934082031 957.7392578125 956.728271484375 958.2607421875 964.3857421875 960.745422363281 960.342102050781 961.884155273438 965.086608886719 959.322387695312 959.30908203125 957.833618164062 958.211059570312 958.6064453125 956.603210449219 957.834594726562 957.813171386719 954.446166992188 956.039428710938 959.62841796875 958.789001464844 960.615051269531 955.369323730469 965.966674804688 966.755432128906 965.606323242188 953.206481933594 956.555908203125 952.789245605469 957.077453613281 949.551513671875 950.125671386719 951.988342285156 955.726196289062 958.084228515625 956.326232910156 956.068542480469 962.923583984375 961.7763671875 960.9287109375 955.554077148438 959.235778808594 960.88623046875 956.584106445312 956.556274414062 958.079040527344 969.409423828125 968.21826171875 973.419494628906 968.715148925781 952.360412597656 955.06494140625 970.346435546875 967.233093261719 961.084045410156 968.332214355469 971.437805175781 978.14501953125 983.651611328125 982.847839355469 972.893615722656 981.71435546875 972.648376464844 976.849609375 968.752563476562 972.418640136719 983.677673339844 984.598937988281 986.070434570312 990.346069335938 987.448425292969 995.135559082031 998.236938476562 998.761657714844 987.765563964844 991.298278808594 992.439514160156 994.760864257812 999.404113769531 989.432067871094 988.239196777344 997.587219238281 994.351867675781 1005.15185546875 1009.19036865234 1005.810546875 1012.37084960938 1027.32312011719 1033.91870117188 1035.94177246094 1041.59899902344 1042.52136230469 1051.03649902344 1067.45788574219 1081.43237304688 1090.32897949219 1094.96264648438 1092.29150390625 1091.41027832031 1081.16772460938 1072.30114746094 1075.75024414062 1070.22766113281 1074.39367675781 1062.39721679688 1069.96691894531 1065.08483886719 1078.00537109375 1075.37341308594 1078.46594238281 1083.86376953125
952.142944335938 962.692993164062 967.30029296875 965.491516113281 971.368408203125 973.679138183594 972.7744140625 977.159301757812 968.761657714844 968.984008789062 961.934814453125 955.803039550781 955.944946289062 964.244262695312 971.903503417969 966.682922363281 970.456848144531 967.263732910156 965.680053710938 967.233825683594 954.126770019531 955.513366699219 958.173767089844 951.941650390625 958.731140136719 954.857482910156 952.901550292969 952.8037109375 954.708801269531 957.612487792969 969.552307128906 952.313171386719 954.578552246094 955.962097167969 960.631042480469 965.300354003906 972.385192871094 966.833129882812 957.76416015625 950.35107421875 953.888488769531 955.913330078125 950.54052734375 951.402099609375 962.209350585938 963.230712890625 965.49951171875 958.924255371094 953.388244628906 952.059997558594 949.966430664062 958.757629394531 958.570434570312 957.970581054688 955.308410644531 954.365295410156 961.644348144531 957.69140625 958.541809082031 960.120788574219 962.314636230469 961.508178710938 958.783447265625 963.635803222656 963.486633300781 953.6884765625 955.530700683594 960.232238769531 955.806762695312 951.693969726562 951.519592285156 948.818786621094 958.886840820312 965.720764160156 969.421936035156 961.07080078125 964.48876953125 966.13671875 968.959777832031 973.621398925781 967.277221679688 975.566772460938 966.489135742188 967.602722167969 962.417663574219 964.458251953125 967.911865234375 965.949829101562 957.128540039062 956.713439941406 952.652893066406 961.407836914062 963.447143554688 966.701049804688 981.3525390625 980.8466796875 979.81787109375 980.91015625 977.184631347656 981.081176757812 984.517395019531 986.274597167969 985.667419433594 976.790100097656 981.538452148438 984.742248535156 987.773071289062 987.871154785156 996.766723632812 996.669738769531 1005.04998779297 1003.42932128906 993.134582519531 984.9091796875 993.756042480469 991.123413085938 999.65087890625 989.192932128906 993.77001953125 992.590576171875 996.031677246094 995.182800292969 999.281799316406 1010.18353271484 1006.57336425781 1011.00646972656 1029.20544433594 1030.38134765625 1040.8974609375 1039.5751953125 1041.9423828125 1042.52307128906 1063.81774902344 1085.67956542969 1085.80834960938 1086.24157714844 1075.60974121094 1080.8759765625 1071.23168945312 1055.51977539062 1058.13586425781 1059.08422851562 1055.16101074219 1047.19250488281 1058.78649902344 1060.69543457031 1061.56848144531 1061.25219726562 1065.79138183594 1073.48657226562
948.015991210938 954.788330078125 958.267517089844 971.640563964844 969.818786621094 968.45068359375 974.80126953125 979.298461914062 970.102661132812 965.1767578125 961.317199707031 958.254943847656 955.627990722656 960.227661132812 970.837219238281 970.510864257812 961.253234863281 962.534973144531 964.556213378906 958.21484375 951.304443359375 961.039794921875 960.442199707031 945.537231445312 940.932861328125 948.516479492188 953.060791015625 951.359741210938 954.702453613281 961.546264648438 958.762573242188 953.648315429688 951.990295410156 938.327575683594 955.529235839844 956.877746582031 964.150939941406 960.124450683594 962.888000488281 948.831726074219 950.501220703125 955.069580078125 942.448974609375 943.002990722656 953.243774414062 959.287902832031 962.826049804688 964.851196289062 950.552795410156 954.4677734375 948.125061035156 946.992431640625 954.846496582031 959.351196289062 956.124816894531 956.595336914062 963.219116210938 964.557434082031 966.469543457031 964.945251464844 954.303833007812 952.719848632812 953.644592285156 959.164672851562 955.277587890625 961.522766113281 959.655212402344 962.889831542969 965.89794921875 957.743103027344 956.102600097656 956.590209960938 958.182312011719 965.299560546875 971.12109375 969.595275878906 965.322875976562 967.588745117188 973.660888671875 977.104736328125 973.773315429688 978.917419433594 969.734375 964.568542480469 963.664001464844 963.152099609375 965.217590332031 965.420349121094 963.726257324219 958.832824707031 959.25439453125 966.292663574219 964.219482421875 965.430969238281 972.388488769531 976.198608398438 980.865173339844 981.848999023438 984.439208984375 986.661804199219 993.536804199219 978.908081054688 986.707763671875 987.216125488281 990.860229492188 990.221130371094 989.973999023438 983.0869140625 993.219787597656 991.38525390625 999.616271972656 1003.15612792969 996.970336914062 990.347595214844 991.586853027344 991.128051757812 999.106323242188 991.184631347656 1005.71624755859 1000.5478515625 1007.40161132812 1003.5615234375 1003.02996826172 1007.90252685547 1015.45959472656 1015.07604980469 1022.86340332031 1030.66223144531 1035.8720703125 1039.64196777344 1042.75512695312 1047.34033203125 1060.82690429688 1068.47985839844 1068.62109375 1074.45666503906 1070.20568847656 1068.57775878906 1055.07177734375 1054.13269042969 1047.4462890625 1044.93017578125 1042.06201171875 1042.79638671875 1044.01171875 1053.37170410156 1061.44470214844 1059.42138671875 1061.64611816406 1058.81091308594
952.177001953125 954.693298339844 955.41943359375 965.274719238281 967.771728515625 973.031860351562 975.686096191406 974.980224609375 971.678100585938 964.274597167969 960.497192382812 956.278930664062 963.562927246094 969.645935058594 966.642150878906 957.589538574219 955.227294921875 953.404602050781 958.381103515625 947.493286132812 952.000244140625 950.063293457031 944.282592773438 943.589477539062 944.980041503906 943.151550292969 944.1826171875 950.061157226562 945.600036621094 945.078735351562 953.0888671875 948.042053222656 942.29150390625 956.583923339844 951.277587890625 949.681762695312 946.459655761719 955.651428222656 952.893859863281 952.732238769531 956.998718261719 959.398986816406 955.806884765625 952.337585449219 950.071899414062 953.787536621094 959.300170898438 970.772094726562 956.410095214844 953.539489746094 947.697204589844 945.391296386719 953.737365722656 951.508483886719 958.856384277344 954.7958984375 966.512390136719 961.294189453125 966.123168945312 968.232482910156 956.414001464844 947.46728515625 955.990661621094 959.474487304688 961.968383789062 959.724914550781 959.599426269531 974.9658203125 976.132080078125 966.764221191406 968.778930664062 970.1357421875 965.203186035156 967.756774902344 956.465393066406 967.566467285156 966.856323242188 974.164184570312 978.032470703125 973.323974609375 969.853393554688 977.119079589844 976.961975097656 974.167175292969 969.977844238281 965.022766113281 972.92431640625 967.564880371094 965.432678222656 958.3486328125 963.911071777344 963.836364746094 967.403076171875 974.069091796875 974.4677734375 974.805847167969 976.989929199219 981.193115234375 983.460815429688 989.501647949219 995.113220214844 989.935485839844 977.740051269531 987.770324707031 992.220886230469 987.595886230469 986.402709960938 988.618347167969 996.441162109375 992.100952148438 1000.87286376953 996.034057617188 996.864318847656 987.700866699219 993.895751953125 999.805908203125 995.253845214844 991.302062988281 998.919189453125 1009.43225097656 1006.29089355469 1007.54870605469 1009.99615478516 1003.59149169922 1015.12939453125 1006.66564941406 1024.4873046875 1031.22009277344 1040.25805664062 1040.48681640625 1041.29162597656 1051.5087890625 1053.53430175781 1066.91650390625 1061.47387695312 1052.90576171875 1059.35876464844 1053.45336914062 1049.97241210938 1040.84362792969 1032.08666992188 1024.69287109375 1025.50231933594 1037.66687011719 1038.95300292969 1044.40576171875 1054.99975585938 1047.90673828125 1052.74230957031 1048.61755371094
948.535461425781 949.590942382812 954.259826660156 964.366638183594 969.363464355469 969.723510742188 971.964782714844 969.453918457031 964.846252441406 961.932922363281 958.768127441406 958.819641113281 961.161010742188 974.393981933594 967.828063964844 961.705200195312 956.408203125 942.634704589844 946.283386230469 943.591552734375 952.672180175781 949.207946777344 941.977478027344 943.056579589844 943.845092773438 942.0810546875 947.884033203125 944.393432617188 942.79248046875 942.494506835938 950.04345703125 945.606140136719 953.225952148438 945.200500488281 944.588073730469 944.833679199219 944.445190429688 949.458435058594 951.630798339844 953.775390625 950.606994628906 943.101318359375 948.005432128906 952.229309082031 955.699768066406 950.399047851562 961.993713378906 971.321166992188 962.02490234375 958.033447265625 956.822326660156 953.589965820312 951.71630859375 955.33935546875 952.909118652344 959.435546875 963.162414550781 965.791259765625 967.735961914062 962.702514648438 953.822692871094 951.491516113281 956.055969238281 963.572692871094 964.335510253906 962.371887207031 961.697326660156 971.8525390625 974.542053222656 959.824340820312 954.186645507812 966.183776855469 966.295104980469 959.969848632812 957.739196777344 955.640502929688 960.891540527344 971.502258300781 979.093017578125 973.865783691406 972.003784179688 983.051513671875 986.897644042969 977.086181640625 972.73974609375 969.349548339844 970.805419921875 970.867309570312 956.238708496094 963.81201171875 967.493408203125 970.801391601562 975.029235839844 974.038330078125 984.23095703125 981.680725097656 973.463623046875 976.363159179688 985.840576171875 994.528869628906 997.868286132812 984.247497558594 985.059387207031 988.002868652344 993.831237792969 1000.03607177734 990.687805175781 997.191223144531 989.171813964844 990.228271484375 988.546020507812 988.287170410156 989.261047363281 994.927612304688 1000.41369628906 1003.04992675781 1001.0009765625 1001.26989746094 1003.82543945312 1007.98937988281 1005.31958007812 1005.11315917969 1010.95776367188 1010.28216552734 1011.72863769531 1017.22973632812 1022.98101806641 1034.83923339844 1037.73791503906 1030.06494140625 1039.91357421875 1048.19982910156 1051.30444335938 1056.69213867188 1055.67419433594 1048.57409667969 1044.90612792969 1041.44738769531 1039.92822265625 1031.71020507812 1029.890625 1026.50842285156 1020.92919921875 1030.78503417969 1037.02673339844 1034.41687011719 1034.43273925781 1041.94506835938 1036.56384277344 1036.82751464844
956.833068847656 959.605712890625 959.669921875 954.6279296875 964.240844726562 969.162780761719 965.92431640625 966.51806640625 956.013061523438 959.634704589844 957.814147949219 953.6572265625 957.838317871094 957.195861816406 957.692504882812 962.135681152344 948.210327148438 953.262145996094 948.947875976562 944.078430175781 945.109130859375 952.462646484375 951.908325195312 948.260864257812 934.546325683594 948.298828125 959.767395019531 951.701538085938 956.267578125 957.594909667969 948.9345703125 952.945739746094 955.363647460938 952.534545898438 941.021057128906 946.520385742188 948.025573730469 948.01708984375 949.446472167969 950.257507324219 950.478881835938 943.241638183594 948.162963867188 955.718383789062 951.953552246094 956.178649902344 959.076171875 965.755737304688 954.74462890625 955.66748046875 953.259033203125 956.723327636719 954.512268066406 950.153137207031 954.5009765625 954.983093261719 965.457885742188 968.277099609375 959.178161621094 966.506774902344 967.921569824219 958.377990722656 961.397033691406 956.480102539062 956.214965820312 960.9482421875 966.217834472656 973.086059570312 966.237365722656 966.180297851562 964.056762695312 970.129211425781 969.977478027344 962.197937011719 958.440246582031 958.457458496094 958.055847167969 969.236206054688 978.542297363281 977.26904296875 978.150329589844 986.063293457031 975.413879394531 985.153686523438 982.788024902344 978.075927734375 980.186340332031 963.562255859375 968.223449707031 974.568054199219 972.498840332031 975.544372558594 973.796569824219 983.581665039062 981.696044921875 986.306884765625 981.464294433594 975.333923339844 980.057861328125 987.660034179688 986.64990234375 985.994323730469 979.351623535156 989.863525390625 991.379333496094 1000.7783203125 994.897521972656 996.704406738281 996.520263671875 988.510498046875 977.973266601562 979.853576660156 991.016418457031 1000.73052978516 997.024230957031 997.97412109375 1005.14038085938 1009.59259033203 1006.95324707031 1006.67156982422 1014.15576171875 1007.20715332031 1011.41564941406 1014.38800048828 1016.17926025391 1024.18298339844 1026.77209472656 1037.53857421875 1033.91345214844 1024.8466796875 1036.80908203125 1042.50390625 1059.02307128906 1045.53784179688 1053.2998046875 1047.48132324219 1036.91796875 1032.43395996094 1032.06298828125 1032.39526367188 1021.59704589844 1016.27532958984 1024.23254394531 1018.17840576172 1029.4755859375 1036.40893554688 1032.64733886719 1029.19287109375 1025.16027832031 1028.1728515625
961.868774414062 959.184814453125 959.181579589844 953.868835449219 963.420349121094 964.261108398438 971.343200683594 961.03515625 950.036254882812 956.506958007812 966.2568359375 953.288208007812 955.931762695312 956.088989257812 959.821594238281 953.555725097656 950.813659667969 941.50634765625 941.08984375 948.887573242188 947.175415039062 945.222229003906 948.632690429688 941.780822753906 936.263610839844 943.643737792969 949.123901367188 943.70849609375 950.431457519531 951.844604492188 948.051513671875 957.585021972656 951.334838867188 950.465515136719 943.97607421875 948.682556152344 950.171264648438 952.397827148438 945.862915039062 948.283264160156 946.560607910156 940.668334960938 941.240417480469 951.724548339844 950.319763183594 953.161987304688 959.631164550781 959.979919433594 962.127990722656 963.536560058594 960.4599609375 959.976684570312 954.246765136719 954.705688476562 955.076354980469 962.991821289062 962.80712890625 962.436950683594 968.038818359375 968.305419921875 969.28564453125 972.722045898438 959.957946777344 958.356689453125 962.154846191406 959.512084960938 953.956665039062 960.105895996094 967.032897949219 974.459777832031 969.493225097656 969.886474609375 965.428283691406 968.506652832031 978.822814941406 974.832397460938 975.148071289062 969.457946777344 966.166320800781 977.210632324219 982.383544921875 980.001586914062 981.202941894531 988.282653808594 989.018005371094 984.719360351562 973.620666503906 974.993896484375 974.584106445312 978.503234863281 988.010803222656 981.052551269531 978.570495605469 982.32568359375 986.126892089844 979.842956542969 976.927917480469 970.982177734375 969.450805664062 979.947265625 982.735961914062 980.333923339844 986.798583984375 989.530700683594 988.820922851562 991.872985839844 1000.47680664062 1006.32012939453 992.840881347656 986.317749023438 977.015319824219 985.841064453125 990.921875 996.674438476562 1002.08929443359 999.775024414062 1010.12353515625 1020.79815673828 1019.39495849609 1018.17681884766 1012.67199707031 1010.39794921875 1009.55535888672 1017.91528320312 1020.45440673828 1019.02862548828 1024.74853515625 1032.73876953125 1034.92407226562 1030.16040039062 1036.01708984375 1039.09948730469 1050.38696289062 1048.482421875 1035.29040527344 1030.19128417969 1036.94677734375 1032.71142578125 1026.55383300781 1027.88012695312 1028.90283203125 1025.68933105469 1026.04602050781 1025.38854980469 1026.13012695312 1025.43103027344 1027.11193847656 1019.57702636719 1023.26440429688 1016.89349365234
959.329040527344 956.665161132812 954.816772460938 951.784790039062 959.870727539062 961.300842285156 966.140258789062 964.769226074219 960.614135742188 957.715087890625 958.560607910156 944.165466308594 939.750610351562 947.820007324219 947.280212402344 942.829528808594 945.573425292969 939.638244628906 939.048400878906 943.386596679688 941.779846191406 939.059143066406 940.870178222656 945.344482421875 940.263793945312 935.123413085938 944.638916015625 945.019897460938 946.649047851562 950.243957519531 950.672119140625 949.501220703125 946.71240234375 951.008361816406 941.757751464844 941.517761230469 942.117919921875 953.898742675781 953.519348144531 955.811767578125 948.173706054688 942.439392089844 942.710510253906 951.197204589844 954.272827148438 960.424682617188 962.979187011719 956.891296386719 972.311767578125 974.240783691406 965.499145507812 972.163513183594 962.764465332031 973.50927734375 964.55615234375 957.787048339844 967.825927734375 962.633361816406 968.85693359375 972.572570800781 981.7900390625 973.925842285156 962.985534667969 958.702453613281 960.044494628906 963.345825195312 959.175537109375 960.989440917969 961.971069335938 969.832885742188 974.2109375 968.626037597656 964.229064941406 973.075378417969 975.797485351562 974.164184570312 980.598510742188 968.456970214844 979.196166992188 979.080749511719 983.047668457031 982.825012207031 978.807373046875 983.800659179688 986.046325683594 982.071166992188 979.512390136719 982.428283691406 981.174621582031 971.755615234375 985.983825683594 985.330810546875 978.957458496094 981.328186035156 985.029663085938 981.260559082031 983.555969238281 978.084777832031 971.092407226562 977.598754882812 980.941040039062 986.215881347656 986.506164550781 987.443054199219 986.233825683594 990.426452636719 989.507873535156 998.097412109375 998.826721191406 985.50830078125 990.083435058594 991.388916015625 991.908874511719 1000.47796630859 1003.33111572266 1011.29260253906 1013.33520507812 1028.54638671875 1031.62194824219 1029.19555664062 1019.28271484375 1011.32653808594 1018.54339599609 1023.0927734375 1020.83758544922 1015.173828125 1017.38781738281 1026.97119140625 1033.86279296875 1036.095703125 1048.12780761719 1043.45568847656 1040.47741699219 1039.1806640625 1030.4658203125 1026.62512207031 1035.14489746094 1032.62927246094 1031.41333007812 1031.8076171875 1031.74108886719 1020.96447753906 1021.1181640625 1012.48712158203 1018.43542480469 1010.30133056641 1013.92102050781 1012.04425048828 1016.07440185547 1015.47076416016
954.068176269531 950.130920410156 947.319946289062 954.807189941406 959.412353515625 954.82958984375 964.712280273438 963.858825683594 969.962524414062 959.104248046875 958.969482421875 953.451843261719 940.813293457031 942.666137695312 941.677185058594 942.214294433594 939.420227050781 937.586120605469 936.236877441406 941.70068359375 939.270141601562 949.35986328125 936.684143066406 934.4541015625 940.069580078125 941.532043457031 937.919006347656 946.476440429688 946.728454589844 945.180603027344 948.638000488281 948.232421875 945.526977539062 945.292785644531 943.976135253906 941.918212890625 947.873168945312 948.065368652344 952.087158203125 951.883056640625 953.402893066406 946.85205078125 948.44921875 944.606140136719 958.184509277344 972.255493164062 973.176696777344 974.788818359375 977.371765136719 977.687866210938 964.596984863281 964.809997558594 961.843627929688 967.914428710938 971.220336914062 964.675659179688 977.378967285156 973.581359863281 974.12158203125 979.565063476562 979.033203125 977.169006347656 963.167236328125 956.773254394531 963.060119628906 964.79541015625 963.685729980469 964.201171875 973.522399902344 975.686462402344 972.017944335938 971.053344726562 968.52099609375 972.651306152344 982.606384277344 972.568969726562 984.579650878906 971.631713867188 974.567077636719 972.994812011719 963.398315429688 971.29052734375 970.623779296875 981.013671875 986.391357421875 984.881103515625 987.883239746094 982.784545898438 986.072387695312 980.900146484375 982.531372070312 978.036315917969 969.368286132812 973.124816894531 977.136840820312 981.140563964844 976.365600585938 967.3310546875 975.532836914062 977.661865234375 984.053344726562 981.667175292969 984.318542480469 983.657287597656 994.699279785156 987.0986328125 992.406372070312 997.30908203125 998.967895507812 997.566833496094 993.918579101562 1001.78668212891 1000.34094238281 1005.15911865234 1014.06097412109 1011.97564697266 1025.73181152344 1028.79174804688 1028.46411132812 1021.61437988281 1028.97680664062 1025.79809570312 1022.56091308594 1023.42486572266 1023.58636474609 1027.86047363281 1025.48168945312 1027.84912109375 1035.87316894531 1023.96966552734 1036.96081542969 1047.32421875 1049.14038085938 1042.244140625 1038.25439453125 1031.55712890625 1025.31811523438 1028.20275878906 1030.44262695312 1036.40185546875 1027.85974121094 1026.85485839844 1025.53967285156 1025.21899414062 1010.47674560547 1008.13153076172 1012.51239013672 1007.34222412109 1014.86694335938 1014.17962646484
950.217712402344 951.648010253906 948.421691894531 957.901794433594 958.836853027344 957.417297363281 948.508239746094 948.454223632812 953.018188476562 951.509033203125 948.742492675781 943.039001464844 930.390197753906 943.579223632812 938.9306640625 935.751525878906 938.774719238281 941.458740234375 942.9580078125 942.47802734375 948.970520019531 942.193969726562 941.560302734375 940.915710449219 944.3671875 946.653625488281 942.101989746094 942.717102050781 945.219848632812 948.640197753906 947.926940917969 946.166748046875 942.392883300781 944.700805664062 945.900939941406 948.539123535156 950.038330078125 945.138916015625 953.248352050781 958.319641113281 955.640197753906 958.604309082031 957.040649414062 953.218200683594 968.2294921875 977.063293457031 982.379028320312 978.074645996094 974.308776855469 973.54150390625 972.893615722656 976.283386230469 968.602416992188 960.2470703125 970.68798828125 971.403015136719 971.909790039062 979.760192871094 975.592590332031 983.7138671875 980.104553222656 969.478088378906 959.942749023438 953.238342285156 962.425842285156 960.156433105469 959.153381347656 971.058776855469 968.981201171875 969.324768066406 970.950988769531 979.633361816406 979.871032714844 988.033813476562 984.53466796875 977.291137695312 980.942504882812 977.5634765625 977.013732910156 976.754089355469 971.197204589844 967.517333984375 972.792175292969 979.945678710938 983.012145996094 984.796081542969 979.284423828125 984.340942382812 981.373168945312 977.979858398438 986.014038085938 976.9873046875 969.267028808594 969.950317382812 967.93603515625 986.179565429688 984.169067382812 980.029296875 976.626159667969 983.853942871094 984.160766601562 986.219787597656 980.479553222656 979.038391113281 990.341796875 996.44091796875 995.070251464844 1000.03759765625 993.000427246094 1003.98962402344 1006.95471191406 1003.17578125 1012.34869384766 1017.00805664062 1017.18426513672 1010.36193847656 1028.92712402344 1033.80163574219 1039.03625488281 1033.15771484375 1027.27954101562 1030.8779296875 1029.63061523438 1026.82604980469 1022.16583251953 1025.23107910156 1035.18005371094 1029.38452148438 1036.12377929688 1025.88256835938 1037.80151367188 1040.96813964844 1044.34008789062 1046.20971679688 1046.18432617188 1040.25305175781 1031.92993164062 1031.77465820312 1025.80334472656 1030.59216308594 1036.25805664062 1026.18908691406 1035.70629882812 1020.59252929688 1011.2880859375 1008.66009521484 1006.30651855469 1005.81799316406 1002.91052246094 1003.76446533203
950.006652832031 950.995849609375 952.955810546875 958.225830078125 966.845886230469 958.898742675781 949.218078613281 943.071228027344 944.308471679688 943.449951171875 936.085754394531 928.742248535156 932.606506347656 938.518493652344 939.627380371094 934.076477050781 947.707580566406 943.259521484375 941.69189453125 951.763000488281 945.060974121094 951.133544921875 951.091613769531 947.655578613281 955.918090820312 952.634643554688 943.808471679688 948.021179199219 956.264709472656 952.521057128906 948.402465820312 948.820434570312 953.106323242188 954.053894042969 948.726318359375 951.2470703125 958.970520019531 957.572448730469 954.788513183594 956.645202636719 954.920837402344 958.646545410156 955.590637207031 966.857177734375 976.5712890625 975.911743164062 976.566467285156 983.273315429688 974.869506835938 973.973205566406 977.846740722656 976.603637695312 976.178039550781 966.833129882812 972.379943847656 969.048583984375 974.537658691406 978.958129882812 975.547180175781 981.053771972656 980.413513183594 970.329345703125 955.687438964844 954.111938476562 958.602172851562 957.1103515625 962.031494140625 977.700256347656 972.296203613281 974.646118164062 960.838806152344 967.758483886719 984.627685546875 993.978271484375 989.939270019531 978.472045898438 977.4365234375 976.945617675781 976.722961425781 976.898559570312 983.549255371094 973.265075683594 973.245239257812 967.187927246094 987.902160644531 988.330932617188 984.675903320312 980.726440429688 986.328308105469 976.378173828125 981.122253417969 975.8271484375 969.603149414062 971.545837402344 973.038635253906 980.176574707031 991.021728515625 985.327026367188 990.228393554688 993.065795898438 987.351989746094 980.37353515625 976.418640136719 975.045532226562 984.585571289062 991.292175292969 997.138122558594 1002.77856445312 1000.09503173828 1006.37951660156 1012.20739746094 1019.60833740234 1023.94958496094 1021.72003173828 1027.70080566406 1022.33947753906 1030.00231933594 1032.17846679688 1036.74194335938 1041.126953125 1034.86437988281 1035.93725585938 1033.68347167969 1038.78601074219 1029.06262207031 1031.65844726562 1027.59545898438 1024.06579589844 1033.78515625 1028.09228515625 1034.18017578125 1042.07629394531 1041.11450195312 1040.83532714844 1039.33959960938 1045.17431640625 1043.14404296875 1035.39038085938 1038.19641113281 1036.33972167969 1027.37292480469 1028.03198242188 1032.05944824219 1025.7568359375 1015.52215576172 1008.48199462891 1001.63037109375 1001.10833740234 995.794616699219 999.999267578125
950.640991210938 949.247253417969 955.375244140625 948.881652832031 953.059814453125 962.245788574219 951.897583007812 943.006896972656 944.451110839844 938.832824707031 928.709167480469 925.873840332031 940.199584960938 942.984802246094 935.089965820312 936.054382324219 942.78369140625 945.501220703125 945.288879394531 953.65576171875 949.241821289062 950.426696777344 957.930297851562 955.991821289062 968.240905761719 960.391479492188 948.966247558594 955.683959960938 957.583068847656 955.679382324219 950.09326171875 957.626159667969 957.161804199219 955.397888183594 952.081115722656 949.596740722656 966.836486816406 965.411254882812 958.198913574219 956.485900878906 958.137634277344 963.733215332031 958.393615722656 965.661071777344 984.309997558594 992.1611328125 983.233459472656 987.603698730469 981.12060546875 984.650939941406 980.625183105469 980.860290527344 983.785339355469 974.011657714844 970.069519042969 974.5390625 969.849060058594 984.025024414062 983.715087890625 978.077758789062 974.620788574219 972.440734863281 963.516235351562 961.304992675781 960.172668457031 959.90234375 970.285461425781 973.429077148438 978.698974609375 984.747680664062 976.86083984375 975.49609375 982.341491699219 984.195068359375 985.018127441406 974.575378417969 976.071899414062 979.453674316406 982.3974609375 987.548706054688 986.114074707031 973.625549316406 976.167236328125 972.163330078125 981.353759765625 981.590942382812 982.538940429688 983.002014160156 982.660522460938 979.17724609375 969.546325683594 971.568176269531 972.235656738281 975.421813964844 975.282348632812 979.191833496094 994.482116699219 998.007751464844 985.587097167969 991.832397460938 992.0517578125 987.6728515625 990.971008300781 984.57958984375 995.133544921875 1002.4609375 1002.96624755859 1009.82678222656 1020.69622802734 1011.69610595703 1023.94970703125 1021.51245117188 1026.95568847656 1033.82360839844 1035.189453125 1030.06494140625 1032.73474121094 1032.71838378906 1031.83190917969 1041.86437988281 1047.61657714844 1038.99743652344 1045.03552246094 1036.13012695312 1033.94067382812 1018.72961425781 1023.93548583984 1023.83959960938 1026.50500488281 1022.42718505859 1027.78088378906 1035.23364257812 1032.60339355469 1029.18518066406 1031.23217773438 1042.82666015625 1045.93298339844 1044.84924316406 1038.56823730469 1029.19091796875 1019.72796630859 1025.02307128906 1029.47448730469 1023.01806640625 1014.31854248047 1010.27917480469 1003.44372558594 998.615356445312 1001.58044433594 989.149719238281
954.9345703125 948.286010742188 941.741638183594 946.697265625 960.119567871094 956.681335449219 949.566528320312 940.918151855469 936.225036621094 937.326599121094 929.848327636719 941.691711425781 957.268676757812 946.888305664062 935.838073730469 935.387939453125 945.01806640625 942.434448242188 954.86083984375 958.89208984375 962.193420410156 966.488708496094 961.984313964844 970.34375 974.175476074219 964.785461425781 959.663696289062 965.813537597656 958.095031738281 959.599304199219 965.086242675781 963.66943359375 964.351745605469 951.69189453125 950.344116210938 959.663696289062 955.745422363281 969.908081054688 967.72021484375 955.342895507812 959.429626464844 958.119750976562 967.707763671875 976.742492675781 983.708312988281 993.648010253906 989.897521972656 985.483581542969 986.745544433594 986.093627929688 990.206481933594 988.389587402344 980.950500488281 983.482543945312 974.756713867188 972.431030273438 977.395385742188 979.783874511719 979.785278320312 973.205139160156 968.840881347656 971.224792480469 967.284301757812 967.039245605469 956.919372558594 963.521484375 971.663818359375 976.673645019531 973.293701171875 977.700500488281 973.985961914062 978.318542480469 984.110534667969 979.321472167969 979.434936523438 978.906311035156 982.134216308594 986.415344238281 983.963256835938 991.641723632812 981.239318847656 977.081787109375 977.088195800781 971.493469238281 980.056030273438 988.992736816406 985.456909179688 983.533264160156 976.581726074219 977.266540527344 974.59423828125 971.964233398438 974.233642578125 981.853759765625 991.379333496094 993.5107421875 1001.00939941406 992.401916503906 989.127319335938 992.903076171875 994.48583984375 992.160400390625 989.821411132812 1002.43902587891 998.152404785156 1012.16845703125 1010.72497558594 1005.37841796875 1010.48217773438 1019.98706054688 1017.00860595703 1019.02416992188 1033.40710449219 1032.40673828125 1035.30065917969 1034.23571777344 1038.95825195312 1037.33312988281 1036.13757324219 1044.87756347656 1045.53259277344 1047.48205566406 1048.90100097656 1035.59387207031 1033.46228027344 1024.11572265625 1020.53802490234 1014.4296875 1022.50152587891 1029.35180664062 1027.65466308594 1029.11157226562 1030.75158691406 1023.58837890625 1028.8056640625 1040.82604980469 1046.09375 1042.91833496094 1040.24963378906 1020.19323730469 1016.12298583984 1015.76214599609 1018.01635742188 1020.89154052734 1019.30975341797 1013.91986083984 1006.23651123047 1001.51599121094 1001.20086669922 994.607543945312
952.522216796875 937.658264160156 945.554565429688 946.200378417969 947.077026367188 948.879089355469 939.28857421875 944.946960449219 936.390563964844 939.210632324219 938.997497558594 949.818603515625 955.288757324219 954.905456542969 953.230895996094 945.551635742188 945.936950683594 951.343322753906 954.582824707031 967.217529296875 969.84912109375 975.269226074219 976.69873046875 977.090637207031 970.793579101562 970.089294433594 953.206359863281 959.287963867188 956.648376464844 962.997314453125 963.024353027344 957.2939453125 954.577026367188 951.280822753906 955.649047851562 956.769775390625 966.598876953125 962.389465332031 966.326110839844 963.2783203125 966.495727539062 972.737731933594 971.629699707031 980.916931152344 986.664489746094 991.389587402344 986.557373046875 993.049987792969 987.66259765625 988.9697265625 989.529052734375 990.138916015625 984.244750976562 979.893737792969 972.116577148438 979.514465332031 983.766235351562 974.889709472656 972.853942871094 977.373352050781 974.488403320312 971.116577148438 964.484008789062 971.358276367188 961.257690429688 967.929931640625 970.019348144531 978.350708007812 984.227294921875 971.103271484375 977.0888671875 981.446594238281 985.57080078125 981.592163085938 984.833618164062 983.873413085938 983.943725585938 990.749877929688 980.934020996094 976.730529785156 978.325866699219 982.732971191406 982.5869140625 983.134704589844 983.476928710938 985.683898925781 993.5244140625 981.868835449219 977.4384765625 971.019714355469 977.295471191406 972.589416503906 975.296691894531 976.932556152344 993.585266113281 995.775573730469 999.212524414062 992.414306640625 988.754577636719 992.46044921875 998.170471191406 998.859008789062 998.856872558594 1000.12854003906 1003.79125976562 1005.18780517578 1011.56634521484 1010.86566162109 1017.93634033203 1016.89813232422 1021.96807861328 1020.21466064453 1027.83410644531 1033.11682128906 1029.91955566406 1034.52294921875 1044.94653320312 1036.84924316406 1037.25048828125 1050.05810546875 1050.6865234375 1053.39111328125 1039.20227050781 1037.7568359375 1033.97241210938 1033.98291015625 1021.08715820312 1014.59271240234 1007.30041503906 1013.82775878906 1020.20318603516 1021.00061035156 1030.19580078125 1024.66735839844 1032.15979003906 1041.7763671875 1033.03967285156 1034.55676269531 1026.01110839844 1021.23785400391 1006.94763183594 1008.41296386719 1016.50018310547 1016.53021240234 1023.14678955078 1015.56872558594 1000.646484375 994.758850097656 992.791442871094 990.335083007812
945.585693359375 938.373168945312 938.44580078125 936.77587890625 934.442565917969 937.039611816406 936.8154296875 940.198181152344 936.164367675781 938.554870605469 944.339599609375 950.887939453125 957.5126953125 949.590087890625 949.786560058594 953.211730957031 956.388427734375 963.669372558594 967.874389648438 972.634216308594 977.752197265625 985.1162109375 984.645568847656 988.128845214844 973.046813964844 967.371826171875 964.348022460938 965.299255371094 963.974426269531 965.588195800781 968.972961425781 950.245666503906 948.413879394531 960.874877929688 961.746887207031 964.589538574219 970.657043457031 969.503112792969 962.964111328125 966.325134277344 970.056274414062 978.544677734375 975.445983886719 989.186706542969 987.130859375 995.3154296875 997.102600097656 990.578308105469 992.133666992188 992.684936523438 991.522521972656 987.025390625 992.50634765625 988.58349609375 983.588256835938 988.797485351562 987.173889160156 975.244140625 973.504760742188 980.798889160156 979.649353027344 976.374328613281 968.541076660156 964.449951171875 965.156494140625 962.197021484375 977.781311035156 977.329345703125 982.128845214844 971.303527832031 980.459411621094 982.456359863281 980.361450195312 979.273986816406 971.956298828125 976.265991210938 983.408935546875 986.253173828125 981.534912109375 981.80517578125 973.597290039062 982.622009277344 982.182495117188 985.078674316406 988.750793457031 982.486755371094 978.845336914062 976.213928222656 962.170166015625 966.849731445312 977.055847167969 970.722351074219 981.085266113281 978.134155273438 982.420104980469 990.99560546875 992.945739746094 991.687438964844 990.463684082031 993.207580566406 995.254760742188 1006.30224609375 1004.94610595703 1007.56829833984 1003.98303222656 1008.93145751953 1019.82238769531 1026.9912109375 1027.19812011719 1019.07678222656 1013.91351318359 1018.23309326172 1027.10473632812 1032.60461425781 1031.24694824219 1030.74255371094 1038.70788574219 1040.69262695312 1040.65979003906 1049.75012207031 1047.13891601562 1056.87805175781 1043.99645996094 1046.24182128906 1045.794921875 1043.13366699219 1032.2587890625 1019.38543701172 1009.74908447266 1021.47369384766 1014.57122802734 1016.97045898438 1024.1123046875 1021.65100097656 1026.80090332031 1034.58544921875 1028.04345703125 1024.86889648438 1021.26513671875 1016.5712890625 1000.2822265625 1007.7587890625 1001.63159179688 1014.56219482422 1019.96801757812 1006.32470703125 999.423400878906 998.677795410156 996.070251464844 994.644165039062
944.666748046875 936.530700683594 938.25244140625 932.979125976562 948.762573242188 941.927856445312 940.390991210938 938.77587890625 937.825439453125 941.382690429688 942.39599609375 947.564147949219 957.228149414062 965.048583984375 956.611328125 954.049133300781 958.666137695312 964.205505371094 970.356140136719 974.903015136719 975.563781738281 987.148803710938 991.528259277344 988.638610839844 974.551147460938 974.694946289062 969.987670898438 965.784545898438 969.556457519531 966.248657226562 962.816955566406 956.522644042969 961.706481933594 966.412780761719 968.914367675781 964.837097167969 972.297241210938 971.992065429688 973.135681152344 974.25048828125 982.263854980469 984.674011230469 993.976989746094 994.661743164062 987.98876953125 993.288757324219 998.927307128906 999.206848144531 999.230590820312 1001.88684082031 999.066650390625 997.982482910156 994.0400390625 995.691650390625 995.972534179688 983.618591308594 983.124145507812 985.342346191406 980.369262695312 983.45654296875 982.352478027344 973.552124023438 972.998046875 972.274841308594 983.085205078125 983.303405761719 974.175598144531 980.816528320312 985.188049316406 976.901428222656 974.999877929688 974.038024902344 985.55029296875 988.394897460938 985.513549804688 981.836242675781 987.331665039062 987.984252929688 992.636779785156 984.760375976562 985.540344238281 979.873168945312 983.574890136719 988.997802734375 984.177612304688 984.968872070312 983.637084960938 980.371215820312 966.524597167969 973.606262207031 978.080505371094 969.492614746094 970.478576660156 974.339111328125 983.802124023438 993.761535644531 1004.07080078125 996.313110351562 998.304138183594 1001.07153320312 997.4990234375 1005.26391601562 1013.39312744141 1012.38507080078 1009.23028564453 1012.30310058594 1022.541015625 1029.92687988281 1020.21575927734 1020.83666992188 1015.3427734375 1020.20953369141 1022.43017578125 1030.43823242188 1024.47399902344 1035.05249023438 1030.35229492188 1035.81970214844 1040.16479492188 1045.50769042969 1046.69287109375 1055.32470703125 1047.17895507812 1049.27734375 1045.28735351562 1033.64624023438 1029.06506347656 1020.94226074219 1019.98785400391 1023.64636230469 1013.2109375 1015.23352050781 1022.10363769531 1019.84057617188 1023.28936767578 1023.38873291016 1024.44311523438 1016.47937011719 1015.01397705078 1016.44543457031 1009.88977050781 1004.31433105469 993.926635742188 1013.50573730469 1004.30676269531 1000.65216064453 1002.04803466797 998.919189453125 996.363098144531 1002.19702148438
945.308471679688 928.039672851562 934.268798828125 935.059020996094 938.741333007812 936.960205078125 944.39892578125 940.631286621094 944.75732421875 947.1181640625 941.986938476562 951.05517578125 959.572814941406 968.354309082031 971.847229003906 966.37646484375 951.279724121094 964.775146484375 966.582946777344 981.874328613281 978.974609375 987.637939453125 996.737487792969 998.173828125 988.283752441406 980.56689453125 976.838439941406 973.868286132812 970.71630859375 957.814025878906 966.068725585938 963.119018554688 965.675476074219 962.725830078125 971.890441894531 969.669616699219 969.095397949219 975.027893066406 984.909484863281 989.484619140625 995.328186035156 996.89013671875 1000.22119140625 996.101989746094 999.732666015625 997.583801269531 992.629455566406 1001.46350097656 1001.9423828125 1003.47247314453 996.272277832031 1003.56359863281 1001.27410888672 1004.0986328125 989.252868652344 992.060241699219 996.957153320312 985.275268554688 984.213256835938 979.988647460938 988.103149414062 978.2119140625 969.858337402344 977.390808105469 982.775939941406 985.208129882812 979.962829589844 982.730102539062 982.122741699219 982.925964355469 977.894287109375 982.338684082031 983.500244140625 991.38525390625 994.982421875 987.755126953125 991.28662109375 990.524780273438 992.085510253906 984.510620117188 980.083374023438 981.344909667969 988.026123046875 986.837951660156 985.837646484375 979.156311035156 973.945617675781 977.114501953125 973.172302246094 978.239013671875 979.813110351562 970.716674804688 970.051696777344 980.250549316406 984.374328613281 992.506652832031 999.876098632812 1000.28918457031 998.6669921875 1008.30847167969 1012.82531738281 1007.22119140625 1011.12573242188 1011.259765625 1012.67987060547 1017.72717285156 1024.39770507812 1029.68395996094 1031.05969238281 1026.92199707031 1020.23974609375 1030.10424804688 1017.09710693359 1028.73828125 1033.85766601562 1032.09777832031 1032.59155273438 1027.2646484375 1034.26745605469 1034.80261230469 1044.57275390625 1051.25146484375 1048.73498535156 1032.74096679688 1031.25390625 1028.05822753906 1024.13598632812 1016.279296875 1026.61120605469 1013.19995117188 1012.36090087891 1016.89556884766 1016.82763671875 1010.44470214844 1022.20574951172 1016.65704345703 1014.58337402344 1013.88690185547 1002.3720703125 998.056274414062 1006.67401123047 994.800109863281 996.33837890625 996.663208007812 997.396911621094 998.482788085938 1003.07348632812 1000.97174072266 994.904113769531 993.317932128906
937.928955078125 929.78662109375 929.814392089844 932.682495117188 936.8896484375 935.545227050781 932.215698242188 941.590515136719 945.023010253906 944.979614257812 950.227661132812 956.655029296875 960.637756347656 970.828857421875 976.852844238281 974.778930664062 959.864379882812 972.596435546875 974.002807617188 981.138549804688 979.437255859375 999.790954589844 999.519348144531 1002.80987548828 994.142944335938 984.125427246094 979.315734863281 970.669982910156 964.563049316406 965.763549804688 970.596557617188 971.2265625 966.888854980469 967.661987304688 975.206237792969 975.8359375 975.507568359375 983.506408691406 986.725708007812 994.631652832031 1000.39318847656 995.181945800781 1001.57189941406 998.997009277344 1001.17657470703 1009.41418457031 1005.12152099609 1005.89489746094 1007.56512451172 1003.62805175781 1003.62640380859 1004.35046386719 1007.07861328125 1004.083984375 992.85986328125 991.744140625 993.330322265625 990.889526367188 978.162902832031 981.316650390625 975.593383789062 979.954895019531 974.076904296875 979.06201171875 983.335083007812 994.296508789062 982.661193847656 970.373840332031 977.749450683594 978.996215820312 985.786254882812 993.667053222656 994.164611816406 990.015319824219 996.647644042969 991.449523925781 991.123596191406 992.811767578125 991.444519042969 997.683959960938 990.031555175781 975.988403320312 988.464111328125 986.808044433594 992.845947265625 978.645263671875 978.733459472656 983.261657714844 990.551635742188 985.314086914062 984.742614746094 977.85546875 975.491943359375 988.729309082031 986.7060546875 993.907531738281 988.117797851562 991.991271972656 998.561584472656 1001.07330322266 1010.71936035156 1003.59625244141 999.581726074219 1003.18200683594 1009.71844482422 1014.06048583984 1015.47039794922 1031.71606445312 1024.73547363281 1026.82849121094 1023.34118652344 1028.03002929688 1023.58996582031 1024.27514648438 1029.36022949219 1028.75134277344 1025.39819335938 1017.26953125 1021.09777832031 1034.36999511719 1035.27453613281 1040.51342773438 1044.0341796875 1031.23669433594 1030.45361328125 1023.17810058594 1019.13610839844 1013.00238037109 1011.81707763672 1007.85107421875 1010.63824462891 1008.08099365234 1011.14483642578 1019.07391357422 1013.62445068359 1020.81182861328 1013.22082519531 1007.00061035156 997.407043457031 988.22021484375 995.603210449219 991.302856445312 996.556579589844 994.103332519531 990.630920410156 997.610473632812 1000.47900390625 995.995849609375 1003.83361816406 1006.56628417969
934.286804199219 924.964660644531 931.857604980469 929.828674316406 934.423461914062 929.787658691406 938.857116699219 951.790649414062 955.33740234375 951.276184082031 948.803100585938 953.076293945312 966.167663574219 973.530395507812 983.891296386719 977.333374023438 969.113037109375 972.720153808594 973.724731445312 976.004699707031 980.350830078125 990.658081054688 1002.29302978516 1001.09423828125 993.127319335938 977.138793945312 976.199951171875 962.925170898438 963.442016601562 965.95947265625 959.43896484375 969.003295898438 978.428283691406 975.519836425781 973.237976074219 986.964904785156 990.946228027344 988.563110351562 993.316345214844 993.859069824219 1001.24633789062 1001.802734375 1000.17657470703 994.170104980469 1004.16143798828 1010.22906494141 1011.35955810547 1005.47631835938 1007.79541015625 1008.00347900391 1007.96752929688 1002.74353027344 1000.20770263672 996.840637207031 995.743591308594 990.349487304688 988.973266601562 985.448303222656 979.546752929688 972.276550292969 968.031799316406 979.119934082031 980.614807128906 976.037658691406 983.742309570312 980.394104003906 979.770324707031 972.503051757812 982.73486328125 988.339782714844 984.506591796875 977.871154785156 990.664916992188 994.388366699219 995.506774902344 999.292785644531 1000.31823730469 994.414978027344 998.333190917969 997.26123046875 990.262939453125 981.438903808594 982.937194824219 991.850952148438 988.299621582031 994.802612304688 992.571105957031 984.212829589844 983.718811035156 990.852416992188 980.16259765625 990.895446777344 987.417724609375 991.053955078125 991.599609375 995.527770996094 992.508178710938 995.226013183594 995.385131835938 1004.63360595703 1009.59240722656 1001.02471923828 1000.07263183594 1012.50720214844 1016.8193359375 1019.65466308594 1020.37408447266 1030.32507324219 1031.82312011719 1032.1708984375 1031.92919921875 1030.09851074219 1034.28369140625 1026.97106933594 1021.01531982422 1020.86218261719 1021.25872802734 1018.17620849609 1013.51098632812 1028.56066894531 1024.13024902344 1035.08471679688 1025.52282714844 1026.99975585938 1028.40881347656 1021.83404541016 1020.46728515625 1009.78448486328 1003.80090332031 1006.69018554688 1008.65222167969 1006.06231689453 1004.52807617188 1015.55889892578 1013.03594970703 1019.21258544922 1014.74584960938 1000.60412597656 997.811462402344 994.530090332031 989.637878417969 998.128540039062 990.942504882812 986.565307617188 990.882873535156 986.116333007812 991.376586914062 992.46337890625 998.358459472656 998.088500976562
926.847412109375 925.749206542969 932.91162109375 941.021606445312 943.204528808594 941.692199707031 948.242309570312 950.8330078125 952.0595703125 942.616577148438 949.438720703125 956.817810058594 959.400329589844 976.721740722656 979.435607910156 978.570678710938 972.240173339844 980.914245605469 975.631164550781 976.223937988281 978.492980957031 993.480529785156 995.506408691406 990.122253417969 986.632507324219 987.388305664062 973.930297851562 965.310668945312 970.825317382812 967.99169921875 964.858581542969 972.486633300781 986.192260742188 975.817138671875 981.059936523438 990.671020507812 988.033386230469 992.012023925781 989.078796386719 993.070617675781 996.182800292969 1001.51354980469 1007.91149902344 1006.09606933594 1007.78625488281 1017.09692382812 1018.27612304688 1006.29083251953 1013.85913085938 1002.39526367188 1010.85083007812 1011.37969970703 1003.23175048828 996.330749511719 990.219116210938 990.881591796875 982.687377929688 989.090576171875 978.369262695312 972.557922363281 972.007019042969 987.679077148438 978.439453125 973.871215820312 978.615112304688 979.883666992188 972.852600097656 981.597717285156 975.170227050781 975.669128417969 974.248657226562 982.515441894531 990.036499023438 995.650634765625 1001.06311035156 1008.19317626953 1005.29302978516 999.031921386719 992.910034179688 994.985961914062 988.340637207031 989.211181640625 994.372436523438 994.716491699219 1001.57019042969 998.703491210938 996.095397949219 989.033203125 989.548156738281 990.450500488281 994.261047363281 988.1376953125 995.646850585938 994.306884765625 1001.93884277344 994.27880859375 991.8388671875 1001.04541015625 1003.5986328125 1003.51916503906 1012.15246582031 1011.01409912109 1016.23443603516 1017.47918701172 1017.48956298828 1014.64233398438 1022.58416748047 1032.63354492188 1036.92065429688 1025.94445800781 1030.25512695312 1032.42761230469 1040.91833496094 1035.37670898438 1023.52337646484 1021.54162597656 1020.38488769531 1015.53411865234 1017.34552001953 1023.21948242188 1021.34930419922 1021.77801513672 1022.46282958984 1016.18395996094 1028.55346679688 1022.48889160156 1015.11810302734 1008.03625488281 998.308349609375 997.82373046875 1001.83557128906 1001.84252929688 1012.70886230469 1015.80700683594 1015.30023193359 1001.96771240234 1013.18969726562 1002.44525146484 996.253845214844 992.43994140625 994.473266601562 991.111633300781 989.292785644531 983.542236328125 985.440551757812 983.964111328125 987.294067382812 989.144104003906 990.699645996094 994.175598144531
925.925903320312 926.929504394531 935.615478515625 937.675842285156 941.583618164062 941.514526367188 953.256591796875 945.947937011719 951.660766601562 945.113098144531 957.567199707031 954.673034667969 961.28955078125 971.107604980469 983.423095703125 981.985168457031 968.089233398438 971.009643554688 975.357666015625 981.814086914062 983.651489257812 987.554992675781 991.394409179688 989.397155761719 985.625305175781 981.701904296875 978.36767578125 975.154846191406 971.674011230469 967.759094238281 970.228271484375 975.062316894531 985.937683105469 990.062194824219 996.437927246094 996.616516113281 988.4697265625 986.766479492188 996.160400390625 989.142883300781 991.116088867188 1001.08001708984 1008.55462646484 1014.89318847656 1009.37194824219 1017.55462646484 1022.88555908203 1015.48620605469 1020.90814208984 1017.74450683594 1011.94317626953 1016.72210693359 1002.89312744141 993.078430175781 985.001647949219 983.736938476562 969.998291015625 975.822509765625 976.436706542969 973.333984375 970.517578125 974.781005859375 975.403625488281 978.50146484375 974.905883789062 978.077697753906 975.080261230469 979.928344726562 972.267517089844 974.976867675781 985.226684570312 993.575378417969 992.685485839844 995.91796875 991.497924804688 996.158325195312 1006.08526611328 1000.54974365234 1004.10443115234 1000.64599609375 996.269775390625 1003.83245849609 1010.91741943359 1010.35046386719 1000.73846435547 995.907409667969 990.616638183594 990.006469726562 991.107666015625 989.037536621094 1002.578125 996.693969726562 996.9755859375 984.012939453125 993.358520507812 989.950927734375 990.177917480469 991.958801269531 1002.00073242188 1007.05249023438 1013.68341064453 1001.81341552734 1008.49951171875 1020.4697265625 1024.53735351562 1020.51037597656 1030.73095703125 1030.98864746094 1039.30261230469 1031.83117675781 1036.60119628906 1036.7255859375 1037.90844726562 1033.88977050781 1023.52496337891 1027.10144042969 1027.99377441406 1020.43316650391 1021.70373535156 1020.69976806641 1023.93640136719 1021.81268310547 1021.34484863281 1021.84808349609 1014.1591796875 1022.75073242188 1024.05859375 1017.98907470703 1000.99786376953 996.370178222656 999.761596679688 1005.55450439453 1002.95190429688 1003.46215820312 1007.58801269531 995.503967285156 1000.67211914062 1005.57110595703 1004.70318603516 1000.03094482422 1000.07147216797 1003.05902099609 990.884155273438 985.0341796875 989.183715820312 987.554260253906 983.48583984375 988.194885253906 981.887451171875 992.334045410156
935.621337890625 927.792846679688 930.520874023438 924.884216308594 935.529541015625 938.404663085938 941.552612304688 940.086242675781 945.322265625 949.806945800781 954.9775390625 962.559143066406 970.400207519531 981.370666503906 985.581970214844 981.381713867188 971.748901367188 966.589416503906 968.177734375 967.809631347656 972.954467773438 981.903503417969 987.581115722656 990.466186523438 989.280334472656 985.055480957031 981.016235351562 978.740356445312 977.785827636719 971.954345703125 980.284240722656 977.314819335938 987.039855957031 985.469604492188 993.967041015625 987.185852050781 984.035461425781 993.974182128906 994.515686035156 994.186401367188 996.825073242188 1003.62426757812 1018.38397216797 1016.43609619141 1012.92974853516 1012.78814697266 1021.74676513672 1020.20593261719 1014.74822998047 1012.13659667969 1016.90869140625 1019.79455566406 998.095581054688 985.536987304688 987.168334960938 980.852111816406 981.854064941406 982.088928222656 978.45947265625 974.742919921875 979.661315917969 984.179565429688 986.573547363281 971.474853515625 971.08935546875 979.548278808594 980.565551757812 970.901794433594 978.166931152344 988.891479492188 997.315124511719 990.491821289062 997.325561523438 997.681396484375 989.89892578125 993.270446777344 994.312255859375 1008.45086669922 1009.62890625 1014.25482177734 1006.05352783203 1001.10321044922 1015.70501708984 1015.39068603516 1001.37969970703 992.864868164062 992.528015136719 996.439514160156 987.326416015625 986.623901367188 992.9404296875 994.733581542969 990.877990722656 990.815185546875 991.640808105469 977.426025390625 984.919677734375 996.958129882812 1001.55578613281 994.547790527344 997.517944335938 1000.49725341797 1004.28887939453 1016.69946289062 1017.58801269531 1019.36224365234 1024.33618164062 1025.86218261719 1038.07116699219 1036.77026367188 1036.7294921875 1034.2705078125 1033.28637695312 1031.02258300781 1030.28967285156 1034.71716308594 1031.07177734375 1023.01568603516 1022.84008789062 1022.24713134766 1025.95825195312 1023.11297607422 1026.92651367188 1013.54730224609 997.627807617188 1004.61700439453 1007.73077392578 998.982421875 996.246032714844 1000.21594238281 1000.6435546875 998.011352539062 1004.47863769531 1010.41235351562 1010.74066162109 1012.42840576172 1003.9970703125 1000.50103759766 1008.154296875 1000.05212402344 1006.61785888672 1002.19171142578 1007.12268066406 992.362731933594 993.133361816406 984.565612792969 983.653137207031 986.107238769531 987.909790039062 981.672607421875
940.817260742188 939.100708007812 929.611206054688 930.61181640625 934.324829101562 933.033325195312 938.30908203125 948.163208007812 947.594665527344 956.610046386719 962.009582519531 969.566772460938 969.759338378906 977.540100097656 981.890319824219 976.986206054688 971.105041503906 972.843322753906 974.088745117188 968.268249511719 973.073913574219 983.37158203125 988.236206054688 986.228515625 988.989440917969 986.241821289062 985.081787109375 977.731262207031 981.635681152344 984.316833496094 983.053161621094 980.770202636719 985.596252441406 981.682739257812 986.267150878906 991.392578125 990.42431640625 997.327270507812 1003.13092041016 1008.50677490234 1008.10479736328 1014.02337646484 1012.52185058594 1011.9169921875 1008.51879882812 1016.67211914062 1017.86352539062 1022.15258789062 1016.40979003906 1014.12384033203 1010.14404296875 1009.63073730469 997.475341796875 994.510803222656 985.915222167969 985.902160644531 982.540832519531 978.393859863281 982.330993652344 981.203491210938 979.473815917969 984.675109863281 984.491455078125 974.226257324219 969.607666015625 977.615234375 980.922180175781 976.155395507812 976.45263671875 986.026489257812 999.272033691406 996.1650390625 988.641540527344 990.134155273438 992.511657714844 989.489013671875 994.991394042969 1005.45629882812 1004.54107666016 1012.15209960938 1008.06530761719 1004.95751953125 1009.15716552734 1006.49829101562 1004.70568847656 996.086975097656 996.813781738281 1002.73663330078 1000.17266845703 994.651611328125 991.555480957031 988.264831542969 994.199340820312 991.985290527344 990.438049316406 986.361022949219 982.461730957031 995.022827148438 993.996765136719 992.250671386719 996.22998046875 1000.77478027344 1008.97033691406 1004.50341796875 1024.052734375 1025.78955078125 1023.88165283203 1031.62170410156 1035.41345214844 1034.0546875 1033.83996582031 1037.70031738281 1038.48107910156 1034.52978515625 1036.22607421875 1036.67504882812 1032.56848144531 1029.55859375 1029.94189453125 1019.86474609375 1018.48083496094 1018.95007324219 1018.16546630859 1012.67791748047 1007.94427490234 1006.65246582031 1000.00299072266 999.129821777344 997.388610839844 1005.3154296875 1005.13494873047 1003.29040527344 1005.59436035156 1005.61480712891 1005.72589111328 1001.99536132812 995.77978515625 1000.18322753906 1001.14508056641 1007.47406005859 1003.06707763672 994.1279296875 989.999877929688 988.290771484375 991.865600585938 983.197937011719 984.257690429688 982.022521972656 981.795715332031 990.243835449219
943.167236328125 940.539733886719 942.008117675781 939.917907714844 936.368713378906 939.229858398438 940.120666503906 940.138854980469 951.946594238281 955.956481933594 956.300048828125 960.791442871094 960.95849609375 977.120422363281 972.99560546875 977.5546875 974.169006347656 974.140319824219 972.036071777344 962.568298339844 966.619934082031 975.53564453125 978.809387207031 981.718200683594 991.608276367188 994.752075195312 987.140563964844 979.172546386719 973.404418945312 989.120788574219 987.759521484375 982.026428222656 987.477783203125 989.855712890625 980.994934082031 988.558410644531 985.694519042969 993.792785644531 996.40478515625 1006.15093994141 1002.37445068359 1006.78210449219 1006.62017822266 1008.38140869141 1013.87902832031 1017.57629394531 1019.13940429688 1024.95349121094 1016.30322265625 1009.74792480469 1005.43280029297 1000.12530517578 1002.52899169922 1000.36285400391 994.41845703125 988.484924316406 988.17333984375 983.750549316406 980.793762207031 992.588623046875 974.941162109375 982.147888183594 975.487060546875 972.746887207031 976.259643554688 977.995727539062 978.699523925781 970.941162109375 970.537841796875 980.2734375 989.015319824219 988.605590820312 991.801086425781 988.635009765625 989.579711914062 989.821960449219 994.786865234375 1004.50512695312 1015.84136962891 1008.84240722656 1009.6103515625 1011.9130859375 1011.85308837891 1009.50158691406 1006.92590332031 1007.82366943359 1004.12219238281 1002.81420898438 993.469482421875 992.149353027344 987.368469238281 1000.95867919922 995.179626464844 996.472106933594 987.817810058594 986.54345703125 997.062561035156 997.547668457031 989.697082519531 992.440551757812 1007.32891845703 1003.05944824219 1010.01605224609 1019.30096435547 1020.92163085938 1026.166015625 1026.70727539062 1025.51940917969 1032.93823242188 1036.34814453125 1040.84289550781 1033.98083496094 1036.177734375 1042.24548339844 1038.65185546875 1039.85827636719 1030.90771484375 1026.72265625 1027.125 1024.0478515625 1018.88098144531 1012.00366210938 1021.04553222656 1015.54516601562 1006.58709716797 997.930053710938 994.088073730469 993.906311035156 999.68212890625 1005.11938476562 1002.70928955078 994.183898925781 998.894714355469 1007.47924804688 1008.9326171875 1001.39727783203 993.576904296875 993.733215332031 994.585815429688 992.854064941406 992.14013671875 990.008117675781 989.688842773438 988.656433105469 984.251525878906 979.247985839844 983.520690917969 981.289123535156 983.588989257812 976.613586425781
948.847229003906 943.613830566406 942.657775878906 940.170837402344 940.36767578125 940.605407714844 942.794494628906 935.7138671875 946.382141113281 964.127868652344 965.965270996094 962.153930664062 964.990905761719 974.434326171875 967.817687988281 966.46728515625 970.622619628906 972.878051757812 970.866516113281 964.000610351562 961.891296386719 970.323181152344 974.435302734375 975.715637207031 988.434875488281 988.675659179688 996.592224121094 981.186096191406 981.110595703125 982.575317382812 987.503295898438 998.174926757812 987.901672363281 987.558288574219 981.519653320312 987.960754394531 993.235717773438 997.31005859375 994.89208984375 987.478942871094 993.986022949219 994.259460449219 1001.02221679688 1005.45587158203 1013.51507568359 1022.64190673828 1020.30639648438 1019.32659912109 1018.51788330078 1012.06494140625 1015.44592285156 1007.94195556641 1005.11016845703 1001.42126464844 1000.10028076172 995.06298828125 985.053894042969 983.586181640625 984.562744140625 985.66943359375 988.047058105469 977.2099609375 978.148986816406 989.182739257812 975.490966796875 973.054748535156 973.052062988281 979.560607910156 981.340637207031 984.627319335938 973.084167480469 982.970947265625 992.651489257812 993.112182617188 994.383239746094 995.259521484375 996.80078125 999.908630371094 1004.953125 1004.83221435547 1001.90698242188 1013.19165039062 1011.45947265625 1005.61047363281 1007.36608886719 998.077941894531 1006.10638427734 998.949401855469 998.022399902344 988.191711425781 985.50537109375 990.365356445312 996.225952148438 1002.47479248047 998.269775390625 997.774536132812 991.91064453125 996.292785644531 988.935546875 991.08154296875 1003.95562744141 1007.30883789062 1007.76354980469 1016.90466308594 1021.70434570312 1019.95300292969 1019.947265625 1029.03698730469 1032.31335449219 1027.505859375 1033.82336425781 1035.509765625 1027.28967285156 1025.21618652344 1031.31225585938 1036.24450683594 1030.07836914062 1028.91796875 1026.62683105469 1024.2734375 1016.99060058594 1010.57098388672 1016.85717773438 1018.05560302734 1004.41882324219 997.647216796875 996.914184570312 996.319152832031 1000.03137207031 1000.36108398438 999.623413085938 997.740661621094 995.761657714844 1004.62164306641 997.068786621094 996.808837890625 993.038330078125 994.351318359375 988.219299316406 989.602844238281 990.147277832031 995.759704589844 985.679321289062 988.180419921875 973.46044921875 971.8203125 982.533569335938 985.275634765625 983.624877929688 978.975646972656
954.7958984375 955.130859375 943.71240234375 945.603515625 948.059753417969 942.569641113281 936.69482421875 937.187927246094 949.736938476562 958.54736328125 965.743591308594 968.617858886719 958.71533203125 964.030822753906 959.824768066406 964.697326660156 968.204040527344 963.467712402344 964.77978515625 958.1943359375 962.121826171875 971.421142578125 977.71728515625 970.081787109375 978.206665039062 989.078308105469 991.194519042969 990.24365234375 978.080200195312 981.083068847656 993.024597167969 992.658630371094 981.934265136719 980.010009765625 985.961975097656 986.210815429688 986.7255859375 988.622741699219 993.604736328125 990.047424316406 986.807983398438 981.531677246094 991.296325683594 1006.80474853516 1016.90167236328 1007.84576416016 1008.0087890625 1015.20629882812 1017.50396728516 1017.42407226562 1005.49322509766 1001.71264648438 1006.09301757812 1002.83380126953 993.293334960938 995.319152832031 979.944274902344 986.074890136719 984.245300292969 985.336059570312 981.529968261719 978.285522460938 977.891723632812 976.049682617188 975.78125 974.061950683594 977.234252929688 979.964172363281 981.703430175781 979.030151367188 984.391784667969 985.300903320312 985.242370605469 991.062622070312 988.616638183594 993.434020996094 996.680969238281 999.311340332031 1000.99114990234 998.796325683594 1007.89624023438 1002.07214355469 1003.91870117188 1005.06164550781 1002.39642333984 1004.38549804688 1006.28039550781 1000.17016601562 1002.47955322266 996.824096679688 1002.46447753906 999.268859863281 1004.7939453125 997.929077148438 999.934509277344 1000.77642822266 1000.37072753906 1002.94964599609 1001.15997314453 1006.48162841797 1008.15447998047 1014.06701660156 1019.02191162109 1018.41320800781 1022.01550292969 1018.77136230469 1019.97570800781 1027.80285644531 1037.13439941406 1035.70166015625 1034.54895019531 1032.806640625 1036.04846191406 1036.35949707031 1037.03637695312 1040.74426269531 1036.44555664062 1034.31262207031 1029.66442871094 1023.19189453125 1016.98443603516 1016.82739257812 1015.35144042969 1012.31695556641 1004.15338134766 994.856567382812 1001.5224609375 992.445739746094 996.116943359375 995.546081542969 995.777587890625 986.0849609375 985.999084472656 996.731262207031 995.490417480469 996.262390136719 994.845520019531 986.120483398438 988.091857910156 989.982849121094 988.735656738281 995.344299316406 982.477111816406 986.139404296875 974.307800292969 975.45849609375 983.553649902344 983.937561035156 987.542785644531 982.099853515625
949.563232421875 950.926635742188 939.334716796875 942.081604003906 939.037536621094 946.699340820312 938.496215820312 928.502624511719 942.303588867188 951.96728515625 955.92529296875 962.290344238281 963.298767089844 960.373352050781 964.070678710938 959.411254882812 949.705261230469 958.707763671875 962.882751464844 964.456665039062 955.063171386719 963.758605957031 973.018615722656 971.91455078125 974.574096679688 979.600830078125 984.208618164062 979.53173828125 971.812194824219 976.068664550781 984.022094726562 978.33349609375 976.773071289062 978.12939453125 977.947631835938 977.37744140625 977.397399902344 988.510925292969 992.009582519531 982.607238769531 983.34619140625 976.568786621094 993.364501953125 999.691162109375 1004.74536132812 1011.83068847656 1006.54400634766 1010.57238769531 1007.09655761719 1002.28997802734 1003.908203125 998.923767089844 1005.41931152344 999.112670898438 996.213317871094 991.913330078125 994.054260253906 990.9677734375 982.68896484375 987.8125 977.721801757812 980.50830078125 978.860046386719 981.62939453125 978.611389160156 979.815612792969 982.049194335938 979.617431640625 977.326843261719 977.207885742188 981.681274414062 985.97412109375 987.822082519531 988.293029785156 983.211975097656 989.585876464844 988.585815429688 992.416870117188 994.032348632812 1003.83404541016 998.210083007812 1001.41326904297 1005.57525634766 1005.85241699219 1006.609375 1001.27581787109 997.980529785156 1002.51953125 1005.89770507812 998.348388671875 1005.45770263672 999.748046875 995.734497070312 1004.63525390625 999.811767578125 991.105651855469 996.274047851562 1009.09368896484 1006.56982421875 1007.72424316406 999.139038085938 1007.14617919922 1015.09832763672 1009.98352050781 1017.97131347656 1016.98596191406 1022.84869384766 1033.11267089844 1031.23352050781 1038.27734375 1037.5771484375 1036.2626953125 1045.34765625 1044.21374511719 1051.76293945312 1053.87744140625 1040.61083984375 1036.45068359375 1035.50341796875 1024.98461914062 1019.951171875 1014.13751220703 1012.03723144531 1010.39099121094 993.01953125 985.165832519531 986.939392089844 993.118835449219 994.457214355469 992.560546875 992.771911621094 994.095581054688 990.374389648438 993.0966796875 992.164184570312 1002.07409667969 992.989868164062 989.434143066406 981.590087890625 984.056579589844 993.156005859375 992.385681152344 976.639221191406 974.298034667969 972.890319824219 977.422607421875 979.976623535156 986.354309082031 985.882934570312 987.770263671875
941.531860351562 944.330200195312 934.812133789062 936.206237792969 938.150146484375 938.771301269531 935.903137207031 922.634887695312 932.603515625 939.225891113281 953.092468261719 946.858947753906 957.822143554688 958.048950195312 955.255187988281 952.495727539062 951.001220703125 961.342407226562 958.690124511719 960.795166015625 947.195556640625 951.686096191406 963.586853027344 967.462585449219 972.280700683594 977.931945800781 969.334533691406 973.147521972656 975.192749023438 972.808776855469 973.775207519531 979.355346679688 981.5986328125 980.092956542969 980.717407226562 973.9287109375 974.235168457031 984.752014160156 990.402587890625 977.25390625 972.780151367188 979.15185546875 984.832458496094 990.884155273438 1001.4287109375 1001.34204101562 1014.31024169922 1010.35919189453 1008.94647216797 1004.44366455078 1001.96099853516 1005.73455810547 1003.66375732422 1000.6748046875 993.899169921875 992.600036621094 994.473999023438 985.970031738281 982.972290039062 988.965270996094 985.409851074219 984.581665039062 981.600280761719 983.700988769531 980.922729492188 988.446655273438 985.883422851562 978.440185546875 982.021484375 989.220947265625 982.073181152344 985.37158203125 988.058410644531 998.510986328125 987.481811523438 988.346130371094 993.17919921875 985.776306152344 991.10595703125 1000.14782714844 997.708068847656 1000.55883789062 1002.68572998047 1010.75695800781 1007.15893554688 1012.66156005859 1008.1259765625 1006.37957763672 1015.08825683594 1000.23510742188 1002.96490478516 996.949584960938 998.923583984375 996.532348632812 1001.45336914062 1000.52142333984 1001.99243164062 1000.63861083984 1016.13751220703 999.51123046875 1000.43963623047 998.268371582031 1015.84759521484 1010.9091796875 1012.34558105469 1023.59686279297 1034.96606445312 1036.69116210938 1046.85864257812 1045.02966308594 1038.9619140625 1048.35205078125 1043.70568847656 1054.48803710938 1050.98425292969 1061.59216308594 1045.18688964844 1032.69519042969 1032.7900390625 1023.92602539062 1019.36737060547 1017.75158691406 1006.57507324219 1009.42749023438 1000.02270507812 987.979248046875 984.409606933594 990.460510253906 975.581726074219 984.677490234375 986.350036621094 994.288269042969 984.841552734375 990.574584960938 995.8466796875 994.117614746094 992.337829589844 985.793579101562 983.442687988281 978.427551269531 981.217041015625 977.802917480469 970.176391601562 971.163879394531 970.814636230469 984.948974609375 977.737609863281 983.214538574219 983.603759765625 987.601196289062
