NCOLS 150
NROWS 37
XLLCORNER 7394249
YLLCORNER 4843319
CELLSIZE 30
NODATA_VALUE -9999
963.022033691406 965.138854980469 967.375366210938 972.570678710938 972.100524902344 977.210693359375 979.216674804688 976.019897460938 978.613647460938 982.063171386719 973.342468261719 968.325256347656 967.510559082031 967.170166015625 965.189147949219 960.1904296875 965.278442382812 970.759582519531 969.190246582031 973.713134765625 981.136657714844 980.240051269531 978.470886230469 980.742309570312 998.046264648438 1011.26324462891 1000.21746826172 1019.42950439453 1018.79467773438 1026.7138671875 1018.69256591797 1020.57098388672 1013.13061523438 1010.68658447266 1022.21392822266 1028.59228515625 1026.45129394531 1024.90283203125 1032.55615234375 1031.57202148438 1038.01782226562 1039.40698242188 1040.79223632812 1040.30407714844 1031.57775878906 1025.42663574219 1019.53204345703 1010.69317626953 999.945190429688 1006.10803222656 1007.15454101562 1004.7099609375 1001.86700439453 1003.67999267578 1010.78649902344 1017.55590820312 1013.88580322266 1026.24438476562 1017.04632568359 1022.17486572266 1019.00396728516 1017.05590820312 1019.01885986328 1026.40576171875 1022.81530761719 1025.54028320312 1017.51037597656 1023.68872070312 1025.76013183594 1023.76422119141 1017.33612060547 1025.15270996094 1030.80090332031 1021.02166748047 1019.81964111328 1014.70562744141 1018.49798583984 1011.31524658203 1025.65161132812 1020.51849365234 1015.46893310547 1015.958984375 1025.38330078125 1027.28527832031 1018.86492919922 1013.46514892578 999.481018066406 997.773010253906 1003.55657958984 1000.19494628906 1005.75769042969 1001.24353027344 997.638366699219 1003.01153564453 1003.43292236328 990.694580078125 988.147033691406 988.548095703125 999.695068359375 992.058166503906 988.974731445312 990.085632324219 996.603698730469 1004.291015625 1005.34002685547 1004.17541503906 998.286560058594 994.087829589844 989.481262207031 975.085021972656 971.658142089844 955.217407226562 954.645446777344 942.630065917969 931.315490722656 930.430725097656 927.241455078125 926.436645507812 930.490417480469 938.52392578125 955.629333496094 963.296936035156 971.682006835938 982.858520507812 987.305969238281 989.590087890625 997.149353027344 1019.14532470703 1024.13732910156 1029.78955078125 1032.05834960938 1042.51965332031 1043.68310546875 1047.87036132812 1053.9873046875 1054.71862792969 1060.53820800781 1069.70776367188 1068.21423339844 1074.66101074219 1078.07385253906 1081.24084472656 1094.24560546875 1101.58740234375 1102.96154785156 1102.55712890625 1101.27001953125 1103.92431640625 1102.78186035156 1109.07922363281
961.039428710938 957.183959960938 963.991149902344 956.784362792969 960.698852539062 968.047180175781 974.131896972656 972.195678710938 972.962097167969 972.202758789062 966.747375488281 965.487548828125 958.46630859375 961.802795410156 958.991271972656 960.099914550781 962.417785644531 969.677734375 975.020202636719 979.0146484375 976.257446289062 969.903503417969 976.566345214844 986.105712890625 994.158508300781 1001.61999511719 1000.49816894531 1004.19555664062 1009.27697753906 1015.19049072266 1017.22521972656 1012.57904052734 1013.88763427734 1009.40167236328 1016.71575927734 1020.31622314453 1029.39794921875 1023.30877685547 1019.697265625 1022.26568603516 1032.30212402344 1033.67810058594 1037.13244628906 1035.24291992188 1028.96838378906 1014.82934570312 1013.38916015625 1005.28173828125 996.222595214844 1007.07006835938 1002.87072753906 1002.83697509766 993.727233886719 991.554260253906 1001.513671875 1012.90710449219 1013.05450439453 1013.06231689453 1014.15319824219 1017.14050292969 1018.10186767578 1021.11083984375 1022.6591796875 1018.95642089844 1014.54962158203 1022.17431640625 1026.86987304688 1029.11376953125 1029.74963378906 1026.01879882812 1022.19097900391 1022.61926269531 1021.47998046875 1021.79052734375 1026.58386230469 1012.90936279297 1005.23095703125 1018.99310302734 1017.34204101562 1019.78125 1020.20355224609 1021.61663818359 1011.35974121094 1014.77203369141 1018.20288085938 1011.42791748047 1008.90948486328 1001.68548583984 1003.18560791016 1010.52374267578 1015.49517822266 1019.45239257812 1013.15979003906 1015.96435546875 1017.06311035156 1009.13128662109 1004.50384521484 1000.25256347656 1004.27795410156 996.063171386719 990.385131835938 985.300109863281 995.761169433594 1002.58740234375 1013.66632080078 1008.95288085938 1001.5224609375 995.727966308594 987.340515136719 985.038696289062 968.668884277344 944.984924316406 945.251953125 942.581115722656 938.202819824219 938.586608886719 940.413879394531 937.113342285156 937.078308105469 939.598999023438 963.743957519531 971.985595703125 987.301147460938 989.937866210938 990.943664550781 996.292785644531 1010.25891113281 1010.24389648438 1017.92407226562 1032.10437011719 1032.93762207031 1035.78295898438 1039.31384277344 1045.55249023438 1056.16528320312 1049.23986816406 1063.31396484375 1073.11657714844 1085.41833496094 1072.96948242188 1080.04248046875 1075.80603027344 1091.34008789062 1090.53088378906 1095.40026855469 1097.14819335938 1098.02978515625 1096.36389160156 1098.74841308594 1105.36071777344
964.404418945312 952.205505371094 965.3544921875 966.322998046875 958.618225097656 964.830139160156 958.191589355469 965.219177246094 960.574462890625 953.571228027344 961.732788085938 955.652648925781 964.044616699219 961.4560546875 953.096496582031 955.470153808594 964.444213867188 966.846008300781 969.278137207031 971.018127441406 970.405029296875 976.619750976562 984.792907714844 989.589477539062 988.058715820312 992.019165039062 993.5771484375 997.638671875 997.893981933594 1005.43304443359 1008.77380371094 1009.10290527344 1014.70733642578 1008.72119140625 1016.32580566406 1025.34118652344 1019.72918701172 1019.42956542969 1020.94976806641 1022.869140625 1028.50573730469 1034.17810058594 1040.96997070312 1034.4560546875 1022.63232421875 1006.35467529297 1005.60052490234 1008.90673828125 1002.14520263672 998.997863769531 999.000793457031 985.281066894531 982.678283691406 990.270202636719 1000.9736328125 1004.98919677734 1005.208984375 1007.93054199219 1008.61614990234 1016.83099365234 1009.92510986328 1007.94506835938 1011.03668212891 1015.64990234375 1020.47283935547 1025.96887207031 1025.96752929688 1026.93481445312 1028.24523925781 1023.42315673828 1028.03295898438 1008.00128173828 1015.93682861328 1021.22930908203 1016.82739257812 1016.84210205078 1012.3662109375 1015.57110595703 1012.22760009766 1018.44622802734 1017.65905761719 1018.197265625 1018.77856445312 1020.7685546875 1015.87426757812 1011.92535400391 1014.68225097656 1014.39434814453 1019.45184326172 1016.13385009766 1022.39849853516 1020.71923828125 1023.36260986328 1021.73541259766 1024.130859375 1015.2255859375 1011.85772705078 1013.99456787109 1005.37713623047 997.625244140625 991.233825683594 996.718322753906 1002.90545654297 1002.75811767578 1015.99255371094 1017.53234863281 1004.00433349609 998.824096679688 992.315856933594 983.125610351562 965.228149414062 948.089904785156 945.241760253906 945.137451171875 937.394226074219 939.265075683594 945.650634765625 944.810791015625 951.140625 963.963684082031 973.75146484375 985.582824707031 990.661682128906 1003.20281982422 1000.07696533203 1015.79132080078 1017.05407714844 1023.49060058594 1026.43310546875 1029.03686523438 1041.99536132812 1042.791015625 1050.19372558594 1047.60656738281 1042.47351074219 1050.21765136719 1057.52111816406 1064.78625488281 1076.90905761719 1078.15515136719 1077.1611328125 1074.12548828125 1074.99597167969 1085.26684570312 1100.79772949219 1088.28015136719 1089.279296875 1099.02453613281 1099.33093261719 1108.44995117188
965.773010253906 961.595275878906 965.8564453125 962.146179199219 954.643737792969 951.366333007812 945.482666015625 947.841918945312 943.392517089844 943.830078125 949.675170898438 949.498962402344 953.115173339844 957.083557128906 957.848449707031 954.813781738281 963.866333007812 973.343078613281 976.423156738281 972.520690917969 963.312438964844 975.272216796875 983.351379394531 975.881042480469 985.090270996094 991.258239746094 996.313720703125 1008.58728027344 1000.82263183594 1007.85772705078 1007.35290527344 1006.06555175781 1003.16973876953 1005.22125244141 1010.86871337891 1019.04156494141 1020.27764892578 1010.84539794922 1022.53009033203 1029.69445800781 1024.18566894531 1028.18249511719 1026.287109375 1023.29382324219 1012.06378173828 1015.26275634766 1010.96563720703 1008.96112060547 1006.25927734375 1000.41302490234 994.43017578125 979.659545898438 985.892333984375 982.429016113281 997.117614746094 999.909606933594 1000.31726074219 1006.52282714844 1006.81030273438 1010.11962890625 1009.96429443359 1008.32574462891 1007.96374511719 1014.21600341797 1018.70251464844 1022.49237060547 1024.03625488281 1030.39514160156 1029.54711914062 1020.34460449219 1020.6318359375 1012.99798583984 1006.83715820312 1012.13073730469 1013.12133789062 1013.24407958984 1011.72998046875 1018.74664306641 1015.49603271484 1008.70941162109 1014.97644042969 1008.77203369141 1019.94519042969 1018.65106201172 1014.27990722656 1006.75030517578 1014.50421142578 1018.93316650391 1026.92041015625 1027.39111328125 1028.40270996094 1033.09729003906 1023.03430175781 1017.97637939453 1031.16003417969 1023.3251953125 1020.55187988281 1016.51824951172 1021.21588134766 1008.140625 1007.60339355469 1007.91137695312 1013.21942138672 1007.03228759766 1016.12091064453 1011.6279296875 1010.00646972656 1004.54040527344 994.153381347656 979.37548828125 966.825134277344 961.620971679688 949.902648925781 946.807800292969 942.338806152344 955.027038574219 949.184631347656 951.926513671875 965.982727050781 977.993591308594 988.862487792969 987.63623046875 994.455383300781 1011.46966552734 1012.91583251953 1017.68347167969 1022.91625976562 1036.58837890625 1037.94909667969 1045.14050292969 1049.52221679688 1052.32006835938 1043.36999511719 1054.14318847656 1048.29223632812 1047.17321777344 1058.91931152344 1061.7998046875 1071.34020996094 1073.90795898438 1071.6357421875 1076.6787109375 1076.76354980469 1087.56176757812 1085.8056640625 1097.40771484375 1092.07336425781 1093.00207519531 1087.755859375 1095.86486816406
951.820251464844 958.261413574219 961.832885742188 961.979919433594 954.44189453125 955.360595703125 948.110961914062 948.404357910156 953.316101074219 954.640563964844 952.445434570312 954.230285644531 959.083312988281 960.812377929688 956.322143554688 956.453674316406 963.442321777344 970.649169921875 986.594543457031 974.336303710938 968.330322265625 975.982788085938 974.431396484375 972.29541015625 983.345764160156 987.70263671875 994.015502929688 1002.88824462891 996.864990234375 995.186218261719 999.535278320312 1010.57751464844 1013.59106445312 1005.04949951172 1013.87774658203 1021.98779296875 1014.79919433594 1009.98101806641 1017.33056640625 1030.2294921875 1023.13885498047 1021.07189941406 1021.25299072266 1018.87554931641 1022.69470214844 1016.70642089844 1004.73583984375 995.377807617188 995.163879394531 999.208618164062 990.313537597656 985.209289550781 993.57373046875 993.963989257812 989.855407714844 986.689025878906 997.493103027344 1001.65972900391 1003.36541748047 998.161865234375 1001.25842285156 1020.96417236328 1007.17517089844 1012.30755615234 1015.69012451172 1017.06372070312 1018.88305664062 1024.85717773438 1031.994140625 1015.935546875 1012.48516845703 1009.62042236328 1011.59484863281 1010.18176269531 1008.02435302734 1011.15234375 1015.04504394531 1007.08239746094 1008.66937255859 1007.22869873047 1009.55688476562 1010.14459228516 1017.96569824219 1012.67919921875 1012.75903320312 1000.75354003906 1008.93048095703 1014.03753662109 1018.31719970703 1024.18823242188 1041.40173339844 1031.75024414062 1034.86267089844 1030.57885742188 1026.21118164062 1032.88317871094 1033.453125 1024.04833984375 1023.85015869141 1014.00299072266 1012.58752441406 1014.30419921875 1016.10974121094 1010.48834228516 1006.50915527344 1004.87200927734 1010.54522705078 1001.50183105469 993.018188476562 984.316711425781 972.141235351562 959.891845703125 944.742980957031 949.468139648438 957.065063476562 957.935791015625 956.174194335938 953.168395996094 965.662475585938 977.93359375 992.102111816406 1001.83856201172 1008.01910400391 1011.80236816406 1012.05004882812 1013.09393310547 1024.85717773438 1031.60241699219 1049.74877929688 1051.11401367188 1053.35363769531 1053.05334472656 1049.26428222656 1049.28369140625 1043.953125 1043.98840332031 1047.35205078125 1053.09838867188 1052.61694335938 1063.43969726562 1060.84350585938 1072.51684570312 1074.96569824219 1074.70092773438 1078.42907714844 1091.8359375 1091.84094238281 1092.53991699219 1088.68579101562 1092.97863769531
950.79296875 942.252990722656 947.872924804688 943.924560546875 950.806274414062 952.817138671875 953.904663085938 963.164123535156 967.647277832031 966.195434570312 961.755981445312 958.925109863281 960.687683105469 960.25341796875 955.383422851562 967.891784667969 978.057312011719 970.718017578125 976.107482910156 974.439819335938 967.294555664062 967.707214355469 982.912841796875 978.948852539062 979.777404785156 982.603515625 992.712890625 993.355834960938 984.99658203125 990.703674316406 992.705993652344 1006.32171630859 1002.33959960938 1008.52160644531 1010.09027099609 1018.08471679688 1012.95306396484 1016.21697998047 1013.04907226562 1015.03576660156 1015.51025390625 1022.08239746094 1017.3046875 1023.26043701172 1013.52557373047 1006.55737304688 997.920349121094 995.577392578125 991.835021972656 990.44921875 991.129638671875 980.944213867188 989.635009765625 990.181457519531 986.475830078125 993.2060546875 994.348022460938 1006.80853271484 1004.08520507812 1009.72344970703 1004.93029785156 1008.85412597656 1009.32928466797 1003.23895263672 1012.71276855469 1021.42938232422 1023.09973144531 1019.59973144531 1013.01177978516 1015.41156005859 1006.85418701172 1006.61999511719 1002.5029296875 1004.60699462891 1003.81018066406 1003.06024169922 1001.50805664062 1005.22155761719 1012.07745361328 1004.35308837891 1007.63079833984 1010.87292480469 1008.30401611328 1002.58477783203 1001.70074462891 1007.62274169922 1010.76672363281 1008.72253417969 1012.09991455078 1014.91638183594 1029.46923828125 1026.19226074219 1025.68664550781 1031.74462890625 1028.82287597656 1021.73645019531 1024.26477050781 1025.74951171875 1024.20825195312 1013.40325927734 1008.93017578125 1003.68756103516 1008.18688964844 1008.49548339844 1006.72204589844 1010.97033691406 1010.03552246094 993.681335449219 993.503112792969 988.938354492188 972.247253417969 964.044616699219 948.560180664062 952.683898925781 959.957214355469 955.64208984375 948.7119140625 961.02978515625 965.828308105469 979.325988769531 993.782592773438 998.485778808594 1010.10504150391 1016.60266113281 1016.93511962891 1014.50952148438 1022.07849121094 1032.22253417969 1041.8818359375 1044.25549316406 1049.6083984375 1049.85888671875 1049.69775390625 1042.474609375 1027.5166015625 1030.85864257812 1043.83117675781 1054.33825683594 1049.05981445312 1053.80627441406 1060.54150390625 1060.92395019531 1072.70422363281 1081.83544921875 1079.09423828125 1086.37731933594 1091.03576660156 1093.76062011719 1091.830078125 1087.0869140625
943.252807617188 949.79150390625 950.789367675781 952.90771484375 958.641052246094 953.135986328125 959.403991699219 963.892272949219 972.571533203125 968.421630859375 968.890258789062 966.11865234375 966.454223632812 961.119262695312 960.968200683594 963.214111328125 982.28857421875 967.639953613281 974.54833984375 966.727783203125 971.877746582031 968.257507324219 979.818420410156 982.810791015625 983.215637207031 974.644104003906 977.340270996094 983.740417480469 985.831787109375 990.485900878906 992.186706542969 998.416076660156 1003.92761230469 1011.2880859375 999.432067871094 1007.33197021484 1013.11029052734 1010.00866699219 1011.28948974609 1014.01123046875 1008.09967041016 1006.17340087891 1015.87622070312 1014.06103515625 1015.25842285156 1007.67333984375 998.667297363281 1005.69812011719 1004.16662597656 996.665893554688 989.469970703125 984.832153320312 984.528198242188 983.282958984375 987.689331054688 990.906188964844 999.968444824219 1005.98364257812 1007.26947021484 996.382995605469 1004.09716796875 1003.90283203125 1006.11749267578 1001.96179199219 1008.50286865234 1010.05169677734 1013.44183349609 1014.11730957031 1016.52709960938 1011.37811279297 1001.52386474609 998.707824707031 994.351867675781 1003.51672363281 997.251098632812 999.86474609375 1002.74822998047 1001.43701171875 999.549499511719 999.421997070312 998.750610351562 997.437927246094 1005.47747802734 1007.53680419922 1000.55401611328 1003.3408203125 1015.15380859375 1013.03253173828 1014.64105224609 1018.72393798828 1020.04724121094 1027.97216796875 1031.42614746094 1026.90478515625 1022.37756347656 1017.44775390625 1022.90423583984 1020.34478759766 1017.86395263672 1017.57067871094 1014.55908203125 1008.0986328125 1006.52258300781 1012.59313964844 1004.31225585938 1003.87530517578 999.404541015625 999.067443847656 991.834716796875 984.440795898438 968.257385253906 961.97265625 954.736999511719 948.396118164062 946.339904785156 952.87353515625 955.20849609375 963.343139648438 974.40380859375 986.148193359375 1001.22344970703 1002.71594238281 1008.72924804688 1020.45745849609 1013.72320556641 1026.27111816406 1020.43371582031 1036.05236816406 1043.81591796875 1043.96643066406 1058.02709960938 1045.91943359375 1041.75427246094 1038.64001464844 1035.21813964844 1033.96557617188 1041.19030761719 1047.85717773438 1043.72644042969 1043.50061035156 1065.57019042969 1065.90087890625 1067.91589355469 1074.00610351562 1078.21752929688 1083.78234863281 1090.40563964844 1090.380859375 1089.30529785156 1093.97155761719
946.953918457031 948.995849609375 954.285400390625 956.785766601562 958.121276855469 959.625915527344 958.812805175781 962.788146972656 971.258544921875 964.942749023438 964.9814453125 968.171813964844 966.979248046875 967.199096679688 974.217956542969 973.991455078125 972.025146484375 970.173461914062 980.235595703125 984.339538574219 977.293823242188 978.080749511719 978.340637207031 979.140563964844 981.259826660156 985.007690429688 986.215087890625 994.571594238281 989.955810546875 991.39697265625 1003.09106445312 995.226989746094 1006.14947509766 1008.24060058594 1005.60040283203 997.459594726562 1000.74816894531 1011.56610107422 1013.84002685547 1015.92993164062 1017.71557617188 1011.86260986328 995.802917480469 1000.70648193359 1006.572265625 1002.60235595703 1005.85687255859 1001.88958740234 989.826599121094 992.939331054688 995.823608398438 989.571411132812 980.070739746094 977.108947753906 990.284423828125 990.900512695312 994.631408691406 998.996032714844 1001.939453125 990.340209960938 1000.52282714844 1003.75408935547 999.581787109375 998.831787109375 997.614624023438 998.8876953125 1005.95147705078 1007.33502197266 1008.70031738281 1005.79730224609 999.727661132812 997.706787109375 992.293395996094 1000.52459716797 1001.56231689453 994.994079589844 1001.28076171875 1011.05487060547 1003.83972167969 1000.66247558594 1003.47900390625 997.011657714844 998.770935058594 1000.14263916016 996.357849121094 1004.99774169922 1009.91046142578 1017.37774658203 1015.37261962891 1024.70666503906 1020.5517578125 1024.26953125 1020.06628417969 1022.76666259766 1024.107421875 1017.3017578125 1022.55969238281 1025.66076660156 1016.44927978516 1017.68603515625 1009.32409667969 1007.13519287109 1003.63482666016 997.4091796875 1000.31262207031 1000.00561523438 994.301879882812 990.072631835938 1000.82836914062 988.593688964844 973.026794433594 971.888977050781 959.671447753906 951.083374023438 948.072814941406 948.954345703125 962.595275878906 955.916015625 977.069885253906 990.83984375 1002.77166748047 1002.83111572266 1013.38311767578 1021.30029296875 1018.66851806641 1017.99542236328 1022.81518554688 1032.91430664062 1039.97534179688 1039.81225585938 1044.01513671875 1045.14514160156 1041.94506835938 1040.39050292969 1030.61889648438 1032.75012207031 1036.79333496094 1045.68347167969 1041.38073730469 1045.08630371094 1056.82727050781 1066.01977539062 1071.39636230469 1070.53515625 1076.35546875 1081.1865234375 1084.46105957031 1085.5478515625 1092.25939941406 1090.30004882812
951.7587890625 949.565795898438 961.008483886719 957.70849609375 961.589477539062 959.276733398438 960.673645019531 958.0302734375 968.702209472656 966.144287109375 973.049133300781 975.179321289062 973.365417480469 976.551879882812 975.16162109375 974.290161132812 969.050720214844 974.704956054688 975.736022949219 982.558654785156 979.003356933594 978.537292480469 983.95849609375 989.380737304688 980.977661132812 983.493347167969 989.482360839844 993.400756835938 994.483093261719 989.598815917969 996.767272949219 986.433471679688 998.248413085938 1003.94927978516 1000.02587890625 990.593383789062 996.923034667969 995.628295898438 1009.96850585938 1011.490234375 1007.89910888672 1008.15295410156 997.169860839844 992.5625 992.99267578125 997.320922851562 998.754150390625 995.805419921875 989.265869140625 990.478393554688 998.003540039062 984.20263671875 986.009826660156 981.507019042969 980.791625976562 985.765930175781 992.988647460938 985.725891113281 986.402160644531 992.121398925781 983.045043945312 994.833312988281 998.697875976562 997.747009277344 999.724182128906 1006.53436279297 1007.60656738281 1006.35028076172 1003.24353027344 998.284362792969 996.742248535156 998.280700683594 998.085327148438 999.317504882812 1003.98797607422 998.403747558594 996.590148925781 996.825805664062 997.723754882812 1003.93774414062 998.289855957031 1001.51043701172 999.053283691406 1005.38452148438 1007.53289794922 1003.68609619141 1007.00555419922 1017.14794921875 1022.01861572266 1028.32678222656 1018.46942138672 1022.84814453125 1024.27697753906 1022.56396484375 1025.21850585938 1012.72247314453 1018.10290527344 1021.22271728516 1019.45989990234 1016.78747558594 1004.45184326172 998.03466796875 1002.84545898438 998.795593261719 991.610107421875 996.61962890625 994.02294921875 995.73974609375 997.044067382812 995.134765625 986.272216796875 975.863220214844 958.998901367188 948.695495605469 940.229309082031 944.18212890625 951.63818359375 969.33349609375 980.862609863281 988.261779785156 996.265319824219 1004.42517089844 1012.15667724609 1010.72454833984 1016.74676513672 1023.40838623047 1019.06555175781 1026.56469726562 1031.02575683594 1038.21691894531 1033.693359375 1036.36987304688 1042.435546875 1029.71350097656 1037.15808105469 1033.59069824219 1031.77624511719 1042.97937011719 1039.32751464844 1046.93127441406 1060.30969238281 1068.37768554688 1066.22338867188 1070.41076660156 1081.96362304688 1077.09594726562 1076.74548339844 1095.37927246094 1098.78479003906 1103.33435058594
946.701538085938 948.339172363281 958.640258789062 958.642395019531 959.552551269531 953.819519042969 963.692077636719 960.103698730469 966.643981933594 963.752502441406 968.060546875 973.163330078125 978.460388183594 978.125732421875 969.705688476562 975.290283203125 962.650207519531 968.374816894531 980.874816894531 983.869079589844 974.974182128906 972.273376464844 987.237976074219 985.726318359375 983.035278320312 993.88671875 995.926635742188 994.874694824219 987.956787109375 980.845397949219 982.521423339844 985.565795898438 991.869995117188 995.651245117188 995.533508300781 987.992553710938 986.733154296875 988.894958496094 1000.14202880859 1003.23706054688 1008.22924804688 999.921691894531 994.181884765625 987.119689941406 983.331420898438 993.448364257812 994.000366210938 997.74755859375 1000.51666259766 999.346374511719 1001.60894775391 985.1533203125 988.203063964844 988.956237792969 983.515014648438 993.496948242188 985.3740234375 985.727661132812 988.974548339844 992.32666015625 982.339050292969 985.210327148438 989.833740234375 993.492492675781 1000.05249023438 1001.74407958984 1000.61145019531 1000.64465332031 1006.34527587891 996.583435058594 999.143676757812 1009.20098876953 1000.30535888672 997.835266113281 995.859069824219 998.120178222656 999.059753417969 987.485229492188 991.115295410156 999.048583984375 998.375549316406 993.447265625 999.543823242188 1002.14904785156 1010.17163085938 1006.31646728516 1006.06311035156 1011.28332519531 1018.55078125 1024.9072265625 1017.20611572266 1017.77349853516 1024.46630859375 1018.17401123047 1023.93572998047 1014.42272949219 1027.03527832031 1017.91693115234 1017.42303466797 1009.08612060547 1002.90130615234 1003.46234130859 1002.5341796875 991.895446777344 991.510559082031 994.391967773438 983.566955566406 989.343872070312 990.391174316406 994.428588867188 983.882995605469 966.260192871094 949.158752441406 954.841552734375 950.12744140625 941.1708984375 948.706237792969 958.050964355469 971.246215820312 973.691772460938 982.53857421875 1002.15057373047 1009.41375732422 1004.93780517578 1017.79772949219 1025.86267089844 1024.12756347656 1029.60131835938 1035.85949707031 1037.39453125 1035.04504394531 1043.45788574219 1040.17529296875 1031.87158203125 1035.79125976562 1030.56640625 1031.4638671875 1023.00823974609 1031.22521972656 1050.7919921875 1060.28564453125 1063.66381835938 1072.94689941406 1079.63732910156 1078.63305664062 1080.44494628906 1080.42041015625 1091.14880371094 1097.23913574219 1108.28234863281
956.126098632812 952.780029296875 961.649597167969 963.901733398438 951.289611816406 959.035583496094 956.558837890625 958.729797363281 961.95458984375 966.364929199219 981.193542480469 980.636291503906 980.459533691406 975.946716308594 966.533325195312 970.102478027344 965.158447265625 971.854675292969 984.777709960938 988.771545410156 981.107421875 976.825317382812 977.180114746094 988.551147460938 994.181579589844 993.739440917969 988.40673828125 991.168273925781 981.233764648438 974.998840332031 984.251342773438 987.936767578125 986.305847167969 995.1943359375 991.246459960938 983.553100585938 989.028076171875 993.709777832031 992.635437011719 998.893371582031 1004.76898193359 1005.49877929688 1000.64624023438 988.302185058594 987.17333984375 994.017700195312 999.888916015625 996.436645507812 998.223999023438 994.739624023438 989.0859375 984.444519042969 983.525512695312 982.575927734375 983.494323730469 987.83935546875 985.143615722656 983.637939453125 991.476989746094 984.83251953125 980.863220214844 989.263671875 981.657897949219 984.918273925781 999.331237792969 1004.90582275391 996.882202148438 994.340759277344 998.7685546875 1002.50329589844 1003.03063964844 1007.21105957031 1009.23565673828 994.206420898438 998.3427734375 996.642333984375 998.059875488281 990.331237792969 988.412353515625 987.005310058594 999.143371582031 992.631713867188 1004.10705566406 1008.05963134766 1004.78149414062 1004.05322265625 999.203674316406 1016.99749755859 1013.89868164062 1015.63531494141 1015.42095947266 1018.99926757812 1023.61706542969 1021.25 1013.54223632812 1013.09289550781 1017.98724365234 1013.55200195312 1009.15191650391 1004.31457519531 1007.4248046875 1003.35919189453 1003.55627441406 994.511657714844 996.3916015625 1004.17974853516 990.321960449219 979.763122558594 985.025451660156 987.952575683594 967.947326660156 959.133239746094 958.563781738281 950.969177246094 940.978210449219 942.641479492188 951.314514160156 962.616394042969 974.316955566406 974.623779296875 990.376281738281 1005.15063476562 1007.37426757812 1007.72918701172 1011.64428710938 1019.11700439453 1027.77075195312 1031.73291015625 1032.16418457031 1041.63916015625 1038.009765625 1032.01281738281 1031.83093261719 1028.7607421875 1021.30944824219 1022.92272949219 1021.79138183594 1015.14172363281 1026.79614257812 1046.04602050781 1062.33544921875 1068.12219238281 1075.72741699219 1077.73229980469 1079.85974121094 1079.55798339844 1083.24291992188 1094.0478515625 1103.958984375 1116.50769042969
960.299743652344 959.558410644531 965.86279296875 965.865417480469 955.804138183594 952.393005371094 962.809204101562 964.942687988281 963.171325683594 980.762573242188 977.697570800781 984.025390625 982.37939453125 980.03955078125 969.811157226562 966.988647460938 970.364562988281 976.185668945312 978.734436035156 986.802734375 985.016235351562 986.539794921875 987.398681640625 983.417541503906 984.73779296875 984.303833007812 984.34423828125 978.345825195312 976.615661621094 971.866882324219 983.450317382812 993.338928222656 976.779602050781 985.685852050781 992.77490234375 988.338623046875 989.820556640625 985.131042480469 987.053466796875 991.656372070312 987.093078613281 996.651245117188 987.923889160156 987.247863769531 987.088684082031 991.976745605469 999.534790039062 991.431396484375 985.238342285156 991.333190917969 983.036560058594 973.169494628906 971.336608886719 978.003967285156 982.074462890625 989.025085449219 989.019165039062 992.011474609375 991.693542480469 984.160339355469 981.870483398438 983.396179199219 986.737121582031 987.545593261719 990.490783691406 995.857360839844 989.575500488281 996.795654296875 1001.01019287109 1006.56329345703 1007.35559082031 1000.8642578125 1009.74725341797 995.410766601562 993.936950683594 998.267822265625 994.381408691406 1001.61376953125 989.522094726562 987.594177246094 991.88232421875 991.466491699219 996.674255371094 1003.02258300781 1009.82775878906 1004.26519775391 1007.27062988281 1021.89025878906 1019.71441650391 1011.68090820312 1015.23486328125 1017.85589599609 1020.31335449219 1019.50854492188 1013.71337890625 1012.22064208984 1016.19494628906 1015.21746826172 1014.31530761719 1009.49475097656 1006.39184570312 998.628662109375 1002.07019042969 1002.69567871094 1009.22277832031 1010.87908935547 1002.97998046875 991.645446777344 987.474365234375 978.04541015625 975.688598632812 961.111267089844 954.726745605469 941.259826660156 942.018981933594 945.706970214844 951.603759765625 956.949645996094 969.593139648438 977.457092285156 994.049926757812 996.817443847656 999.6083984375 1007.89886474609 1009.15179443359 1013.19140625 1021.80053710938 1026.32080078125 1034.08203125 1032.29748535156 1038.01000976562 1029.24938964844 1026.84460449219 1020.93518066406 1019.39331054688 1019.28924560547 1020.06811523438 1020.3173828125 1027.68041992188 1044.87976074219 1058.08850097656 1062.77258300781 1074.58850097656 1077.81530761719 1086.74731445312 1085.48461914062 1093.96667480469 1089.34350585938 1098.3388671875 1110.69140625
950.618225097656 958.739196777344 957.707214355469 967.314270019531 971.358093261719 970.064025878906 967.351440429688 963.989868164062 969.718627929688 980.97412109375 976.444885253906 977.2841796875 970.080749511719 974.065246582031 975.748229980469 975.131774902344 975.056945800781 972.240356445312 981.884216308594 981.980590820312 977.523742675781 985.241577148438 986.40771484375 985.095764160156 979.520080566406 972.340026855469 980.696655273438 978.933898925781 973.066833496094 971.961303710938 980.553894042969 984.673278808594 986.15673828125 993.194519042969 989.697631835938 994.953002929688 992.82470703125 981.91796875 976.950134277344 989.683227539062 988.92822265625 987.5869140625 983.570434570312 995.61669921875 995.445983886719 993.971435546875 997.746032714844 984.523498535156 988.59326171875 985.351806640625 993.477966308594 982.204956054688 972.266723632812 975.411682128906 975.203796386719 988.758422851562 991.540466308594 981.6611328125 989.412719726562 989.386779785156 990.319274902344 993.764953613281 987.116882324219 994.065856933594 1003.35198974609 994.014953613281 992.237548828125 989.907775878906 998.693603515625 1007.77996826172 1001.02612304688 996.915466308594 992.06884765625 988.877990722656 987.635192871094 983.160522460938 985.611389160156 996.935180664062 993.448913574219 982.545471191406 990.759887695312 992.176574707031 1004.85650634766 1007.37536621094 1003.15301513672 1005.39373779297 1006.16650390625 1012.68841552734 1020.5166015625 1009.88244628906 1007.55102539062 1017.88195800781 1020.21502685547 1013.98211669922 1016.73522949219 1006.01965332031 1014.70294189453 1010.14038085938 1005.78881835938 1000.99145507812 1004.8466796875 1016.50903320312 1010.09692382812 1007.04071044922 1005.30981445312 1017.57434082031 1016.26885986328 1003.57025146484 987.56396484375 984.650756835938 966.707092285156 953.22607421875 957.446411132812 953.943481445312 947.653930664062 945.930297851562 956.104614257812 962.439392089844 967.273010253906 984.0146484375 994.056884765625 1007.57940673828 1002.76727294922 1009.62866210938 1020.25079345703 1022.19091796875 1025.76525878906 1025.130859375 1033.40844726562 1029.28601074219 1025.7958984375 1017.82879638672 1013.40350341797 1020.90179443359 1025.82458496094 1009.61944580078 1016.81481933594 1018.65612792969 1026.03649902344 1039.85424804688 1052.90686035156 1060.24731445312 1071.8544921875 1084.13439941406 1090.6572265625 1091.29333496094 1095.82983398438 1090.82470703125 1107.61669921875 1096.27221679688
955.989196777344 961.313232421875 962.936157226562 964.594604492188 967.287048339844 967.432312011719 966.006042480469 967.117980957031 968.72216796875 976.554260253906 973.028381347656 970.795471191406 982.182739257812 978.564514160156 968.392211914062 972.952026367188 966.701477050781 965.845092773438 981.851745605469 980.837646484375 982.416442871094 983.038757324219 988.095520019531 982.007568359375 979.277893066406 974.4697265625 976.594848632812 979.721252441406 980.392272949219 975.959045410156 983.158569335938 982.799987792969 988.143737792969 988.751647949219 995.129028320312 994.126831054688 999.355163574219 993.06396484375 986.292846679688 977.642883300781 985.968811035156 983.511840820312 988.269104003906 992.474487304688 991.821166992188 988.709533691406 986.552001953125 977.310119628906 979.267211914062 977.393493652344 983.291931152344 975.196350097656 972.399780273438 961.048156738281 962.097595214844 972.912658691406 980.032348632812 989.517150878906 982.307556152344 988.885986328125 992.827819824219 990.614013671875 991.639099121094 994.87890625 992.410766601562 992.195922851562 988.338439941406 995.905883789062 994.559509277344 993.394226074219 994.025573730469 981.299621582031 983.685485839844 978.806762695312 977.858825683594 978.63720703125 979.771789550781 988.401000976562 980.3017578125 979.197631835938 991.162170410156 992.526977539062 1002.98205566406 1002.65631103516 1006.62463378906 1007.05419921875 1001.75262451172 1006.86090087891 1013.78216552734 1013.90588378906 1015.86419677734 1019.87060546875 1017.68365478516 1017.90985107422 1019.22308349609 1008.24481201172 1011.017578125 1009.00793457031 998.518798828125 1002.25445556641 1010.10772705078 1003.13525390625 999.039978027344 998.5888671875 1011.94720458984 1014.37036132812 1013.24884033203 1004.24475097656 995.247375488281 987.022277832031 978.726379394531 960.720092773438 966.354858398438 962.978088378906 958.153503417969 953.828308105469 965.468688964844 961.712890625 971.414245605469 989.985473632812 1000.22601318359 997.15625 1014.96862792969 1021.85266113281 1032.76184082031 1039.22839355469 1028.50708007812 1023.97668457031 1024.96875 1024.78540039062 1019.76043701172 1018.71124267578 1009.35705566406 1012.74285888672 1019.49401855469 1018.24725341797 1018.67718505859 1020.78491210938 1031.876953125 1042.7236328125 1060.23059082031 1061.02294921875 1065.79455566406 1075.59765625 1093.61950683594 1102.96667480469 1106.40783691406 1108.9189453125 1111.86901855469 1120.27551269531
952.303649902344 965.89990234375 965.024475097656 970.213684082031 966.339416503906 975.019226074219 972.294189453125 969.92236328125 962.384582519531 971.45703125 969.580871582031 984.024475097656 984.331237792969 973.122924804688 970.003356933594 973.577209472656 967.783569335938 972.697509765625 974.97265625 975.622375488281 978.629089355469 990.345642089844 986.029724121094 978.882934570312 979.420349121094 976.451477050781 973.957336425781 975.817932128906 978.15673828125 978.612731933594 981.222351074219 979.450988769531 984.468994140625 980.275573730469 977.003601074219 988.639770507812 993.532165527344 988.578857421875 985.138000488281 977.528625488281 981.317504882812 985.582702636719 988.497314453125 982.17578125 982.979797363281 978.552124023438 983.490844726562 966.139526367188 970.637329101562 981.417114257812 983.47412109375 982.132995605469 975.689575195312 964.307556152344 969.814331054688 972.76904296875 973.582275390625 980.004089355469 988.828247070312 985.9931640625 985.235656738281 993.199890136719 984.225830078125 1002.35473632812 992.485229492188 993.826293945312 993.258422851562 989.868957519531 983.388427734375 979.65771484375 978.399841308594 983.928955078125 985.82421875 984.989990234375 973.454284667969 973.463012695312 970.72705078125 974.701599121094 976.777404785156 982.059143066406 986.663696289062 981.162780761719 996.596008300781 998.19140625 1007.67645263672 1009.19055175781 1003.29083251953 1012.43273925781 1017.70538330078 1020.72772216797 1021.40185546875 1018.23559570312 1019.00573730469 1022.14239501953 1018.94927978516 1017.61993408203 1009.00140380859 1003.46636962891 999.268493652344 1004.23870849609 1008.82476806641 1012.98291015625 1007.72485351562 995.907043457031 999.548461914062 998.313903808594 1001.08258056641 993.699035644531 1002.81011962891 991.216064453125 987.300170898438 966.3671875 966.449279785156 959.880554199219 967.6455078125 961.966979980469 968.056457519531 967.856384277344 981.906127929688 993.735900878906 997.328552246094 1008.69281005859 1020.87170410156 1022.09576416016 1018.99517822266 1024.43103027344 1030.26123046875 1027.41809082031 1027.34680175781 1022.66424560547 1019.39587402344 1013.85919189453 1012.07440185547 1009.68231201172 1016.15954589844 1017.03125 1021.91644287109 1033.96142578125 1042.67395019531 1050.93310546875 1064.74291992188 1069.2939453125 1060.970703125 1075.033203125 1097.97033691406 1099.68200683594 1112.85632324219 1114.82629394531 1110.5869140625 1123.67321777344
957.345458984375 955.926391601562 961.683349609375 956.352478027344 962.694458007812 972.184509277344 974.410522460938 976.043090820312 961.625183105469 971.281677246094 971.532043457031 985.013366699219 992.295349121094 981.692077636719 974.397705078125 972.459594726562 969.623413085938 973.706909179688 974.961486816406 984.130187988281 984.919494628906 986.639831542969 987.002136230469 977.932800292969 980.374389648438 981.799987792969 981.039611816406 975.699157714844 978.885559082031 976.06640625 986.755493164062 989.552368164062 990.988952636719 985.026184082031 979.242431640625 985.422119140625 985.820373535156 983.264831542969 983.024780273438 983.246337890625 978.145080566406 976.544738769531 985.011047363281 989.809936523438 979.576293945312 981.31982421875 975.892395019531 974.250122070312 974.212951660156 978.895874023438 974.629455566406 979.413269042969 971.140563964844 971.636474609375 971.851989746094 975.599853515625 978.368225097656 976.553955078125 982.463562011719 987.307739257812 981.074462890625 979.681335449219 984.757629394531 991.328247070312 997.189086914062 990.074157714844 992.42578125 992.72265625 988.294006347656 986.531982421875 983.37939453125 978.8359375 975.829223632812 985.457580566406 974.441223144531 969.119995117188 968.464172363281 972.197143554688 978.807678222656 979.598327636719 985.270568847656 991.317443847656 992.408935546875 993.494934082031 1006.11785888672 1008.8466796875 1011.26300048828 1018.56134033203 1021.98553466797 1021.32202148438 1022.43273925781 1018.93493652344 1021.74700927734 1020.14831542969 1021.96704101562 1021.47033691406 1019.29437255859 1016.80725097656 1003.12432861328 1003.0400390625 1010.14776611328 1003.7265625 998.182800292969 993.101257324219 993.246215820312 993.369445800781 999.312438964844 1002.00689697266 990.109497070312 995.374877929688 996.687255859375 979.793762207031 975.9150390625 973.969299316406 981.77392578125 973.5693359375 972.271606445312 970.277038574219 982.927062988281 1003.03814697266 1010.73071289062 1000.87670898438 1014.47698974609 1016.34240722656 1010.31134033203 1023.45861816406 1028.12109375 1019.17279052734 1017.44451904297 1015.78723144531 1025.90026855469 1014.42700195312 1005.98199462891 1009.41485595703 1014.71069335938 1016.01470947266 1032.85217285156 1039.04345703125 1052.65563964844 1049.33166503906 1061.45324707031 1060.73315429688 1062.74157714844 1069.86804199219 1082.32482910156 1098.86242675781 1103.59582519531 1114.56945800781 1119.78527832031 1125.9951171875
955.778503417969 950.827514648438 957.67724609375 963.197082519531 973.256103515625 969.9345703125 971.359558105469 963.6396484375 969.164855957031 973.930297851562 979.776977539062 988.351440429688 979.693298339844 973.292297363281 974.279174804688 974.370056152344 969.735961914062 972.37353515625 978.275207519531 986.425109863281 974.403503417969 978.673400878906 980.408630371094 975.4609375 980.605285644531 985.136474609375 982.171569824219 981.024353027344 975.120239257812 974.778381347656 987.595642089844 993.04541015625 987.661560058594 984.533569335938 981.259094238281 970.303405761719 982.877136230469 978.930603027344 979.252563476562 975.195068359375 978.037109375 981.46630859375 982.157104492188 976.395568847656 981.926086425781 976.796081542969 983.296020507812 982.330993652344 980.102355957031 977.252319335938 970.995483398438 966.69677734375 960.896179199219 967.793579101562 969.425720214844 972.353332519531 965.579284667969 976.756530761719 974.835998535156 988.719482421875 980.7255859375 979.309814453125 979.645812988281 982.750549316406 986.454895019531 994.243774414062 983.965209960938 991.146606445312 997.56298828125 988.7451171875 972.349426269531 968.966064453125 968.905090332031 976.51708984375 973.986938476562 967.3515625 967.224609375 968.920288085938 977.385803222656 982.372131347656 982.802185058594 988.532653808594 999.792724609375 993.87255859375 1013.15319824219 1010.13140869141 1016.08264160156 1022.87719726562 1017.67376708984 1006.58526611328 1013.62493896484 1017.71545410156 1021.10681152344 1018.912109375 1020.10632324219 1009.08013916016 1015.5732421875 1012.95263671875 998.974792480469 992.272033691406 1008.02197265625 996.431762695312 996.591491699219 995.979248046875 992.276611328125 987.794616699219 997.156494140625 999.492614746094 987.549743652344 983.615234375 1000.90771484375 986.803649902344 987.409484863281 979.550048828125 984.280578613281 982.858093261719 984.634704589844 985.130310058594 993.361877441406 997.490112304688 1009.78393554688 1012.31567382812 1017.11383056641 1015.74890136719 1012.34509277344 1017.22015380859 1010.86822509766 1013.19696044922 1020.04119873047 1023.60876464844 1029.16857910156 1023.00140380859 1014.03179931641 1015.78375244141 1011.59399414062 1020.88244628906 1039.34057617188 1047.61291503906 1048.99853515625 1055.13696289062 1052.72265625 1062.08471679688 1067.07250976562 1075.04174804688 1083.5908203125 1096.55700683594 1109.8857421875 1112.34069824219 1120.46594238281 1120.8388671875
953.088806152344 957.673095703125 962.979431152344 972.780456542969 976.026184082031 981.117858886719 971.476135253906 973.32666015625 965.547546386719 978.130126953125 978.439758300781 976.425659179688 973.623901367188 974.576599121094 975.484436035156 969.608703613281 963.679016113281 962.131958007812 972.24267578125 985.994567871094 979.703674316406 982.368530273438 976.287658691406 970.616027832031 972.708190917969 983.449035644531 981.714111328125 984.186889648438 976.687133789062 979.862731933594 984.097290039062 982.475158691406 988.769165039062 982.944152832031 979.426635742188 978.96533203125 977.607482910156 975.418762207031 971.732360839844 970.803588867188 972.137329101562 980.326843261719 972.372436523438 972.1552734375 977.265502929688 981.010925292969 981.469909667969 989.53271484375 982.995544433594 978.294982910156 961.251831054688 969.115295410156 963.605712890625 975.986572265625 977.498474121094 979.367248535156 971.695068359375 983.577758789062 975.503784179688 980.008361816406 983.861755371094 982.473327636719 985.078857421875 984.879455566406 978.866149902344 987.043823242188 985.65576171875 984.055114746094 986.778564453125 981.109375 976.377807617188 968.22119140625 966.561889648438 974.678833007812 972.473083496094 976.274597167969 977.426818847656 980.187805175781 973.836181640625 983.088562011719 985.85400390625 996.079711914062 997.3759765625 1004.73748779297 1013.69891357422 1012.2412109375 1011.56536865234 1016.68170166016 1008.86260986328 1010.21795654297 1008.29986572266 1014.90472412109 1008.60620117188 1007.29290771484 1006.92498779297 1001.15075683594 1007.90570068359 1007.22778320312 1003.36804199219 996.233642578125 994.439270019531 994.908935546875 992.995483398438 994.753295898438 992.221923828125 988.482116699219 996.037048339844 990.8583984375 990.681213378906 992.597351074219 995.367614746094 990.541931152344 991.511291503906 992.843200683594 993.934509277344 991.955932617188 986.751770019531 999.131530761719 996.88330078125 1001.84240722656 1013.18737792969 1020.11431884766 1012.59271240234 1002.68768310547 1006.05627441406 1005.51898193359 1003.79486083984 1012.28845214844 1011.46051025391 1011.92785644531 1014.88043212891 1015.20751953125 1019.54266357422 1013.10827636719 1011.43145751953 1024.28210449219 1031.00354003906 1036.26037597656 1046.70471191406 1050.98205566406 1058.990234375 1068.32666015625 1073.13586425781 1088.80541992188 1085.40600585938 1091.92785644531 1104.76574707031 1115.63293457031 1109.3505859375 1112.08923339844
955.541259765625 956.51904296875 967.06689453125 975.070922851562 975.367797851562 971.491760253906 973.287170410156 972.262817382812 973.741088867188 968.583068847656 971.586975097656 973.969482421875 968.431945800781 970.247863769531 964.1591796875 968.4189453125 976.34033203125 973.690185546875 976.750305175781 984.952209472656 980.72314453125 981.189819335938 977.56201171875 970.648010253906 969.017395019531 972.464172363281 973.691284179688 974.467163085938 978.662292480469 976.738037109375 974.991760253906 982.372314453125 982.313354492188 981.657592773438 992.699401855469 989.224792480469 983.010559082031 978.915283203125 975.90283203125 981.605285644531 974.972961425781 966.597106933594 965.693359375 971.610717773438 969.352478027344 976.261779785156 980.303527832031 988.731628417969 984.572265625 987.538269042969 978.157653808594 974.174438476562 975.18994140625 979.618347167969 981.542236328125 971.390502929688 979.869995117188 976.36328125 977.795593261719 989.566528320312 984.272155761719 987.487487792969 988.976745605469 987.645751953125 991.078125 988.848876953125 984.979064941406 977.59716796875 973.225524902344 973.328979492188 973.574035644531 964.764831542969 961.972106933594 969.733154296875 967.484741210938 973.699096679688 985.888854980469 981.708068847656 976.7509765625 982.069396972656 986.837524414062 993.269104003906 996.217407226562 999.967102050781 1005.94128417969 1009.20465087891 1012.57788085938 1002.50952148438 1005.26458740234 1014.90478515625 1012.47155761719 1003.13342285156 1002.86419677734 997.802673339844 998.495422363281 989.090881347656 1000.21557617188 995.476257324219 1000.60864257812 1001.50622558594 998.859375 994.197998046875 991.968017578125 990.219116210938 996.173461914062 998.461059570312 987.612182617188 986.811462402344 995.876281738281 993.753234863281 988.773742675781 991.407043457031 991.657836914062 995.945922851562 994.44482421875 995.374267578125 998.796508789062 1002.18603515625 999.662414550781 993.411682128906 1004.52563476562 1003.41979980469 1005.75146484375 1002.32098388672 990.913391113281 993.725036621094 996.796691894531 1002.48815917969 997.454162597656 1003.04431152344 1014.43621826172 1014.78515625 1011.71899414062 1022.03466796875 1018.87017822266 1022.73059082031 1033.06420898438 1035.42529296875 1050.34973144531 1063.43054199219 1061.63134765625 1076.27465820312 1074.04211425781 1085.30346679688 1093.25805664062 1103.63806152344 1112.32495117188 1119.15319824219 1114.92395019531 1115.96008300781
964.889038085938 960.18408203125 960.428955078125 968.772277832031 969.242797851562 965.628356933594 972.889099121094 969.927185058594 967.249145507812 964.312622070312 974.934509277344 971.743286132812 965.605651855469 966.854248046875 966.506103515625 971.62890625 978.633972167969 974.6201171875 984.44970703125 980.23486328125 986.447326660156 978.773620605469 972.437683105469 973.008239746094 968.44970703125 972.427368164062 965.114013671875 961.439636230469 968.109924316406 980.941101074219 978.172973632812 981.985778808594 984.002624511719 983.198791503906 981.443237304688 978.382385253906 972.162963867188 973.299926757812 972.399658203125 984.398742675781 979.459350585938 967.950134277344 955.77978515625 958.477661132812 962.687072753906 966.909851074219 971.243713378906 978.107543945312 987.068359375 983.680786132812 974.5341796875 974.815612792969 983.868957519531 986.880554199219 977.777709960938 984.117431640625 982.206848144531 979.119262695312 984.423461914062 986.636352539062 984.566772460938 981.974426269531 982.870239257812 985.932983398438 989.226318359375 987.023620605469 982.329833984375 972.896484375 964.732482910156 969.442443847656 976.462646484375 973.795654296875 973.183654785156 975.247192382812 972.35986328125 973.706909179688 984.307556152344 985.441223144531 982.098083496094 983.78955078125 990.535583496094 990.310180664062 990.525634765625 995.926025390625 1005.84185791016 1012.1494140625 1006.90539550781 996.448120117188 991.423645019531 1000.42559814453 987.444580078125 1000.12640380859 993.586486816406 986.172790527344 985.413391113281 986.219665527344 993.850036621094 999.538757324219 995.134765625 998.086975097656 992.622009277344 987.526123046875 998.404235839844 992.824462890625 991.435668945312 1001.07580566406 989.679077148438 982.52294921875 989.85107421875 986.560913085938 985.739318847656 994.976745605469 1001.09698486328 999.459350585938 991.095764160156 996.423278808594 999.50634765625 1000.37268066406 1000.23303222656 1000.27404785156 1003.95318603516 997.132934570312 997.428161621094 1000.68487548828 995.340454101562 1002.39636230469 998.645385742188 1005.71185302734 1013.89459228516 1010.74932861328 1008.08581542969 1015.35070800781 1018.37030029297 1024.77416992188 1030.58422851562 1025.95251464844 1033.28881835938 1042.33935546875 1057.99206542969 1062.3740234375 1072.86975097656 1084.89184570312 1083.29052734375 1086.42541503906 1103.11022949219 1107.83483886719 1117.67895507812 1125.44897460938 1119.70104980469 1122.99719238281
965.546630859375 957.765197753906 965.930297851562 971.627868652344 962.759460449219 965.384582519531 963.877258300781 963.566955566406 968.330444335938 964.048034667969 962.966857910156 965.632385253906 966.154479980469 968.483032226562 975.484924316406 972.349182128906 968.186340332031 973.877258300781 977.50634765625 974.927673339844 979.459350585938 974.191528320312 981.148620605469 974.33154296875 977.194885253906 971.859802246094 970.881286621094 965.335327148438 966.775146484375 964.901062011719 974.203125 983.640197753906 983.060974121094 982.8056640625 977.187683105469 977.10791015625 983.656494140625 976.842163085938 981.069702148438 978.393127441406 974.291931152344 966.768615722656 958.361145019531 951.727905273438 960.909301757812 968.899719238281 967.649536132812 973.12109375 974.877319335938 978.206359863281 975.787170410156 960.256469726562 970.662536621094 972.773986816406 974.502990722656 982.328063964844 979.725524902344 967.953552246094 976.902038574219 977.556213378906 980.621337890625 985.476806640625 984.773071289062 986.82861328125 987.816101074219 984.113037109375 978.829345703125 981.526550292969 975.014038085938 974.394348144531 976.405334472656 979.595581054688 975.811340332031 982.436462402344 973.979431152344 973.867370605469 984.573364257812 983.001342773438 977.544006347656 981.160949707031 985.015869140625 993.376831054688 985.366027832031 995.118835449219 1001.56481933594 1004.81817626953 1000.7275390625 994.347351074219 991.125 982.067260742188 985.59619140625 1000.32287597656 991.793762207031 984.623718261719 990.639404296875 990.93994140625 995.802734375 991.905578613281 992.121520996094 999.147094726562 994.440002441406 982.328002929688 984.779663085938 996.22021484375 999.776489257812 996.475463867188 989.749267578125 983.860778808594 977.238525390625 990.043090820312 995.535949707031 1000.78717041016 999.895202636719 999.920227050781 1004.99346923828 1005.23504638672 1000.51251220703 999.086975097656 1001.43542480469 1003.23968505859 1000.77172851562 995.14111328125 996.975646972656 994.365051269531 1003.37762451172 1007.31408691406 1015.89849853516 1010.32855224609 1009.67761230469 1016.43237304688 1021.38415527344 1017.21801757812 1022.11010742188 1027.59228515625 1032.064453125 1033.16516113281 1046.79150390625 1055.38439941406 1055.72192382812 1067.61730957031 1075.75512695312 1082.91320800781 1095.03454589844 1107.21630859375 1111.85656738281 1117.79602050781 1117.87316894531 1125.45068359375 1136.19323730469 1129.82934570312
961.371459960938 954.486083984375 955.835021972656 971.792419433594 964.828002929688 960.035400390625 962.067138671875 961.916564941406 958.704772949219 958.53515625 960.134338378906 962.017272949219 972.69921875 972.3701171875 970.435729980469 970.086791992188 976.361267089844 977.032531738281 970.0634765625 975.62841796875 972.497192382812 972.24462890625 971.975463867188 964.742126464844 967.008850097656 960.559631347656 969.402770996094 972.677551269531 966.388305664062 973.294799804688 982.156982421875 990.012084960938 992.544738769531 976.749633789062 964.881164550781 977.843933105469 978.0126953125 973.939086914062 972.854797363281 971.78466796875 976.385925292969 967.108215332031 961.132873535156 953.2763671875 959.686584472656 962.037963867188 971.493041992188 967.952392578125 972.259033203125 972.633972167969 979.724853515625 967.838439941406 965.980651855469 965.989379882812 965.914733886719 977.237915039062 981.648742675781 967.669860839844 972.176879882812 978.986755371094 974.477233886719 977.888671875 980.390991210938 988.932006835938 990.710144042969 986.487854003906 982.444702148438 978.263977050781 976.663024902344 965.712829589844 972.872497558594 980.911315917969 970.052001953125 979.287109375 975.654663085938 968.583129882812 980.96533203125 979.837036132812 987.681823730469 982.028015136719 990.273864746094 992.813598632812 993.276550292969 1004.33825683594 1007.65844726562 1006.46868896484 1002.65625 994.54150390625 990.124633789062 982.763122558594 983.673034667969 993.135864257812 977.982116699219 973.549926757812 981.149719238281 985.909729003906 992.915405273438 994.81982421875 985.985900878906 989.793579101562 989.05712890625 980.363952636719 985.589599609375 988.555480957031 998.243713378906 985.589660644531 990.751281738281 980.410583496094 982.146850585938 994.122985839844 996.834838867188 996.440979003906 997.249389648438 999.284057617188 1001.20751953125 1001.70794677734 995.997314453125 1008.78637695312 1000.61370849609 999.335266113281 1003.00146484375 998.492309570312 1002.19519042969 1000.61639404297 1005.76043701172 1005.88562011719 1020.95764160156 1014.89849853516 1018.64526367188 1024.36547851562 1026.68798828125 1031.48815917969 1032.22692871094 1034.41528320312 1039.64282226562 1039.89599609375 1046.02124023438 1053.37243652344 1052.65856933594 1065.22155761719 1081.74621582031 1082.19470214844 1100.32470703125 1107.96948242188 1122.09655761719 1115.11291503906 1119.33825683594 1129.19494628906 1135.87243652344 1143.04626464844
951.198486328125 949.33349609375 957.802795410156 962.751892089844 952.721069335938 960.586364746094 961.126647949219 950.438598632812 960.671569824219 963.266296386719 956.427978515625 966.468566894531 975.136962890625 978.149536132812 970.842224121094 976.810119628906 976.5517578125 975.640441894531 971.745971679688 966.53857421875 972.835815429688 970.625610351562 973.41796875 966.285766601562 969.811279296875 968.718444824219 969.457275390625 976.851501464844 972.497314453125 970.951293945312 974.318420410156 985.919494628906 982.058898925781 985.330871582031 965.774658203125 977.147033691406 974.672790527344 974.883605957031 976.384582519531 981.898986816406 973.998107910156 978.93310546875 969.832397460938 957.165649414062 956.564880371094 964.497863769531 966.26708984375 965.567932128906 970.780639648438 978.589477539062 973.35986328125 975.079711914062 972.326171875 967.078125 964.893615722656 967.655334472656 972.256530761719 978.024963378906 979.269897460938 973.236083984375 969.177734375 974.998779296875 980.510375976562 978.805297851562 986.383850097656 979.636535644531 982.180725097656 978.124572753906 981.86572265625 974.562194824219 966.708862304688 972.116516113281 963.624816894531 974.725158691406 966.690185546875 982.693786621094 976.901184082031 976.398376464844 984.506103515625 972.479248046875 982.424133300781 984.262939453125 988.610290527344 996.01513671875 993.529846191406 1003.81842041016 997.393737792969 991.718627929688 989.010925292969 991.851379394531 985.693664550781 987.0712890625 989.027404785156 982.088989257812 977.478088378906 982.3779296875 986.301818847656 992.439819335938 1001.28198242188 992.766540527344 992.3076171875 987.777954101562 984.845764160156 974.1376953125 982.747924804688 988.633911132812 993.012268066406 984.694885253906 987.087646484375 981.933471679688 987.440246582031 983.261352539062 984.743896484375 985.722961425781 988.318359375 993.347534179688 994.542297363281 1004.03649902344 993.863891601562 997.501953125 999.245544433594 995.238403320312 997.398559570312 998.046142578125 1013.18084716797 1002.19342041016 1007.91754150391 1017.82202148438 1030.05432128906 1024.88757324219 1029.25854492188 1029.82055664062 1037.93322753906 1041.6015625 1044.8564453125 1047.75952148438 1058.58264160156 1052.32604980469 1056.00073242188 1069.08056640625 1083.97973632812 1088.99475097656 1097.15344238281 1109.63000488281 1119.48596191406 1126.5791015625 1124.22497558594 1132.94555664062 1142.08862304688 1147.6298828125
944.764831542969 949.621765136719 948.138671875 947.453247070312 944.989685058594 959.715576171875 964.085144042969 958.780700683594 967.159423828125 958.591918945312 961.422119140625 963.443481445312 969.928161621094 974.233276367188 965.057983398438 972.473999023438 970.615112304688 981.462097167969 978.836364746094 974.584350585938 970.110473632812 966.408020019531 967.9287109375 968.121704101562 967.906799316406 965.328979492188 964.127807617188 967.041625976562 974.225463867188 976.730651855469 979.768615722656 982.325500488281 983.44873046875 985.021362304688 973.970031738281 969.017333984375 981.005493164062 973.966491699219 976.220886230469 977.809387207031 976.451721191406 971.606018066406 973.236206054688 962.216979980469 958.684387207031 962.375183105469 971.260986328125 982.328125 974.211791992188 979.755859375 971.310852050781 976.369934082031 967.915466308594 964.365600585938 958.279907226562 962.169677734375 971.9228515625 984.43115234375 981.229248046875 985.071411132812 979.22412109375 981.282043457031 991.292419433594 976.432495117188 981.537475585938 987.734497070312 985.156677246094 971.366516113281 973.309326171875 967.363708496094 965.593688964844 970.405151367188 968.519104003906 963.349304199219 966.866394042969 974.62548828125 971.313720703125 972.756103515625 978.750854492188 973.038879394531 977.283752441406 971.832458496094 985.868713378906 974.822937011719 979.815368652344 993.456909179688 988.529357910156 981.329528808594 988.098693847656 994.176208496094 982.784851074219 985.718200683594 986.868286132812 982.075744628906 978.195434570312 981.569763183594 987.542297363281 989.646911621094 996.693786621094 987.040832519531 981.140625 981.101318359375 979.687683105469 981.549743652344 976.524963378906 985.518737792969 984.206604003906 980.342590332031 983.930236816406 986.348815917969 980.193725585938 988.987121582031 987.15673828125 986.748413085938 987.896118164062 993.646484375 995.028564453125 997.536376953125 993.711486816406 993.553283691406 997.625854492188 994.6650390625 992.790893554688 1004.77124023438 1009.44915771484 1007.18890380859 1007.61846923828 1017.1025390625 1030.96081542969 1033.171875 1038.21398925781 1040.05822753906 1043.98120117188 1042.65209960938 1035.94592285156 1050.56616210938 1053.83850097656 1059.39660644531 1067.28002929688 1067.92102050781 1081.21105957031 1089.35656738281 1103.82043457031 1112.77770996094 1119.28344726562 1134.54382324219 1144.98767089844 1139.14184570312 1146.45458984375 1154.5908203125
944.206176757812 953.756774902344 950.940490722656 950.524597167969 952.44921875 956.382263183594 967.592346191406 966.105224609375 960.085388183594 957.122497558594 966.65087890625 965.121887207031 956.998962402344 963.996154785156 968.429565429688 971.074462890625 973.703796386719 983.360595703125 975.406433105469 976.014221191406 962.948852539062 960.154602050781 961.637390136719 962.35595703125 970.698974609375 974.446594238281 971.842895507812 976.134155273438 973.74072265625 969.351806640625 980.135314941406 990.258850097656 976.025390625 984.4052734375 975.597290039062 963.36328125 972.455749511719 976.529846191406 974.332946777344 973.746459960938 976.746154785156 966.017333984375 967.478515625 967.328552246094 962.860290527344 977.044860839844 975.603637695312 977.839111328125 967.187927246094 969.971496582031 977.001647949219 973.369873046875 972.141174316406 969.484619140625 973.988037109375 965.210510253906 969.147338867188 978.864807128906 986.942626953125 979.654907226562 980.508972167969 984.051513671875 991.512939453125 987.976318359375 979.078491210938 975.271728515625 984.794067382812 979.238525390625 970.106140136719 968.116516113281 965.317443847656 969.477294921875 973.051208496094 968.541870117188 962.906677246094 969.421752929688 969.214599609375 973.07470703125 972.060241699219 965.4404296875 974.332214355469 970.187255859375 978.973571777344 982.273803710938 977.029907226562 973.967041015625 981.776245117188 987.574951171875 983.021667480469 990.222473144531 985.557189941406 990.06396484375 986.755737304688 991.333801269531 985.557495117188 981.731872558594 986.193908691406 983.403503417969 989.014099121094 986.853149414062 986.374938964844 984.357727050781 974.991821289062 974.128967285156 978.173889160156 978.609191894531 980.312072753906 971.226745605469 982.071166992188 986.231628417969 976.652709960938 984.638671875 991.946899414062 994.881042480469 991.733764648438 998.051818847656 995.204345703125 994.980041503906 993.493774414062 1001.13110351562 992.258544921875 987.079406738281 997.265869140625 1001.71685791016 1010.40649414062 1016.07611083984 1010.87738037109 1012.17242431641 1025.35681152344 1038.23071289062 1040.6279296875 1042.99792480469 1035.53747558594 1039.09228515625 1046.63134765625 1048.93017578125 1059.6865234375 1065.91455078125 1066.24584960938 1072.814453125 1082.87658691406 1090.70947265625 1113.42919921875 1123.60229492188 1125.90576171875 1146.78198242188 1157.49169921875 1151.20092773438 1159.80639648438 1163.28625488281
952.102966308594 952.148559570312 951.270690917969 953.891357421875 968.487487792969 968.21533203125 964.939086914062 968.780456542969 967.696411132812 955.230346679688 948.561584472656 958.136962890625 968.040954589844 973.142517089844 968.096984863281 971.940734863281 986.486389160156 982.229431152344 979.794006347656 974.327880859375 966.28125 952.889953613281 961.187194824219 965.134582519531 966.824584960938 970.732971191406 980.037475585938 977.158203125 970.947082519531 970.107238769531 970.3759765625 985.915100097656 976.086853027344 976.926940917969 964.331726074219 969.361267089844 968.541137695312 967.620300292969 967.372131347656 970.055053710938 969.663208007812 966.6708984375 959.098754882812 960.371643066406 960.111572265625 965.962341308594 969.718933105469 968.732543945312 959.155639648438 970.410400390625 971.011901855469 970.261901855469 967.314208984375 970.175109863281 974.035034179688 973.283508300781 980.155395507812 977.896179199219 975.714477539062 968.432495117188 979.495056152344 975.686950683594 979.028625488281 972.466247558594 971.340576171875 971.336853027344 981.227905273438 979.364318847656 977.312438964844 968.672912597656 962.71044921875 968.727478027344 970.175354003906 971.552551269531 965.22802734375 967.346069335938 975.71875 971.770935058594 976.614929199219 972.109680175781 974.391418457031 971.503967285156 976.9853515625 974.910278320312 983.293640136719 975.858276367188 974.283081054688 981.68115234375 980.050659179688 983.609008789062 984.852478027344 985.430358886719 985.854797363281 984.482482910156 983.325927734375 985.418395996094 991.300903320312 985.828308105469 985.766662597656 987.533874511719 992.437561035156 985.683044433594 977.740905761719 978.946166992188 982.736389160156 982.555236816406 976.666198730469 980.506530761719 979.943115234375 979.049133300781 981.47314453125 990.394592285156 996.375061035156 995.249816894531 998.850402832031 1004.65728759766 1002.58032226562 1005.47204589844 1007.09857177734 1001.37738037109 1002.98297119141 999.374450683594 993.352600097656 998.622375488281 1006.81475830078 1013.44360351562 1016.62933349609 1018.93432617188 1025.03491210938 1038.73718261719 1043.69189453125 1047.86865234375 1049.90234375 1048.18054199219 1050.83154296875 1054.57238769531 1056.13024902344 1064.2353515625 1077.66918945312 1083.234375 1093.33117675781 1104.89440917969 1118.71643066406 1127.85852050781 1143.29223632812 1161.49865722656 1165.10498046875 1172.53198242188 1163.69091796875 1157.40588378906
942.215209960938 949.990966796875 952.09521484375 962.703430175781 967.776977539062 976.041442871094 968.458557128906 963.018920898438 966.325744628906 965.749145507812 965.469299316406 961.018676757812 965.545288085938 963.933837890625 963.880065917969 969.576721191406 976.122619628906 982.088439941406 974.779296875 982.24609375 977.574523925781 957.978332519531 959.92822265625 965.833679199219 963.7490234375 973.578857421875 983.094421386719 984.966979980469 978.187744140625 971.0830078125 974.028686523438 989.394287109375 972.414672851562 974.231384277344 965.528930664062 969.652709960938 968.076416015625 965.078125 969.727905273438 971.6962890625 959.626770019531 966.020141601562 958.944946289062 953.999572753906 962.080810546875 964.135131835938 968.132202148438 959.580017089844 965.143493652344 972.092651367188 964.953430175781 965.080932617188 975.889221191406 977.281372070312 970.745849609375 973.262939453125 967.24365234375 966.920593261719 965.627807617188 963.940246582031 968.210815429688 972.037841796875 970.667114257812 974.550415039062 974.377746582031 975.107849121094 979.015747070312 978.877014160156 973.233520507812 963.241882324219 961.289916992188 959.780578613281 954.198364257812 962.029174804688 961.006164550781 968.681701660156 976.153991699219 970.022399902344 975.001892089844 969.57177734375 975.4013671875 975.521789550781 978.43505859375 981.687805175781 981.778991699219 978.338562011719 974.908630371094 972.664611816406 978.870239257812 975.625061035156 988.987487792969 985.173095703125 986.637329101562 983.840393066406 985.125244140625 985.858276367188 989.137390136719 984.386901855469 983.490295410156 988.369567871094 988.003051757812 985.869140625 993.587219238281 983.1240234375 988.794616699219 990.834777832031 992.784423828125 993.3583984375 992.845581054688 980.916320800781 986.010681152344 1002.26977539062 1000.75457763672 1000.13360595703 1011.45281982422 1006.42901611328 1005.34924316406 1006.05712890625 1007.46661376953 1008.74395751953 1001.44683837891 1005.24719238281 1003.74481201172 1008.26708984375 1009.55383300781 1009.43786621094 1013.41094970703 1023.91052246094 1037.27392578125 1044.41857910156 1043.91369628906 1050.90795898438 1055.91906738281 1053.81018066406 1049.39367675781 1055.14685058594 1068.6953125 1077.10668945312 1087.14501953125 1084.72644042969 1093.68078613281 1110.30505371094 1118.74157714844 1122.86865234375 1139.01647949219 1158.17834472656 1161.41247558594 1170.88793945312 1151.59399414062 1145.80847167969
940.118896484375 943.095825195312 952.685180664062 961.987548828125 968.490051269531 969.208679199219 968.051635742188 957.505920410156 960.029479980469 973.617248535156 965.466796875 961.494567871094 961.063842773438 968.315490722656 967.572204589844 971.484680175781 972.339416503906 976.677917480469 984.001525878906 986.797302246094 975.400817871094 964.230529785156 962.874755859375 960.339782714844 976.502319335938 983.304260253906 974.705993652344 975.519775390625 968.372131347656 967.998046875 969.537780761719 974.370849609375 977.693237304688 970.884155273438 963.183349609375 973.320007324219 963.152282714844 966.556335449219 966.250427246094 967.403442382812 967.757019042969 964.092834472656 959.007507324219 957.587219238281 955.781555175781 962.93701171875 954.064758300781 957.931518554688 962.8828125 966.606201171875 971.803283691406 966.447082519531 966.516174316406 968.135192871094 965.569946289062 971.337524414062 963.618408203125 965.733154296875 975.363403320312 961.569152832031 967.619201660156 970.605102539062 970.570678710938 974.772094726562 963.999572753906 970.956970214844 968.816528320312 966.6396484375 962.243530273438 970.113159179688 961.844421386719 952.867431640625 957.933410644531 966.581237792969 965.443969726562 974.509216308594 972.624694824219 961.31103515625 960.265625 964.814392089844 967.528015136719 978.168762207031 978.167175292969 977.606689453125 966.003051757812 978.379028320312 970.286682128906 974.765686035156 978.186828613281 977.212707519531 984.782592773438 979.212341308594 985.314147949219 979.602661132812 979.595886230469 987.2255859375 980.973876953125 979.870666503906 982.361999511719 982.414367675781 988.232299804688 985.614440917969 986.201354980469 987.225158691406 986.726196289062 990.649291992188 987.884033203125 995.314086914062 995.239562988281 998.081726074219 1002.94409179688 1003.49584960938 1004.5625 1017.08349609375 1012.79852294922 1010.87573242188 1003.31555175781 1011.26220703125 1011.17529296875 1005.94250488281 1007.91479492188 1002.36199951172 1009.99279785156 1015.61199951172 1014.13049316406 1016.10266113281 1017.41088867188 1027.72912597656 1042.80944824219 1048.9384765625 1055.21948242188 1044.59826660156 1053.43786621094 1056.81713867188 1059.23083496094 1065.24108886719 1066.96459960938 1087.05261230469 1088.123046875 1091.51232910156 1093.23315429688 1111.06359863281 1119.54028320312 1134.04943847656 1137.53930664062 1144.20861816406 1148.33117675781 1148.03723144531 1144.1572265625 1137.91613769531
936.888854980469 944.190185546875 951.560668945312 965.073364257812 965.759948730469 962.194458007812 970.5244140625 968.397888183594 967.856994628906 964.492126464844 961.110229492188 961.842346191406 967.122924804688 969.184631347656 963.841369628906 969.439758300781 980.252502441406 977.139099121094 984.499816894531 978.011108398438 970.125854492188 966.649658203125 965.749633789062 958.531311035156 967.192932128906 973.420227050781 972.053649902344 974.645446777344 964.632751464844 964.347717285156 969.601867675781 969.228942871094 976.683471679688 969.694946289062 964.901550292969 971.741516113281 962.37646484375 963.343017578125 971.654052734375 963.961608886719 961.682189941406 960.323547363281 963.494689941406 960.162292480469 961.558776855469 961.541687011719 962.964965820312 958.769653320312 963.990234375 973.7646484375 973.221862792969 974.55615234375 965.254089355469 962.123474121094 959.378173828125 968.391723632812 965.208618164062 966.275329589844 978.927062988281 965.072875976562 962.958801269531 965.875732421875 971.537841796875 964.804992675781 966.103088378906 966.951354980469 961.8232421875 962.6435546875 957.223754882812 959.122192382812 957.945739746094 958.952941894531 966.501342773438 974.825561523438 970.651123046875 970.852478027344 974.840698242188 972.173950195312 963.205322265625 965.764892578125 967.259155273438 973.022277832031 976.185729980469 971.232543945312 965.713134765625 972.080871582031 976.373779296875 973.1240234375 973.970947265625 977.091369628906 982.215393066406 969.286010742188 977.557556152344 978.866455078125 978.440490722656 979.966613769531 982.365539550781 976.912414550781 972.95458984375 977.329345703125 985.322631835938 977.093811035156 983.324157714844 987.22216796875 991.48095703125 996.8876953125 992.410888671875 995.217102050781 1002.88427734375 1008.60339355469 1006.08276367188 1004.70495605469 1003.75787353516 1011.88250732422 1020.1875 1012.11645507812 1015.29638671875 1015.83685302734 1012.42114257812 1011.04083251953 1000.81958007812 1007.51300048828 1014.97387695312 1024.36108398438 1021.15698242188 1020.16888427734 1020.22229003906 1030.953125 1027.87634277344 1034.87487792969 1049.677734375 1053.94677734375 1058.89208984375 1057.78833007812 1067.15148925781 1070.1494140625 1082.208984375 1084.1689453125 1089.85583496094 1093.21643066406 1093.32080078125 1107.83850097656 1117.63171386719 1132.72106933594 1129.86096191406 1135.59240722656 1139.95874023438 1138.24755859375 1133.40551757812 1132.86193847656
946.137451171875 945.787902832031 948.469970703125 958.752380371094 958.8173828125 970.531188964844 962.969909667969 969.444702148438 973.025268554688 967.542236328125 965.714111328125 968.604064941406 962.739501953125 970.221313476562 967.021606445312 965.980773925781 978.394409179688 971.952819824219 978.694702148438 976.587341308594 961.886535644531 967.251159667969 957.901428222656 958.492309570312 957.910949707031 964.087890625 963.013061523438 971.062927246094 958.342041015625 965.958374023438 969.7734375 967.329284667969 970.98291015625 971.8642578125 966.738586425781 967.916564941406 960.280456542969 961.887329101562 955.677185058594 962.883483886719 962.334777832031 963.693054199219 968.755676269531 962.1181640625 957.893188476562 952.064392089844 964.456481933594 967.899230957031 973.578491210938 967.1904296875 975.124389648438 974.159729003906 972.5224609375 971.634582519531 955.777038574219 953.804382324219 968.799438476562 962.774536132812 964.973327636719 965.771118164062 967.269897460938 958.777221679688 968.349975585938 968.845153808594 964.208068847656 975.07080078125 968.629333496094 969.318969726562 962.323974609375 962.775390625 970.058471679688 971.6533203125 970.796081542969 970.489013671875 981.1591796875 977.052368164062 965.699035644531 969.466979980469 964.694458007812 965.98486328125 967.04150390625 965.634460449219 969.916870117188 974.889038085938 980.793029785156 974.434204101562 977.563415527344 970.803161621094 971.498596191406 972.657043457031 978.770446777344 981.306701660156 987.963500976562 988.078186035156 985.509094238281 985.042053222656 982.273376464844 977.309875488281 975.564880371094 980.548461914062 972.803039550781 975.870056152344 984.018676757812 985.792053222656 987.098083496094 989.168884277344 995.579223632812 991.705993652344 992.433898925781 1007.76702880859 1001.82098388672 1000.00207519531 996.946533203125 1001.09619140625 1003.12744140625 1001.08294677734 1006.46136474609 1013.88635253906 1014.60595703125 1006.56781005859 1009.31396484375 1015.54724121094 1015.91162109375 1028.29724121094 1026.62756347656 1021.51300048828 1020.97698974609 1033.34228515625 1031.61682128906 1038.24829101562 1059.26770019531 1059.970703125 1057.27087402344 1056.77795410156 1070.27355957031 1071.7900390625 1078.34497070312 1088.27062988281 1091.078125 1094.77087402344 1106.40747070312 1121.09521484375 1120.85559082031 1127.14196777344 1126.33081054688 1137.43981933594 1131.18017578125 1130.5537109375 1121.49755859375 1110.01916503906
954.017700195312 952.257751464844 955.635925292969 953.178833007812 957.998107910156 957.753479003906 956.147033691406 969.778076171875 972.941955566406 972.340454101562 968.655334472656 966.952087402344 972.014831542969 968.586303710938 970.633117675781 965.031433105469 975.063171386719 976.2685546875 967.974365234375 965.460144042969 974.48193359375 969.543518066406 963.499084472656 958.383972167969 961.591247558594 957.987426757812 960.435241699219 959.812072753906 964.745056152344 965.193176269531 974.359375 969.689025878906 969.352111816406 970.396179199219 972.543029785156 963.732421875 971.771728515625 963.600219726562 955.231567382812 956.62109375 955.293823242188 961.677917480469 962.665100097656 967.12841796875 957.007202148438 959.560668945312 965.5810546875 970.246826171875 968.526184082031 967.3896484375 977.715698242188 971.741882324219 964.642456054688 969.409362792969 962.606750488281 962.263671875 975.173522949219 968.766723632812 967.448120117188 966.249450683594 969.135009765625 968.108520507812 965.819885253906 966.913024902344 969.156494140625 973.178894042969 974.1416015625 971.77392578125 964.949279785156 969.0732421875 964.483642578125 969.137451171875 973.268310546875 970.959838867188 986.55615234375 976.246459960938 974.488220214844 967.784240722656 959.397338867188 959.545104980469 964.037841796875 964.240600585938 964.321533203125 969.980346679688 972.032592773438 966.437072753906 968.157470703125 971.803894042969 976.138244628906 974.46142578125 975.047241210938 969.737426757812 981.666320800781 984.440307617188 978.823913574219 977.872802734375 976.070678710938 968.58642578125 971.636474609375 976.039428710938 978.018676757812 976.796142578125 976.536743164062 977.915100097656 987.396850585938 979.611267089844 980.685424804688 984.672241210938 985.8291015625 998.415161132812 995.60595703125 994.11767578125 1002.65496826172 1004.54229736328 1001.25567626953 997.637817382812 1009.80517578125 1007.16784667969 1008.86462402344 1003.4619140625 1022.25177001953 1026.9638671875 1030.94055175781 1020.74255371094 1024.99682617188 1017.61334228516 1022.13641357422 1031.37048339844 1031.68774414062 1040.34069824219 1060.14379882812 1060.01489257812 1062.03820800781 1069.19445800781 1077.09912109375 1081.29382324219 1082.32360839844 1089.91369628906 1095.61572265625 1093.22143554688 1103.9453125 1108.78833007812 1121.21997070312 1118.98120117188 1119.10144042969 1118.09362792969 1128.31909179688 1119.35229492188 1126.11254882812 1106.59118652344
947.030334472656 957.682189941406 963.746276855469 963.539123535156 964.538146972656 969.20166015625 967.653747558594 966.167297363281 974.892700195312 979.507446289062 969.892822265625 970.162353515625 971.791137695312 970.913940429688 976.699890136719 968.923095703125 971.751281738281 966.98291015625 963.851318359375 971.074584960938 970.410705566406 969.025512695312 965.435913085938 961.491271972656 966.37548828125 956.069885253906 958.714904785156 954.611755371094 961.998779296875 961.8173828125 971.895935058594 976.846313476562 982.64794921875 978.254821777344 970.489013671875 964.513732910156 966.177612304688 953.257385253906 951.044677734375 961.857543945312 959.257934570312 960.062683105469 961.601623535156 966.005737304688 973.470153808594 971.854553222656 960.470581054688 961.071105957031 959.314392089844 963.416625976562 974.442993164062 975.479309082031 973.380859375 960.700927734375 959.305541992188 954.341857910156 967.403198242188 972.391662597656 972.055969238281 968.692749023438 968.845092773438 958.419311523438 953.275573730469 960.360290527344 964.704284667969 970.463623046875 974.85107421875 973.651062011719 969.232849121094 964.499389648438 968.628967285156 965.4638671875 969.433959960938 976.776916503906 980.952819824219 967.0498046875 963.620300292969 968.973876953125 968.438781738281 965.884338378906 963.795715332031 967.550720214844 962.403442382812 968.18115234375 971.80224609375 970.946899414062 971.346862792969 970.773376464844 966.265258789062 970.528076171875 969.2138671875 972.855041503906 977.5712890625 979.083190917969 976.99755859375 975.988342285156 975.703552246094 967.855590820312 970.376892089844 976.880249023438 973.952270507812 978.669555664062 979.866577148438 981.528991699219 980.821411132812 978.698364257812 976.345764160156 980.625427246094 986.642578125 998.254150390625 993.70458984375 991.363403320312 1000.96081542969 1003.09619140625 1011.99291992188 1008.43371582031 1004.09454345703 1001.88116455078 1006.953125 1010.92034912109 1023.20062255859 1029.70886230469 1032.62329101562 1023.25018310547 1023.59393310547 1022.03356933594 1035.07043457031 1031.43481445312 1036.34289550781 1044.05871582031 1054.56335449219 1066.46069335938 1062.83386230469 1064.39294433594 1074.1142578125 1077.72741699219 1079.93786621094 1088.892578125 1089.22717285156 1097.65283203125 1104.14294433594 1109.22009277344 1120.28210449219 1120.66540527344 1105.45336914062 1104.91845703125 1104.04187011719 1110.49694824219 1109.89794921875 1091.21447753906
953.361877441406 964.199157714844 963.535217285156 961.620727539062 960.6123046875 969.787353515625 971.019470214844 972.585083007812 974.94482421875 975.773620605469 973.787536621094 966.761901855469 970.41552734375 975.80712890625 977.246765136719 986.942810058594 976.236450195312 975.1689453125 970.522277832031 965.737182617188 970.588195800781 973.053405761719 974.710632324219 964.975830078125 955.127563476562 956.192260742188 960.110778808594 963.301818847656 956.591857910156 960.028564453125 967.630859375 972.209228515625 982.006469726562 980.442504882812 972.113342285156 961.225280761719 956.101013183594 947.971435546875 953.625854492188 950.873962402344 959.822814941406 962.224853515625 971.440612792969 972.292663574219 969.826599121094 967.5751953125 963.734252929688 963.985473632812 962.8779296875 967.704284667969 966.652954101562 980.524475097656 969.180358886719 964.930419921875 961.606140136719 964.548828125 961.145080566406 965.923645019531 965.5224609375 966.152160644531 964.338439941406 951.271667480469 958.1689453125 958.079223632812 960.569396972656 960.11181640625 968.779235839844 974.626098632812 968.907409667969 957.980407714844 960.479553222656 956.573486328125 965.833312988281 971.6279296875 967.784790039062 971.303283691406 964.525939941406 959.650573730469 967.095642089844 967.117858886719 958.422058105469 961.841979980469 960.098876953125 967.423034667969 973.317321777344 972.575012207031 962.512512207031 970.948486328125 970.960021972656 968.264892578125 967.359985351562 970.898681640625 972.851135253906 977.083984375 973.173278808594 978.047180175781 967.985412597656 970.352966308594 969.595153808594 971.018005371094 976.606872558594 985.365783691406 980.780029296875 984.207824707031 981.776611328125 981.109741210938 977.136901855469 982.909057617188 985.797424316406 996.955810546875 995.796447753906 989.738586425781 1005.56768798828 1005.78265380859 1014.56164550781 1014.91333007812 1007.05615234375 1000.16638183594 1009.57727050781 1014.01129150391 1017.82397460938 1028.44470214844 1040.20727539062 1029.20947265625 1033.12353515625 1031.5703125 1040.17138671875 1027.35876464844 1040.21752929688 1043.75451660156 1049.07641601562 1056.45397949219 1057.00769042969 1067.45141601562 1071.38012695312 1076.78527832031 1076.90051269531 1081.74816894531 1089.25646972656 1080.86962890625 1101.63793945312 1104.32275390625 1108.14794921875 1107.57055664062 1109.4384765625 1108.37377929688 1102.10620117188 1111.6162109375 1105.86364746094 1095.64831542969
957.352905273438 960.539794921875 963.282287597656 964.85546875 975.306030273438 978.45458984375 970.875122070312 970.566650390625 967.730712890625 972.376708984375 977.917114257812 970.564331054688 972.518127441406 979.256469726562 978.744384765625 988.325378417969 981.961059570312 977.504211425781 967.14892578125 962.769958496094 967.239807128906 966.011169433594 976.563781738281 964.192749023438 957.8583984375 954.367126464844 963.133544921875 957.622009277344 963.091918945312 966.13134765625 969.955993652344 973.858520507812 976.904052734375 970.230224609375 971.035461425781 959.927490234375 956.174438476562 954.052490234375 949.850952148438 955.316101074219 961.24658203125 961.962768554688 970.469360351562 969.997985839844 966.444763183594 960.23828125 969.197509765625 967.104248046875 974.205871582031 964.255676269531 966.122253417969 970.828979492188 967.302734375 968.44921875 961.425598144531 963.885986328125 961.734191894531 959.435913085938 962.481079101562 961.447509765625 955.175354003906 955.160949707031 960.344421386719 961.552185058594 945.206604003906 955.204223632812 958.367309570312 956.160217285156 963.732238769531 957.222045898438 967.657409667969 958.570983886719 966.772277832031 966.66650390625 963.060546875 967.098083496094 958.08740234375 957.171508789062 965.719360351562 965.825439453125 955.661315917969 948.178100585938 957.275756835938 962.432373046875 975.38671875 969.91455078125 967.174621582031 970.81005859375 973.46826171875 970.529113769531 967.7861328125 977.988342285156 973.143249511719 975.491638183594 978.197570800781 973.423156738281 969.7373046875 973.057861328125 974.175659179688 978.634643554688 980.205322265625 978.040710449219 980.451538085938 982.276550292969 979.710205078125 980.213989257812 979.488037109375 982.884643554688 991.75537109375 983.788635253906 995.059509277344 1002.29071044922 1005.43109130859 1010.28173828125 1020.19219970703 1012.99810791016 1005.74200439453 1007.21533203125 1006.67358398438 1011.03228759766 1021.03857421875 1027.86669921875 1033.35290527344 1022.78100585938 1033.12622070312 1032.6298828125 1039.83239746094 1033.42028808594 1037.89453125 1051.08801269531 1055.60217285156 1051.57580566406 1058.00451660156 1061.04565429688 1066.65234375 1075.390625 1083.09545898438 1085.83923339844 1077.38061523438 1086.47338867188 1092.78186035156 1098.58386230469 1104.46459960938 1109.40661621094 1099.05895996094 1097.88000488281 1094.50524902344 1101.12109375 1093.87023925781 1080.67163085938
958.840759277344 963.500427246094 965.992553710938 967.089233398438 972.871948242188 973.587585449219 969.512145996094 971.549377441406 976.566833496094 968.740051269531 976.834838867188 970.026245117188 975.155029296875 976.3896484375 974.910522460938 981.804260253906 973.753173828125 972.74951171875 966.686950683594 960.045959472656 966.595764160156 954.0576171875 964.460754394531 965.501586914062 959.191833496094 954.327941894531 958.206970214844 963.764526367188 965.48974609375 962.909973144531 966.523193359375 967.875366210938 961.902648925781 964.041870117188 969.462585449219 969.578247070312 959.274475097656 961.1259765625 950.402160644531 955.638977050781 964.755737304688 957.257019042969 962.578308105469 960.616760253906 963.997680664062 969.822326660156 964.827880859375 965.729675292969 958.778930664062 957.384948730469 959.314270019531 965.146301269531 962.027282714844 957.788452148438 963.739135742188 957.299865722656 956.110961914062 958.392822265625 969.835510253906 960.932250976562 949.487731933594 956.650024414062 950.034973144531 946.663757324219 952.222717285156 954.036010742188 953.881591796875 953.428344726562 952.950134277344 957.381469726562 951.900695800781 959.765808105469 968.886352539062 975.458923339844 968.908508300781 965.536560058594 962.618225097656 953.221557617188 955.783386230469 953.298828125 952.538391113281 944.769470214844 951.770629882812 965.185180664062 967.936767578125 965.394409179688 958.896545410156 962.261657714844 971.468994140625 969.606872558594 967.674682617188 974.350891113281 974.351440429688 966.76953125 980.465515136719 974.394836425781 971.221374511719 979.902221679688 980.003112792969 974.091186523438 971.519592285156 973.73095703125 977.722595214844 978.0166015625 977.55078125 982.645385742188 983.302795410156 984.210571289062 981.326171875 987.169311523438 986.407897949219 998.473937988281 997.627258300781 1006.83868408203 1007.37292480469 1011.58587646484 1013.58618164062 1009.32287597656 1005.97491455078 1011.24255371094 1021.08410644531 1022.07702636719 1026.46948242188 1032.78930664062 1022.10894775391 1024.97302246094 1037.78466796875 1041.86181640625 1036.13842773438 1048.36926269531 1056.01721191406 1056.21337890625 1056.15954589844 1060.9462890625 1064.15515136719 1074.90148925781 1083.36950683594 1086.552734375 1082.80078125 1088.6015625 1091.67028808594 1102.30236816406 1095.7490234375 1103.3056640625 1099.06860351562 1079.2861328125 1095.34338378906 1092.03955078125 1080.77368164062 1073.96691894531
966.623474121094 958.736450195312 965.790100097656 966.772155761719 969.82763671875 977.052124023438 969.142578125 970.366638183594 976.761596679688 969.859680175781 969.014770507812 970.070739746094 973.398742675781 967.521789550781 976.437072753906 968.49560546875 967.854797363281 970.808959960938 966.536437988281 964.239929199219 957.345397949219 958.2109375 956.215087890625 967.946594238281 962.1259765625 961.899597167969 964.451538085938 963.871154785156 963.433471679688 967.651550292969 962.432067871094 965.609069824219 963.343444824219 962.916809082031 964.189086914062 962.8193359375 969.568481445312 962.996643066406 958.775939941406 961.193908691406 955.730895996094 957.459716796875 958.785827636719 963.719421386719 958.386596679688 955.806030273438 960.172729492188 968.468872070312 952.821472167969 949.029663085938 952.967041015625 958.759399414062 960.02880859375 958.135498046875 957.635314941406 963.688903808594 959.303833007812 952.186096191406 955.152893066406 954.527221679688 957.678283691406 950.159484863281 950.852844238281 955.420959472656 957.650634765625 950.671875 948.535705566406 948.296508789062 940.909362792969 954.221435546875 959.839904785156 953.484191894531 963.614929199219 967.25341796875 973.21484375 961.698913574219 962.394836425781 952.53466796875 954.124145507812 957.898620605469 955.04052734375 951.886474609375 959.181274414062 966.16796875 959.752746582031 962.688903808594 955.96240234375 952.216430664062 967.319152832031 966.81787109375 974.382080078125 971.833740234375 972.845520019531 976.61181640625 970.879150390625 968.149475097656 969.993286132812 976.652648925781 977.8701171875 972.161010742188 975.677307128906 971.626831054688 976.673095703125 967.692993164062 977.976379394531 979.0234375 975.855346679688 974.411865234375 978.639099121094 979.5908203125 984.5595703125 991.207946777344 991.790100097656 995.633361816406 999.661560058594 996.731323242188 1006.31878662109 1003.75512695312 999.145141601562 1003.46697998047 1000.90783691406 1016.16149902344 1021.09478759766 1015.71392822266 1025.76635742188 1027.8828125 1025.421875 1027.84350585938 1040.08288574219 1035.05859375 1049.22509765625 1049.34582519531 1057.37463378906 1058.78845214844 1057.99279785156 1082.064453125 1084.57421875 1088.77221679688 1083.78308105469 1084.0791015625 1086.25329589844 1088.48278808594 1088.8466796875 1085.86889648438 1089.02514648438 1086.5 1085.90686035156 1079.966796875 1071.00964355469 1060.4736328125
954.074462890625 952.214782714844 969.399658203125 975.024230957031 972.716430664062 974.500671386719 977.8505859375 967.888854980469 965.390747070312 967.398193359375 964.8720703125 966.447814941406 972.78564453125 968.983764648438 967.389892578125 967.551635742188 964.518798828125 973.855285644531 957.979370117188 970.221862792969 958.668823242188 967.486755371094 965.811218261719 963.406555175781 953.15283203125 955.295959472656 957.332336425781 962.660217285156 959.769470214844 954.099548339844 958.066040039062 960.394653320312 956.788696289062 964.781677246094 960.341247558594 962.168762207031 965.252746582031 963.7041015625 966.568237304688 966.972290039062 961.986389160156 957.002685546875 958.536437988281 955.717895507812 950.411376953125 953.299743652344 956.260681152344 958.6064453125 952.653381347656 953.959899902344 956.196838378906 951.070129394531 958.966491699219 958.285827636719 957.509094238281 962.025451660156 960.45849609375 959.106079101562 964.763061523438 955.622924804688 953.205444335938 953.349426269531 960.132507324219 973.049133300781 965.88037109375 954.995788574219 954.9453125 950.834777832031 949.675842285156 946.682800292969 955.764465332031 954.261596679688 955.604736328125 958.730712890625 970.07861328125 968.348510742188 964.375244140625 951.03173828125 951.263854980469 956.977905273438 953.809265136719 957.483215332031 954.153930664062 964.577026367188 956.252807617188 960.35107421875 964.720031738281 956.948059082031 966.701965332031 967.001281738281 976.138671875 969.195678710938 977.097839355469 977.386291503906 970.270324707031 971.775024414062 978.819885253906 982.185791015625 982.404724121094 981.937194824219 983.606689453125 979.41259765625 980.254943847656 965.985290527344 973.720031738281 981.269226074219 989.779418945312 983.349243164062 982.009460449219 984.28759765625 985.426208496094 982.016784667969 979.871337890625 993.5322265625 994.43017578125 996.7607421875 987.605346679688 993.59375 991.656066894531 993.511108398438 1008.61212158203 1009.94097900391 1014.29272460938 1023.57873535156 1022.14752197266 1028.5390625 1023.97088623047 1034.69104003906 1033.66662597656 1038.00183105469 1039.14721679688 1053.07092285156 1055.1982421875 1062.03137207031 1061.38757324219 1078.21801757812 1080.56372070312 1076.34411621094 1082.8466796875 1078.45007324219 1076.99255371094 1082.59619140625 1072.55798339844 1068.41259765625 1062.67651367188 1069.76635742188 1076.62756347656 1076.95385742188 1056.46203613281 1049.22534179688
