NCOLS 150
NROWS 37
XLLCORNER 7394249
YLLCORNER 4843019
CELLSIZE 30
NODATA_VALUE -9999
967.5380859375 963.305053710938 953.656616210938 951.725708007812 959.5185546875 954.332885742188 954.643859863281 963.128295898438 967.9931640625 968.168579101562 976.402893066406 977.044799804688 971.456909179688 977.38671875 976.232727050781 978.897705078125 982.746154785156 980.92333984375 973.944641113281 981.77490234375 991.723327636719 982.994750976562 989.238342285156 992.029663085938 992.616577148438 997.497985839844 991.533386230469 990.485595703125 980.722534179688 984.096130371094 989.786071777344 991.400634765625 996.168518066406 1004.68377685547 997.502624511719 998.254211425781 996.236938476562 992.294128417969 996.548522949219 998.543273925781 990.024230957031 995.689453125 993.805603027344 992.51904296875 993.368835449219 1003.92034912109 995.204650878906 988.345458984375 978.985717773438 984.466613769531 988.854309082031 990.948425292969 990.068481445312 992.653930664062 996.591674804688 991.86865234375 995.011779785156 986.879333496094 989.731750488281 987.201232910156 985.802429199219 985.45458984375 997.502136230469 1008.1884765625 1003.59954833984 1008.0126953125 1001.79052734375 998.880981445312 999.152465820312 988.447814941406 996.543090820312 1005.73889160156 1003.95629882812 1003.462890625 1007.28735351562 994.858276367188 988.456298828125 991.80712890625 990.861877441406 994.288146972656 997.560485839844 1002.39752197266 998.999206542969 999.854675292969 1002.82611083984 1002.15948486328 1006.63549804688 1010.94348144531 1008.73406982422 1005.93072509766 1012.09228515625 1015.99066162109 1019.70202636719 1019.24102783203 1030.21667480469 1032.79064941406 1029.5 1021.822265625 1008.40759277344 1001.87170410156 1002.19329833984 1006.15252685547 1006.98590087891 1001.96557617188 1004.70599365234 1011.01031494141 996.080871582031 993.243957519531 986.224975585938 981.321350097656 963.039123535156 951.8115234375 950.213562011719 944.768005371094 946.064636230469 952.45166015625 959.018798828125 954.647521972656 957.6142578125 967.496520996094 990.334167480469 1003.37854003906 1009.67895507812 1012.44555664062 1015.19403076172 1017.46539306641 1021.419921875 1036.84155273438 1037.50476074219 1045.1220703125 1042.39575195312 1037.20178222656 1032.14990234375 1035.0849609375 1029.22436523438 1027.50952148438 1031.13415527344 1029.19909667969 1031.80859375 1031.12963867188 1042.05871582031 1056.49389648438 1064.82580566406 1071.14172363281 1087.07897949219 1083.66101074219 1083.5419921875 1083.5986328125 1084.35607910156 1085.24438476562
960.301635742188 962.9765625 966.439636230469 962.959655761719 962.782470703125 957.512268066406 956.464965820312 960.496643066406 971.441711425781 971.39306640625 972.479675292969 973.488464355469 975.788146972656 978.446655273438 977.005187988281 974.194213867188 974.947998046875 975.835571289062 981.505798339844 984.876037597656 994.76025390625 989.594177246094 993.532104492188 998.653686523438 988.245239257812 982.958068847656 998.709228515625 995.105712890625 990.176086425781 987.587036132812 987.231506347656 992.547302246094 995.007202148438 993.060974121094 994.723327636719 993.894470214844 992.390380859375 991.080627441406 987.955383300781 980.745910644531 979.175476074219 994.028198242188 987.629638671875 990.448852539062 996.555786132812 996.51611328125 986.448120117188 975.407348632812 968.96728515625 980.257080078125 989.495361328125 987.64453125 984.984985351562 978.580871582031 983.096130371094 982.799865722656 987.469299316406 992.404235839844 982.916931152344 985.10205078125 994.161071777344 990.32080078125 994.207214355469 999.293273925781 1002.92932128906 1006.06774902344 999.595947265625 997.63330078125 993.685302734375 996.675476074219 998.269592285156 1004.24328613281 1000.93432617188 995.893676757812 993.762939453125 994.977355957031 987.769165039062 995.822631835938 985.055908203125 983.478576660156 995.015930175781 1004.97576904297 1004.17132568359 1008.61041259766 1001.32891845703 1005.05743408203 1007.50604248047 1007.06396484375 1003.76672363281 1011.10260009766 1017.70764160156 1010.98651123047 1027.24841308594 1019.83569335938 1025.23193359375 1027.80676269531 1028.330078125 1022.55218505859 1018.11340332031 1008.55059814453 1007.62176513672 1011.33074951172 1006.36871337891 1007.8671875 1012.93133544922 1011.04895019531 1004.24371337891 1000.67822265625 992.057739257812 974.906066894531 963.201965332031 951.826599121094 944.702026367188 939.069580078125 938.025512695312 946.652587890625 957.603698730469 965.052001953125 961.12451171875 976.579772949219 979.46484375 998.757568359375 1009.08612060547 1020.03594970703 1019.68975830078 1015.80773925781 1026.08190917969 1031.10534667969 1041.85656738281 1050.24060058594 1042.89892578125 1028.78747558594 1027.49731445312 1021.22619628906 1018.80926513672 1025.63110351562 1027.33483886719 1028.373046875 1030.98193359375 1034.61206054688 1047.59094238281 1051.83374023438 1060.04675292969 1076.46313476562 1079.59594726562 1083.90893554688 1090.779296875 1088.46765136719 1083.24768066406 1083.69421386719
957.251525878906 945.112731933594 961.834899902344 967.863220214844 970.467590332031 956.315979003906 962.551879882812 968.48974609375 973.905822753906 969.9248046875 978.088195800781 972.630065917969 977.496887207031 978.019470214844 983.228820800781 975.932067871094 974.053649902344 975.579284667969 989.156311035156 983.619567871094 979.7734375 989.834045410156 993.0302734375 998.867309570312 987.974731445312 986.787353515625 986.046020507812 984.567138671875 984.368530273438 993.587890625 983.721008300781 989.252990722656 985.758544921875 994.275695800781 987.024475097656 991.268310546875 985.526733398438 988.918701171875 986.358520507812 984.553405761719 985.4833984375 992.013610839844 988.8466796875 997.218322753906 988.652893066406 990.639770507812 981.999328613281 972.892822265625 968.006591796875 977.216918945312 990.15185546875 986.036804199219 982.86181640625 976.968811035156 976.451538085938 974.353698730469 981.781372070312 979.432739257812 983.862670898438 984.146057128906 986.105590820312 992.388732910156 993.675476074219 1000.13916015625 1004.65844726562 1012.19000244141 1001.89373779297 999.66259765625 996.891052246094 1002.34527587891 1000.93957519531 990.10986328125 992.0234375 986.984558105469 971.490112304688 979.265869140625 977.684448242188 985.689147949219 990.197998046875 986.983337402344 991.329162597656 1002.85406494141 1000.73162841797 998.819274902344 1007.30194091797 1004.83990478516 1011.71527099609 1006.87451171875 1005.85723876953 1014.90887451172 1008.67419433594 1009.04040527344 1021.96160888672 1021.22552490234 1020.81677246094 1019.69165039062 1028.42919921875 1027.13171386719 1027.44836425781 1019.23614501953 1016.31286621094 1005.64526367188 1010.81219482422 1015.87554931641 1015.15637207031 1005.49114990234 1009.19665527344 994.603881835938 987.684387207031 972.48486328125 961.237548828125 954.539672851562 950.970581054688 951.053771972656 957.116882324219 951.697204589844 959.065612792969 968.087829589844 971.766784667969 975.148193359375 974.628845214844 991.567260742188 1006.82080078125 1018.51806640625 1019.35461425781 1020.62353515625 1022.44366455078 1027.966796875 1034.78491210938 1038.03002929688 1032.06225585938 1031.55590820312 1029.986328125 1018.18688964844 1010.64215087891 1010.13232421875 1021.60699462891 1024.58581542969 1031.45202636719 1032.28930664062 1041.48937988281 1055.28137207031 1062.53662109375 1077.18334960938 1088.50646972656 1097.71240234375 1085.37231445312 1099.68933105469 1097.57165527344 1095.29748535156
949.080383300781 949.268859863281 958.528625488281 963.048828125 965.762023925781 965.452331542969 966.004821777344 971.169555664062 966.697631835938 966.671936035156 981.219787597656 975.452331542969 979.328308105469 974.135559082031 979.482543945312 973.995788574219 972.199829101562 973.387329101562 980.589050292969 988.815734863281 985.007263183594 979.250244140625 985.248474121094 988.395812988281 990.224975585938 993.539123535156 983.151489257812 973.121765136719 975.24853515625 976.923034667969 982.749206542969 990.535705566406 988.773559570312 982.102294921875 989.52880859375 982.408081054688 988.425659179688 982.170227050781 976.21484375 982.039916992188 985.173767089844 990.739624023438 987.66455078125 993.682983398438 991.531188964844 985.672424316406 982.7587890625 973.754028320312 984.020874023438 975.42724609375 979.4326171875 979.070739746094 979.977233886719 972.725646972656 974.504760742188 975.390441894531 980.595825195312 982.810363769531 980.706298828125 972.503112792969 977.244140625 991.50244140625 997.836242675781 999.059997558594 1006.29187011719 1014.46588134766 1008.92944335938 996.955444335938 998.453063964844 997.213134765625 993.66748046875 989.037536621094 994.207397460938 990.138854980469 970.744995117188 970.697570800781 980.305297851562 990.984741210938 991.423583984375 982.947509765625 985.777221679688 997.34765625 1003.01086425781 1004.7490234375 999.546752929688 1006.99719238281 1007.24700927734 1010.1435546875 1011.30407714844 1010.63446044922 1013.41955566406 1006.8798828125 1019.28155517578 1013.40325927734 1017.05267333984 1021.77099609375 1027.11450195312 1025.39501953125 1023.24963378906 1018.57287597656 1000.77502441406 1005.56134033203 1004.87585449219 1018.21331787109 1016.56140136719 1002.44903564453 1008.41394042969 996.526000976562 989.278442382812 976.49072265625 967.532592773438 956.671569824219 960.816284179688 962.868408203125 968.720947265625 957.413208007812 964.368225097656 971.619384765625 963.05712890625 974.894104003906 973.742126464844 989.96630859375 992.529296875 1011.41650390625 1022.20843505859 1015.80212402344 1023.83770751953 1025.04028320312 1023.27130126953 1030.16369628906 1022.13659667969 1025.44445800781 1023.28210449219 1020.70172119141 1018.89068603516 1016.85693359375 1018.59204101562 1031.04064941406 1031.03979492188 1040.82934570312 1038.95458984375 1052.27160644531 1066.35192871094 1084.00415039062 1085.84326171875 1093.08850097656 1093.93017578125 1107.80969238281 1109.19848632812 1099.48693847656
948.220275878906 947.285583496094 956.384155273438 963.061279296875 966.498596191406 970.070617675781 976.135620117188 977.426574707031 966.713256835938 972.788818359375 975.263061523438 969.961486816406 969.690307617188 971.84765625 971.315551757812 965.949401855469 974.153686523438 977.438293457031 979.380493164062 985.276611328125 981.237365722656 984.828308105469 983.960693359375 983.167114257812 984.673828125 993.152526855469 973.930419921875 968.782348632812 969.000549316406 975.4091796875 980.291809082031 991.670715332031 987.322570800781 985.77734375 980.813171386719 983.299255371094 977.538940429688 987.6044921875 982.542236328125 983.897338867188 989.196594238281 988.029602050781 984.220153808594 980.001403808594 984.079406738281 984.672119140625 976.540710449219 973.82373046875 979.465393066406 975.025390625 984.530517578125 975.81298828125 980.182861328125 974.703186035156 976.344116210938 978.699096679688 988.128295898438 981.585021972656 975.045532226562 971.270263671875 975.633666992188 991.106323242188 993.449523925781 993.390808105469 997.493347167969 997.548645019531 995.491271972656 1000.02069091797 1006.64483642578 1002.92376708984 1001.705078125 991.986755371094 990.925109863281 979.525573730469 979.563598632812 970.507385253906 971.977416992188 978.673950195312 971.674682617188 978.769287109375 989.900268554688 998.349548339844 1005.82116699219 1000.68725585938 1006.86187744141 1006.95513916016 1010.70288085938 1018.37322998047 1020.48284912109 1019.93566894531 1013.86712646484 1008.85870361328 1001.32653808594 1015.05700683594 1024.63305664062 1025.03405761719 1028.47814941406 1025.06127929688 1004.76104736328 1002.36370849609 989.564392089844 1001.67199707031 1006.27972412109 1010.51989746094 1001.01580810547 995.862915039062 1003.53240966797 996.8701171875 997.2119140625 984.991882324219 978.845825195312 974.307434082031 974.412292480469 979.311218261719 972.418029785156 957.1748046875 961.255187988281 968.308959960938 976.631591796875 980.545349121094 988.150390625 993.581359863281 996.623474121094 1011.078125 1014.14013671875 1019.40655517578 1022.98266601562 1020.45452880859 1026.78686523438 1020.17266845703 1024.44921875 1015.55187988281 1017.37957763672 1014.00567626953 1020.92626953125 1016.08978271484 1020.66735839844 1035.05871582031 1041.83654785156 1044.34033203125 1044.6826171875 1054.75964355469 1071.21325683594 1079.64318847656 1089.263671875 1095.26013183594 1104.68041992188 1110.82360839844 1111.19348144531 1105.85437011719
948.300476074219 946.833312988281 960.4287109375 959.985778808594 963.13037109375 974.017028808594 975.24755859375 977.884338378906 972.309265136719 974.207214355469 974.804565429688 961.546508789062 963.887817382812 974.486450195312 978.879333496094 968.980041503906 978.205017089844 979.419250488281 973.579406738281 974.205078125 978.920043945312 984.797973632812 981.911071777344 975.127380371094 977.638610839844 977.54833984375 970.285949707031 974.637878417969 975.628967285156 977.95556640625 982.915100097656 985.658874511719 985.223693847656 988.137512207031 993.303955078125 988.489624023438 989.162292480469 985.440856933594 985.901733398438 981.753479003906 975.951599121094 986.252258300781 979.534973144531 983.839477539062 987.692016601562 986.839416503906 983.651794433594 981.721801757812 986.222412109375 979.136840820312 978.285278320312 975.743957519531 982.535034179688 973.825561523438 970.35205078125 976.710021972656 985.025268554688 985.096313476562 973.982177734375 975.950805664062 968.9638671875 989.571166992188 991.850463867188 981.639770507812 987.292541503906 992.877990722656 997.145751953125 1008.06524658203 1010.40057373047 1009.38537597656 1006.29998779297 999.732238769531 986.420349121094 973.659606933594 971.285278320312 967.215637207031 965.653137207031 969.04736328125 974.513488769531 972.290954589844 983.303161621094 988.654052734375 992.372680664062 1003.29608154297 1001.50073242188 1007.31304931641 1005.83020019531 1012.46252441406 1016.93859863281 1026.19848632812 1020.14672851562 1008.14697265625 1010.73309326172 1016.39990234375 1016.98217773438 1018.17022705078 1015.10412597656 1014.28332519531 1003.03515625 995.905395507812 989.38427734375 992.467529296875 995.283203125 992.727233886719 998.903747558594 995.789428710938 991.5869140625 992.355102539062 989.205932617188 986.322448730469 988.703857421875 985.318603515625 984.821838378906 981.95556640625 974.4970703125 966.754943847656 969.949035644531 972.4716796875 980.61083984375 979.018798828125 992.983947753906 993.529235839844 998.312622070312 1008.4287109375 1016.28088378906 1026.71276855469 1017.61395263672 1022.99810791016 1018.14093017578 1025.11584472656 1020.63238525391 1020.576171875 1012.17108154297 1014.24041748047 1026.25610351562 1019.72082519531 1033.26916503906 1041.14123535156 1049.30993652344 1051.28625488281 1057.16723632812 1064.53356933594 1072.16137695312 1081.02160644531 1088.68408203125 1096.962890625 1113.6455078125 1120.90197753906 1112.99780273438 1113.00842285156
947.00390625 946.107421875 954.797790527344 958.795959472656 960.8583984375 971.868103027344 973.691284179688 982.936462402344 969.591003417969 962.806396484375 960.866394042969 965.062377929688 964.697204589844 975.963989257812 972.032104492188 968.831970214844 970.97705078125 983.211120605469 978.140197753906 971.862487792969 976.6044921875 982.339233398438 978.897888183594 969.758483886719 967.926208496094 969.435241699219 980.812622070312 974.012084960938 976.629272460938 973.680725097656 984.436218261719 985.528930664062 984.076904296875 987.789245605469 987.055541992188 989.639831542969 987.790466308594 984.534851074219 986.160034179688 978.950256347656 977.091186523438 978.796081542969 984.540405273438 992.578308105469 990.264892578125 989.583557128906 989.406555175781 979.797119140625 980.107482910156 972.597045898438 976.117065429688 970.972412109375 975.769470214844 971.769165039062 966.937255859375 969.047119140625 979.640258789062 974.417785644531 977.030212402344 967.2705078125 979.502990722656 980.474609375 987.643737792969 986.397338867188 982.805786132812 988.475646972656 1002.49359130859 999.319519042969 996.222229003906 998.510559082031 997.134399414062 992.235473632812 985.309509277344 978.741638183594 971.3759765625 964.9375 965.9140625 970.346069335938 973.115783691406 980.481384277344 976.698791503906 987.467529296875 994.284912109375 1003.35571289062 1000.71295166016 1013.30804443359 1006.37658691406 1013.88946533203 1017.76806640625 1020.67132568359 1019.55004882812 1013.30554199219 1018.48107910156 1014.16436767578 1008.11047363281 1007.06469726562 1004.54669189453 1001.72039794922 1007.3134765625 1001.45385742188 994.642211914062 994.077758789062 986.996948242188 990.487426757812 993.352783203125 1002.11920166016 997.155883789062 989.277465820312 987.372436523438 989.775207519531 990.811828613281 980.290832519531 987.297668457031 989.813232421875 986.530151367188 987.592346191406 980.355224609375 981.92578125 976.544921875 983.468505859375 989.399597167969 991.916015625 999.760437011719 1002.79614257812 1021.81146240234 1030.52880859375 1022.68572998047 1013.76623535156 1015.60717773438 1019.53662109375 1017.20220947266 1024.50329589844 1021.15881347656 1016.93835449219 1021.72729492188 1032.35693359375 1041.08459472656 1044.84423828125 1049.22644042969 1061.57556152344 1060.97009277344 1068.75158691406 1078.27734375 1090.59802246094 1104.83386230469 1107.43273925781 1118.09106445312 1118.45373535156 1115.79699707031 1126.06652832031
955.3203125 949.343322753906 958.01806640625 955.082641601562 971.171020507812 977.42919921875 967.255554199219 970.525329589844 971.793823242188 969.865844726562 965.582824707031 969.117004394531 963.637084960938 975.194763183594 972.02294921875 980.251403808594 980.502014160156 974.249755859375 971.48486328125 969.940246582031 968.652770996094 978.546997070312 983.718505859375 981.864440917969 975.532043457031 979.972778320312 970.259399414062 971.101684570312 974.048583984375 980.073120117188 983.038818359375 985.222290039062 983.320068359375 980.793273925781 983.447204589844 990.496765136719 991.817810058594 979.267700195312 989.151000976562 980.580993652344 980.927124023438 982.642456054688 984.369812011719 992.989074707031 996.972412109375 997.569763183594 983.89501953125 983.250366210938 980.057739257812 977.009643554688 979.200012207031 980.087829589844 975.904541015625 979.638122558594 977.632507324219 976.564880371094 978.220397949219 973.74462890625 967.71533203125 968.002746582031 967.466735839844 967.118835449219 974.639587402344 975.03564453125 979.224426269531 992.049499511719 994.740112304688 989.373718261719 982.040222167969 986.473876953125 984.3056640625 980.724853515625 984.301452636719 982.498779296875 966.566284179688 963.794311523438 963.633850097656 964.945495605469 973.897521972656 978.059692382812 975.913696289062 984.555908203125 994.329406738281 1006.92553710938 1008.59478759766 1005.30389404297 1001.88067626953 1006.95971679688 1017.82220458984 1010.90008544922 1023.09057617188 1016.66052246094 1014.58129882812 1010.03765869141 989.487670898438 993.648254394531 999.8876953125 995.135192871094 999.915710449219 999.979370117188 1001.15600585938 993.619750976562 992.713989257812 989.216003417969 991.118957519531 1000.34716796875 1004.05310058594 992.861999511719 985.942016601562 987.807250976562 995.938781738281 988.962158203125 995.638305664062 994.917297363281 1000.38897705078 991.288818359375 990.741027832031 982.229736328125 991.339721679688 978.979370117188 991.800720214844 998.580932617188 1002.32043457031 1008.01385498047 1011.89471435547 1019.96429443359 1017.31030273438 1011.63366699219 1011.11950683594 1006.68756103516 1009.79248046875 1014.85101318359 1019.65985107422 1018.70654296875 1027.51672363281 1042.56396484375 1057.47912597656 1053.271484375 1057.22875976562 1066.01611328125 1065.07409667969 1075.22912597656 1088.09912109375 1092.67529296875 1104.77661132812 1113.51745605469 1124.28063964844 1135.22387695312 1135.06665039062 1131.35009765625
953.997863769531 948.695129394531 959.675476074219 966.675048828125 967.178894042969 977.899169921875 976.310241699219 974.239013671875 968.139404296875 964.330688476562 968.647644042969 974.550415039062 974.526489257812 969.568542480469 965.634155273438 977.988037109375 980.8369140625 972.189331054688 970.289489746094 970.313598632812 973.284606933594 972.995788574219 983.910095214844 982.289245605469 987.05078125 967.979919433594 966.586242675781 970.084838867188 972.361206054688 974.458251953125 975.895324707031 982.259033203125 981.007385253906 982.708312988281 983.103271484375 984.164794921875 984.247497558594 978.4375 979.007873535156 978.065979003906 977.369506835938 976.364807128906 988.013610839844 979.024841308594 979.651184082031 994.467834472656 977.312072753906 969.807556152344 969.752746582031 968.49609375 971.439636230469 971.867736816406 967.955200195312 979.19921875 979.416931152344 977.947448730469 970.541564941406 971.268493652344 965.451843261719 960.502624511719 963.156005859375 963.3740234375 968.28564453125 970.2216796875 974.861267089844 977.424499511719 980.743225097656 980.966369628906 983.888793945312 975.520324707031 971.85009765625 984.151245117188 981.048889160156 977.629577636719 963.044738769531 965.678955078125 959.314453125 964.843872070312 969.988098144531 976.273681640625 977.535949707031 980.271728515625 987.953979492188 996.495727539062 996.826599121094 999.304992675781 1010.92077636719 1008.66259765625 1004.01019287109 1013.72503662109 1015.03723144531 1007.84771728516 1009.57208251953 999.119995117188 992.851440429688 993.02099609375 997.526794433594 992.095031738281 990.787109375 991.8642578125 995.098815917969 991.266662597656 986.017150878906 986.853454589844 994.977844238281 993.497131347656 997.832946777344 993.480651855469 989.423278808594 991.445861816406 990.522277832031 998.147338867188 997.442626953125 995.269592285156 1003.56420898438 995.136474609375 989.591430664062 992.183471679688 997.776123046875 994.935791015625 996.247131347656 1001.00891113281 998.865844726562 1007.48181152344 996.835205078125 1014.11401367188 1009.38360595703 1014.97100830078 1010.29693603516 1005.15264892578 1006.52227783203 1016.40692138672 1026.02734375 1034.45983886719 1047.25817871094 1046.53039550781 1051.97534179688 1053.67431640625 1057.28674316406 1067.44458007812 1067.83020019531 1079.9951171875 1094.43725585938 1099.84875488281 1110.53283691406 1113.15051269531 1125.17443847656 1130.12731933594 1135.57751464844 1132.80712890625
946.709899902344 960.192810058594 969.285339355469 969.092834472656 974.04931640625 979.665283203125 977.87548828125 975.215393066406 961.212463378906 964.601257324219 969.830993652344 972.726623535156 976.087768554688 971.129516601562 968.125610351562 978.875366210938 979.252746582031 974.135009765625 978.902954101562 971.312927246094 967.953186035156 976.822631835938 983.639526367188 971.531799316406 975.580261230469 972.251647949219 975.733276367188 975.245483398438 977.263671875 981.620910644531 978.67626953125 977.266479492188 981.0615234375 987.722534179688 978.485961914062 985.297729492188 987.881652832031 981.113830566406 982.6083984375 982.869323730469 979.9169921875 978.45166015625 981.514099121094 978.424011230469 980.852661132812 978.18701171875 969.914855957031 966.568603515625 969.58447265625 979.406921386719 977.782470703125 978.513732910156 979.691955566406 988.266418457031 981.451293945312 977.894775390625 979.003051757812 970.619506835938 962.677551269531 963.448669433594 959.146118164062 958.499206542969 959.369873046875 970.465393066406 974.599670410156 973.578430175781 968.873352050781 969.437927246094 971.141723632812 972.161987304688 972.342346191406 978.869445800781 976.861999511719 978.692321777344 963.613159179688 958.579406738281 971.252563476562 970.223205566406 968.147094726562 973.534606933594 979.823547363281 984.1748046875 983.845947265625 989.421936035156 996.373718261719 1004.68646240234 999.675109863281 1000.26513671875 1005.15771484375 1008.5751953125 1008.55346679688 1005.8994140625 1003.18719482422 996.335266113281 994.971557617188 988.62548828125 998.606994628906 988.472900390625 984.718688964844 987.10205078125 983.969299316406 993.27978515625 991.510070800781 993.500610351562 991.137573242188 995.630676269531 998.872802734375 988.392578125 985.103698730469 992.763122558594 1000.84783935547 1001.27453613281 997.634521484375 999.505493164062 998.091186523438 998.670959472656 997.427124023438 991.270141601562 998.670104980469 997.410034179688 995.24609375 1001.36254882812 998.504089355469 996.565795898438 999.067993164062 1001.94073486328 1000.69006347656 1001.55725097656 1002.52966308594 1002.04437255859 1012.67077636719 1014.92468261719 1020.8505859375 1034.5927734375 1040.78259277344 1050.64416503906 1043.12780761719 1055.28100585938 1059.11145019531 1063.06591796875 1077.37048339844 1090.13171386719 1098.64294433594 1114.49694824219 1117.74975585938 1119.94775390625 1134.97570800781 1136.40270996094 1125.64916992188 1136.76745605469
945.559753417969 953.26904296875 963.641052246094 962.760314941406 971.053344726562 969.369995117188 972.102844238281 971.238037109375 959.5380859375 962.854919433594 971.652587890625 969.487609863281 970.340148925781 973.042175292969 980.972778320312 973.48876953125 975.612121582031 979.385498046875 974.41943359375 981.247314453125 980.798828125 986.765075683594 988.597534179688 977.898803710938 965.532287597656 968.651611328125 974.1064453125 972.238037109375 977.238891601562 976.940490722656 975.567077636719 981.013000488281 972.333801269531 978.199279785156 980.899353027344 979.873474121094 980.671936035156 982.604064941406 979.084777832031 977.20556640625 976.854064941406 987.35009765625 981.739196777344 983.15380859375 977.561767578125 979.725219726562 974.491882324219 973.43798828125 988.274047851562 983.609558105469 984.31689453125 989.622741699219 974.247863769531 977.092956542969 975.870422363281 975.6806640625 971.473510742188 971.980712890625 973.23388671875 964.080078125 966.319213867188 958.048400878906 957.797546386719 968.339233398438 964.521667480469 965.330993652344 965.656188964844 965.101379394531 964.166015625 951.375244140625 962.858276367188 969.974975585938 966.960754394531 963.454467773438 965.171691894531 966.242431640625 971.633361816406 965.895202636719 972.112854003906 977.763488769531 982.827941894531 988.114501953125 986.140075683594 988.308166503906 992.004760742188 996.212646484375 1004.20452880859 996.346313476562 997.648803710938 997.518493652344 996.851501464844 1005.99951171875 996.527893066406 998.411376953125 988.199462890625 986.779602050781 991.431640625 992.346130371094 986.829284667969 988.321350097656 983.577087402344 991.805908203125 987.594543457031 981.193603515625 987.66796875 990.627624511719 985.718688964844 975.517517089844 978.447631835938 993.066162109375 1000.32415771484 997.935668945312 1000.26940917969 1004.81848144531 997.051696777344 994.310974121094 993.111694335938 997.38037109375 993.337646484375 998.825500488281 1003.80438232422 999.911499023438 1001.94946289062 990.756896972656 985.105163574219 1000.60705566406 1002.39178466797 996.299011230469 995.995300292969 1000.26318359375 1012.93951416016 1025.455078125 1026.41198730469 1037.30090332031 1053.08728027344 1044.06140136719 1050.04895019531 1052.28051757812 1055.6494140625 1067.01574707031 1089.33972167969 1096.44702148438 1100.1484375 1108.74389648438 1122.11608886719 1128.89770507812 1135.29797363281 1139.28820800781 1134.693359375 1145.69799804688
943.556762695312 955.822814941406 955.329467773438 957.825622558594 965.124572753906 968.155822753906 967.227905273438 968.628662109375 965.395385742188 964.272766113281 958.685241699219 970.4169921875 970.326416015625 974.668884277344 972.939392089844 983.230224609375 977.141723632812 977.248657226562 977.611755371094 982.700622558594 986.831481933594 979.192504882812 982.060974121094 975.940307617188 962.651550292969 959.018676757812 963.832763671875 976.130187988281 978.7724609375 979.112243652344 972.204223632812 976.549194335938 977.900451660156 978.340698242188 982.27685546875 983.28759765625 982.091857910156 982.540649414062 974.256591796875 969.298461914062 975.151245117188 974.282409667969 983.261169433594 980.314147949219 983.152648925781 973.142517089844 971.712036132812 976.084533691406 975.910522460938 978.147155761719 984.144836425781 983.898559570312 981.055114746094 982.612731933594 963.332763671875 965.4267578125 972.231994628906 977.663269042969 968.145690917969 963.752807617188 965.50927734375 955.684936523438 963.810241699219 961.989562988281 966.552368164062 948.792602539062 966.964050292969 964.229797363281 966.878173828125 959.334533691406 965.882629394531 972.077514648438 971.499267578125 970.794006347656 966.08056640625 957.921813964844 964.2392578125 973.252746582031 975.8759765625 986.5478515625 981.480102539062 988.684814453125 991.75537109375 991.193542480469 989.496276855469 986.975463867188 995.936950683594 996.22119140625 990.62890625 996.965759277344 994.322448730469 1001.13830566406 996.133972167969 993.782653808594 991.077026367188 994.057006835938 989.996948242188 990.761291503906 988.167419433594 984.568542480469 988.263122558594 992.588928222656 990.839050292969 982.964294433594 983.877624511719 977.360961914062 978.803955078125 980.02490234375 985.904357910156 990.40869140625 983.478942871094 988.159790039062 991.243103027344 1001.48168945312 989.886169433594 993.424377441406 994.610046386719 989.717651367188 984.593383789062 990.90869140625 992.203002929688 996.936889648438 988.699584960938 992.725158691406 1000.66986083984 1006.70098876953 1015.05072021484 1009.59442138672 1009.18432617188 1010.49591064453 1020.86444091797 1037.51171875 1045.90942382812 1046.19836425781 1044.64501953125 1044.11999511719 1048.26745605469 1055.98889160156 1067.25390625 1080.1484375 1086.55212402344 1091.21252441406 1106.96240234375 1123.16052246094 1126.01867675781 1133.52099609375 1138.15087890625 1153.06005859375 1150.03039550781 1151.30493164062
946.978210449219 943.041748046875 955.996215820312 957.2099609375 965.582946777344 970.820617675781 963.868957519531 965.1025390625 952.759338378906 953.62646484375 957.977111816406 963.328674316406 970.092651367188 974.037414550781 970.17724609375 963.041870117188 973.214294433594 981.55126953125 985.444641113281 986.868957519531 983.825317382812 974.71728515625 981.528564453125 971.590637207031 958.454040527344 964.797485351562 964.052001953125 969.984252929688 972.838562011719 982.545776367188 980.413696289062 987.398986816406 984.312805175781 981.929992675781 986.021728515625 980.036560058594 976.607604980469 978.295288085938 974.689758300781 963.271667480469 964.855163574219 966.989624023438 970.23681640625 974.822143554688 973.816223144531 970.317260742188 972.936889648438 968.577270507812 973.338500976562 976.060729980469 976.561218261719 977.888244628906 970.282958984375 973.151245117188 967.471984863281 959.552551269531 965.408813476562 970.796997070312 974.806945800781 969.757141113281 975.294616699219 963.52783203125 963.453063964844 962.401794433594 967.699035644531 960.746643066406 967.94677734375 968.900817871094 973.078002929688 974.711547851562 970.703735351562 969.683288574219 966.459899902344 973.070129394531 965.995727539062 966.920104980469 972.171020507812 973.80615234375 979.412353515625 982.966979980469 981.03662109375 982.99267578125 989.015441894531 989.681945800781 989.862976074219 988.592224121094 988.436584472656 983.84375 990.504272460938 990.403503417969 989.879760742188 993.7919921875 995.041320800781 986.616577148438 991.7099609375 992.404296875 984.8857421875 983.947692871094 985.971008300781 984.203674316406 986.71875 980.606567382812 981.05810546875 980.372436523438 979.670166015625 981.978515625 977.234191894531 978.973571777344 973.611267089844 984.106872558594 988.20166015625 986.731689453125 988.476379394531 989.584716796875 986.660949707031 991.755920410156 994.530029296875 989.241149902344 993.397277832031 988.653259277344 988.948059082031 995.677551269531 990.693481445312 1001.00201416016 999.897155761719 1005.22888183594 1010.01141357422 1007.98138427734 1012.67742919922 1013.31341552734 1031.4404296875 1041.6494140625 1045.45361328125 1048.30737304688 1046.3583984375 1052.98754882812 1051.93383789062 1053.72436523438 1073.83642578125 1088.11572265625 1099.64123535156 1096.85388183594 1101.57751464844 1117.31213378906 1133.78759765625 1136.26696777344 1145.13903808594 1148.95935058594 1154.42236328125 1155.13342285156
940.768615722656 943.013793945312 949.331970214844 954.800842285156 961.019104003906 960.283264160156 955.236267089844 958.080932617188 951.080627441406 947.9326171875 959.462219238281 969.656677246094 973.2001953125 969.387329101562 964.709350585938 968.650634765625 962.44189453125 970.601623535156 984.707397460938 985.51220703125 982.36279296875 973.317565917969 972.793701171875 965.621398925781 963.676330566406 970.246887207031 972.213500976562 976.240417480469 982.441040039062 982.360595703125 987.105895996094 986.981689453125 980.836547851562 977.320007324219 988.461853027344 976.493957519531 976.628723144531 971.555786132812 965.138488769531 968.132019042969 969.850402832031 967.684265136719 969.013732910156 978.001831054688 965.255859375 960.957214355469 966.585083007812 968.713439941406 970.419006347656 973.270935058594 982.466491699219 971.849182128906 969.111694335938 971.191650390625 969.809265136719 968.476440429688 964.77685546875 973.653625488281 983.827819824219 978.961547851562 978.405212402344 972.759948730469 965.843872070312 959.726379394531 959.754272460938 964.7529296875 964.094055175781 961.204223632812 962.242065429688 961.170532226562 968.484985351562 969.262268066406 971.312438964844 964.422424316406 970.452941894531 967.97119140625 966.562744140625 975.43603515625 981.471069335938 977.817810058594 978.179931640625 982.121826171875 990.941162109375 985.263366699219 991.902160644531 988.828552246094 986.799011230469 991.959594726562 986.758850097656 987.867492675781 983.134338378906 981.781433105469 993.353332519531 992.099792480469 986.068664550781 988.168823242188 981.345764160156 985.091796875 985.665405273438 986.935668945312 979.997924804688 971.428955078125 982.24755859375 982.822204589844 987.981018066406 976.472717285156 974.589965820312 977.386657714844 974.098266601562 984.050354003906 984.994079589844 986.117492675781 978.982482910156 988.329650878906 988.648315429688 989.742309570312 993.65380859375 985.478332519531 991.665344238281 997.768737792969 991.873046875 992.310729980469 999.835266113281 1001.34246826172 1010.78564453125 1014.5166015625 1012.22021484375 1017.98657226562 1023.76013183594 1033.79833984375 1030.43676757812 1039.31994628906 1044.25952148438 1052.20861816406 1051.9453125 1057.10961914062 1057.49914550781 1066.31481933594 1083.37622070312 1088.41284179688 1101.66650390625 1111.24743652344 1108.45202636719 1123.39025878906 1139.06555175781 1146.60485839844 1149.88232421875 1152.47265625 1155.50854492188 1161.236328125
945.647155761719 943.8984375 942.460693359375 953.0498046875 950.170837402344 956.714599609375 953.588256835938 953.325561523438 959.288635253906 959.213745117188 954.658813476562 960.281127929688 974.351501464844 971.194030761719 967.263793945312 972.426879882812 964.73828125 965.95361328125 986.921875 980.599243164062 980.37939453125 976.536376953125 976.758850097656 966.974487304688 963.986938476562 967.924865722656 966.715698242188 977.06640625 969.686340332031 980.787475585938 983.324890136719 981.067687988281 970.051696777344 975.917541503906 974.397399902344 965.514343261719 968.115356445312 965.518005371094 973.04541015625 978.551330566406 968.202575683594 967.70458984375 970.978149414062 966.366760253906 969.469360351562 965.444030761719 973.515686035156 972.644775390625 979.0693359375 984.174987792969 979.552368164062 978.741149902344 968.523864746094 974.209655761719 967.076538085938 970.078857421875 963.0615234375 974.500610351562 968.091491699219 972.580139160156 975.225891113281 976.993286132812 975.831726074219 967.408935546875 960.575866699219 979.282165527344 974.362060546875 972.595275878906 969.12890625 967.216247558594 971.088745117188 963.237548828125 968.334533691406 961.526306152344 969.785949707031 964.627868652344 965.206481933594 969.881469726562 974.2724609375 968.384887695312 979.931213378906 979.866088867188 980.545043945312 987.486572265625 998.739318847656 988.583740234375 977.742919921875 983.639099121094 982.156982421875 979.148864746094 973.922668457031 980.687866210938 983.27099609375 982.228881835938 979.572814941406 984.369140625 980.179809570312 977.033447265625 976.982116699219 984.877014160156 977.477844238281 978.938903808594 988.582702636719 982.217163085938 978.560729980469 979.718200683594 980.810302734375 984.701477050781 984.229675292969 983.687866210938 988.443298339844 984.9345703125 975.624145507812 984.896911621094 998.341918945312 991.895935058594 993.161254882812 988.90185546875 990.65771484375 1000.40118408203 997.874145507812 998.268676757812 1003.04345703125 1001.8173828125 1007.26727294922 1022.10125732422 1016.37890625 1020.51965332031 1019.69213867188 1033.63928222656 1036.43017578125 1035.71826171875 1050.07055664062 1054.33154296875 1057.57751464844 1058.69384765625 1061.20446777344 1069.30908203125 1088.26525878906 1088.89111328125 1105.34020996094 1110.63720703125 1113.75207519531 1128.54089355469 1132.90222167969 1154.82592773438 1150.13732910156 1155.58374023438 1163.62365722656 1160.27587890625
942.963439941406 945.549194335938 948.274780273438 948.701049804688 955.936157226562 950.001647949219 953.470153808594 964.066589355469 963.101928710938 963.534606933594 960.213989257812 956.039489746094 966.090881347656 970.477172851562 968.4931640625 969.9580078125 973.720458984375 974.06103515625 973.13427734375 974.968200683594 974.313659667969 975.644226074219 967.609985351562 963.138916015625 960.882202148438 968.931518554688 972.787719726562 970.527526855469 970.632080078125 975.748413085938 979.829956054688 979.87109375 980.060607910156 969.717590332031 966.842895507812 963.512634277344 967.890563964844 976.383483886719 970.616027832031 970.034362792969 972.589416503906 971.092529296875 972.675231933594 971.866821289062 972.072570800781 978.723205566406 974.044677734375 977.027526855469 979.93408203125 980.644714355469 969.312133789062 977.530944824219 971.842041015625 967.945495605469 969.879333496094 961.457763671875 958.183044433594 964.400573730469 970.125549316406 970.358581542969 969.7431640625 977.280517578125 978.459411621094 976.2314453125 974.833740234375 975.03466796875 972.964721679688 969.548889160156 973.237854003906 973.792846679688 965.569763183594 961.926086425781 966.87939453125 966.157775878906 962.183654785156 965.440368652344 969.882141113281 963.227294921875 962.2392578125 959.153991699219 966.607360839844 967.235534667969 981.27783203125 981.388916015625 984.211730957031 980.440368652344 983.653747558594 975.362915039062 971.557861328125 967.50244140625 972.720336914062 980.363708496094 981.979125976562 981.75927734375 982.635620117188 984.496459960938 981.696899414062 970.112182617188 977.822326660156 985.046630859375 971.942565917969 988.069580078125 994.542358398438 986.191589355469 976.437133789062 981.511901855469 985.9990234375 983.729858398438 990.14404296875 1000.12963867188 1000.71331787109 985.475524902344 982.275268554688 986.094970703125 991.920227050781 1004.6591796875 995.212585449219 993.948059082031 992.469116210938 1002.0810546875 998.56494140625 1003.33715820312 1012.51849365234 1007.68096923828 1008.27447509766 1020.60888671875 1027.35021972656 1028.81420898438 1026.97692871094 1027.94140625 1036.87524414062 1040.57263183594 1049.27307128906 1050.25671386719 1047.84375 1052.44140625 1062.0859375 1070.58142089844 1080.27514648438 1088.78039550781 1101.94873046875 1106.81323242188 1124.32043457031 1133.70910644531 1145.7158203125 1151.62609863281 1157.69140625 1161.28088378906 1167.626953125 1163.34924316406
943.881164550781 941.094055175781 950.252502441406 956.638732910156 959.152099609375 960.516479492188 961.721923828125 962.699157714844 963.715942382812 963.708618164062 969.219421386719 964.575866699219 971.689270019531 970.343811035156 969.53076171875 971.586791992188 974.520324707031 969.674499511719 981.497863769531 977.829833984375 972.117858886719 970.021179199219 969.892150878906 961.487243652344 963.137573242188 965.958923339844 960.191833496094 967.695129394531 975.015441894531 978.361267089844 969.040283203125 971.321350097656 974.95068359375 978.437744140625 971.038818359375 962.239624023438 967.900756835938 966.71435546875 974.71240234375 972.598937988281 965.274353027344 972.137329101562 970.3310546875 973.038208007812 969.726379394531 972.287963867188 973.655090332031 980.660339355469 980.093627929688 965.055603027344 969.968200683594 971.443115234375 966.878112792969 973.284606933594 971.992858886719 970.269653320312 954.58203125 967.407531738281 963.404235839844 965.313049316406 969.785888671875 974.248596191406 977.925170898438 980.168334960938 968.363952636719 972.178588867188 967.297424316406 968.547058105469 969.658630371094 965.716064453125 960.768493652344 967.551513671875 970.084838867188 965.347900390625 974.243957519531 973.383911132812 969.197875976562 964.616638183594 960.925415039062 957.3251953125 963.106628417969 964.204772949219 966.215270996094 976.997436523438 981.9501953125 978.605895996094 979.877563476562 976.698913574219 979.720520019531 983.55126953125 980.177062988281 980.162536621094 977.694946289062 986.202941894531 989.745971679688 982.541748046875 973.024597167969 969.275512695312 972.883605957031 990.071533203125 982.634826660156 985.539123535156 993.273376464844 992.219421386719 984.654479980469 993.979675292969 989.329956054688 981.675598144531 990.713012695312 994.855346679688 994.165771484375 992.628234863281 992.651000976562 999.871826171875 1007.44396972656 1008.85131835938 1000.01776123047 990.364379882812 997.931945800781 996.472045898438 1003.96789550781 1011.85827636719 1017.91693115234 1009.47814941406 1017.19268798828 1014.34869384766 1032.37243652344 1032.44555664062 1023.44134521484 1030.67211914062 1038.68420410156 1042.06420898438 1052.58642578125 1048.21435546875 1055.40161132812 1056.49291992188 1067.76892089844 1068.00183105469 1087.73303222656 1094.10815429688 1097.9248046875 1106.47253417969 1118.89306640625 1129.64099121094 1143.73217773438 1147.16955566406 1163.01281738281 1167.50500488281 1176.9267578125 1166.18347167969
946.493591308594 948.635131835938 955.628479003906 967.0810546875 953.938110351562 955.071166992188 961.369995117188 969.546142578125 967.229309082031 961.702758789062 963.524536132812 968.307678222656 972.655822753906 969.069213867188 977.981262207031 971.143493652344 964.510620117188 969.745239257812 972.172485351562 970.174072265625 976.735168457031 972.485168457031 957.178161621094 960.736267089844 964.217346191406 971.442504882812 964.685607910156 970.653869628906 981.238525390625 981.645751953125 978.291076660156 978.44775390625 973.247314453125 980.846252441406 973.495483398438 970.247253417969 967.119323730469 966.935913085938 964.163391113281 970.4169921875 967.455810546875 961.417846679688 967.186401367188 970.080749511719 971.675659179688 963.1845703125 967.252563476562 975.864807128906 965.477294921875 962.632141113281 959.98828125 966.870849609375 968.720092773438 977.159240722656 971.753173828125 957.825256347656 960.813781738281 957.515197753906 964.171325683594 962.952026367188 965.487060546875 973.331909179688 968.960266113281 980.919128417969 975.67333984375 962.91064453125 966.01318359375 968.318725585938 964.330505371094 969.58984375 957.280578613281 958.359924316406 964.172790527344 971.667602539062 962.300415039062 967.119506835938 969.872192382812 959.854431152344 964.307556152344 965.305419921875 970.929138183594 965.344604492188 975.385925292969 963.276245117188 969.636413574219 971.601196289062 967.565185546875 969.524536132812 977.404052734375 968.073913574219 970.888000488281 973.919738769531 977.631408691406 982.421569824219 986.713684082031 987.984130859375 976.140563964844 978.576538085938 972.4775390625 978.489501953125 978.117980957031 984.798706054688 990.861999511719 991.122009277344 986.994934082031 989.967407226562 995.469543457031 996.476501464844 1002.55847167969 1000.18249511719 994.46435546875 985.656799316406 990.548767089844 1000.70391845703 1019.52587890625 1007.54602050781 1010.05816650391 1005.43579101562 997.220336914062 1005.02648925781 1013.27508544922 1012.48486328125 1014.45544433594 1022.87139892578 1025.13500976562 1022.65118408203 1027.17517089844 1037.35729980469 1026.14538574219 1030.50524902344 1037.3935546875 1048.86413574219 1054.35363769531 1066.20776367188 1066.60522460938 1076.64685058594 1084.41650390625 1076.77685546875 1088.47790527344 1096.04284667969 1100.70581054688 1110.3359375 1115.99926757812 1131.07263183594 1146.57104492188 1153.1474609375 1155.35083007812 1167.72546386719 1164.84069824219 1164.33898925781
942.742736816406 955.77392578125 958.142395019531 966.587646484375 966.771911621094 959.338439941406 955.995361328125 963.076538085938 967.40771484375 959.936462402344 968.521545410156 966.364135742188 961.443237304688 972.016845703125 979.310791015625 972.211853027344 970.841857910156 974.187683105469 976.000854492188 974.513732910156 971.02783203125 965.7919921875 964.699523925781 964.437072753906 966.99365234375 972.505310058594 965.746276855469 970.866577148438 979.42724609375 978.861022949219 972.93310546875 972.361328125 975.86572265625 970.697021484375 978.134643554688 971.734924316406 967.70263671875 960.032409667969 963.330932617188 958.808837890625 962.956298828125 960.154418945312 970.298889160156 969.488342285156 967.5458984375 962.848754882812 972.185363769531 973.044372558594 969.553833007812 961.673706054688 964.882080078125 966.048645019531 966.200073242188 971.104309082031 966.979309082031 957.676696777344 950.312622070312 967.655700683594 975.861999511719 969.23828125 965.432739257812 969.031860351562 970.231750488281 982.983215332031 972.757202148438 977.282409667969 977.565246582031 968.515930175781 974.857849121094 968.097839355469 958.516357421875 965.312927246094 966.588562011719 964.247741699219 963.406311035156 972.800720214844 969.919494628906 962.3349609375 967.788818359375 967.388549804688 967.390686035156 963.571166992188 966.265625 968.003051757812 963.835632324219 966.859619140625 974.940490722656 975.051086425781 967.740295410156 973.693664550781 972.387023925781 975.408569335938 976.252380371094 982.144226074219 986.775634765625 989.294250488281 982.10400390625 981.842590332031 975.290405273438 985.239196777344 974.841003417969 984.043029785156 984.124755859375 976.669189453125 985.566345214844 990.206176757812 996.705932617188 999.451904296875 1004.23248291016 998.57958984375 993.807861328125 988.37255859375 994.993896484375 1007.67663574219 1014.23797607422 1012.70837402344 1016.11938476562 1020.33856201172 1013.11242675781 1009.06506347656 1007.94494628906 1012.85955810547 1019.34527587891 1030.91137695312 1030.01892089844 1024.89782714844 1021.6728515625 1027.38293457031 1032.99731445312 1036.35290527344 1043.64086914062 1046.93347167969 1055.63342285156 1060.46923828125 1066.82458496094 1080.66979980469 1089.87255859375 1081.60424804688 1089.39392089844 1100.24047851562 1107.69311523438 1122.91259765625 1122.435546875 1134.50341796875 1140.54577636719 1141.73229980469 1151.43041992188 1159.34484863281 1158.28430175781 1154.61755371094
958.044616699219 954.976501464844 963.807678222656 961.13232421875 966.497680664062 962.734008789062 959.274169921875 970.038391113281 970.047729492188 962.510314941406 960.728271484375 959.084655761719 971.612365722656 973.964599609375 981.690673828125 979.541381835938 978.066467285156 970.460083007812 970.086059570312 972.858703613281 964.602844238281 965.646057128906 967.3427734375 962.571228027344 969.699890136719 960.926452636719 965.4599609375 966.0390625 963.651977539062 974.560485839844 975.597778320312 980.111938476562 984.285278320312 981.204406738281 974.002136230469 967.609313964844 971.310485839844 961.842102050781 962.577758789062 965.253234863281 961.680358886719 961.85693359375 967.492858886719 965.655334472656 961.651733398438 963.534301757812 966.807189941406 969.040344238281 963.379028320312 970.85986328125 973.078918457031 970.038024902344 974.372680664062 969.264099121094 959.213073730469 964.223876953125 966.6240234375 967.478698730469 973.378356933594 966.640380859375 967.829284667969 973.657470703125 975.728393554688 978.223022460938 978.840393066406 969.716369628906 974.172485351562 975.725708007812 969.983825683594 968.843627929688 968.040832519531 964.076171875 959.259704589844 963.077331542969 959.650756835938 960.655090332031 963.952697753906 958.487609863281 961.440002441406 968.262756347656 972.000183105469 969.538269042969 969.6015625 964.238403320312 968.409851074219 970.09423828125 972.753051757812 974.801818847656 968.809692382812 962.553344726562 966.766479492188 975.759948730469 975.214294433594 972.130676269531 978.369140625 979.948486328125 986.268371582031 976.542602539062 974.454956054688 970.005432128906 975.768615722656 972.846923828125 981.326965332031 988.72412109375 984.657653808594 994.414001464844 996.872802734375 994.62060546875 1001.67663574219 997.552612304688 994.183654785156 995.029846191406 993.369506835938 1001.52471923828 1009.32586669922 1012.43621826172 1011.75714111328 1016.82720947266 1011.91668701172 1016.30657958984 1010.20935058594 1020.88427734375 1026.63854980469 1031.38720703125 1038.8037109375 1030.42517089844 1022.89215087891 1026.36047363281 1031.01440429688 1043.4873046875 1051.72436523438 1047.53918457031 1054.23583984375 1066.29577636719 1066.71838378906 1077.31091308594 1082.87658691406 1086.58544921875 1095.51123046875 1106.15344238281 1112.10803222656 1114.69226074219 1128.38989257812 1134.3916015625 1146.61950683594 1145.43103027344 1150.87670898438 1156.78491210938 1159.94299316406 1156.33642578125
950.980285644531 951.031982421875 958.971801757812 965.509826660156 962.650634765625 960.730407714844 963.641174316406 965.886840820312 975.364929199219 969.076782226562 972.511779785156 970.011901855469 978.935729980469 976.807739257812 982.971374511719 986.704833984375 983.358703613281 981.950805664062 974.813720703125 968.376892089844 958.921264648438 964.763549804688 965.721313476562 968.232971191406 962.643798828125 959.464111328125 955.963562011719 969.458312988281 962.801574707031 977.499328613281 982.435668945312 980.792297363281 978.262939453125 980.665405273438 972.493774414062 976.375244140625 971.187377929688 963.103820800781 963.654663085938 954.392578125 959.28515625 960.295349121094 945.572570800781 955.874389648438 963.070922851562 953.205017089844 963.371398925781 961.842346191406 970.147338867188 971.279602050781 976.727233886719 968.650268554688 973.255126953125 970.1923828125 962.536743164062 963.207092285156 967.2080078125 963.312927246094 966.415344238281 963.748291015625 966.831726074219 966.197143554688 968.720275878906 968.784790039062 973.34716796875 969.280517578125 973.820007324219 971.985412597656 966.628662109375 959.232177734375 969.845764160156 968.867126464844 960.868225097656 959.278076171875 965.527709960938 962.797302246094 969.616577148438 973.469909667969 966.307556152344 975.511047363281 970.310119628906 972.458862304688 968.747924804688 968.286865234375 972.95751953125 972.124633789062 973.80859375 969.815795898438 969.680114746094 960.614624023438 963.569702148438 977.450012207031 976.768127441406 977.77734375 967.406860351562 963.332580566406 967.266845703125 968.274169921875 968.582092285156 963.673950195312 965.910827636719 967.352966308594 968.205139160156 978.806030273438 979.534790039062 982.736328125 989.930297851562 985.647583007812 984.468566894531 990.755126953125 993.308837890625 998.86474609375 999.578125 995.96240234375 996.895324707031 1000.31365966797 996.429321289062 1010.14581298828 1009.28332519531 1021.33941650391 1027.31469726562 1020.45935058594 1027.41052246094 1035.87951660156 1031.07287597656 1025.14245605469 1024.166015625 1027.22180175781 1024.53088378906 1038.04833984375 1048.76989746094 1056.17504882812 1050.51135253906 1058.59045410156 1061.56079101562 1061.63940429688 1075.95336914062 1088.623046875 1093.71276855469 1100.90173339844 1107.35815429688 1113.67626953125 1116.63757324219 1132.13012695312 1138.59130859375 1139.90185546875 1141.52172851562 1149.333984375 1146.09887695312 1149.04174804688
949.989929199219 949.38623046875 967.842407226562 962.0478515625 965.169372558594 963.438781738281 968.119995117188 973.048645019531 973.16552734375 971.811340332031 973.862854003906 973.117858886719 978.334411621094 978.862426757812 984.668273925781 986.645629882812 978.618103027344 977.007690429688 975.721740722656 976.041687011719 973.911682128906 963.167907714844 970.688842773438 961.735168457031 961.760437011719 948.412170410156 961.880798339844 967.749389648438 974.324890136719 967.057800292969 971.762268066406 974.960266113281 973.587341308594 976.860961914062 971.891235351562 975.581909179688 972.460632324219 962.539184570312 962.323974609375 958.912353515625 960.637390136719 956.376770019531 956.090270996094 954.583984375 967.961242675781 962.206665039062 964.346557617188 959.639404296875 967.741271972656 968.137329101562 966.056213378906 972.214782714844 970.484191894531 962.5302734375 964.372802734375 964.479187011719 961.203369140625 972.866333007812 975.035278320312 964.162780761719 961.680541992188 966.7333984375 969.290893554688 962.445556640625 962.327819824219 967.171447753906 965.979797363281 966.7177734375 957.2470703125 966.085571289062 963.430114746094 963.023376464844 963.266052246094 962.871398925781 963.870300292969 973.888122558594 968.871643066406 965.892150878906 977.5244140625 973.7373046875 971.232727050781 953.315063476562 964.763732910156 973.178039550781 973.265014648438 972.086547851562 973.843200683594 964.489868164062 964.945373535156 965.59033203125 969.752075195312 983.47998046875 979.093078613281 980.629150390625 967.8505859375 972.516967773438 963.453369140625 961.184753417969 962.571899414062 961.23388671875 974.004577636719 963.883178710938 971.856567382812 969.3154296875 978.36279296875 967.832275390625 981.274475097656 978.486450195312 988.705871582031 991.191833496094 994.688232421875 993.434692382812 995.156311035156 993.933410644531 995.463195800781 1000.03991699219 994.813659667969 1004.83099365234 1003.22509765625 1015.33117675781 1026.37255859375 1020.32751464844 1018.06628417969 1030.38159179688 1033.38439941406 1020.93328857422 1023.85028076172 1028.79992675781 1028.47802734375 1031.517578125 1032.95617675781 1055.07080078125 1042.15649414062 1054.80541992188 1071.81970214844 1071.08251953125 1082.09790039062 1087.08654785156 1096.98168945312 1095.00854492188 1104.75622558594 1114.99267578125 1125.12048339844 1128.07678222656 1128.36108398438 1130.25244140625 1136.64440917969 1130.89978027344 1143.15869140625 1147.03698730469
958.428955078125 951.667846679688 963.094177246094 956.771728515625 962.738952636719 968.464721679688 975.087524414062 974.742065429688 965.449340820312 972.376342773438 974.394287109375 975.52294921875 970.862426757812 974.173156738281 977.735534667969 979.788208007812 977.98876953125 977.542724609375 978.158874511719 975.243469238281 978.114074707031 969.525390625 967.986755371094 963.88916015625 959.355224609375 960.469909667969 958.985656738281 970.657287597656 977.940795898438 968.288818359375 972.218688964844 971.184265136719 968.780456542969 967.601013183594 963.752563476562 971.48876953125 975.192932128906 961.620178222656 960.515808105469 965.013671875 957.900634765625 958.192321777344 959.69921875 972.544372558594 968.597717285156 966.184326171875 964.785705566406 962.944396972656 959.986328125 964.457580566406 969.085266113281 972.801635742188 958.060974121094 955.522155761719 967.248046875 966.475708007812 972.051696777344 968.337524414062 967.618530273438 961.081970214844 962.834045410156 959.947631835938 958.920532226562 972.910888671875 967.546813964844 965.020874023438 966.996276855469 966.762756347656 964.270751953125 961.632446289062 950.631225585938 959.468994140625 965.922546386719 967.611511230469 973.167053222656 962.904113769531 961.306701660156 971.256652832031 973.72119140625 968.966125488281 968.170959472656 969.234252929688 962.589416503906 967.084716796875 969.851806640625 964.215698242188 964.516357421875 966.625305175781 964.380981445312 962.109619140625 973.693420410156 974.903503417969 973.618469238281 976.286499023438 974.2783203125 972.997680664062 970.541015625 968.955200195312 970.223693847656 969.030883789062 967.950134277344 974.047424316406 972.303955078125 968.244018554688 981.128173828125 972.985290527344 980.939697265625 983.898010253906 994.508239746094 988.177856445312 990.826721191406 992.213684082031 984.752502441406 986.0439453125 995.602478027344 1006.69519042969 1000.33306884766 1008.16107177734 1005.78668212891 1013.01611328125 1021.87371826172 1011.34393310547 1015.11358642578 1023.4326171875 1028.74206542969 1032.58947753906 1035.33642578125 1034.87097167969 1030.86828613281 1026.51147460938 1040.75952148438 1042.80310058594 1053.70703125 1060.93444824219 1067.90649414062 1079.77197265625 1085.39282226562 1087.28845214844 1087.36938476562 1094.92980957031 1106.75634765625 1110.81164550781 1124.72412109375 1132.6845703125 1128.08251953125 1128.45544433594 1122.10241699219 1125.01477050781 1133.88500976562 1133.22937011719
962.912780761719 961.085998535156 961.957336425781 965.310485839844 969.183471679688 966.840270996094 972.149536132812 969.651489257812 966.162048339844 968.109802246094 971.433959960938 979.993591308594 975.635864257812 977.981201171875 973.461669921875 981.960571289062 973.097961425781 973.119873046875 976.511901855469 977.288757324219 974.664672851562 965.758605957031 971.756408691406 968.368041992188 962.54833984375 965.337219238281 953.429443359375 960.272521972656 968.094360351562 966.863098144531 971.047485351562 960.814819335938 965.864196777344 963.368469238281 962.831787109375 968.395751953125 965.604431152344 960.906616210938 959.769226074219 965.771301269531 952.429748535156 955.054443359375 956.86279296875 966.771423339844 966.008911132812 966.680236816406 972.731384277344 964.354553222656 955.366149902344 956.718444824219 962.327758789062 966.249877929688 960.02490234375 961.762023925781 962.626098632812 965.445983886719 970.193054199219 965.246948242188 962.685119628906 965.648254394531 967.8388671875 963.1611328125 966.950378417969 961.067138671875 958.999877929688 955.256774902344 954.584777832031 963.880187988281 959.909362792969 951.945739746094 956.235717773438 960.31298828125 963.107971191406 970.716613769531 960.90576171875 961.689025878906 961.923645019531 969.17578125 967.880554199219 975.364379882812 971.123352050781 973.257019042969 964.617553710938 965.795349121094 976.916687011719 973.522705078125 962.922241210938 975.750122070312 966.672546386719 968.881225585938 975.505004882812 973.164123535156 971.641052246094 975.773742675781 975.26513671875 967.763427734375 966.882141113281 971.235717773438 974.083068847656 972.962219238281 969.446228027344 967.847717285156 973.802978515625 977.241088867188 979.073425292969 979.541564941406 976.215515136719 989.435791015625 995.466918945312 996.048767089844 984.114624023438 997.378784179688 1003.16632080078 998.113098144531 1003.02386474609 1006.64636230469 1007.71154785156 1008.61779785156 1009.10485839844 1011.15075683594 1018.02166748047 1009.22613525391 1018.93225097656 1032.88598632812 1037.31774902344 1022.78912353516 1031.45617675781 1033.94494628906 1037.310546875 1044.50427246094 1044.82214355469 1044.44909667969 1055.92077636719 1066.89123535156 1075.75732421875 1074.97094726562 1077.2587890625 1077.19140625 1085.33215332031 1092.90551757812 1104.591796875 1124.39562988281 1128.19372558594 1131.44506835938 1124.77893066406 1120.29748535156 1116.68237304688 1121.4111328125 1131.37683105469 1128.01098632812
962.524475097656 958.442565917969 963.025451660156 973.514526367188 973.677978515625 979.298583984375 987.451599121094 974.448913574219 976.518676757812 970.171325683594 968.442138671875 975.082885742188 975.599182128906 980.811401367188 981.183288574219 979.153869628906 966.285461425781 969.349426269531 969.1826171875 971.415893554688 967.328430175781 958.109191894531 962.083435058594 969.047790527344 969.368225097656 961.677185058594 957.966003417969 958.221252441406 961.306335449219 963.949401855469 964.374694824219 968.014953613281 969.287719726562 960.179626464844 968.867553710938 969.589599609375 961.985473632812 963.214904785156 951.36962890625 957.393615722656 951.021057128906 960.737487792969 962.321411132812 963.755615234375 955.874694824219 960.564575195312 962.309448242188 964.72607421875 960.164855957031 945.400634765625 948.691101074219 956.586364746094 957.6298828125 954.360595703125 953.006469726562 959.200073242188 958.552062988281 966.593688964844 959.775512695312 961.269470214844 964.678283691406 960.915466308594 962.479858398438 957.2041015625 958.294494628906 960.721374511719 961.566772460938 963.907897949219 955.786926269531 953.91015625 949.707153320312 965.586242675781 955.3359375 966.060363769531 968.007934570312 958.831115722656 962.387268066406 969.991638183594 970.404541015625 971.176391601562 972.096801757812 976.107543945312 967.489135742188 971.346984863281 968.432189941406 970.118469238281 964.391296386719 963.321044921875 964.844116210938 971.330139160156 973.99072265625 969.535095214844 976.971435546875 975.786193847656 983.321166992188 975.414855957031 974.198120117188 981.604064941406 980.054504394531 981.709655761719 971.726257324219 965.578491210938 976.207153320312 983.276123046875 982.215087890625 982.731262207031 982.992065429688 984.832946777344 982.203063964844 982.5703125 988.784606933594 988.267211914062 995.581848144531 1001.84112548828 1008.078125 1015.05584716797 1008.15753173828 1011.43817138672 1008.09729003906 1009.35888671875 1016.49096679688 1022.26629638672 1028.66369628906 1036.09033203125 1033.5537109375 1027.66577148438 1034.26708984375 1029.60888671875 1036.6357421875 1037.40576171875 1054.47253417969 1055.58666992188 1061.244140625 1059.77880859375 1068.81115722656 1079.11474609375 1089.87512207031 1080.40588378906 1094.26025390625 1089.59436035156 1101.83435058594 1116.91906738281 1116.87280273438 1120.18530273438 1108.64562988281 1116.05737304688 1120.72106933594 1116.68469238281 1112.99645996094 1119.52416992188
959.330383300781 962.11181640625 968.200988769531 969.149169921875 967.4072265625 969.257751464844 980.684448242188 971.804748535156 971.084228515625 968.621276855469 967.209533691406 973.768493652344 973.263244628906 975.819519042969 979.722290039062 970.64013671875 965.425537109375 965.837341308594 971.670837402344 964.817199707031 969.967956542969 960.533325195312 964.859985351562 967.765014648438 965.478332519531 958.8828125 965.423522949219 962.992309570312 965.520324707031 965.711853027344 960.948791503906 958.865905761719 960.120056152344 957.653442382812 963.345581054688 964.571655273438 966.140747070312 957.399963378906 950.601806640625 949.519348144531 955.73974609375 948.829162597656 948.029479980469 957.690185546875 958.029663085938 959.757385253906 959.091979980469 953.503051757812 955.964050292969 956.738403320312 952.33544921875 957.829040527344 956.660278320312 944.63427734375 947.748657226562 950.355285644531 954.227600097656 957.534851074219 953.459350585938 951.454467773438 956.640930175781 954.755187988281 956.296020507812 951.991516113281 962.49169921875 960.004821777344 965.787963867188 952.310607910156 961.259704589844 950.916748046875 963.218566894531 966.5576171875 958.147216796875 963.068969726562 961.285705566406 961.036254882812 961.731018066406 973.719482421875 972.52099609375 982.955017089844 971.958435058594 971.560363769531 978.501953125 974.773132324219 974.864562988281 969.672790527344 971.637084960938 956.891296386719 960.796020507812 963.638610839844 976.902526855469 974.963623046875 976.817199707031 976.412475585938 975.126708984375 972.91357421875 977.936828613281 974.671020507812 974.346740722656 975.339538574219 976.931701660156 971.910034179688 976.398986816406 979.174987792969 983.888427734375 984.590515136719 983.62109375 991.307983398438 981.747375488281 985.966369628906 981.651000976562 985.245361328125 994.554626464844 996.587707519531 1005.4755859375 1007.49304199219 1001.08312988281 1003.86444091797 1006.16583251953 1008.07946777344 1020.64086914062 1025.37451171875 1032.58679199219 1027.02099609375 1030.01940917969 1037.75720214844 1029.57531738281 1032.6630859375 1035.65686035156 1046.50244140625 1053.11462402344 1061.9140625 1059.71240234375 1068.37512207031 1079.88061523438 1090.16223144531 1094.59448242188 1087.54614257812 1091.91906738281 1093.408203125 1095.04895019531 1104.75817871094 1113.39318847656 1110.3466796875 1115.32177734375 1110.74560546875 1110.43395996094 1104.14953613281 1102.84753417969 1108.87951660156
964.392883300781 960.43212890625 966.604309082031 975.806213378906 977.609130859375 972.32080078125 976.442810058594 969.9560546875 969.728942871094 967.525512695312 970.251708984375 982.194152832031 982.278747558594 974.182373046875 978.637512207031 977.802612304688 971.178100585938 975.387023925781 972.807067871094 970.023010253906 961.730041503906 952.996215820312 952.234008789062 961.995910644531 957.205444335938 960.264831542969 959.138305664062 964.581115722656 961.366271972656 969.9736328125 954.984130859375 957.981872558594 955.680480957031 968.689514160156 954.283447265625 964.507019042969 968.644592285156 963.596374511719 957.339233398438 954.636535644531 951.075073242188 948.329772949219 946.817138671875 954.005310058594 968.181762695312 958.113037109375 961.276672363281 959.140747070312 946.068054199219 958.493896484375 961.542297363281 962.868530273438 954.445922851562 950.414306640625 948.854125976562 952.691711425781 951.074523925781 945.8984375 943.255859375 951.232116699219 953.358825683594 955.332763671875 949.101257324219 949.807250976562 960.644165039062 960.671081542969 956.286437988281 953.503540039062 956.911437988281 955.080139160156 956.26611328125 961.136474609375 959.71142578125 962.969482421875 962.79052734375 960.637390136719 958.268249511719 962.589416503906 969.185668945312 973.056030273438 968.545532226562 964.379333496094 964.485290527344 980.466064453125 972.172424316406 973.647399902344 962.663635253906 961.474060058594 958.44091796875 966.46630859375 969.453918457031 965.752563476562 968.760131835938 973.339660644531 965.546264648438 968.025512695312 980.529663085938 969.343566894531 976.190063476562 979.455505371094 973.373474121094 979.967651367188 987.918334960938 981.912841796875 986.727172851562 986.245971679688 988.8134765625 987.676513671875 985.49169921875 981.525329589844 986.812194824219 983.062683105469 987.774047851562 991.974243164062 999.556884765625 1000.18536376953 997.711975097656 992.216674804688 997.637512207031 1002.78765869141 1020.72277832031 1038.31481933594 1030.55895996094 1022.78723144531 1032.13525390625 1035.32824707031 1030.62451171875 1032.05676269531 1045.04040527344 1052.70373535156 1057.19274902344 1057.12622070312 1060.271484375 1067.69445800781 1075.78942871094 1086.16162109375 1099.63659667969 1091.54016113281 1099.95227050781 1098.48132324219 1099.66198730469 1102.08544921875 1098.53576660156 1091.84045410156 1097.09582519531 1099.69555664062 1106.43896484375 1091.95971679688 1097.20861816406 1103.69177246094
969.399719238281 969.286865234375 970.471374511719 976.554809570312 977.802490234375 977.543884277344 974.380676269531 973.5029296875 981.193237304688 975.916015625 974.227111816406 982.620788574219 973.818237304688 976.656494140625 976.921569824219 980.325317382812 974.307983398438 972.30712890625 966.470520019531 968.204040527344 950.479614257812 943.320678710938 946.432922363281 944.865539550781 942.946594238281 943.444763183594 947.206604003906 958.836608886719 967.935485839844 961.172729492188 960.779357910156 961.533386230469 963.391662597656 964.116027832031 965.573120117188 961.794677734375 962.260559082031 957.2724609375 951.580383300781 952.760864257812 957.142761230469 950.989929199219 949.257385253906 954.939331054688 961.758361816406 960.782592773438 954.314147949219 952.845703125 939.100341796875 947.607788085938 952.528259277344 960.095336914062 964.290161132812 954.746459960938 941.500610351562 946.928039550781 959.33935546875 954.852416992188 954.096069335938 950.647644042969 957.789733886719 947.568359375 951.552368164062 942.92041015625 951.444702148438 955.561279296875 952.666564941406 954.871154785156 954.948547363281 965.975036621094 966.130859375 963.986755371094 965.729797363281 964.019897460938 965.212036132812 957.013854980469 957.229675292969 953.099487304688 955.731994628906 971.26025390625 958.450988769531 967.567077636719 959.859619140625 971.431823730469 973.335998535156 971.792419433594 964.512756347656 962.409606933594 962.617370605469 960.842834472656 968.950744628906 964.746826171875 974.485961914062 972.485168457031 969.5419921875 968.459533691406 970.614501953125 973.943115234375 976.065551757812 974.021728515625 978.545227050781 990.973693847656 990.095153808594 989.12353515625 989.407470703125 985.378601074219 984.521423339844 990.972961425781 989.876037597656 976.335021972656 988.072814941406 981.73388671875 987.8896484375 993.869262695312 995.378723144531 994.317321777344 993.877319335938 999.616394042969 1001.77709960938 1001.79772949219 1016.38970947266 1027.89123535156 1035.54223632812 1029.40576171875 1026.37072753906 1030.88232421875 1029.58569335938 1036.75109863281 1039.50610351562 1048.34509277344 1055.84423828125 1059.55139160156 1063.98400878906 1066.16552734375 1072.17272949219 1097.11560058594 1102.95385742188 1094.98803710938 1092.72204589844 1096.91101074219 1103.35583496094 1091.57470703125 1096.11694335938 1092.01000976562 1092.24401855469 1087.82543945312 1094.62866210938 1087.37609863281 1094.85693359375 1090.45812988281
965.922485351562 975.24658203125 960.216613769531 971.655212402344 968.344177246094 962.678894042969 969.661071777344 971.415954589844 977.001953125 973.847961425781 970.378479003906 975.106689453125 965.002868652344 972.225952148438 970.290710449219 981.17529296875 975.920532226562 970.736999511719 971.649353027344 960.339782714844 951.042724609375 942.991760253906 934.406555175781 932.744018554688 941.19482421875 947.992858886719 950.017517089844 950.576599121094 956.618225097656 954.144409179688 959.642211914062 960.241577148438 956.51953125 965.081665039062 965.844909667969 968.082580566406 966.319580078125 955.037902832031 947.953186035156 952.753173828125 950.657653808594 948.907104492188 958.050415039062 954.431457519531 950.090698242188 960.457153320312 954.892456054688 960.486389160156 940.439819335938 944.337829589844 949.960205078125 948.353454589844 961.933898925781 953.484741210938 945.869262695312 957.3037109375 956.795532226562 948.794738769531 953.575805664062 946.87060546875 950.39453125 945.877685546875 952.860961914062 948.440490722656 952.403747558594 950.087524414062 949.368957519531 951.211975097656 953.227661132812 962.113525390625 964.473388671875 969.264465332031 959.847229003906 965.331298828125 966.841613769531 956.091369628906 957.816528320312 949.510375976562 950.742065429688 959.382568359375 964.555541992188 962.471862792969 965.417175292969 966.671142578125 967.483947753906 963.855651855469 964.292541503906 968.009399414062 969.689880371094 968.657592773438 974.10498046875 974.833435058594 982.517395019531 976.449829101562 976.598083496094 971.113525390625 969.29248046875 973.42919921875 977.699035644531 980.041259765625 979.7548828125 986.844787597656 989.801208496094 995.543884277344 991.742126464844 987.931945800781 983.155456542969 985.258850097656 985.471435546875 989.161254882812 987.668151855469 996.879638671875 992.516723632812 993.34033203125 1002.38000488281 991.192626953125 992.505615234375 1002.44470214844 1002.59271240234 1004.93634033203 1002.85736083984 1021.46966552734 1027.53503417969 1027.86962890625 1019.79602050781 1030.03918457031 1035.68957519531 1036.37841796875 1032.59558105469 1038.28771972656 1047.74645996094 1049.04541015625 1057.27819824219 1054.75329589844 1078.06066894531 1072.31762695312 1089.17565917969 1089.84777832031 1081.32556152344 1083.68151855469 1095.43176269531 1087.4052734375 1083.47241210938 1079.15222167969 1082.64709472656 1084.0712890625 1076.46667480469 1080.24096679688 1083.60473632812 1081.36169433594
961.250366210938 975.441162109375 967.263305664062 968.688598632812 965.375061035156 970.628662109375 969.518920898438 977.257995605469 975.816650390625 969.348266601562 973.284912109375 971.542175292969 968.930480957031 976.500183105469 980.156005859375 977.782653808594 972.726318359375 969.113098144531 966.504150390625 958.173706054688 950.030151367188 939.868835449219 944.718811035156 938.589660644531 943.582824707031 948.418029785156 941.639038085938 955.578125 956.062561035156 962.653564453125 960.011169433594 955.9189453125 962.587707519531 962.484313964844 956.184448242188 966.340942382812 964.479248046875 954.856689453125 953.413452148438 950.472106933594 954.653991699219 952.625244140625 959.301513671875 959.316528320312 954.267578125 950.552185058594 951.824035644531 957.039367675781 955.355407714844 951.313171386719 960.491516113281 954.76806640625 954.999267578125 957.865966796875 957.792724609375 956.206481933594 953.137878417969 958.406127929688 958.264465332031 950.09375 959.518798828125 951.129699707031 954.812133789062 956.810119628906 955.032958984375 953.778015136719 946.744262695312 949.394592285156 955.11083984375 957.321105957031 960.588256835938 965.270751953125 966.1865234375 960.527404785156 964.241821289062 957.565979003906 960.914489746094 955.929565429688 959.39306640625 968.586059570312 960.265319824219 962.869384765625 961.395202636719 960.947814941406 962.118347167969 960.167175292969 968.538024902344 968.662963867188 973.019348144531 973.643859863281 970.316528320312 973.895263671875 981.75048828125 978.402282714844 975.211853027344 981.373168945312 971.060546875 981.425048828125 987.664611816406 977.702880859375 978.062255859375 990.594116210938 994.376953125 994.176086425781 991.505554199219 992.22216796875 979.87939453125 985.07373046875 986.6953125 995.741516113281 995.137939453125 998.263549804688 995.614196777344 1001.19140625 994.622192382812 997.76708984375 993.11669921875 997.517272949219 992.777954101562 999.250732421875 998.462768554688 1011.35076904297 1028.98266601562 1036.15283203125 1024.07971191406 1026.57348632812 1030.23217773438 1029.08068847656 1040.28771972656 1037.35339355469 1045.18664550781 1046.21667480469 1053.10510253906 1050.11242675781 1060.57666015625 1074.63903808594 1093.53576660156 1083.05249023438 1082.12145996094 1075.61413574219 1079.57727050781 1064.4697265625 1071.07653808594 1064.80981445312 1061.16040039062 1062.23559570312 1072.41101074219 1071.59411621094 1071.94006347656 1065.12426757812
955.966613769531 975.357482910156 966.261779785156 958.575988769531 960.733154296875 972.422729492188 970.492004394531 974.125549316406 969.988220214844 965.586364746094 964.558227539062 958.137390136719 960.167907714844 969.303527832031 976.793701171875 968.503173828125 972.480102539062 972.9326171875 958.779846191406 958.365051269531 958.05908203125 945.723693847656 947.624572753906 944.683471679688 947.233825683594 950.384399414062 952.559631347656 949.455383300781 947.385131835938 952.55810546875 955.368896484375 957.107849121094 956.054321289062 961.72607421875 952.70947265625 959.533630371094 954.714050292969 958.1123046875 960.597351074219 958.847473144531 947.515747070312 951.77978515625 951.146850585938 956.263671875 945.406555175781 954.027465820312 948.929992675781 952.266479492188 958.495300292969 957.930053710938 956.313537597656 945.654663085938 950.871704101562 967.67724609375 953.338989257812 949.388916015625 960.649475097656 957.35791015625 966.747009277344 958.688720703125 966.421264648438 962.580627441406 958.67919921875 959.384216308594 964.439697265625 965.154968261719 952.839172363281 947.775451660156 958.532470703125 954.36962890625 960.8125 966.584289550781 965.594543457031 965.154235839844 955.670837402344 959.772583007812 961.583068847656 958.192443847656 959.485717773438 960.835083007812 964.579467773438 967.329345703125 966.791076660156 961.204345703125 959.056213378906 957.409362792969 963.603698730469 968.213623046875 967.807006835938 968.176147460938 977.468139648438 977.003662109375 979.794006347656 973.195617675781 969.597595214844 974.019897460938 968.010803222656 986.067749023438 985.302795410156 984.402404785156 981.8740234375 977.487060546875 987.856506347656 989.170288085938 986.953979492188 998.108581542969 984.757934570312 985.071228027344 986.931884765625 986.470825195312 1002.75500488281 997.58984375 996.898498535156 1004.42950439453 1004.84729003906 1003.06994628906 1003.54559326172 1006.66857910156 1005.16076660156 997.378234863281 1003.92346191406 1007.11413574219 1019.64001464844 1020.58392333984 1021.12261962891 1025.7392578125 1029.97216796875 1034.49133300781 1034.80932617188 1034.15380859375 1043.74536132812 1050.919921875 1053.82434082031 1053.95129394531 1063.69702148438 1077.03625488281 1083.5263671875 1083.07360839844 1079.27331542969 1064.40148925781 1064.99645996094 1049.92956542969 1043.01086425781 1043.82043457031 1047.20788574219 1057.26477050781 1062.40905761719 1061.74426269531 1055.07470703125 1058.39282226562
963.789123535156 964.287414550781 955.286010742188 965.032409667969 962.737365722656 973.029541015625 975.824768066406 973.249084472656 964.385131835938 958.019104003906 955.524230957031 956.096862792969 959.557983398438 963.026428222656 959.435302734375 964.455932617188 957.572631835938 967.441955566406 963.00048828125 966.039245605469 957.67529296875 948.450744628906 944.99072265625 946.756774902344 941.73583984375 947.209106445312 939.992736816406 952.313903808594 947.133422851562 940.877014160156 950.198425292969 950.754638671875 954.661926269531 959.698608398438 953.896179199219 956.492797851562 955.445129394531 954.173095703125 963.349304199219 958.612182617188 959.343200683594 951.015075683594 953.422607421875 953.985656738281 951.03515625 953.9248046875 951.422912597656 962.449462890625 959.296630859375 961.104125976562 956.381774902344 948.400756835938 952.866638183594 955.897094726562 955.003479003906 954.753112792969 952.560119628906 958.344360351562 966.201843261719 962.207946777344 952.588562011719 965.334350585938 962.518676757812 958.904174804688 956.42529296875 964.289428710938 962.47998046875 959.525756835938 954.838012695312 960.40771484375 959.499389648438 964.935852050781 965.885437011719 962.377380371094 964.710754394531 972.326477050781 969.97998046875 966.0166015625 958.697448730469 968.202880859375 961.077453613281 965.310974121094 966.423522949219 973.277954101562 974.550354003906 968.342529296875 962.81640625 968.175720214844 964.901916503906 966.503295898438 967.309753417969 967.24560546875 976.177917480469 967.539855957031 965.845642089844 966.844055175781 975.446105957031 982.427673339844 986.349548339844 987.917541503906 986.065307617188 986.277038574219 981.723754882812 986.916809082031 990.945495605469 997.115112304688 989.477905273438 982.8271484375 985.515441894531 986.844116210938 999.536010742188 993.493225097656 1000.41864013672 999.219360351562 1001.92248535156 1011.32507324219 1011.98046875 1017.25964355469 1017.07971191406 1014.35168457031 1004.3818359375 999.416564941406 1008.44354248047 1015.70629882812 1015.69995117188 1018.85754394531 1022.94189453125 1022.22161865234 1039.84838867188 1040.20629882812 1040.34350585938 1042.08825683594 1039.30224609375 1046.97973632812 1057.17724609375 1063.96252441406 1072.81823730469 1073.7197265625 1059.322265625 1046.75598144531 1039.951171875 1036.87805175781 1027.7041015625 1032.4794921875 1033.61340332031 1039.81372070312 1044.01623535156 1051.32275390625 1046.67297363281 1039.22351074219
955.074096679688 958.637573242188 952.077453613281 962.04736328125 960.648010253906 967.118347167969 974.352722167969 966.418395996094 963.481689453125 957.610595703125 962.659790039062 961.344421386719 953.253845214844 948.976318359375 948.191833496094 951.037292480469 954.698974609375 963.915954589844 962.880004882812 963.310241699219 964.380187988281 956.086059570312 950.523132324219 946.505432128906 934.445373535156 940.668212890625 944.922119140625 949.790954589844 944.287780761719 948.164306640625 954.029235839844 953.369995117188 949.251159667969 939.904663085938 941.977783203125 941.440490722656 945.498046875 948.818664550781 965.296875 956.051147460938 959.125915527344 957.667846679688 953.447143554688 944.765502929688 954.808471679688 957.991271972656 952.837829589844 948.317687988281 953.094543457031 959.609802246094 951.644714355469 955.775756835938 957.358093261719 959.752380371094 956.541931152344 960.436462402344 959.938781738281 962.87548828125 961.390197753906 962.106140136719 957.556640625 968.1416015625 963.489868164062 968.075927734375 969.166625976562 967.293151855469 967.9697265625 963.010131835938 954.768127441406 958.986450195312 955.174560546875 962.85498046875 961.732116699219 963.838806152344 972.033813476562 974.210632324219 980.111633300781 971.740234375 964.770385742188 961.415771484375 958.318481445312 970.862731933594 965.109375 972.955932617188 974.977783203125 970.076110839844 975.702453613281 969.128295898438 970.627075195312 977.091369628906 963.6591796875 967.544616699219 968.09130859375 969.197875976562 971.267333984375 972.012268066406 981.493530273438 980.855651855469 983.012023925781 988.568054199219 989.309265136719 992.202331542969 988.199523925781 984.73193359375 987.272644042969 991.741516113281 983.363159179688 979.306579589844 990.365600585938 989.146301269531 993.98974609375 1002.75024414062 1002.90576171875 997.939819335938 997.554077148438 1008.52325439453 1010.11340332031 1016.74676513672 1022.07025146484 1019.59259033203 1017.4501953125 1009.11169433594 1003.3623046875 1013.38262939453 1017.44549560547 1019.7607421875 1015.88928222656 1023.00701904297 1032.36120605469 1031.03137207031 1037.23413085938 1036.69226074219 1036.73486328125 1049.63000488281 1048.091796875 1057.6904296875 1064.64172363281 1057.33068847656 1055.23315429688 1044.08410644531 1033.65161132812 1025.19934082031 1028.78747558594 1038.75024414062 1033.072265625 1028.50256347656 1039.396484375 1046.13671875 1040.40466308594 1041.08813476562
945.405334472656 948.802124023438 958.450622558594 955.333618164062 956.051452636719 957.307861328125 964.520568847656 961.745971679688 959.314453125 959.972473144531 960.378295898438 959.805541992188 945.196594238281 947.981811523438 949.124694824219 948.73974609375 953.816589355469 959.034973144531 952.411254882812 959.565307617188 953.235168457031 961.290100097656 950.03662109375 939.999755859375 939.034729003906 940.962768554688 945.058471679688 955.023071289062 949.258483886719 943.446838378906 952.321411132812 954.168029785156 953.324401855469 940.5625 943.639404296875 942.541137695312 939.208068847656 949.429626464844 956.16943359375 963.022277832031 959.759399414062 949.788513183594 948.507141113281 955.360290527344 952.148681640625 947.384887695312 951.093444824219 960.057495117188 943.366638183594 951.379211425781 947.471374511719 957.436096191406 960.243591308594 966.404418945312 969.57861328125 960.334716796875 965.198120117188 968.455444335938 970.140197753906 964.541564941406 967.193908691406 969.571472167969 960.437377929688 962.825805664062 969.088439941406 970.456298828125 952.23291015625 952.349182128906 964.507202148438 973.4912109375 970.16650390625 964.696960449219 959.441223144531 973.763488769531 975.543090820312 976.570556640625 975.642883300781 981.583190917969 973.664489746094 966.946166992188 967.345397949219 974.101684570312 973.850219726562 974.798706054688 982.016296386719 973.413879394531 977.781921386719 978.119018554688 970.178161621094 976.629577636719 972.64599609375 967.793212890625 964.544372558594 967.698303222656 984.966674804688 980.515197753906 989.524780273438 980.736999511719 985.623718261719 992.262939453125 990.280151367188 992.565307617188 993.564208984375 990.430541992188 991.377319335938 988.036682128906 987.640502929688 981.884765625 987.864135742188 992.609436035156 991.737060546875 997.090637207031 998.635986328125 994.97021484375 1001.46252441406 1002.32055664062 1003.22546386719 1021.27978515625 1023.10473632812 1017.81372070312 1018.55688476562 1014.94482421875 1008.53277587891 1011.90313720703 1015.75317382812 1021.76037597656 1014.01361083984 1019.34088134766 1018.14495849609 1025.35339355469 1033.7119140625 1026.73059082031 1041.03662109375 1048.86791992188 1049.40161132812 1056.19848632812 1052.09155273438 1065.7333984375 1051.56469726562 1036.17846679688 1025.77807617188 1015.64556884766 1025.25927734375 1029.92797851562 1033.58190917969 1026.03051757812 1034.42297363281 1032.26916503906 1037.15783691406 1035.76354980469
937.774841308594 956.223327636719 952.38232421875 957.934997558594 957.343139648438 959.372009277344 963.985900878906 963.341918945312 958.645935058594 962.292907714844 967.083557128906 954.987548828125 955.895812988281 950.345520019531 947.853820800781 945.501525878906 959.249450683594 950.010986328125 951.568664550781 948.722045898438 942.238403320312 944.326904296875 949.742797851562 943.932678222656 933.091796875 941.045776367188 950.348205566406 953.158081054688 947.223693847656 945.071411132812 961.539306640625 962.241149902344 951.718444824219 946.180236816406 950.609802246094 943.938049316406 941.129089355469 945.645263671875 941.863952636719 966.005920410156 963.568176269531 954.602233886719 944.612182617188 951.6064453125 955.107971191406 953.862365722656 952.659240722656 959.658813476562 956.768249511719 951.896606445312 960.53955078125 960.396484375 960.150634765625 976.312316894531 968.530151367188 966.132080078125 976.255859375 977.150512695312 973.135192871094 971.025390625 966.22265625 967.151062011719 967.770874023438 961.132934570312 970.045654296875 976.942993164062 957.211303710938 962.366882324219 964.207763671875 970.814453125 970.048706054688 967.07275390625 964.416198730469 969.955688476562 967.114685058594 970.989196777344 963.966979980469 973.877868652344 967.259704589844 962.755187988281 972.38720703125 973.882019042969 974.178588867188 973.960998535156 985.484008789062 985.73291015625 988.959838867188 986.113220214844 977.572082519531 973.549377441406 968.631774902344 963.252075195312 968.397155761719 968.136169433594 972.676208496094 973.751708984375 986.038696289062 984.871032714844 988.913513183594 999.4248046875 1004.35620117188 1000.71331787109 1005.02734375 986.708984375 974.774475097656 982.278686523438 982.236938476562 975.385925292969 984.984436035156 986.040222167969 988.45263671875 991.427307128906 989.648559570312 998.863647460938 995.33349609375 1005.56146240234 1013.01483154297 1029.18969726562 1027.26403808594 1020.30065917969 1024.50610351562 1025.75036621094 1018.962890625 1009.82635498047 1017.29718017578 1018.85986328125 1014.00933837891 1021.78979492188 1018.15802001953 1016.11962890625 1027.60998535156 1033.73645019531 1031.94592285156 1037.65051269531 1043.44812011719 1048.10620117188 1055.63732910156 1056.94982910156 1052.62353515625 1036.35900878906 1023.84509277344 1018.72802734375 1018.04656982422 1030.36657714844 1026.1748046875 1029.00207519531 1028.25646972656 1024.99829101562 1024.11364746094 1033.82592773438
940.463256835938 954.817993164062 954.223510742188 957.75341796875 957.436950683594 956.844055175781 961.924255371094 960.843383789062 956.869384765625 961.43408203125 958.569763183594 951.374938964844 954.588439941406 947.129760742188 942.275390625 948.841796875 943.011291503906 943.250915527344 944.488952636719 941.956909179688 941.89599609375 944.900268554688 942.689331054688 940.675476074219 942.6533203125 948.775573730469 949.249572753906 957.971313476562 949.611450195312 945.659057617188 966.891235351562 966.470031738281 953.532043457031 947.830261230469 952.184753417969 941.360717773438 940.178100585938 949.412719726562 957.160095214844 968.299255371094 961.618957519531 959.347412109375 961.38671875 950.190307617188 950.35205078125 951.315551757812 954.987548828125 950.542846679688 953.496643066406 960.762451171875 962.657775878906 966.12353515625 973.504821777344 968.674194335938 973.331237792969 972.876525878906 967.049438476562 977.743286132812 970.769165039062 968.982849121094 962.492248535156 966.344970703125 960.495788574219 962.267578125 958.738464355469 968.738037109375 970.109680175781 969.722229003906 970.388671875 973.806640625 973.261352539062 978.911926269531 971.668884277344 972.252319335938 963.642456054688 964.503845214844 971.432434082031 973.163391113281 969.467224121094 971.731750488281 981.909851074219 976.412536621094 981.504821777344 979.830078125 981.858337402344 984.51416015625 990.096496582031 979.421997070312 972.786499023438 980.330017089844 967.971069335938 976.322021484375 970.582092285156 972.820556640625 978.711242675781 983.755554199219 991.35546875 983.360473632812 983.510620117188 991.26513671875 1004.72473144531 1006.62780761719 993.405578613281 986.81201171875 974.450561523438 976.671081542969 978.363098144531 980.297973632812 984.193908691406 989.370483398438 992.462341308594 997.179748535156 997.670043945312 1004.52801513672 1014.12957763672 1017.02508544922 1027.83410644531 1027.40673828125 1032.56616210938 1029.19787597656 1032.05053710938 1023.13922119141 1019.85717773438 1009.16638183594 1012.16870117188 1020.58020019531 1016.11102294922 1008.86517333984 1019.23425292969 1018.83850097656 1022.25372314453 1028.94763183594 1024.70068359375 1033.853515625 1027.48986816406 1037.5400390625 1046.59448242188 1052.10595703125 1045.73449707031 1031.37170410156 1024.79797363281 1022.59399414062 1019.88684082031 1026.22790527344 1033.95703125 1028.54565429688 1022.32147216797 1029.64208984375 1012.90222167969 1023.24713134766
950.053039550781 952.080078125 950.8330078125 955.555480957031 951.110168457031 946.229370117188 961.064270019531 957.107238769531 952.434509277344 954.262512207031 958.961303710938 960.113342285156 951.483459472656 946.387023925781 944.015441894531 940.589660644531 936.331787109375 942.10986328125 944.17822265625 951.724426269531 950.411499023438 951.9892578125 952.1396484375 948.755737304688 945.211303710938 947.097351074219 954.059875488281 954.702514648438 944.884521484375 952.919616699219 960.713317871094 955.686950683594 955.178649902344 951.832397460938 951.205688476562 945.27685546875 942.099487304688 945.301513671875 963.597412109375 969.654296875 968.958984375 955.629516601562 959.292663574219 951.083862304688 957.887451171875 965.359436035156 957.643310546875 960.88134765625 955.7666015625 965.273193359375 971.43798828125 971.686767578125 975.287414550781 974.204650878906 968.271484375 964.450317382812 965.605102539062 973.283752441406 969.194458007812 970.295837402344 965.200378417969 968.035217285156 960.501953125 968.566772460938 963.599670410156 969.3173828125 974.579650878906 964.320068359375 967.938781738281 966.511596679688 966.590881347656 980.650939941406 974.382202148438 967.525390625 974.869140625 976.024169921875 972.915161132812 971.172424316406 979.880126953125 981.641296386719 983.872375488281 979.313903808594 973.446960449219 988.540161132812 980.6787109375 975.114074707031 978.932739257812 983.228820800781 979.117248535156 973.90234375 965.648986816406 966.845642089844 976.243041992188 973.204406738281 979.470275878906 984.788879394531 988.026794433594 989.897216796875 992.164672851562 995.900817871094 1010.13458251953 1001.47106933594 988.938598632812 978.058776855469 968.90625 982.281921386719 981.250671386719 987.289733886719 987.122619628906 992.842346191406 999.309448242188 1010.52423095703 1005.44799804688 1009.91711425781 1021.60577392578 1023.68634033203 1030.85961914062 1039.39599609375 1040.8896484375 1038.81384277344 1029.37292480469 1019.08984375 1014.4775390625 1009.15167236328 1022.34301757812 1021.37127685547 1021.2333984375 1017.80859375 1017.06042480469 1026.92333984375 1023.23266601562 1035.68078613281 1031.72021484375 1024.89379882812 1020.59197998047 1039.38952636719 1039.39147949219 1046.42248535156 1030.86083984375 1033.96435546875 1023.11547851562 1023.90222167969 1017.77239990234 1024.27685546875 1023.43188476562 1026.73754882812 1019.43841552734 1021.77655029297 1016.61083984375 1021.89117431641
