NCOLS 150
NROWS 37
XLLCORNER 7394249
YLLCORNER 4843709
CELLSIZE 30
NODATA_VALUE -9999
989.431640625 981.153442382812 981.138122558594 993.074890136719 1002.15863037109 1011.318359375 1005.85009765625 1007.55645751953 1014.92926025391 1006.14538574219 1000.24993896484 1004.51391601562 1001.75555419922 1003.34320068359 1009.59942626953 1020.01916503906 1030.43762207031 1028.74768066406 1032.24877929688 1033.4404296875 1026.69030761719 1022.43438720703 1015.47839355469 1017.505859375 1023.92993164062 1026.728515625 1017.51031494141 1016.28271484375 1010.73608398438 1006.4208984375 1012.74633789062 1031.52038574219 1033.27380371094 1032.96545410156 1013.03442382812 1015.62017822266 1019.52575683594 1032.33227539062 1033.88110351562 1031.57543945312 1025.10095214844 1016.30163574219 1018.22131347656 1012.14227294922 1016.35473632812 1013.04376220703 1024.0810546875 1017.97210693359 1012.39031982422 1002.97637939453 1000.76904296875 1000.0673828125 997.5439453125 1003.16387939453 992.893127441406 988.389892578125 983.168701171875 971.278991699219 975.935241699219 985.094787597656 981.743713378906 981.927734375 972.470336914062 969.796020507812 968.073852539062 974.620483398438 963.191284179688 949.661010742188 955.214294433594 953.709533691406 946.470886230469 955.946533203125 962.718383789062 970.786499023438 983.569396972656 989.937316894531 1002.39221191406 1009.03393554688 1021.54895019531 1025.15844726562 1024.28479003906 1014.05090332031 1010.27191162109 1009.34118652344 1004.36492919922 986.447265625 976.615661621094 957.420837402344 949.484252929688 943.297424316406 938.509948730469 936.317565917969 934.234985351562 908.819763183594 914.072082519531 912.784301757812 913.575378417969 911.877258300781 901.545593261719 895.224548339844 894.799133300781 889.819396972656 886.80322265625 877.961181640625 869.610229492188 878.250183105469 892.185363769531 890.760009765625 886.514953613281 884.361572265625 890.25244140625 885.117248535156 885.563110351562 899.2587890625 900.783935546875 911.457397460938 911.9775390625 912.5068359375 919.9462890625 920.299255371094 922.705200195312 937.320251464844 946.444580078125 943.504150390625 947.435607910156 952.051391601562 952.677978515625 966.570861816406 971.761901855469 982.368286132812 988.566650390625 993.964111328125 998.871643066406 1019.39282226562 1030.56103515625 1034.50231933594 1047.9072265625 1059.80981445312 1078.9443359375 1080.1875 1092.88916015625 1122.23840332031 1125.44494628906 1126.54309082031 1122.49670410156 1121.21789550781 1107.6162109375 1102.66430664062 1095.4970703125 1084.53698730469
980.527526855469 982.57470703125 992.943664550781 994.137634277344 1003.80389404297 1005.67358398438 1003.91333007812 1009.50506591797 1016.17901611328 998.06201171875 999.251647949219 996.205505371094 1001.63305664062 1008.232421875 1012.14703369141 1014.48010253906 1015.38470458984 1019.23895263672 1029.63220214844 1027.92504882812 1031.18518066406 1027.03686523438 1019.27966308594 1017.39929199219 1023.30560302734 1028.95300292969 1017.67944335938 1012.35345458984 1007.43872070312 1003.77313232422 1013.94891357422 1018.03070068359 1029.77416992188 1024.69519042969 1022.96374511719 1020.00396728516 1028.34887695312 1030.2451171875 1031.74780273438 1020.59368896484 1023.70739746094 1020.86328125 1015.43005371094 1008.94073486328 1009.32482910156 1011.68328857422 1012.2373046875 1016.66534423828 1005.64685058594 1002.05877685547 1005.11193847656 1001.71740722656 1000.1318359375 1002.73858642578 997.380676269531 998.178100585938 992.658447265625 996.719909667969 987.043701171875 999.993591308594 997.461669921875 988.733337402344 981.675415039062 984.58935546875 980.916748046875 965.958251953125 964.806030273438 953.761413574219 969.409729003906 962.317810058594 956.398376464844 959.029907226562 966.310180664062 972.176452636719 974.295776367188 991.623840332031 1002.08770751953 1011.79833984375 1021.162109375 1028.14184570312 1025.38684082031 1017.24053955078 1019.48937988281 1014.75860595703 1004.69317626953 989.412231445312 969.1708984375 947.250305175781 936.838012695312 936.605163574219 938.790100097656 930.40283203125 923.636779785156 912.978820800781 911.830078125 912.053955078125 910.756042480469 915.589965820312 914.606872558594 901.489501953125 895.169921875 886.269775390625 890.457580566406 882.76171875 884.607055664062 892.522888183594 899.067077636719 893.120727539062 894.542236328125 892.379821777344 892.788635253906 899.822937011719 894.498779296875 907.388732910156 911.355407714844 907.470581054688 917.966796875 912.137390136719 920.593017578125 925.705505371094 928.3984375 947.330383300781 948.744445800781 945.173034667969 945.012268066406 953.786254882812 964.189208984375 968.055725097656 978.392517089844 976.261291503906 981.3173828125 993.154418945312 998.783447265625 1015.34759521484 1018.72314453125 1034.1103515625 1046.16491699219 1067.40087890625 1077.89916992188 1082.56555175781 1098.38171386719 1122.79553222656 1138.75109863281 1144.41320800781 1137.87121582031 1125.31616210938 1120.74462890625 1114.56494140625 1108.02551269531 1107.58276367188
983.715515136719 988.299621582031 990.513977050781 997.384521484375 999.049682617188 1003.02618408203 999.658569335938 1003.22399902344 1003.94158935547 1004.75433349609 1003.13305664062 998.354370117188 996.334167480469 1001.05426025391 1001.80206298828 1010.58776855469 1016.55810546875 1011.94775390625 1023.23132324219 1020.26000976562 1020.73406982422 1023.24407958984 1016.38140869141 1015.23266601562 1016.822265625 1019.48272705078 1011.95355224609 1007.03363037109 999.137390136719 1002.73840332031 1011.81256103516 1014.05987548828 1018.69763183594 1015.98492431641 1011.90618896484 1010.96105957031 1024.96252441406 1024.44104003906 1033.66735839844 1030.83312988281 1027.41735839844 1025.55639648438 1023.71508789062 1010.93493652344 1009.39239501953 1006.48413085938 1008.32586669922 1002.52691650391 1001.78875732422 1002.18267822266 1007.79193115234 1005.92761230469 1007.77160644531 1002.73767089844 1000.94012451172 1000.28558349609 1001.68878173828 1008.23974609375 1008.83197021484 1003.1005859375 1004.06463623047 1001.06353759766 997.214233398438 993.331298828125 987.798828125 970.469421386719 962.184448242188 965.815856933594 968.119262695312 962.216857910156 965.140014648438 965.078857421875 975.66455078125 974.673095703125 981.233276367188 994.548706054688 1010.15032958984 1020.44372558594 1029.58190917969 1034.45288085938 1029.87854003906 1023.34246826172 1019.45831298828 1020.17523193359 999.095153808594 979.379821777344 957.168762207031 948.250549316406 935.959899902344 935.095764160156 937.056274414062 923.858459472656 921.163208007812 915.541687011719 914.911437988281 917.773803710938 909.171630859375 909.929626464844 903.527587890625 913.759521484375 902.953552246094 893.685791015625 889.521667480469 887.560180664062 892.872863769531 900.689819335938 906.706115722656 906.706848144531 899.967834472656 897.950073242188 891.270080566406 896.526489257812 898.730224609375 909.857360839844 921.188232421875 921.804626464844 920.475280761719 926.786010742188 927.439758300781 935.093383789062 942.016357421875 949.55322265625 955.263488769531 954.156860351562 958.89990234375 960.085388183594 970.779968261719 976.258972167969 974.271301269531 985.456848144531 982.415100097656 989.724487304688 998.902587890625 1012.93188476562 1022.27575683594 1037.12805175781 1049.412109375 1059.01379394531 1074.54699707031 1084.07446289062 1104.18225097656 1119.86779785156 1128.69299316406 1144.47888183594 1143.8466796875 1122.8994140625 1124.08068847656 1128.19165039062 1126.19506835938 1115.91796875
980.271179199219 991.21044921875 998.709411621094 1000.46270751953 1007.59497070312 1004.39617919922 1008.05010986328 1001.25048828125 1008.00085449219 999.695739746094 998.313598632812 994.416198730469 991.298767089844 990.36279296875 996.130920410156 999.953369140625 1004.80261230469 1008.47424316406 1008.10797119141 1010.40930175781 1004.28881835938 1010.14007568359 1011.55718994141 1015.40625 1012.98364257812 1009.66754150391 1000.17559814453 1007.26721191406 996.626892089844 1004.84918212891 1009.12896728516 1016.57012939453 1016.51306152344 1018.45574951172 1016.02416992188 1014.19909667969 1021.26812744141 1032.29028320312 1032.17541503906 1028.4423828125 1028.25866699219 1022.10107421875 1015.02722167969 1013.55444335938 1004.74224853516 1004.30340576172 1007.97314453125 1003.85180664062 1003.91253662109 1003.65661621094 1008.79071044922 1006.95220947266 1011.48699951172 1007.08892822266 1010.38043212891 993.721618652344 1003.66998291016 1010.46148681641 1009.40124511719 1007.78765869141 1015.07647705078 1010.46221923828 996.24365234375 995.937927246094 991.518310546875 978.700744628906 972.276000976562 971.530883789062 962.707458496094 957.524963378906 960.786804199219 968.157165527344 978.235473632812 984.705749511719 989.153564453125 1006.51605224609 1011.59008789062 1028.40490722656 1032.72814941406 1035.4365234375 1027.5087890625 1019.35388183594 1014.69689941406 1008.96343994141 999.217651367188 972.968811035156 960.711730957031 950.666442871094 934.2802734375 939.20849609375 941.285522460938 937.66748046875 931.493591308594 926.345703125 926.119262695312 921.730895996094 920.3681640625 912.816589355469 917.550537109375 912.02880859375 901.848999023438 893.330261230469 899.665832519531 899.751831054688 907.467163085938 914.190063476562 918.180541992188 923.672790527344 915.512634277344 907.743835449219 910.423156738281 896.466552734375 901.437133789062 918.201782226562 928.643005371094 929.847473144531 922.322448730469 923.606262207031 924.911682128906 930.095825195312 946.063903808594 956.457702636719 960.128051757812 953.120971679688 963.584411621094 971.281066894531 969.262329101562 985.119018554688 977.418640136719 982.406799316406 975.626647949219 997.113098144531 1012.79437255859 1023.30212402344 1029.58020019531 1033.82019042969 1048.72729492188 1058.25854492188 1065.75476074219 1084.67651367188 1102.26147460938 1116.79223632812 1129.08959960938 1136.67517089844 1129.98620605469 1130.54321289062 1131.34045410156 1133.74035644531 1128.70910644531 1119.984375
985.078369140625 994.213623046875 1003.02954101562 1006.89685058594 1005.83837890625 999.118225097656 1001.51879882812 1003.97003173828 995.671447753906 993.041381835938 994.690612792969 983.759948730469 984.582092285156 988.059814453125 985.206420898438 987.932373046875 991.797180175781 997.20166015625 1005.14483642578 1010.80267333984 1008.95111083984 997.359985351562 1007.45288085938 1010.26977539062 1003.26824951172 999.281066894531 988.842468261719 995.164428710938 1006.03277587891 1006.80462646484 1003.24212646484 1010.70660400391 1014.61303710938 1014.91607666016 1020.76391601562 1027.68603515625 1025.14208984375 1030.23388671875 1028.84765625 1020.76574707031 1024.96997070312 1018.72497558594 1009.94787597656 1009.29455566406 1014.63037109375 1013.21978759766 1010.58752441406 1006.95172119141 1021.33209228516 1005.78356933594 1004.09326171875 1008.31134033203 1013.70275878906 999.414733886719 1003.56909179688 1010.32049560547 1014.15368652344 1014.96319580078 1013.08917236328 1006.21185302734 1001.88220214844 1008.68591308594 1013.07342529297 998.993774414062 995.751647949219 991.1689453125 985.346557617188 975.732971191406 968.148803710938 960.157165527344 959.740966796875 967.692443847656 984.922668457031 986.911987304688 993.527954101562 1010.78607177734 1021.67895507812 1028.96459960938 1028.6083984375 1035.36853027344 1027.51879882812 1022.39166259766 1016.39520263672 1013.28143310547 998.017272949219 981.883850097656 970.104797363281 954.855590820312 953.890075683594 948.318115234375 942.543273925781 941.192016601562 933.879333496094 934.721496582031 933.798645019531 921.849426269531 928.230163574219 923.484497070312 925.242797851562 916.49169921875 910.085388183594 907.307922363281 912.221435546875 923.218078613281 917.84521484375 925.344299316406 936.286071777344 926.637145996094 929.379760742188 917.252502441406 911.572937011719 902.414123535156 905.113464355469 925.375915527344 931.231994628906 935.270141601562 937.878051757812 930.994140625 926.170227050781 938.812866210938 959.112060546875 969.529235839844 966.738037109375 962.755432128906 957.0703125 973.874633789062 975.953430175781 976.670532226562 980.831848144531 982.485046386719 979.080627441406 998.298950195312 1023.06750488281 1033.21740722656 1037.09997558594 1044.76110839844 1046.19641113281 1063.14672851562 1073.02172851562 1087.99206542969 1100.65930175781 1110.08728027344 1120.3408203125 1127.27575683594 1126.83459472656 1135.2734375 1131.86315917969 1129.90783691406 1122.62353515625 1113.71228027344
987.456420898438 999.05029296875 1001.64556884766 1000.69329833984 993.863342285156 996.05419921875 989.600463867188 994.453857421875 994.443481445312 987.940612792969 986.854797363281 988.054138183594 981.530578613281 990.357238769531 983.6943359375 994.2509765625 993.618041992188 989.358947753906 989.758239746094 1001.80065917969 996.968078613281 988.952514648438 999.587585449219 1001.18585205078 995.45068359375 990.097473144531 990.532470703125 992.267456054688 996.759948730469 1004.06304931641 1001.40325927734 998.705627441406 1012.92175292969 1013.45550537109 1022.96606445312 1030.68322753906 1028.02062988281 1032.36291503906 1022.42596435547 1011.33746337891 1007.74603271484 1010.08984375 1003.39099121094 1005.50885009766 1011.5068359375 1007.40155029297 1010.03991699219 1018.16400146484 1012.34326171875 1008.38616943359 1014.16339111328 1014.17761230469 1010.61053466797 994.5966796875 1001.92541503906 1008.80853271484 1005.08557128906 1011.43194580078 1016.54321289062 1006.27807617188 1005.42919921875 1011.54779052734 1003.05474853516 995.090576171875 1001.65795898438 999.9521484375 988.466674804688 972.314636230469 972.9091796875 956.894958496094 961.042236328125 973.135498046875 980.190307617188 988.795959472656 1002.16839599609 1012.71746826172 1024.02770996094 1031.40869140625 1033.88146972656 1032.33410644531 1028.3349609375 1027.17041015625 1017.41918945312 1006.82586669922 994.541442871094 986.246459960938 973.332641601562 969.203063964844 968.559692382812 960.770202636719 951.278869628906 940.981506347656 940.23291015625 938.345764160156 935.937805175781 931.956237792969 928.370422363281 940.118591308594 926.895385742188 937.063598632812 932.38330078125 913.732849121094 924.171020507812 936.025512695312 934.254272460938 937.454345703125 938.390686035156 944.914672851562 940.000610351562 934.308532714844 915.750305175781 911.556579589844 926.588195800781 928.328186035156 926.100158691406 924.065063476562 926.903442382812 936.642150878906 930.850158691406 947.733032226562 961.773071289062 957.384826660156 966.786865234375 968.952392578125 971.764953613281 976.560119628906 978.608215332031 982.784912109375 984.141418457031 982.732177734375 984.132263183594 1002.62908935547 1016.89080810547 1039.63598632812 1045.05798339844 1056.09948730469 1061.54370117188 1071.73693847656 1082.90905761719 1095.11389160156 1105.09826660156 1107.34155273438 1115.65283203125 1121.83349609375 1129.36560058594 1126.64501953125 1124.32458496094 1117.59460449219 1118.83312988281 1109.11596679688
986.908020019531 994.790771484375 996.06201171875 986.750183105469 991.166931152344 993.091552734375 993.8232421875 991.5849609375 994.922607421875 994.071166992188 989.1416015625 986.773315429688 982.064086914062 985.554565429688 986.440856933594 991.863403320312 996.265991210938 991.823120117188 988.109313964844 989.498107910156 985.661376953125 980.833618164062 991.41650390625 994.054016113281 989.4892578125 987.555908203125 990.746948242188 987.535949707031 998.088317871094 998.953918457031 1004.73553466797 1011.58929443359 1012.73626708984 1021.44506835938 1017.38708496094 1030.71130371094 1031.10803222656 1029.13647460938 1024.91064453125 1022.96173095703 1011.85894775391 1010.69506835938 1005.18872070312 1000.10687255859 1005.05938720703 1010.27508544922 1015.31854248047 1022.77307128906 1016.87603759766 1014.28057861328 1017.81854248047 1016.85144042969 1015.70471191406 1005.15484619141 1012.36614990234 1009.67297363281 1016.78631591797 1015.75305175781 1021.60504150391 1014.22137451172 1011.38848876953 1007.14892578125 1005.64440917969 1001.85302734375 999.342529296875 1001.47021484375 990.602844238281 980.624328613281 978.112548828125 980.236328125 971.379333496094 979.234252929688 991.952819824219 990.162231445312 1015.49389648438 1028.69201660156 1026.595703125 1027.9384765625 1030.96838378906 1029.80395507812 1020.58972167969 1020.88104248047 1018.03546142578 1005.21997070312 996.343994140625 993.59375 991.776062011719 981.383605957031 978.786987304688 973.47119140625 950.153076171875 942.072509765625 933.323547363281 945.545593261719 945.434143066406 939.306091308594 938.667358398438 944.075134277344 941.455749511719 950.3212890625 948.38525390625 932.304443359375 930.088134765625 933.794616699219 946.820556640625 947.178466796875 944.300109863281 942.182373046875 932.960693359375 938.143188476562 931.804504394531 929.759582519531 927.400024414062 924.910827636719 919.093811035156 918.67041015625 923.635131835938 933.013610839844 942.1171875 949.628967285156 953.174621582031 966.246032714844 965.867309570312 971.416076660156 978.066955566406 974.788940429688 979.52197265625 992.725646972656 993.722351074219 996.753540039062 996.797668457031 1008.13977050781 1031.23950195312 1038.59973144531 1060.55981445312 1063.33618164062 1057.74853515625 1073.51232910156 1085.89819335938 1089.2060546875 1099.80834960938 1104.68676757812 1116.60913085938 1124.546875 1121.82775878906 1126.02197265625 1119.93542480469 1127.07360839844 1123.359375 1115.89123535156
985.536560058594 988.496459960938 991.82861328125 989.435241699219 989.615905761719 988.411315917969 991.53564453125 996.593994140625 1000.21136474609 997.919311523438 992.313903808594 982.892883300781 976.438232421875 986.796020507812 992.589660644531 992.533325195312 1000.97033691406 979.563720703125 987.91650390625 988.961181640625 987.020690917969 984.886474609375 987.685668945312 996.091979980469 998.977600097656 989.771240234375 991.015502929688 1000.57427978516 1009.11828613281 1007.32757568359 1006.06408691406 1011.52062988281 1019.55230712891 1025.36096191406 1024.54541015625 1036.31506347656 1042.71826171875 1036.36962890625 1037.90759277344 1034.68200683594 1030.13537597656 1016.49792480469 1009.73486328125 1011.62066650391 1012.98541259766 1017.27935791016 1019.15588378906 1006.64410400391 1017.41278076172 1018.75329589844 1015.66967773438 1026.57189941406 1016.49932861328 1011.37200927734 1024.03100585938 1016.98901367188 1016.73504638672 1014.61450195312 1020.00561523438 1018.64172363281 1021.81573486328 1019.91119384766 1010.26397705078 1005.69885253906 1000.36004638672 1003.26617431641 998.460144042969 981.084106445312 985.968200683594 985.434631347656 978.331604003906 986.157470703125 990.466369628906 1004.18811035156 1015.17492675781 1021.50384521484 1031.81726074219 1023.55865478516 1027.80859375 1031.28784179688 1031.79272460938 1018.79125976562 1019.94140625 1022.00714111328 1009.26763916016 997.781555175781 985.202087402344 983.121459960938 979.414123535156 972.057739257812 954.480895996094 937.155883789062 938.389770507812 947.10546875 952.43994140625 957.677490234375 955.816650390625 958.164916992188 966.750671386719 961.325439453125 961.712097167969 949.615234375 943.502563476562 936.765869140625 945.064636230469 953.172729492188 948.491882324219 949.337829589844 945.215393066406 938.098754882812 945.674194335938 941.719604492188 934.802917480469 923.61767578125 927.876159667969 923.245727539062 917.953063964844 921.172485351562 938.308349609375 950.253784179688 945.3232421875 961.590270996094 963.341186523438 971.547790527344 985.248229980469 982.770141601562 980.953857421875 991.810302734375 1001.0322265625 1001.45361328125 1002.16052246094 1016.52221679688 1029.07629394531 1047.76110839844 1053.00537109375 1062.52221679688 1065.69885253906 1077.31848144531 1081.84936523438 1086.32202148438 1087.55725097656 1095.01635742188 1109.43041992188 1114.74645996094 1128.32629394531 1116.109375 1118.4404296875 1124.68908691406 1123.25561523438 1115.51306152344
978.945678710938 986.312133789062 996.750183105469 994.983764648438 979.527648925781 984.159851074219 992.579162597656 994.275390625 994.766357421875 1000.43444824219 995.216491699219 976.764465332031 977.021423339844 986.371276855469 985.8173828125 992.610778808594 989.477844238281 990.90478515625 988.490112304688 992.274108886719 983.485778808594 981.693725585938 991.164855957031 995.854797363281 992.164916992188 991.881286621094 996.765380859375 1005.64331054688 1006.2294921875 1011.03918457031 1007.79846191406 1022.08898925781 1024.95080566406 1028.28149414062 1030.48522949219 1031.74682617188 1037.76965332031 1040.87719726562 1035.06494140625 1037.62414550781 1035.85583496094 1024.51171875 1021.94158935547 1027.44396972656 1023.91595458984 1025.87866210938 1022.73248291016 1012.64898681641 1017.08349609375 1027.68786621094 1023.22521972656 1016.29876708984 1017.75170898438 1015.98370361328 1010.79406738281 1011.88745117188 1012.31518554688 1013.23736572266 1022.06262207031 1017.99487304688 1022.76708984375 1023.23345947266 1016.25695800781 1012.42694091797 1013.99963378906 1005.30267333984 998.48388671875 990.027038574219 989.689270019531 985.157958984375 983.862121582031 986.699157714844 997.514465332031 1004.99072265625 1014.66375732422 1019.29083251953 1024.57385253906 1024.96276855469 1024.29040527344 1020.15954589844 1024.84240722656 1022.39984130859 1022.41363525391 1023.17547607422 1011.88055419922 999.689453125 990.257934570312 978.566650390625 969.898681640625 966.271301269531 950.876892089844 939.817199707031 926.213256835938 938.031311035156 949.837036132812 957.806884765625 970.946960449219 974.376953125 967.612121582031 966.350402832031 961.041320800781 956.590270996094 963.298583984375 956.249389648438 957.665466308594 963.155090332031 960.888061523438 957.1044921875 957.730285644531 955.271362304688 954.111328125 945.795837402344 938.632568359375 927.621276855469 928.26611328125 921.23828125 908.967163085938 913.817810058594 928.831970214844 932.7041015625 946.252685546875 959.989990234375 965.689392089844 975.390441894531 983.010009765625 992.466918945312 989.90966796875 987.877380371094 996.404113769531 1005.90759277344 1012.41278076172 1024.27600097656 1029.537109375 1040.54614257812 1058.08996582031 1060.98547363281 1071.40954589844 1075.00122070312 1076.23950195312 1075.00756835938 1088.63806152344 1091.78552246094 1104.21923828125 1112.28662109375 1110.62475585938 1109.13793945312 1104.26879882812 1113.07531738281 1115.18383789062 1113.54602050781
967.44970703125 986.075073242188 986.326110839844 983.851745605469 983.910217285156 980.285034179688 989.704345703125 985.248962402344 987.477111816406 988.690063476562 981.223693847656 977.740112304688 968.482788085938 978.266235351562 985.736694335938 984.996276855469 987.212951660156 993.119201660156 990.339782714844 983.074584960938 981.694580078125 978.621337890625 979.494689941406 993.9833984375 993.750061035156 986.304931640625 988.076049804688 1008.79034423828 1009.73962402344 1010.73956298828 1015.0390625 1016.65777587891 1021.61346435547 1030.8486328125 1033.01953125 1041.00866699219 1041.40979003906 1041.7314453125 1038.82409667969 1040.13879394531 1035.37573242188 1037.5029296875 1029.29992675781 1018.94134521484 1027.31884765625 1030.45556640625 1016.96795654297 1018.68878173828 1014.42340087891 1023.35205078125 1025.42077636719 1027.4775390625 1024.73095703125 1018.72564697266 1021.00970458984 1015.70953369141 1008.78350830078 1008.58471679688 1010.06176757812 1017.71514892578 1024.41735839844 1023.25903320312 1027.35302734375 1026.76086425781 1024.4912109375 1009.52069091797 1006.65844726562 999.393615722656 994.733642578125 995.803649902344 1002.52447509766 1001.61315917969 1010.23724365234 1013.64849853516 1021.32000732422 1018.04626464844 1026.66015625 1034.0615234375 1029.09484863281 1028.51684570312 1028.51403808594 1026.99035644531 1021.79150390625 1025.24597167969 1017.06854248047 997.594421386719 988.607482910156 977.186218261719 974.558654785156 959.178039550781 944.530395507812 943.236694335938 943.010009765625 947.633056640625 955.614868164062 957.440185546875 965.627685546875 977.352661132812 970.948669433594 972.98583984375 976.454895019531 965.940368652344 964.53076171875 965.652954101562 964.397827148438 972.285461425781 964.247985839844 966.691955566406 962.483459472656 963.775451660156 964.059509277344 952.495300292969 937.443359375 935.524230957031 927.590576171875 926.290283203125 918.445434570312 918.509521484375 926.393615722656 941.193725585938 953.250305175781 967.696655273438 969.527526855469 983.489562988281 991.591979980469 999.186889648438 994.958984375 1000.92834472656 1003.85198974609 1008.85467529297 1020.24578857422 1028.41723632812 1044.09521484375 1039.88891601562 1055.07299804688 1048.97387695312 1068.02014160156 1076.93273925781 1072.14587402344 1077.6650390625 1088.05249023438 1096.29565429688 1093.40747070312 1108.63403320312 1100.57678222656 1097.69201660156 1106.53967285156 1105.93005371094 1100.18713378906 1100.48449707031
967.307556152344 973.512756347656 983.603149414062 978.549926757812 973.201904296875 978.531616210938 982.120178222656 982.762268066406 989.146667480469 985.107604980469 981.470642089844 973.625610351562 969.447387695312 973.034545898438 978.595092773438 982.530090332031 983.694519042969 985.217712402344 979.612487792969 988.456298828125 983.976135253906 974.142333984375 980.831115722656 985.916381835938 994.664428710938 991.853332519531 995.190551757812 1002.52044677734 1014.67413330078 1011.20330810547 1012.72943115234 1016.46423339844 1030.31237792969 1035.06823730469 1030.99389648438 1033.75610351562 1034.55505371094 1034.6455078125 1042.94946289062 1041.69299316406 1036.91735839844 1045.36889648438 1043.03637695312 1028.30065917969 1024.80102539062 1022.88598632812 1019.52618408203 1014.80108642578 1018.56134033203 1018.36682128906 1020.37493896484 1024.66528320312 1028.26745605469 1028.087890625 1023.53131103516 1020.45715332031 1010.56042480469 1014.36541748047 1002.33892822266 1017.6435546875 1028.39807128906 1031.24450683594 1038.888671875 1038.09106445312 1031.04736328125 1022.39605712891 1016.78619384766 1009.72503662109 1005.42651367188 1002.06817626953 1010.35418701172 1015.11376953125 1023.31658935547 1018.55920410156 1020.7958984375 1020.24780273438 1031.96130371094 1031.48168945312 1026.22790527344 1023.30938720703 1028.55725097656 1027.52502441406 1035.88208007812 1021.15142822266 1013.61798095703 1006.83093261719 998.783508300781 989.150634765625 981.923156738281 965.321472167969 961.352172851562 951.645935058594 954.129455566406 953.770812988281 966.051513671875 968.935607910156 971.960693359375 976.840759277344 979.241516113281 973.34912109375 979.125671386719 970.995483398438 976.554138183594 977.064697265625 969.357299804688 969.828247070312 963.823120117188 973.990783691406 967.338073730469 972.050048828125 978.440307617188 963.093994140625 945.284240722656 943.394958496094 934.021423339844 931.620788574219 920.992309570312 928.122375488281 935.993896484375 945.409057617188 955.659545898438 971.623901367188 975.135070800781 991.081237792969 1001.99353027344 1009.45098876953 1000.37963867188 1006.51251220703 1002.541015625 1020.03338623047 1029.46411132812 1031.7861328125 1040.19213867188 1046.52893066406 1046.88842773438 1065.30847167969 1060.82739257812 1062.66442871094 1064.97302246094 1083.86328125 1084.71740722656 1091.51879882812 1085.13671875 1095.78076171875 1103.45874023438 1096.48388671875 1100.28039550781 1103.18139648438 1097.26135253906 1089.10595703125
975.373474121094 979.008361816406 976.898742675781 972.220031738281 971.833557128906 972.6728515625 979.856140136719 984.317443847656 984.538452148438 982.99072265625 974.255004882812 979.994873046875 975.958740234375 965.572631835938 972.038696289062 966.835327148438 975.786437988281 981.268676757812 982.0537109375 988.016967773438 985.026672363281 976.758605957031 970.082397460938 981.934143066406 990.110778808594 992.028686523438 999.880187988281 1002.61987304688 1002.62866210938 1005.70794677734 1010.30151367188 1018.81640625 1023.6259765625 1031.54223632812 1034.90576171875 1038.23950195312 1035.60498046875 1037.57690429688 1047.87182617188 1042.3623046875 1040.6240234375 1048.65905761719 1044.1337890625 1034.70068359375 1028.18933105469 1023.37896728516 1012.18475341797 1013.50921630859 1006.54742431641 1010.63928222656 1013.82318115234 1014.13421630859 1018.4453125 1012.45251464844 1005.83227539062 1015.51336669922 1007.17791748047 1012.82751464844 1008.20904541016 1015.48388671875 1020.03881835938 1024.69775390625 1035.35766601562 1034.88452148438 1026.67138671875 1022.02899169922 1018.41998291016 1014.47381591797 1010.82604980469 1013.74279785156 1015.56939697266 1025.00207519531 1021.27514648438 1027.36291503906 1022.876953125 1029.06958007812 1033.986328125 1028.01208496094 1018.12884521484 1024.60327148438 1023.44421386719 1031.51245117188 1026.56811523438 1025.19274902344 1012.48461914062 1005.81109619141 1002.6962890625 994.073547363281 993.218627929688 982.059326171875 977.99755859375 974.868469238281 974.426208496094 967.110412597656 976.583435058594 980.985107421875 971.064392089844 982.217956542969 985.440795898438 979.064758300781 979.682922363281 985.734985351562 987.479858398438 985.515625 980.791381835938 970.115905761719 975.021179199219 981.075439453125 971.899719238281 974.689819335938 975.833129882812 960.996276855469 943.635559082031 943.433288574219 936.999450683594 934.0537109375 931.094848632812 949.21728515625 953.112915039062 954.614807128906 964.765808105469 970.57568359375 982.5634765625 991.221374511719 999.661010742188 1006.90362548828 1000.49176025391 1007.58361816406 1011.08575439453 1019.8369140625 1030.64172363281 1036.94104003906 1049.92016601562 1042.43811035156 1046.16137695312 1052.27880859375 1054.60681152344 1068.30383300781 1064.25915527344 1071.494140625 1076.54504394531 1084.82568359375 1087.57727050781 1090.30578613281 1094.48388671875 1096.17419433594 1106.92639160156 1100.64587402344 1095.33776855469 1090.26123046875
971.937438964844 978.952331542969 978.330322265625 969.960083007812 966.649047851562 971.999206542969 979.270141601562 982.784729003906 981.839294433594 983.743896484375 970.775939941406 967.057006835938 962.303161621094 957.336547851562 966.326965332031 969.392211914062 973.17626953125 980.899841308594 978.321960449219 978.769897460938 968.925842285156 970.90869140625 971.845153808594 980.566345214844 988.396728515625 994.6806640625 998.409973144531 1006.89202880859 1000.80444335938 1005.60137939453 1011.05578613281 1017.38372802734 1020.14270019531 1026.31665039062 1026.50329589844 1038.18798828125 1042.03149414062 1044.65698242188 1048.17590332031 1047.17077636719 1049.37121582031 1042.4345703125 1043.28820800781 1043.78759765625 1031.68322753906 1025.34057617188 1014.48254394531 1007.48333740234 1009.85699462891 1005.90338134766 1005.32690429688 1010.81036376953 1006.28625488281 995.259155273438 1000.40850830078 1001.52978515625 1000.46899414062 1006.21392822266 1014.869140625 1012.08386230469 1015.77752685547 1026.53503417969 1023.37182617188 1025.01879882812 1024.87731933594 1023.79211425781 1016.91143798828 1026.03564453125 1022.78009033203 1016.38873291016 1011.65252685547 1019.44757080078 1024.45544433594 1024.83984375 1026.96691894531 1031.67944335938 1028.87170410156 1020.41278076172 1020.44543457031 1027.09692382812 1020.42901611328 1017.40057373047 1022.12145996094 1023.0673828125 1010.44372558594 1005.90771484375 1004.96759033203 1007.58544921875 998.886901855469 993.374816894531 996.795227050781 993.828308105469 985.422729492188 993.021545410156 986.129089355469 988.233642578125 992.457214355469 993.370666503906 984.116027832031 986.171325683594 990.01806640625 992.384704589844 999.737243652344 992.260559082031 989.362426757812 973.695251464844 976.210266113281 977.12744140625 985.691528320312 982.264892578125 967.368286132812 954.627502441406 950.435119628906 946.162048339844 936.433959960938 933.433288574219 934.259948730469 947.118347167969 950.550476074219 951.202209472656 954.144897460938 969.379760742188 978.720031738281 995.072937011719 999.842224121094 1007.79736328125 1004.02996826172 1008.70629882812 1015.22204589844 1026.88916015625 1045.90539550781 1045.5126953125 1046.54699707031 1048.58020019531 1049.34619140625 1052.09387207031 1057.07189941406 1064.64636230469 1072.95361328125 1075.71899414062 1074.58862304688 1081.91967773438 1088.68347167969 1103.69299316406 1096.705078125 1093.88439941406 1100.76928710938 1113.12341308594 1101.71276855469 1096.33483886719
963.357177734375 973.693359375 962.004760742188 971.455078125 970.252807617188 967.8974609375 963.456970214844 966.945251464844 969.831726074219 970.83251953125 968.594787597656 964.484985351562 959.085632324219 959.978210449219 965.851013183594 967.12939453125 972.182312011719 978.772521972656 980.829345703125 977.204223632812 980.731384277344 968.259948730469 975.595642089844 982.618225097656 988.065856933594 997.704467773438 1005.69439697266 1000.61968994141 1000.83319091797 1010.34442138672 1023.1474609375 1013.58233642578 1011.83038330078 1025.12646484375 1035.29040527344 1037.56335449219 1033.03662109375 1042.65075683594 1048.3818359375 1051.91101074219 1044.15893554688 1042.85888671875 1038.0439453125 1038.12280273438 1030.09619140625 1024.77587890625 1021.04223632812 1010.57556152344 1007.04962158203 1006.38806152344 1005.0234375 996.887023925781 994.403137207031 990.308288574219 998.421630859375 1001.08850097656 1004.02624511719 1003.64166259766 1003.9912109375 1004.30560302734 1013.419921875 1015.84790039062 1018.73858642578 1015.50042724609 1020.8818359375 1024.13171386719 1023.40844726562 1023.22174072266 1021.65905761719 1018.58563232422 1016.54205322266 1022.81109619141 1024.08508300781 1024.81091308594 1027.11352539062 1025.04431152344 1014.61614990234 1024.6337890625 1024.9619140625 1020.57855224609 1016.68695068359 1011.16491699219 1003.51818847656 1016.150390625 1014.26989746094 1003.00360107422 1001.81402587891 1004.90411376953 1014.89538574219 1011.56591796875 1004.10455322266 1014.68560791016 1013.52270507812 1008.82531738281 1003.92230224609 1005.59161376953 1002.90435791016 993.239318847656 993.965515136719 980.055969238281 985.740966796875 988.867980957031 992.681762695312 997.665100097656 988.94091796875 984.33203125 980.620971679688 967.939880371094 978.57666015625 975.841979980469 962.49755859375 952.648498535156 945.578979492188 937.876770019531 939.771484375 945.174377441406 946.627807617188 963.79833984375 949.606628417969 949.119445800781 963.452514648438 976.052673339844 976.113830566406 989.345031738281 1003.82336425781 1002.48846435547 1010.32952880859 1020.35174560547 1025.30700683594 1033.9296875 1036.15856933594 1034.42443847656 1039.1015625 1046.77746582031 1051.7080078125 1052.74145507812 1058.34594726562 1067.37219238281 1066.89636230469 1078.25634765625 1077.04150390625 1085.43225097656 1099.27416992188 1102.61596679688 1104.80578613281 1103.69140625 1100.77648925781 1098.82849121094 1089.60241699219 1096.97045898438
950.934997558594 961.293884277344 960.688049316406 959.779907226562 963.290344238281 966.691162109375 962.5908203125 964.957763671875 960.361083984375 959.529968261719 959.226928710938 961.849731445312 961.987609863281 962.465881347656 971.270690917969 974.408081054688 967.778198242188 974.519775390625 977.526245117188 977.77392578125 976.624694824219 976.032592773438 975.063842773438 981.67578125 993.14599609375 1004.22625732422 1006.05975341797 1004.32202148438 1005.91674804688 1018.04364013672 1010.11547851562 1015.60662841797 1015.82153320312 1024.33837890625 1029.87353515625 1036.35229492188 1035.55249023438 1046.82360839844 1049.14392089844 1043.26623535156 1044.14050292969 1039.24072265625 1034.46423339844 1029.32165527344 1025.23815917969 1020.70941162109 1025.10119628906 1012.91662597656 1010.81652832031 1001.20257568359 1000.0712890625 1001.07232666016 989.446594238281 992.090026855469 991.201965332031 998.836730957031 1005.64190673828 1008.64910888672 1002.70935058594 1010.66650390625 1007.11553955078 1017.38104248047 1021.82916259766 1026.64025878906 1023.58270263672 1021.53009033203 1021.96411132812 1026.951171875 1021.84320068359 1023.42169189453 1022.16375732422 1014.68383789062 1012.45532226562 1030.52392578125 1021.3447265625 1018.71667480469 1013.84698486328 1015.53900146484 1025.11804199219 1022.81024169922 1009.158203125 1006.26416015625 1004.87829589844 1018.66455078125 1020.50500488281 1007.19250488281 1005.94689941406 1016.19647216797 1011.91400146484 1011.93817138672 1011.83630371094 1017.66522216797 1034.94482421875 1020.87512207031 1026.44506835938 1025.21264648438 1013.32318115234 996.352905273438 979.442626953125 986.154296875 984.8232421875 989.64013671875 997.195068359375 997.455261230469 994.6962890625 990.073303222656 981.156311035156 982.540832519531 978.535949707031 966.656860351562 957.66845703125 949.330200195312 942.864807128906 945.985656738281 943.433471679688 946.10302734375 943.098571777344 946.542419433594 942.472290039062 948.432678222656 959.459045410156 971.550354003906 975.884338378906 988.875183105469 1008.109375 1007.14801025391 1012.82159423828 1017.24426269531 1023.77850341797 1030.92358398438 1036.49633789062 1033.87634277344 1045.50561523438 1055.26892089844 1057.53137207031 1062.76916503906 1057.74108886719 1064.04614257812 1065.66198730469 1075.30517578125 1083.25305175781 1089.86450195312 1100.19641113281 1098.07153320312 1101.82067871094 1108.71484375 1107.45141601562 1096.97680664062 1089.26867675781 1101.90417480469
947.639526367188 946.689025878906 957.120544433594 956.610900878906 964.678771972656 959.518859863281 955.755065917969 953.782104492188 952.931701660156 949.196472167969 945.8642578125 953.939208984375 959.962890625 965.747192382812 966.273864746094 965.969299316406 967.9697265625 968.427612304688 974.187255859375 979.044189453125 985.58056640625 977.210876464844 984.586303710938 987.419372558594 997.844299316406 1001.1376953125 1006.55346679688 1004.52197265625 1008.548828125 1013.89459228516 1015.18194580078 1012.43963623047 1016.07373046875 1017.38482666016 1025.15966796875 1038.22094726562 1040.04125976562 1050.30981445312 1040.75390625 1041.17700195312 1039.10009765625 1031.69665527344 1039.75061035156 1037.51953125 1022.96728515625 1026.048828125 1020.04656982422 1007.94769287109 997.675659179688 1005.36999511719 1003.79833984375 1003.98358154297 1002.64630126953 1003.57672119141 997.017761230469 1007.599609375 1016.17150878906 1008.31915283203 1003.64599609375 1015.54431152344 1015.68493652344 1020.74859619141 1027.57141113281 1028.8037109375 1025.24975585938 1017.24163818359 1020.25640869141 1023.02728271484 1031.35388183594 1033.02624511719 1025.58862304688 1021.33233642578 1008.751953125 1016.94671630859 1013.02905273438 1008.56225585938 1021.72088623047 1019.89367675781 1019.45159912109 1011.72937011719 1005.81481933594 1011.43121337891 1002.59558105469 1004.96630859375 1013.49371337891 1001.57635498047 1009.05413818359 1013.37121582031 1013.53302001953 1013.70520019531 1015.7626953125 1027.27294921875 1030.12976074219 1028.12915039062 1033.06262207031 1024.72290039062 1017.16162109375 1000.30206298828 997.071350097656 988.8876953125 983.784851074219 986.88134765625 995.447265625 995.954467773438 992.4677734375 997.23193359375 993.34326171875 989.764526367188 977.376647949219 969.723388671875 959.052551269531 947.401977539062 948.732788085938 950.185363769531 948.721923828125 947.396789550781 943.622253417969 953.7998046875 950.542053222656 960.898193359375 963.966735839844 979.882568359375 986.457580566406 993.7802734375 1002.14813232422 1014.42272949219 1018.30767822266 1019.07342529297 1017.12731933594 1021.29998779297 1028.35986328125 1041.30114746094 1051.29541015625 1050.38940429688 1051.1533203125 1057.71142578125 1058.27587890625 1054.40905761719 1054.11889648438 1073.39453125 1083.97448730469 1085.69067382812 1091.3837890625 1087.7763671875 1093.3056640625 1095.64624023438 1097.00036621094 1109.06726074219 1096.18933105469 1093.75988769531
944.306213378906 946.496520996094 949.828369140625 947.299926757812 962.455932617188 966.924865722656 954.089599609375 947.47265625 950.026916503906 951.700866699219 952.574768066406 957.976989746094 946.235534667969 959.106384277344 961.774475097656 965.051513671875 959.813415527344 964.48779296875 969.218078613281 969.994934082031 977.182922363281 976.442443847656 975.969909667969 988.447082519531 996.25244140625 995.069702148438 1005.98809814453 1004.08215332031 1003.98492431641 1012.23681640625 1010.80737304688 1017.71893310547 1013.62506103516 1017.51080322266 1023.08654785156 1020.74279785156 1030.16345214844 1038.85400390625 1042.697265625 1039.4892578125 1026.87036132812 1032.52807617188 1027.78100585938 1029.9013671875 1021.88958740234 1020.79376220703 1011.46771240234 1000.29663085938 1004.34777832031 995.243896484375 1001.66595458984 1008.56640625 1004.51568603516 1001.75811767578 1000.6806640625 1004.13067626953 1006.72381591797 1009.62677001953 1010.78979492188 1019.73193359375 1016.44049072266 1020.96276855469 1025.20031738281 1026.54870605469 1023.87158203125 1025.333984375 1018.13110351562 1026.28784179688 1029.69104003906 1019.41217041016 1022.38488769531 1009.33166503906 1010.43585205078 1004.17864990234 1010.64617919922 1001.43298339844 1007.16717529297 1011.20715332031 1006.16735839844 1002.5205078125 1001.23651123047 999.269226074219 991.659057617188 1003.97784423828 1008.79583740234 1008.78082275391 1010.82507324219 1019.63214111328 1021.36376953125 1020.10388183594 1026.42834472656 1018.17041015625 1025.32824707031 1034.14013671875 1024.32922363281 1020.7470703125 1015.56262207031 1006.89202880859 1003.86981201172 1002.88659667969 999.167907714844 992.073791503906 1000.95056152344 1001.58026123047 995.753479003906 1002.50067138672 1000.38543701172 996.227661132812 989.570556640625 975.395751953125 971.28515625 952.2333984375 957.85595703125 954.770141601562 945.837829589844 951.368286132812 956.014770507812 952.943237304688 964.349792480469 968.644897460938 973.020263671875 991.127319335938 1001.8388671875 996.114440917969 1010.32952880859 1011.58416748047 1020.6572265625 1028.93151855469 1030.15832519531 1029.26550292969 1036.13232421875 1053.02270507812 1053.63903808594 1059.26574707031 1059.36169433594 1065.93615722656 1050.29919433594 1053.2314453125 1050.25390625 1064.45471191406 1082.72351074219 1089.82971191406 1080.98046875 1084.69787597656 1093.44299316406 1086.47253417969 1094.89904785156 1095.51684570312 1092.51806640625 1091.02124023438
936.793395996094 942.316101074219 947.455810546875 947.331665039062 962.264099121094 957.038452148438 955.981384277344 948.642517089844 943.111389160156 947.38037109375 947.004760742188 947.380798339844 951.108154296875 957.392150878906 957.310241699219 959.623291015625 956.420043945312 946.916076660156 963.509887695312 967.527648925781 976.580810546875 983.877807617188 978.596557617188 991.087097167969 987.30712890625 994.95654296875 991.6845703125 987.148559570312 996.960754394531 998.566101074219 1005.41650390625 1019.23510742188 1012.24499511719 1007.46862792969 1014.23028564453 1013.5654296875 1014.91534423828 1029.73718261719 1040.21765136719 1036.232421875 1030.23986816406 1028.796875 1022.86181640625 1020.50073242188 1016.52966308594 1005.02301025391 995.949584960938 1000.55902099609 999.688110351562 994.256103515625 999.880187988281 999.825988769531 1002.66912841797 995.5673828125 991.346984863281 993.41162109375 1000.31488037109 998.008544921875 1013.29321289062 1011.96405029297 1013.48358154297 1025.9345703125 1023.39776611328 1020.85565185547 1019.74176025391 1025.03125 1022.0546875 1023.87664794922 1019.07067871094 1014.52972412109 1021.30889892578 1018.79522705078 1014.56219482422 1011.28875732422 1006.40789794922 1011.53881835938 1007.76989746094 1004.31640625 1000.73004150391 995.464172363281 996.107116699219 993.768493652344 992.054565429688 995.614562988281 1006.41711425781 1018.64068603516 1011.89947509766 1011.63098144531 1016.09210205078 1015.10290527344 1017.07922363281 1019.53063964844 1024.36157226562 1034.44482421875 1027.18786621094 1017.59631347656 1020.80810546875 1018.69110107422 1006.05426025391 1004.61730957031 1002.62078857422 999.271484375 1003.60485839844 997.791137695312 1003.29010009766 1008.56109619141 1005.99310302734 991.751770019531 985.848449707031 975.478759765625 972.706298828125 965.024658203125 959.305236816406 952.088439941406 947.765563964844 953.079772949219 961.297180175781 961.516052246094 967.402099609375 979.988159179688 978.7060546875 995.833679199219 1005.49041748047 1009.03356933594 1016.37652587891 1015.08880615234 1023.66082763672 1025.779296875 1034.36706542969 1042.21142578125 1047.15466308594 1049.83349609375 1055.708984375 1059.03283691406 1065.35949707031 1057.00476074219 1056.77941894531 1058.841796875 1058.57214355469 1058.39123535156 1069.76538085938 1076.73010253906 1083.28137207031 1098.92529296875 1104.38293457031 1089.43395996094 1090.07385253906 1089.38244628906 1090.79711914062 1088.1357421875
950.427673339844 942.36376953125 942.81884765625 952.647216796875 949.185668945312 958.310485839844 957.1455078125 948.777954101562 946.310363769531 956.998596191406 950.617126464844 947.355041503906 948.48095703125 961.129333496094 962.853454589844 961.660583496094 952.386474609375 965.780517578125 961.588745117188 964.829711914062 966.914672851562 979.621520996094 976.947692871094 980.836791992188 987.924499511719 993.237731933594 982.800048828125 980.672790527344 993.358337402344 992.368957519531 995.124572753906 1009.2109375 1007.59313964844 1006.06481933594 1011.05541992188 1007.63604736328 999.675354003906 1018.94122314453 1031.61596679688 1031.02392578125 1030.10693359375 1019.79992675781 1017.228515625 1019.80554199219 1011.99896240234 1007.15576171875 999.971740722656 993.543884277344 992.301208496094 993.608032226562 988.621826171875 993.301696777344 995.56298828125 982.831115722656 981.775512695312 991.642150878906 991.936462402344 1001.35479736328 1003.98840332031 1008.72387695312 1020.93267822266 1023.79901123047 1020.25006103516 1022.80529785156 1021.74682617188 1031.60217285156 1025.48596191406 1024.65502929688 1014.19854736328 1011.16760253906 1012.85852050781 1006.55633544922 1006.16143798828 1008.12719726562 1009.24426269531 1005.82678222656 1000.64849853516 1000.86785888672 993.371276855469 994.45263671875 991.052307128906 984.935607910156 988.998291015625 1002.80310058594 1000.09545898438 1010.92309570312 1012.42596435547 1012.82885742188 1014.986328125 1013.7578125 1017.7177734375 1018.31323242188 1023.6591796875 1027.23547363281 1033.41564941406 1025.89929199219 1023.58898925781 1024.68200683594 1019.31195068359 1016.89239501953 1007.73645019531 998.669250488281 1000.07635498047 998.705810546875 1002.11303710938 1010.39697265625 1012.84118652344 1001.37475585938 992.504577636719 978.763000488281 972.14697265625 954.983581542969 952.2265625 951.042236328125 946.321166992188 947.501220703125 960.950805664062 966.407409667969 970.91357421875 982.427734375 991.896301269531 998.866271972656 1006.99694824219 1021.13256835938 1019.26593017578 1022.44580078125 1026.41857910156 1033.31555175781 1045.08312988281 1039.98107910156 1052.26843261719 1052.0751953125 1046.19567871094 1056.53955078125 1060.03491210938 1061.0322265625 1051.314453125 1059.04223632812 1062.41528320312 1064.61108398438 1065.93408203125 1071.99780273438 1073.65246582031 1097.89477539062 1103.76232910156 1103.03686523438 1088.95739746094 1086.29992675781 1085.11315917969 1093.11950683594
946.232482910156 938.523071289062 941.108215332031 948.016845703125 954.172180175781 950.399841308594 944.97998046875 953.7041015625 956.985961914062 952.703186035156 956.043151855469 954.402954101562 955.607360839844 968.464904785156 977.346496582031 971.719177246094 962.378051757812 960.616577148438 963.239562988281 969.206176757812 980.656799316406 985.532043457031 984.956298828125 982.168884277344 988.738098144531 988.665649414062 991.0546875 984.984680175781 992.378601074219 993.21044921875 996.735290527344 996.500244140625 1002.59204101562 998.132080078125 996.964416503906 1007.43438720703 1008.41674804688 1010.54888916016 1019.31243896484 1023.10015869141 1013.62658691406 1007.46997070312 1012.83355712891 1013.32611083984 1012.28253173828 998.543090820312 994.902160644531 996.210388183594 991.867980957031 989.261779785156 993.759582519531 993.319396972656 985.575073242188 976.509582519531 982.053039550781 986.371398925781 1003.40545654297 1002.44171142578 1003.37017822266 1003.27337646484 1001.27795410156 1010.28820800781 1017.00531005859 1018.78265380859 1019.91198730469 1017.5029296875 1017.96514892578 1013.35290527344 1008.79180908203 1006.3994140625 999.7373046875 1001.62823486328 1006.95416259766 1003.00128173828 995.434204101562 999.371459960938 999.660766601562 992.1416015625 987.628723144531 993.034240722656 993.524719238281 989.467529296875 992.617797851562 1000.80096435547 998.063842773438 1005.02416992188 1012.56451416016 1014.98486328125 1015.03021240234 1013.78625488281 1022.52947998047 1024.12365722656 1026.61254882812 1030.64538574219 1036.97766113281 1037.55480957031 1031.79089355469 1025.36694335938 1023.96392822266 1021.40380859375 1014.20495605469 1007.36706542969 1006.56341552734 1003.12298583984 1005.29223632812 1016.47521972656 1014.18469238281 1006.42962646484 997.731689453125 978.5927734375 973.120178222656 961.495666503906 957.964172363281 950.865234375 946.748291015625 948.274597167969 957.039733886719 966.771362304688 977.789489746094 991.499755859375 997.745361328125 1002.92547607422 1018.56677246094 1023.82867431641 1026.94213867188 1033.06457519531 1036.47192382812 1039.99670410156 1048.35046386719 1045.57287597656 1043.08618164062 1037.44067382812 1044.09851074219 1042.60327148438 1051.74279785156 1059.04248046875 1063.49987792969 1062.05749511719 1062.91638183594 1067.44445800781 1073.85632324219 1077.51745605469 1084.20202636719 1090.41174316406 1093.90295410156 1097.4521484375 1100.08569335938 1100.71533203125 1091.61511230469 1088.68969726562
943.210388183594 946.179809570312 950.208862304688 947.243103027344 949.575988769531 947.229858398438 946.34375 957.3193359375 962.061096191406 957.944763183594 968.844055175781 953.895874023438 960.703918457031 964.25537109375 970.842407226562 977.356689453125 969.627807617188 968.496276855469 971.245422363281 967.886779785156 983.610900878906 985.145629882812 982.338500976562 987.400756835938 989.462036132812 990.649230957031 987.74267578125 990.723449707031 991.688232421875 997.1416015625 991.213928222656 991.791442871094 989.686828613281 985.291198730469 988.762756347656 994.820373535156 1006.10162353516 1008.23028564453 1011.11340332031 1014.54541015625 1004.33410644531 1003.21795654297 1006.14428710938 1012.42321777344 1004.18933105469 996.560424804688 989.541870117188 995.762084960938 991.648315429688 987.35595703125 984.193237304688 988.938659667969 985.464782714844 983.457763671875 985.737915039062 985.089294433594 989.562683105469 999.280090332031 1005.783203125 1000.5732421875 998.292846679688 1010.18463134766 1012.65832519531 1019.94213867188 1018.48278808594 1018.10247802734 1008.06774902344 992.619201660156 996.675537109375 995.27197265625 994.341064453125 993.512756347656 1009.09497070312 1016.72143554688 1004.53192138672 1000.28582763672 993.255859375 997.239868164062 997.809509277344 991.897766113281 995.650207519531 996.424255371094 997.994323730469 999.944091796875 998.647521972656 999.471008300781 1013.46478271484 1012.16345214844 1017.93310546875 1015.29156494141 1023.04748535156 1025.32568359375 1031.7197265625 1024.67700195312 1036.15649414062 1035.69714355469 1035.32287597656 1026.31750488281 1027.26989746094 1027.60266113281 1019.06988525391 1010.10205078125 1008.93353271484 1003.65789794922 1008.20874023438 1006.17718505859 1004.67950439453 998.557067871094 987.815979003906 982.984252929688 971.499328613281 953.427795410156 955.561279296875 948.422485351562 949.402893066406 954.72802734375 961.338500976562 964.39306640625 981.208374023438 997.339172363281 1000.94171142578 1011.03881835938 1017.87921142578 1022.16284179688 1044.9599609375 1043.57629394531 1033.70458984375 1033.43481445312 1041.55261230469 1049.86999511719 1037.14770507812 1041.76098632812 1038.86340332031 1032.45568847656 1045.66430664062 1042.59985351562 1050.25756835938 1059.00915527344 1060.61767578125 1067.8359375 1076.96545410156 1078.78308105469 1075.35656738281 1086.41040039062 1086.73974609375 1095.01623535156 1102.99426269531 1098.64294433594 1095.81604003906 1088.54846191406
947.259704589844 947.489868164062 947.884765625 945.507202148438 948.810974121094 958.15283203125 964.163757324219 958.633117675781 969.692016601562 970.467712402344 964.875610351562 958.810363769531 966.971313476562 969.826782226562 968.184143066406 971.564575195312 973.061828613281 971.207214355469 977.10986328125 976.361450195312 981.426513671875 978.104736328125 989.825073242188 993.718505859375 987.250305175781 992.526672363281 985.075927734375 994.572143554688 986.592956542969 989.399780273438 984.199645996094 991.594482421875 991.072082519531 981.954650878906 983.700012207031 996.401611328125 1001.59271240234 1002.98162841797 1003.64367675781 1001.19622802734 1006.04455566406 999.237121582031 998.433776855469 1009.48303222656 1004.85595703125 1005.02685546875 993.150207519531 985.670654296875 988.132995605469 987.078735351562 983.090576171875 991.474548339844 989.797729492188 994.010620117188 983.414672851562 981.151611328125 995.000305175781 1001.18133544922 993.505187988281 994.734497070312 998.504760742188 1004.24890136719 1005.78509521484 1001.34594726562 1001.24963378906 1004.96887207031 1008.37188720703 997.759582519531 994.17919921875 998.365966796875 991.209716796875 996.326538085938 1006.53582763672 1003.51013183594 1006.22973632812 997.955261230469 989.615112304688 996.580383300781 999.78662109375 995.082885742188 985.156372070312 989.040466308594 999.638000488281 999.071472167969 1001.66552734375 1011.40057373047 1009.18682861328 1015.91101074219 1013.03289794922 1024.00439453125 1022.88214111328 1031.21020507812 1028.62231445312 1031.1875 1031.97192382812 1035.25756835938 1033.15747070312 1033.91320800781 1027.12780761719 1022.72113037109 1023.70953369141 1015.64990234375 1017.56439208984 1014.99981689453 1012.76086425781 1009.59008789062 1010.61370849609 999.212890625 992.870178222656 988.669128417969 978.297607421875 961.674438476562 957.304260253906 946.515258789062 951.682922363281 961.374816894531 963.135681152344 974.934753417969 985.391540527344 1002.00366210938 1010.58746337891 1019.14123535156 1019.63134765625 1025.29382324219 1033.08227539062 1040.33581542969 1046.62866210938 1043.98034667969 1042.0068359375 1039.95397949219 1042.00500488281 1042.28039550781 1043.06164550781 1038.08520507812 1036.78552246094 1042.6259765625 1048.76098632812 1051.89038085938 1058.66760253906 1064.75671386719 1079.43176269531 1076.26611328125 1080.27893066406 1088.61340332031 1088.78796386719 1096.779296875 1101.44714355469 1094.12573242188 1094.88818359375 1097.64453125
950.610290527344 952.5087890625 953.946411132812 952.328125 950.979553222656 955.661926269531 959.498779296875 965.316650390625 972.558410644531 959.496826171875 964.869506835938 974.557800292969 966.373413085938 975.948059082031 981.419860839844 975.774841308594 970.348388671875 977.855773925781 974.0283203125 978.210388183594 979.814514160156 981.453552246094 989.501342773438 992.657836914062 989.992980957031 984.934997558594 983.562744140625 991.154357910156 993.963012695312 993.292663574219 982.142700195312 991.027099609375 989.638488769531 987.147888183594 983.590209960938 991.214782714844 995.679321289062 997.829162597656 994.070251464844 1001.17907714844 1004.57183837891 1006.04162597656 1007.66009521484 994.832641601562 996.754943847656 1008.70349121094 1001.92669677734 988.804138183594 983.79833984375 987.11328125 987.931701660156 994.47216796875 982.213439941406 985.390686035156 974.436950683594 981.885009765625 992.517578125 998.791748046875 999.04931640625 994.866821289062 993.417602539062 1000.98394775391 992.692443847656 995.934997558594 1003.93878173828 1004.32537841797 1000.93902587891 999.830993652344 996.629638671875 998.832214355469 995.841796875 1001.55401611328 1000.86676025391 1005.14080810547 1007.86566162109 996.196960449219 993.99755859375 987.843505859375 988.357788085938 992.744812011719 988.347473144531 992.874694824219 996.371948242188 995.484375 1002.07843017578 1013.65051269531 1013.79870605469 1012.85888671875 1011.33819580078 1029.4638671875 1020.76867675781 1033.37744140625 1034.13940429688 1033.55346679688 1026.33801269531 1026.66015625 1030.0556640625 1036.42944335938 1026.103515625 1026.51538085938 1014.75769042969 1015.90356445312 1025.52734375 1015.76434326172 1008.98175048828 1015.49395751953 1003.16778564453 997.438354492188 989.99365234375 982.369689941406 970.957702636719 962.302734375 962.254516601562 946.880737304688 948.575988769531 963.469482421875 965.234375 977.288513183594 990.902282714844 996.83056640625 1010.45648193359 1022.13629150391 1023.53802490234 1027.23901367188 1024.53784179688 1028.89526367188 1045.49340820312 1042.23669433594 1045.12438964844 1039.90698242188 1042.85168457031 1040.44470214844 1034.95556640625 1036.97631835938 1036.15380859375 1035.58142089844 1042.19958496094 1053.22973632812 1056.04443359375 1058.60668945312 1069.37426757812 1068.24401855469 1073.88488769531 1086.70703125 1090.74645996094 1085.85009765625 1094.44445800781 1094.95043945312 1098.53234863281 1106.82092285156
946.295288085938 951.379089355469 952.685424804688 951.172973632812 956.744873046875 952.820434570312 967.359619140625 970.483337402344 978.598083496094 971.3818359375 966.407592773438 978.195373535156 978.347961425781 980.647644042969 974.816711425781 976.023254394531 977.101501464844 977.982482910156 970.681030273438 971.341125488281 984.765686035156 986.704345703125 984.892211914062 989.056518554688 990.314636230469 982.287658691406 993.514343261719 999.647338867188 1011.04370117188 1002.99426269531 984.893249511719 979.496704101562 986.58935546875 990.319091796875 990.369812011719 995.778442382812 992.598022460938 993.878967285156 995.819458007812 986.558959960938 993.887939453125 1001.10571289062 1002.30303955078 998.375610351562 991.694946289062 996.537841796875 987.13037109375 985.997619628906 983.585815429688 981.727355957031 987.293151855469 993.713073730469 987.0185546875 988.182739257812 987.69140625 983.147216796875 986.919616699219 986.776794433594 994.621948242188 998.791931152344 993.32421875 996.455261230469 986.787353515625 987.31884765625 992.245849609375 997.525390625 1005.90386962891 1003.04534912109 1004.60382080078 1004.14672851562 999.882019042969 996.937805175781 999.554138183594 1008.51721191406 1002.79650878906 1002.87872314453 998.859619140625 994.730712890625 995.970886230469 985.378479003906 982.270690917969 981.745422363281 995.631286621094 997.086181640625 998.461120605469 999.955871582031 1009.72100830078 1014.74475097656 1019.12951660156 1015.65069580078 1019.58477783203 1020.38366699219 1029.68249511719 1022.45715332031 1029.90307617188 1019.62316894531 1023.54901123047 1031.0048828125 1027.43762207031 1020.40185546875 1022.52099609375 1014.91784667969 1019.01928710938 1027.14538574219 1021.37109375 1006.46771240234 997.156799316406 995.891235351562 989.904541015625 975.094848632812 964.515014648438 958.044372558594 950.279724121094 940.901672363281 945.08984375 953.120727539062 959.487915039062 977.445007324219 995.899108886719 1000.34661865234 998.151123046875 1013.62237548828 1011.92694091797 1018.89324951172 1027.46655273438 1034.80346679688 1037.19494628906 1041.52380371094 1040.62963867188 1042.53869628906 1042.11401367188 1041.9921875 1040.89880371094 1039.59228515625 1037.73352050781 1032.57397460938 1046.18811035156 1049.26354980469 1047.1376953125 1056.89050292969 1056.228515625 1065.79614257812 1074.58801269531 1082.30310058594 1088.90869140625 1094.4658203125 1099.11193847656 1100.23901367188 1102.80224609375 1111.08264160156
949.545288085938 951.787414550781 959.845825195312 961.274291992188 966.081848144531 966.152099609375 973.20166015625 977.078247070312 976.894226074219 969.503845214844 969.448120117188 975.110900878906 982.473022460938 983.133178710938 978.595581054688 971.725280761719 979.5986328125 981.131530761719 978.039184570312 973.330383300781 992.684143066406 985.643737792969 991.738403320312 983.136108398438 994.9013671875 986.977111816406 1002.07995605469 1012.60144042969 1004.85504150391 991.972290039062 986.24169921875 983.667236328125 989.412536621094 985.058654785156 992.615051269531 994.527465820312 991.771118164062 988.748413085938 994.575378417969 991.613586425781 995.278686523438 992.469665527344 991.690551757812 991.419677734375 986.124633789062 994.295593261719 987.149963378906 984.224975585938 983.040893554688 983.196472167969 983.006530761719 985.536010742188 984.533081054688 986.539001464844 992.281982421875 987.766296386719 986.733276367188 988.657287597656 986.932800292969 984.307800292969 994.102355957031 987.473571777344 992.395446777344 988.311218261719 986.608093261719 988.337463378906 995.855834960938 998.506958007812 1004.12841796875 1005.05487060547 994.253784179688 986.794738769531 997.3310546875 1002.99127197266 1005.38592529297 1000.50207519531 997.8818359375 995.632080078125 995.33544921875 988.242065429688 985.717468261719 984.567199707031 997.703369140625 1001.03295898438 995.023254394531 1010.37841796875 1012.21130371094 1015.56005859375 1022.34088134766 1014.99658203125 1013.14312744141 1021.95343017578 1022.03936767578 1018.23999023438 1018.79943847656 1022.23846435547 1029.13464355469 1027.76635742188 1022.07574462891 1014.44360351562 1011.94232177734 1012.09344482422 1015.82427978516 1016.87219238281 1013.16284179688 999.436340332031 996.749328613281 990.412353515625 986.161926269531 971.61083984375 960.517883300781 948.502746582031 938.936828613281 947.547973632812 940.621337890625 949.836181640625 955.440368652344 971.702819824219 985.1865234375 998.211059570312 1004.68872070312 1009.88146972656 1007.55932617188 1015.40148925781 1023.33825683594 1028.28552246094 1041.43249511719 1042.10961914062 1040.1416015625 1036.85803222656 1045.75207519531 1038.15942382812 1043.14221191406 1035.13452148438 1031.193359375 1029.34008789062 1040.44995117188 1052.57836914062 1044.87243652344 1049.88952636719 1055.06787109375 1058.73046875 1069.1865234375 1073.64086914062 1086.99499511719 1098.50012207031 1101.55993652344 1102.89562988281 1105.21630859375 1114.40576171875
946.884826660156 954.946899414062 961.751525878906 970.348327636719 970.308532714844 977.5703125 970.794860839844 967.108215332031 974.583068847656 966.987487792969 968.283935546875 980.471618652344 985.302551269531 983.404113769531 968.419555664062 971.087036132812 976.662048339844 980.485900878906 974.051330566406 981.096008300781 982.024108886719 984.066284179688 986.487609863281 987.978881835938 980.154602050781 986.669921875 1000.45880126953 1005.53442382812 995.67236328125 980.245300292969 979.910827636719 986.76953125 980.577880859375 988.591491699219 990.545715332031 991.309997558594 993.148742675781 991.531372070312 990.408813476562 980.110473632812 985.909973144531 986.051330566406 990.488830566406 985.79052734375 986.094604492188 987.480041503906 981.605407714844 976.419860839844 983.899841308594 984.078186035156 991.045654296875 981.686950683594 969.972229003906 976.048645019531 978.894714355469 989.380554199219 988.114501953125 975.203308105469 980.765380859375 985.341796875 989.153259277344 991.376708984375 987.670349121094 983.921997070312 984.541564941406 988.578552246094 994.181396484375 1005.95886230469 1000.24346923828 995.453430175781 990.635375976562 987.03515625 990.267456054688 996.453857421875 1004.93383789062 1002.01940917969 1008.82293701172 1007.08935546875 999.117919921875 997.954345703125 1005.76049804688 1005.02032470703 1004.18145751953 1009.81359863281 1011.60815429688 1010.97564697266 1019.19665527344 1014.97277832031 1013.37158203125 1016.05816650391 1014.87567138672 1013.15350341797 1020.02569580078 1014.67559814453 1020.26086425781 1023.58862304688 1017.84155273438 1030.00476074219 1016.81500244141 1007.31225585938 1010.77160644531 1010.18225097656 1008.84613037109 1008.14141845703 1002.298828125 998.569274902344 989.390197753906 991.353210449219 987.242309570312 980.596740722656 967.610534667969 952.468933105469 947.743286132812 948.263793945312 948.127807617188 956.986572265625 957.190124511719 976.344116210938 990.470397949219 999.77099609375 1010.57092285156 1009.26763916016 1005.47570800781 1009.85546875 1020.39801025391 1031.859375 1029.61193847656 1031.96362304688 1030.6953125 1032.45886230469 1028.91442871094 1033.05749511719 1030.263671875 1028.22302246094 1025.82824707031 1032.71228027344 1034.99475097656 1041.81408691406 1046.25366210938 1051.44750976562 1064.09118652344 1060.0234375 1067.86401367188 1079.30126953125 1090.53259277344 1093.39477539062 1097.64050292969 1106.71789550781 1116.80383300781 1113.0302734375
952.768249511719 959.867980957031 966.429016113281 954.359436035156 957.943481445312 956.828369140625 973.738037109375 972.3076171875 973.055786132812 972.251403808594 973.016540527344 974.446411132812 979.010192871094 974.786865234375 978.942321777344 972.1435546875 973.424926757812 973.412231445312 979.262756347656 984.057983398438 985.257995605469 984.631103515625 982.47412109375 970.888488769531 981.283630371094 983.717834472656 991.400085449219 995.523376464844 986.078491210938 977.266418457031 976.752624511719 978.321899414062 985.279052734375 988.755676269531 982.863647460938 982.021606445312 983.714782714844 982.014587402344 982.366516113281 978.723693847656 981.023376464844 984.732788085938 989.800354003906 988.511474609375 986.145874023438 985.666870117188 974.1982421875 979.000671386719 978.555480957031 984.357727050781 983.986511230469 975.90380859375 971.416931152344 969.61865234375 977.4443359375 981.306457519531 978.87646484375 976.09375 970.908325195312 980.569396972656 980.228454589844 982.404235839844 984.560852050781 981.557495117188 976.879089355469 982.093139648438 991.282775878906 998.848449707031 993.407043457031 992.203979492188 984.181884765625 985.733459472656 985.762634277344 995.503540039062 1000.31707763672 999.918823242188 1003.23205566406 1000.65856933594 997.232543945312 996.692260742188 1001.22259521484 1004.95953369141 1004.62072753906 1005.70092773438 1011.8466796875 1016.90802001953 1017.75012207031 1011.68646240234 1009.18719482422 1004.49499511719 1016.66180419922 1016.64312744141 1013.53497314453 1028.09997558594 1033.33544921875 1022.91033935547 1027.24304199219 1019.24237060547 1014.04681396484 1006.33801269531 998.307678222656 995.764831542969 1002.83001708984 998.900634765625 998.319763183594 992.851867675781 991.339477539062 992.236694335938 986.841979980469 978.254455566406 968.854919433594 959.950744628906 948.894165039062 948.902404785156 948.533325195312 952.31396484375 959.341064453125 977.575744628906 985.017700195312 990.416564941406 1004.09979248047 1016.21435546875 1009.37780761719 1010.49450683594 1014.32904052734 1021.38909912109 1023.27502441406 1024.68212890625 1025.66003417969 1030.43139648438 1022.97534179688 1025.955078125 1018.68206787109 1017.32098388672 1028.5458984375 1035.84240722656 1025.36315917969 1028.203125 1038.54516601562 1055.83361816406 1062.82080078125 1063.46423339844 1067.68383789062 1079.72912597656 1085.396484375 1091.07873535156 1098.8251953125 1111.6904296875 1116.19079589844 1111.84545898438
955.238037109375 955.912902832031 958.111450195312 960.037780761719 954.156188964844 962.669372558594 972.251586914062 979.817321777344 974.833190917969 971.881958007812 972.223022460938 978.755554199219 980.383056640625 970.638671875 969.419189453125 975.099243164062 977.997497558594 978.682556152344 977.092712402344 978.478637695312 987.368957519531 984.257507324219 981.974426269531 978.402221679688 976.284851074219 987.553039550781 991.598999023438 993.004760742188 982.785583496094 977.741821289062 977.880310058594 987.275817871094 994.057495117188 993.254699707031 987.316101074219 994.013122558594 981.949523925781 982.428100585938 974.167846679688 969.9541015625 978.277282714844 978.029113769531 976.966247558594 988.720336914062 988.104736328125 986.893615722656 978.614501953125 983.861938476562 982.089050292969 981.255249023438 985.476196289062 982.192077636719 976.220092773438 972.952819824219 974.918823242188 972.730224609375 978.987854003906 975.038879394531 971.098815917969 969.812072753906 978.766967773438 976.088500976562 983.222290039062 984.0869140625 984.570190429688 991.527038574219 995.239685058594 994.853576660156 993.759826660156 983.186767578125 981.729797363281 987.639343261719 982.501281738281 986.322875976562 994.678100585938 987.912292480469 995.193969726562 1001.03790283203 993.3544921875 995.859191894531 1001.82897949219 1003.46429443359 1002.28186035156 1009.72045898438 1003.78057861328 1012.99017333984 1019.54217529297 1003.76959228516 1003.01971435547 1001.80242919922 1009.18273925781 1018.93414306641 1025.22680664062 1026.16821289062 1031.01684570312 1021.41619873047 1024.18298339844 1018.79602050781 1010.85607910156 1007.82049560547 1004.158203125 1000.16461181641 993.068908691406 987.398010253906 993.884155273438 989.965637207031 993.206176757812 986.319641113281 988.557189941406 976.847595214844 975.558471679688 960.988647460938 959.055847167969 950.560119628906 952.295166015625 961.4345703125 971.1142578125 980.123107910156 979.314575195312 990.425537109375 995.365844726562 1002.88562011719 1007.91424560547 1007.20043945312 1017.03106689453 1020.15234375 1022.61242675781 1021.85302734375 1023.57330322266 1023.72650146484 1020.07995605469 1014.14636230469 1018.94390869141 1019.83770751953 1014.71984863281 1024.76867675781 1026.42114257812 1033.48815917969 1039.35192871094 1049.63928222656 1056.62316894531 1059.33764648438 1062.66381835938 1076.21142578125 1088.78442382812 1103.0419921875 1111.4501953125 1111.26879882812 1117.77648925781 1119.9716796875
942.673034667969 956.425903320312 956.551452636719 957.432006835938 964.017333984375 957.108093261719 972.189514160156 982.525817871094 976.878540039062 977.564270019531 979.380493164062 975.535217285156 970.229614257812 966.32958984375 960.557983398438 975.763244628906 978.289306640625 973.217163085938 979.335815429688 975.692504882812 979.357971191406 975.456176757812 980.524169921875 969.653442382812 975.756774902344 985.914245605469 982.88037109375 980.864990234375 987.252868652344 987.879516601562 981.08984375 988.042358398438 998.158874511719 994.755615234375 982.9169921875 987.188110351562 982.226867675781 978.849060058594 977.283142089844 973.374084472656 978.232299804688 987.750366210938 982.549133300781 981.664733886719 985.111633300781 987.740051269531 975.215942382812 980.542358398438 981.794372558594 982.147521972656 977.479309082031 980.657592773438 977.63916015625 975.730224609375 979.318664550781 973.380187988281 969.546813964844 965.915649414062 971.472229003906 964.952575683594 969.541076660156 972.872802734375 980.404724121094 979.302001953125 987.295288085938 990.184631347656 990.853942871094 990.933532714844 984.322082519531 976.003540039062 970.713806152344 981.947387695312 986.994812011719 995.392028808594 989.378784179688 983.217712402344 992.620849609375 989.707946777344 994.832397460938 994.301452636719 1002.9853515625 1000.92230224609 1002.63696289062 1005.74987792969 998.9091796875 1007.39776611328 1003.95721435547 999.188903808594 999.381469726562 997.730285644531 996.869140625 1006.39672851562 1016.33575439453 1019.40673828125 1024.92395019531 1011.95166015625 1018.12347412109 1007.92822265625 1008.90008544922 1000.52569580078 999.896301269531 996.267395019531 994.418640136719 995.533813476562 995.973022460938 995.930541992188 993.062622070312 995.678405761719 989.921630859375 985.918518066406 980.093872070312 967.979064941406 972.685546875 967.556396484375 964.217529296875 969.75244140625 974.075988769531 989.474670410156 990.049682617188 990.450561523438 998.7802734375 1003.01239013672 1013.88525390625 1019.83197021484 1025.05029296875 1025.50317382812 1020.50073242188 1018.83648681641 1020.34478759766 1025.84936523438 1019.42895507812 1016.41595458984 1021.49871826172 1017.46423339844 1018.11700439453 1022.42956542969 1020.48626708984 1042.51586914062 1043.92370605469 1045.19860839844 1053.5126953125 1058.40234375 1067.31884765625 1075.91442871094 1086.93103027344 1098.12414550781 1106.33740234375 1108.20104980469 1118.29797363281 1124.13525390625
947.995056152344 953.767150878906 962.171997070312 954.598693847656 963.766540527344 965.531799316406 972.486511230469 977.983459472656 979.534606933594 977.631042480469 976.784484863281 971.794982910156 967.696838378906 955.747436523438 959.022827148438 967.531433105469 965.98828125 971.173400878906 979.195068359375 980.203125 975.972229003906 976.255310058594 980.036743164062 973.659301757812 973.657287597656 979.415893554688 976.528137207031 979.044494628906 981.229736328125 982.794860839844 978.905456542969 979.131469726562 989.112060546875 981.909057617188 981.810852050781 978.3310546875 984.86328125 977.632934570312 970.069580078125 972.612121582031 979.225219726562 977.883728027344 985.612670898438 984.507141113281 981.835754394531 979.38671875 971.495666503906 981.47412109375 977.232482910156 982.735534667969 972.540222167969 979.098388671875 970.525634765625 973.69970703125 975.824523925781 975.090698242188 970.020568847656 971.9365234375 974.1513671875 963.348266601562 965.579345703125 971.799621582031 976.931213378906 979.230529785156 980.59033203125 976.73876953125 987.593811035156 984.119934082031 975.513854980469 978.621215820312 972.704406738281 980.95361328125 986.23486328125 984.041442871094 988.527770996094 981.762268066406 991.769775390625 993.635314941406 984.796752929688 990.870178222656 994.704223632812 997.93798828125 997.05712890625 997.735534667969 993.941833496094 1003.22076416016 995.548461914062 992.30224609375 989.995056152344 994.482421875 988.896911621094 996.954895019531 1009.583984375 1012.98840332031 1013.90655517578 1016.90948486328 1002.86883544922 1000.84991455078 1002.84643554688 1002.01873779297 997.5009765625 996.950256347656 1005.51043701172 998.369079589844 998.64208984375 998.857238769531 987.684997558594 988.622192382812 989.520874023438 987.4130859375 981.020935058594 976.775329589844 982.863708496094 974.841491699219 977.621520996094 977.900634765625 989.193725585938 1005.24255371094 1008.0615234375 996.007873535156 986.668579101562 1000.93005371094 1009.83380126953 1013.97253417969 1017.04858398438 1023.58612060547 1018.79681396484 1018.24212646484 1025.76940917969 1013.99468994141 1011.75286865234 1015.77520751953 1015.6669921875 1018.78948974609 1017.54431152344 1020.39874267578 1018.80255126953 1039.10961914062 1042.19958496094 1058.03857421875 1061.16638183594 1073.22790527344 1084.05639648438 1087.50659179688 1088.07604980469 1097.14953613281 1106.82678222656 1109.22766113281 1118.70812988281 1127.43041992188
955.786010742188 954.865112304688 960.083801269531 960.951293945312 966.765380859375 981.762023925781 976.145446777344 971.351135253906 974.30224609375 967.033752441406 975.056579589844 974.207641601562 968.067993164062 966.621032714844 976.188354492188 958.051452636719 964.512390136719 965.514770507812 975.688110351562 984.725158691406 983.845825195312 978.702575683594 979.491638183594 967.581665039062 979.545959472656 978.223205566406 970.263977050781 978.374877929688 982.759948730469 983.200561523438 981.584350585938 979.586364746094 979.685180664062 975.988830566406 984.424865722656 980.868713378906 977.618103027344 974.383178710938 978.521301269531 975.799255371094 976.960876464844 974.391723632812 982.907958984375 986.591186523438 978.16552734375 979.54736328125 978.37109375 983.661376953125 980.08154296875 984.6552734375 978.1923828125 976.884460449219 972.49072265625 976.2490234375 980.169250488281 971.206787109375 979.214294433594 975.783813476562 964.468017578125 960.229309082031 963.568908691406 966.980651855469 964.519714355469 964.306884765625 969.758178710938 965.74755859375 973.967346191406 981.819396972656 983.662841796875 979.092102050781 982.745056152344 979.8974609375 979.930969238281 980.135131835938 983.086303710938 988.688110351562 986.876831054688 990.997619628906 976.231384277344 986.242126464844 992.001342773438 1002.78137207031 998.219055175781 995.747314453125 991.531188964844 998.286010742188 992.128967285156 989.345581054688 992.555847167969 989.907531738281 990.796020507812 993.311462402344 1002.11712646484 1007.41473388672 996.937683105469 990.448547363281 991.213134765625 991.459045410156 992.630493164062 999.883911132812 997.299987792969 999.77734375 992.922607421875 998.495788574219 994.072326660156 981.760864257812 991.310363769531 993.001159667969 989.194519042969 982.898559570312 987.224670410156 996.476135253906 1000.73626708984 990.848937988281 997.8818359375 998.090209960938 1004.89721679688 1003.65472412109 1007.45971679688 1002.77569580078 1002.08648681641 1006.21685791016 1009.88177490234 1015.92095947266 1019.90765380859 1023.24432373047 1018.97216796875 1019.03411865234 1005.78961181641 1013.23895263672 1012.06713867188 1016.14068603516 1016.04632568359 1016.89031982422 1018.97137451172 1019.72784423828 1026.9921875 1032.24499511719 1041.21118164062 1053.31286621094 1065.86059570312 1082.85217285156 1087.91967773438 1094.17346191406 1099.24206542969 1100.45654296875 1112.20654296875 1113.90075683594 1119.80151367188 1130.14294433594
961.51318359375 960.043762207031 962.47607421875 966.579833984375 971.22998046875 980.224304199219 971.264404296875 968.316467285156 970.621215820312 967.19482421875 969.775146484375 969.633544921875 964.293884277344 968.997131347656 970.571960449219 967.593200683594 972.979614257812 973.853942871094 973.606506347656 978.738647460938 980.827087402344 979.785034179688 983.384216308594 974.964660644531 981.172546386719 974.023498535156 968.605285644531 980.658020019531 981.524780273438 986.626037597656 984.291625976562 985.412231445312 975.770629882812 979.312683105469 986.811462402344 986.10986328125 986.332824707031 979.350280761719 980.23828125 983.805480957031 972.689880371094 976.113830566406 973.934631347656 978.055297851562 975.762084960938 981.00927734375 980.407775878906 979.999084472656 980.650146484375 974.59130859375 976.597290039062 973.391784667969 974.912780761719 975.217590332031 979.202453613281 969.512573242188 977.433044433594 970.209594726562 956.912780761719 958.670227050781 965.920288085938 968.95068359375 969.91552734375 965.744384765625 961.093200683594 964.647094726562 968.846740722656 970.655395507812 982.510437011719 981.275756835938 980.434265136719 976.723205566406 978.428894042969 975.642456054688 980.121459960938 980.8232421875 986.449401855469 991.996887207031 983.729736328125 988.472778320312 1001.99566650391 999.241394042969 986.904113769531 991.6455078125 991.270385742188 984.281616210938 985.783020019531 984.563720703125 994.15478515625 991.171875 983.654968261719 995.115966796875 1001.79998779297 995.466125488281 986.230529785156 986.057189941406 987.667663574219 990.269592285156 990.975952148438 984.547912597656 993.301330566406 987.308410644531 995.946655273438 990.176025390625 987.028503417969 985.593139648438 988.091491699219 990.952209472656 990.592468261719 987.637817382812 995.053100585938 1006.41467285156 1003.05133056641 999.09130859375 999.379699707031 1003.13610839844 1010.96496582031 1019.44445800781 1007.78515625 1003.50012207031 1004.39776611328 1012.00061035156 1011.74060058594 1016.04321289062 1021.63726806641 1026.43530273438 1021.73590087891 1020.35693359375 1025.66186523438 1018.05859375 1018.02380371094 1026.63330078125 1017.99389648438 1024.44604492188 1027.349609375 1028.92358398438 1035.15368652344 1047.509765625 1049.33532714844 1069.28137207031 1076.50671386719 1091.81115722656 1095.86547851562 1102.32141113281 1104.39172363281 1099.3232421875 1113.98364257812 1128.01379394531 1125.46057128906 1128.29907226562
958.781311035156 958.187133789062 966.953002929688 969.16259765625 973.579406738281 974.762145996094 976.463989257812 966.78662109375 958.425720214844 965.383666992188 970.669006347656 962.460571289062 963.397705078125 965.432312011719 970.526733398438 976.526000976562 976.739074707031 979.226379394531 985.944396972656 989.327026367188 982.421142578125 975.22998046875 978.340759277344 982.831665039062 978.198425292969 974.677978515625 973.853149414062 972.480163574219 973.656372070312 985.801574707031 985.450073242188 976.071960449219 985.23681640625 984.894287109375 990.029174804688 986.320434570312 983.567504882812 983.480712890625 982.513366699219 971.827819824219 970.581481933594 975.24462890625 970.416809082031 972.716735839844 970.347595214844 981.149536132812 976.508972167969 977.0107421875 977.416625976562 979.209716796875 978.787963867188 980.989929199219 982.366821289062 979.617065429688 979.667541503906 974.647216796875 975.804992675781 974.3076171875 968.840393066406 969.646606445312 965.211730957031 967.728332519531 962.212585449219 958.498657226562 963.077880859375 964.654602050781 974.228576660156 964.643127441406 975.91064453125 980.86865234375 972.362365722656 974.595642089844 977.318237304688 974.541809082031 977.74755859375 981.243591308594 979.027526855469 988.711975097656 986.424133300781 990.588195800781 999.644714355469 992.518798828125 989.378479003906 992.8828125 972.625 982.825134277344 987.71875 993.483215332031 993.326721191406 987.089599609375 987.601745605469 997.621643066406 992.904907226562 989.724914550781 987.652954101562 982.631530761719 984.564636230469 989.744506835938 995.450439453125 998.008117675781 989.68603515625 985.191284179688 987.616882324219 986.521057128906 987.550354003906 984.776611328125 986.003784179688 990.655578613281 989.958190917969 994.480224609375 1002.76605224609 1002.67895507812 995.842651367188 996.875305175781 1001.95611572266 1005.70690917969 1007.35034179688 1006.67120361328 1002.57647705078 1005.8203125 1005.94110107422 1009.22869873047 1002.60046386719 1010.36505126953 1015.56463623047 1008.04382324219 1009.68792724609 1018.73852539062 1012.17138671875 1021.57446289062 1022.15948486328 1024.09838867188 1024.49304199219 1025.9443359375 1034.27062988281 1035.13427734375 1043.03637695312 1046.15869140625 1058.55773925781 1074.49182128906 1080.89916992188 1085.67004394531 1097.140625 1108.82629394531 1115.37487792969 1115.52758789062 1119.93957519531 1126.00122070312 1132.72241210938 1127.93591308594
952.703125 960.0458984375 960.039733886719 965.29248046875 965.919250488281 968.064331054688 973.040588378906 969.475708007812 962.349365234375 965.57470703125 959.807434082031 963.435119628906 968.828979492188 978.090393066406 973.975891113281 979.429077148438 970.567504882812 984.750122070312 976.14892578125 988.317321777344 974.015869140625 978.372741699219 978.445251464844 974.8642578125 976.94775390625 976.659851074219 974.6767578125 967.544982910156 971.950866699219 972.875183105469 976.750610351562 974.202697753906 978.096496582031 984.868896484375 981.494323730469 986.862426757812 983.964233398438 985.730529785156 975.163208007812 972.518249511719 975.533508300781 978.429748535156 974.908874511719 962.835083007812 973.862487792969 980.676818847656 971.822692871094 970.756652832031 978.036376953125 978.121520996094 979.623962402344 971.222534179688 974.884582519531 979.014831542969 976.980285644531 976.590209960938 980.188415527344 972.599182128906 972.064392089844 965.896911621094 964.228149414062 964.413024902344 958.48974609375 959.384094238281 960.5859375 968.787475585938 971.706665039062 970.00146484375 976.415283203125 970.094604492188 967.490844726562 966.48828125 969.609069824219 974.067504882812 972.064758300781 974.094482421875 971.421264648438 984.960998535156 994.37548828125 990.76123046875 1006.51983642578 995.408020019531 990.781860351562 981.140502929688 977.338989257812 979.67578125 984.577575683594 990.521606445312 992.292602539062 983.3701171875 981.007507324219 991.0146484375 991.635375976562 998.0048828125 995.941345214844 985.328735351562 986.1123046875 998.196655273438 993.757507324219 993.330810546875 978.163146972656 981.102783203125 981.465637207031 982.818603515625 979.635070800781 981.255554199219 981.496337890625 987.6337890625 999.380737304688 996.789611816406 1003.11187744141 996.464477539062 1003.23974609375 1003.11120605469 1002.48394775391 1007.91870117188 1002.72259521484 991.555847167969 994.934875488281 1007.71771240234 1000.08099365234 1006.42858886719 1002.30688476562 1007.11413574219 1004.62103271484 998.970031738281 1008.86633300781 1008.92706298828 1023.73181152344 1023.05053710938 1029.04711914062 1033.78784179688 1035.32958984375 1035.34680175781 1035.00061035156 1034.74951171875 1039.80859375 1054.11730957031 1053.93615722656 1072.53173828125 1081.80432128906 1087.26281738281 1097.28063964844 1113.31909179688 1118.29211425781 1117.25476074219 1123.10412597656 1121.34191894531 1126.88647460938 1132.81628417969
958.837097167969 960.433166503906 974.224548339844 972.738403320312 969.662475585938 971.153198242188 975.033447265625 977.515747070312 962.969543457031 967.069885253906 963.584167480469 966.603454589844 972.653076171875 968.547119140625 971.584228515625 974.446594238281 965.151794433594 967.156433105469 982.0302734375 987.681823730469 972.738647460938 975.470092773438 981.849914550781 976.321655273438 981.359191894531 981.219787597656 979.141662597656 969.013122558594 969.348266601562 982.654724121094 979.819152832031 969.67333984375 978.199645996094 979.542053222656 972.340209960938 972.731872558594 974.073913574219 981.580993652344 975.079833984375 968.622680664062 976.323669433594 971.786743164062 964.221618652344 964.170471191406 974.910339355469 969.834106445312 974.608215332031 969.090209960938 968.477783203125 976.806091308594 977.619018554688 969.143493652344 968.556945800781 974.543762207031 969.010498046875 975.910400390625 986.376953125 988.593994140625 983.0791015625 976.948486328125 967.227416992188 962.392272949219 961.399658203125 968.896850585938 967.632263183594 976.644165039062 977.489318847656 976.337829589844 966.8701171875 967.175476074219 968.300048828125 967.711120605469 972.559692382812 977.181213378906 965.026245117188 972.710021972656 985.033203125 984.207580566406 988.589416503906 990.691955566406 988.739990234375 997.955993652344 993.203186035156 989.156372070312 977.587890625 981.11279296875 980.924621582031 981.237609863281 984.512878417969 984.720275878906 988.635131835938 986.741271972656 990.742309570312 1001.12799072266 1004.01861572266 993.365112304688 991.03662109375 995.182800292969 991.903198242188 987.7490234375 979.252990722656 981.648742675781 980.487365722656 973.202392578125 979.653747558594 991.559387207031 987.51220703125 981.383178710938 984.755859375 989.722717285156 997.461608886719 991.68701171875 994.137817382812 1002.07653808594 1001.72192382812 1005.48785400391 999.564758300781 987.236633300781 990.666076660156 998.873168945312 995.587463378906 998.935607910156 998.859985351562 1004.35577392578 1007.70861816406 1000.31451416016 1010.91363525391 1013.42260742188 1024.58728027344 1020.43255615234 1035.58471679688 1042.32922363281 1043.75207519531 1040.70544433594 1042.02416992188 1038.60998535156 1041.26062011719 1050.08654785156 1058.57299804688 1072.29919433594 1080.57409667969 1095.38854980469 1105.82006835938 1127.08728027344 1128.48022460938 1124.97729492188 1131.57507324219 1138.52062988281 1130.91821289062 1143.69250488281
961.892517089844 963.636169433594 958.922973632812 965.961059570312 974.067138671875 964.627075195312 975.569702148438 973.435119628906 979.548950195312 978.942199707031 973.821044921875 971.249694824219 971.144653320312 962.6533203125 967.730834960938 979.094116210938 977.871643066406 976.185791015625 980.297485351562 981.58056640625 983.450439453125 979.897338867188 979.503601074219 978.299438476562 973.931213378906 976.181945800781 964.121887207031 968.072448730469 971.640258789062 986.445373535156 984.336181640625 980.122619628906 981.776306152344 975.261596679688 967.011291503906 974.686950683594 969.183959960938 974.849426269531 976.08740234375 969.158447265625 976.356079101562 973.375610351562 968.412292480469 964.228454589844 972.933288574219 965.496948242188 971.545532226562 967.223754882812 967.973693847656 974.367553710938 965.213439941406 967.120361328125 967.291564941406 971.354553222656 974.688293457031 969.195434570312 972.985900878906 975.741088867188 975.891479492188 984.672241210938 959.803649902344 970.723815917969 968.584777832031 972.383605957031 969.669860839844 973.113708496094 982.195129394531 980.291198730469 972.901000976562 976.031494140625 972.150573730469 967.716430664062 969.383361816406 969.345764160156 966.893371582031 975.753662109375 981.695922851562 982.760437011719 982.922119140625 978.925598144531 981.085510253906 983.652404785156 985.016357421875 988.606323242188 978.4912109375 973.924072265625 979.267639160156 986.995300292969 991.792907714844 991.804260253906 989.875183105469 992.052062988281 995.758361816406 1005.25775146484 1010.18151855469 997.374328613281 989.367370605469 995.607238769531 991.063598632812 986.5556640625 981.873229980469 980.942932128906 976.9541015625 974.938598632812 981.024597167969 985.938842773438 982.804260253906 984.274169921875 980.887573242188 980.853088378906 987.180358886719 990.404968261719 989.748901367188 990.184387207031 997.210632324219 1001.93011474609 1004.97082519531 994.009338378906 998.999206542969 991.057556152344 988.361022949219 987.043212890625 995.963134765625 1001.94360351562 996.904052734375 1001.35125732422 991.903137207031 1006.18420410156 1024.14685058594 1022.26611328125 1031.18835449219 1033.90087890625 1036.38916015625 1034.72729492188 1042.65478515625 1041.11999511719 1045.59460449219 1060.52563476562 1073.64221191406 1083.17028808594 1091.01025390625 1102.43286132812 1112.53894042969 1129.24108886719 1138.59643554688 1142.42395019531 1141.87585449219 1140.18493652344 1155.21154785156 1162.17224121094
953.848449707031 964.655456542969 961.765258789062 961.800598144531 971.230529785156 961.914855957031 958.958251953125 964.370239257812 969.416015625 976.894348144531 976.091003417969 974.79150390625 965.541625976562 965.899230957031 972.50537109375 989.393798828125 983.080322265625 981.175598144531 974.058410644531 974.420471191406 975.11474609375 978.915222167969 974.618835449219 972.529968261719 973.219421386719 967.827514648438 969.818542480469 967.346618652344 974.709533691406 980.522338867188 985.101013183594 983.419555664062 980.274047851562 973.002624511719 970.134216308594 970.151062011719 979.210327148438 976.277893066406 976.072265625 975.611267089844 981.492858886719 978.739501953125 966.886291503906 967.157287597656 969.682800292969 969.190246582031 970.002685546875 965.280334472656 973.310302734375 975.506958007812 968.57861328125 961.473693847656 959.160461425781 966.864807128906 961.824523925781 966.8916015625 977.511535644531 976.553649902344 979.853881835938 979.267028808594 967.333129882812 967.712829589844 969.25390625 972.971618652344 967.198913574219 976.497375488281 976.504089355469 976.965942382812 974.942687988281 978.594055175781 968.869262695312 973.587219238281 966.326599121094 959.859619140625 972.195190429688 969.278198242188 977.805236816406 978.197082519531 975.906372070312 980.742797851562 974.420349121094 987.455871582031 992.751159667969 987.236877441406 980.041320800781 990.903015136719 988.404663085938 988.51611328125 984.892456054688 989.753479003906 985.114318847656 987.734619140625 997.724243164062 994.117126464844 1000.91229248047 1001.35760498047 994.418884277344 993.453063964844 983.568542480469 985.44287109375 986.479675292969 982.630554199219 980.315795898438 977.930847167969 978.647399902344 982.585754394531 985.112060546875 985.264770507812 979.799987792969 979.401184082031 980.385681152344 986.558837890625 990.408264160156 993.474060058594 995.5537109375 996.32861328125 999.952087402344 988.109497070312 996.367370605469 990.954895019531 983.047119140625 990.113525390625 989.087524414062 996.444152832031 1001.18914794922 995.420654296875 1000.67010498047 1007.32952880859 1020.2158203125 1032.92004394531 1038.70166015625 1032.05029296875 1037.09167480469 1037.44958496094 1048.41369628906 1056.46765136719 1062.66027832031 1067.92761230469 1079.04028320312 1091.53857421875 1094.74841308594 1114.50012207031 1125.2763671875 1131.35876464844 1146.57666015625 1154.31811523438 1150.14050292969 1157.54406738281 1152.69946289062 1165.45849609375
