NCOLS 150
NROWS 38
XLLCORNER 7394249
YLLCORNER 4843289
CELLSIZE 30
NODATA_VALUE -9999
968.777770996094 965.283752441406 959.838623046875 961.840026855469 957.947448730469 963.821716308594 963.008361816406 974.340393066406 976.194641113281 971.830993652344 970.513427734375 969.082824707031 960.483703613281 961.377746582031 964.296325683594 977.388732910156 972.980529785156 975.954040527344 981.959045410156 979.157104492188 972.804321289062 979.30810546875 985.068908691406 994.744995117188 1007.14221191406 1003.21313476562 1003.99322509766 1009.35168457031 1018.43017578125 1017.14782714844 1022.32720947266 1026.02819824219 1024.38464355469 1028.03161621094 1024.11242675781 1017.15753173828 1032.66528320312 1037.72497558594 1044.65344238281 1049.03112792969 1052.79614257812 1049.52734375 1039.82641601562 1028.65270996094 1021.39715576172 1020.12219238281 1018.00744628906 1020.35510253906 1019.37097167969 1004.37860107422 1005.39990234375 1001.44232177734 998.225036621094 1000.01049804688 1001.099609375 1000.58880615234 997.131591796875 1000.4892578125 1004.875 1006.4609375 1015.85186767578 1026.52124023438 1030.86389160156 1031.41577148438 1019.66271972656 1025.5263671875 1020.4150390625 1019.89837646484 1030.39758300781 1023.65521240234 1023.46307373047 1023.494140625 1019.02197265625 1015.42803955078 1017.5859375 1012.05603027344 1013.25250244141 1030.42175292969 1034.08740234375 1032.09448242188 1023.53900146484 1028.78686523438 1022.08850097656 1016.91497802734 1015.50354003906 1005.083984375 1000.37847900391 998.26904296875 998.692504882812 984.045837402344 987.862182617188 992.516357421875 997.204345703125 1000.88629150391 1014.03430175781 1005.14758300781 1020.88031005859 1013.27435302734 1005.04125976562 1001.54541015625 997.491821289062 992.089599609375 988.039245605469 989.494506835938 989.712707519531 989.234375 979.002746582031 979.784851074219 981.681518554688 974.19384765625 974.606994628906 966.185424804688 954.735412597656 938.089294433594 931.22705078125 923.9951171875 930.379272460938 923.540588378906 932.619506835938 939.781799316406 953.478576660156 965.784057617188 979.07275390625 1000.52917480469 1000.09143066406 1006.67224121094 1006.21746826172 1010.94873046875 1017.04052734375 1021.40216064453 1038.41247558594 1036.64367675781 1035.27514648438 1031.61547851562 1032.10925292969 1046.79443359375 1060.49438476562 1062.40454101562 1070.087890625 1074.32287597656 1086.15515136719 1086.96838378906 1084.74987792969 1079.478515625 1098.56420898438 1104.16577148438 1096.02514648438 1098.84313964844 1101.10314941406 1095.39123535156
957.930114746094 953.599182128906 956.037170410156 948.281982421875 961.248474121094 962.524597167969 964.154602050781 960.745239257812 962.282470703125 968.819519042969 960.021545410156 959.589782714844 962.747985839844 959.2177734375 969.790283203125 974.853759765625 983.698425292969 994.267700195312 992.781921386719 987.868591308594 979.618591308594 975.376403808594 981.121032714844 999.802429199219 1003.1806640625 1004.40887451172 1007.3125 1009.40771484375 1014.51922607422 1024.75219726562 1025.45495605469 1020.61376953125 1019.3291015625 1019.95831298828 1017.10980224609 1017.27331542969 1030.37524414062 1033.84338378906 1038.06311035156 1034.171875 1039.48828125 1043.64514160156 1036.60974121094 1034.439453125 1023.70666503906 1016.00610351562 1008.47662353516 1011.26574707031 1016.89178466797 1006.84039306641 1001.46514892578 1005.25823974609 999.008117675781 999.083435058594 998.547058105469 1000.74328613281 1014.07397460938 1000.45288085938 1006.14324951172 1014.73114013672 1012.47406005859 1024.99328613281 1022.11578369141 1023.18933105469 1020.96752929688 1014.35668945312 1021.65869140625 1026.55395507812 1029.56066894531 1029.12805175781 1030.07482910156 1025.96057128906 1013.85552978516 1011.70941162109 1007.46704101562 1013.8408203125 1015.27502441406 1017.34808349609 1023.96752929688 1028.13244628906 1016.74633789062 1022.08489990234 1017.90203857422 1012.55157470703 1019.51611328125 1016.97174072266 1012.68762207031 1002.53070068359 1001.00207519531 989.360900878906 991.554931640625 1000.45794677734 1002.70904541016 1012.79528808594 1016.52319335938 1020.17456054688 1025.17700195312 1016.12316894531 1008.67163085938 1005.42303466797 999.4169921875 995.044555664062 1004.07000732422 1000.67175292969 1000.20391845703 999.771362304688 997.960205078125 989.697570800781 982.026977539062 972.388366699219 968.108520507812 957.737854003906 945.893188476562 949.789001464844 944.168029785156 934.1640625 936.35546875 936.705444335938 936.532592773438 950.223693847656 953.527893066406 967.9423828125 979.324890136719 1000.57391357422 1006.57611083984 1007.90637207031 1016.96685791016 1015.88049316406 1020.10089111328 1023.10345458984 1031.26440429688 1040.97106933594 1039.41760253906 1029.67492675781 1035.84399414062 1055.51525878906 1058.04187011719 1060.91687011719 1062.49548339844 1072.45971679688 1079.27124023438 1082.22192382812 1086.43798828125 1084.3701171875 1092.81823730469 1104.25854492188 1105.02783203125 1099.60131835938 1093.28198242188 1096.36120605469
949.081237792969 947.996520996094 947.609313964844 952.879028320312 953.605346679688 963.731506347656 953.600158691406 957.144836425781 957.770812988281 961.9306640625 960.882934570312 963.681518554688 970.103271484375 967.481506347656 962.952087402344 966.292053222656 974.28271484375 985.908813476562 982.838500976562 987.18359375 984.201171875 982.830200195312 986.890930175781 994.102905273438 1001.36987304688 1004.82165527344 1009.92700195312 1012.21618652344 1004.48559570312 1012.97271728516 1019.55023193359 1017.27856445312 1016.04638671875 1008.64678955078 1013.16802978516 1016.96087646484 1020.64068603516 1023.31512451172 1025.1484375 1025.26428222656 1038.53735351562 1031.01110839844 1032.49487304688 1027.27941894531 1021.05340576172 1008.1494140625 1004.36169433594 1009.826171875 1007.73303222656 1010.60437011719 1003.42535400391 1001.50726318359 1004.76910400391 996.911315917969 1006.74920654297 1011.81109619141 1004.64953613281 1003.01330566406 1009.37481689453 1016.24572753906 1020.79443359375 1021.6904296875 1021.07794189453 1014.90167236328 1017.95910644531 1025.08569335938 1017.42071533203 1018.80328369141 1026.49963378906 1025.25415039062 1028.40112304688 1025.02795410156 1018.12603759766 1014.50286865234 1014.53967285156 1009.89886474609 1012.4423828125 1014.58239746094 1013.38446044922 1010.61712646484 1013.44360351562 1015.56762695312 1015.79071044922 1010.84143066406 1014.24243164062 1012.50555419922 1019.98150634766 1003.16467285156 1005.24774169922 1000.2451171875 1001.94622802734 1002.86651611328 1001.91638183594 1015.05932617188 1022.12945556641 1031.4150390625 1024.05590820312 1014.1162109375 993.079467773438 998.7373046875 1000.36883544922 997.286315917969 999.490356445312 999.472290039062 1000.61083984375 1001.90924072266 1007.17224121094 998.077880859375 973.01708984375 972.589782714844 969.64453125 959.389953613281 951.736511230469 950.14013671875 950.230407714844 942.732421875 943.035766601562 942.949462890625 941.699951171875 955 967.910522460938 974.416564941406 992.467346191406 1002.70257568359 1011.70562744141 1012.81500244141 1019.10675048828 1012.06481933594 1027.50988769531 1033.10070800781 1035.71105957031 1041.21435546875 1037.3701171875 1034.86828613281 1048.763671875 1049.33227539062 1053.11987304688 1063.46435546875 1064.224609375 1064.89233398438 1075.58520507812 1081.17443847656 1084.5185546875 1085.14074707031 1092.07897949219 1099.03930664062 1092.26989746094 1094.83227539062 1100.22253417969 1098.83679199219
943.744506835938 949.582092285156 943.415832519531 956.033142089844 957.630798339844 954.043762207031 948.062072753906 946.593811035156 955.215881347656 956.878051757812 953.616455078125 959.612548828125 954.353393554688 961.097778320312 953.372985839844 959.703552246094 967.7431640625 976.074951171875 981.193725585938 981.046630859375 986.018798828125 984.581237792969 990.747985839844 983.317810058594 989.268676757812 1000.99450683594 1001.36602783203 1016.39605712891 1014.67425537109 1010.80145263672 1014.74255371094 1009.41479492188 1000.84448242188 1005.48187255859 1006.32879638672 1013.14453125 1010.12524414062 1018.24768066406 1022.39270019531 1026.44055175781 1024.77185058594 1030.29675292969 1027.44104003906 1024.77124023438 1014.21557617188 1005.42852783203 996.161376953125 999.765014648438 1007.81134033203 1003.93646240234 1010.15924072266 1002.90814208984 1005.27532958984 1004.70880126953 1003.57055664062 1013.16943359375 1010.25915527344 1011.1962890625 1009.45947265625 1015.5615234375 1015.59466552734 1015.34765625 1010.28741455078 1024.75158691406 1022.85162353516 1023.75628662109 1017.94073486328 1016.64520263672 1024.14038085938 1023.396484375 1022.65692138672 1025.35083007812 1016.0517578125 1015.63946533203 1012.57751464844 1015.78656005859 1012.67236328125 1016.23040771484 1005.86334228516 1007.01318359375 1013.02203369141 1013.04541015625 1019.57806396484 1010.90686035156 1012.90618896484 1010.23937988281 1009.2333984375 1007.22668457031 1005.01190185547 1013.47943115234 1012.94805908203 1005.21173095703 1008.54431152344 1023.689453125 1022.76202392578 1030.25830078125 1025.51477050781 1012.77166748047 999.735534667969 1001.79339599609 1002.67108154297 1000.57269287109 997.743530273438 999.957092285156 1000.74377441406 1008.19097900391 1005.82165527344 998.963134765625 982.182312011719 971.571166992188 968.680114746094 967.301879882812 956.943603515625 948.427551269531 939.317810058594 948.725158691406 941.215209960938 946.566467285156 956.164672851562 969.240539550781 976.790100097656 985.742919921875 997.98974609375 1010.15649414062 1017.49853515625 1024.86572265625 1033.95385742188 1028.82971191406 1029.43334960938 1039.39831542969 1036.99060058594 1042.33837890625 1046.02990722656 1047.29846191406 1059.56591796875 1052.22009277344 1052.74694824219 1056.68920898438 1054.66333007812 1058.47338867188 1068.58984375 1079.84484863281 1090.62268066406 1090.02917480469 1085.6474609375 1094.42358398438 1094.38623046875 1086.21325683594 1099.71704101562 1092.91674804688
943.785522460938 938.911193847656 940.757568359375 944.567077636719 948.109924316406 946.821533203125 954.229064941406 945.489196777344 957.190307617188 953.294738769531 957.653686523438 962.391845703125 956.216796875 957.241088867188 951.434631347656 954.524963378906 965.048278808594 978.587585449219 971.560363769531 976.245727539062 992.801391601562 982.441955566406 982.904724121094 982.163513183594 983.395263671875 988.805786132812 1005.56207275391 1001.08953857422 1010.11401367188 1007.99945068359 999.196228027344 1003.06109619141 1004.64831542969 1004.01733398438 1005.6298828125 1006.99481201172 1010.25360107422 1014.38317871094 1020.28869628906 1024.79809570312 1021.40667724609 1014.33953857422 1017.466796875 1020.78594970703 1008.37121582031 1006.02130126953 987.655212402344 991.598205566406 1008.83636474609 1003.28668212891 1001.95727539062 1011.81774902344 1005.26007080078 1007.76788330078 1005.51544189453 1004.75372314453 1005.66082763672 1011.31030273438 1014.65521240234 1005.55505371094 1017.88470458984 1013.42047119141 1013.79095458984 1014.74786376953 1024.22131347656 1022.08148193359 1015.24011230469 1024.00390625 1025.20385742188 1028.34875488281 1019.73760986328 1021.77020263672 1009.16925048828 1012.45446777344 1007.09411621094 1010.87213134766 1002.37866210938 1007.4775390625 1009.07037353516 1005.10668945312 1011.24353027344 1022.20544433594 1026.57897949219 1021.01123046875 1012.35192871094 1006.60229492188 1011.37280273438 1009.38543701172 1011.91986083984 1013.15063476562 1015.62298583984 1021.05780029297 1026.14758300781 1037.73022460938 1030.67932128906 1027.34155273438 1020.10394287109 1011.46508789062 1005.52880859375 1010.34124755859 1012.41064453125 998.683349609375 999.984313964844 1000.29241943359 1004.79925537109 1007.68035888672 1013.44018554688 996.811279296875 982.5205078125 976.14892578125 968.68115234375 967.199035644531 956.2998046875 940.712829589844 943.334594726562 947.323181152344 948.537109375 950.544128417969 970.265991210938 985.676696777344 994.200927734375 998.956909179688 1010.78771972656 1018.23663330078 1032.71008300781 1031.41796875 1035.72985839844 1038.18310546875 1044.03881835938 1050.30749511719 1046.94274902344 1049.61328125 1052.4853515625 1056.03967285156 1063.30200195312 1054.91809082031 1053.865234375 1053.83654785156 1052.28356933594 1059.23754882812 1068.39916992188 1074.22570800781 1080.31201171875 1080.49133300781 1082.78210449219 1085.33386230469 1089.15710449219 1093.26232910156 1091.7861328125 1096.57604980469
934.633605957031 936.005798339844 941.931091308594 947.071044921875 947.489013671875 948.469360351562 954.429809570312 946.145324707031 946.069458007812 943.921325683594 948.926879882812 955.828918457031 955.579162597656 961.567810058594 954.794921875 965.527099609375 968.067749023438 976.221069335938 979.636352539062 980.651672363281 983.772583007812 986.679626464844 990.504089355469 986.453979492188 990.876586914062 986.703735351562 998.265686035156 1005.07214355469 1000.81091308594 997.567321777344 999.915588378906 1001.48291015625 1002.47985839844 997.911682128906 1000.04553222656 1012.95904541016 1009.24072265625 1016.20678710938 1016.60833740234 1018.22564697266 1020.98010253906 1013.98272705078 1008.85260009766 1011.61492919922 1000.66320800781 999.304992675781 989.792114257812 986.583740234375 990.155090332031 996.205993652344 1005.10998535156 1002.67559814453 1009.92895507812 1002.90795898438 997.865844726562 1002.02600097656 1001.66546630859 1005.34362792969 1000.38616943359 1011.45471191406 1009.92352294922 1014.68841552734 1012.095703125 1008.40777587891 1010.81158447266 1010.03540039062 1019.83685302734 1024.57604980469 1017.50299072266 1019.65515136719 1016.16979980469 1015.29473876953 1012.11279296875 1011.63549804688 999.281921386719 1010.67596435547 1001.60858154297 1009.42712402344 999.175231933594 1001.36309814453 1004.92236328125 1008.36077880859 1020.52172851562 1007.22827148438 1004.53979492188 1003.72039794922 1012.07928466797 1003.19104003906 1013.85943603516 1017.54455566406 1025.40124511719 1022.93713378906 1031.95922851562 1038.14562988281 1033.70654296875 1029.91723632812 1017.41424560547 1018.70941162109 1016.87396240234 1011.40557861328 1004.32202148438 1002.08581542969 1010.33355712891 1014.29675292969 1009.66510009766 1009.34948730469 1013.12713623047 998.424987792969 992.416748046875 974.797668457031 963.421020507812 961.913696289062 955.874145507812 944.546142578125 942.751586914062 940.162292480469 948.943603515625 967.915893554688 976.382690429688 990.97998046875 1003.85119628906 1007.63641357422 1013.52612304688 1024.02136230469 1030.52416992188 1029.02392578125 1025.10510253906 1033.93627929688 1043.15502929688 1048.06140136719 1044.82287597656 1047.63012695312 1049.5361328125 1054.4443359375 1049.974609375 1047.15368652344 1047.13708496094 1048.10913085938 1061.76611328125 1060.10656738281 1061.28503417969 1063.931640625 1068.79467773438 1071.86157226562 1082.54418945312 1084.01489257812 1087.630859375 1077.72863769531 1088.46923828125 1085.85778808594
929.113586425781 931.941223144531 939.235046386719 934.846496582031 946.150634765625 947.396545410156 950.658386230469 954.64599609375 949.345825195312 947.793334960938 944.405517578125 953.987854003906 960.294799804688 961.39697265625 957.156616210938 964.513427734375 970.32861328125 974.102478027344 982.716735839844 972.788879394531 974.579650878906 979.86865234375 991.09228515625 986.533081054688 997.096801757812 991.534912109375 989.544250488281 999.391235351562 998.1533203125 990.10205078125 1001.04260253906 998.747375488281 993.196960449219 1000.53314208984 1009.26580810547 1003.08953857422 998.070434570312 1005.80700683594 1019.5703125 1010.06719970703 1014.59814453125 1003.25372314453 1007.44372558594 999.919982910156 991.521606445312 997.479797363281 989.93505859375 987.024841308594 984.7431640625 992.0869140625 990.216918945312 997.374633789062 1000.4990234375 992.525634765625 987.645141601562 993.230773925781 993.884582519531 1002.64624023438 999.13525390625 1002.24395751953 1002.04547119141 1004.49829101562 1006.99963378906 1002.07000732422 1007.76770019531 1009.88903808594 1015.52453613281 1023.91778564453 1016.88238525391 1024.99108886719 1021.10894775391 1015.62432861328 1015.35485839844 1006.16741943359 993.311767578125 998.263427734375 997.991088867188 996.717224121094 989.918273925781 995.831726074219 997.124633789062 1004.05004882812 1008.16131591797 1005.5673828125 1007.6689453125 1001.50079345703 1006.69213867188 1005.99548339844 1010.85284423828 1018.19592285156 1021.91851806641 1026.9697265625 1025.28820800781 1029.2490234375 1035.15087890625 1036.47729492188 1038.53125 1030.45922851562 1021.46374511719 1007.78344726562 1011.54559326172 1008.22216796875 1009.43200683594 1013.01452636719 1012.01983642578 1006.31146240234 1011.97485351562 998.60009765625 985.814392089844 979.010559082031 969.891845703125 951.649841308594 957.523742675781 947.402648925781 939.481018066406 946.824951171875 967.581970214844 973.173645019531 986.43798828125 989.061584472656 996.706359863281 1006.00341796875 1013.298828125 1031.27197265625 1032.53308105469 1030.69812011719 1029.2255859375 1036.23547363281 1042.67016601562 1051.82592773438 1040.73205566406 1046.54370117188 1046.01318359375 1051.02331542969 1047.04211425781 1051.3193359375 1048.14855957031 1058.31958007812 1058.51196289062 1057.64282226562 1060.14465332031 1065.78442382812 1063.4912109375 1068.36071777344 1084.02514648438 1088.18237304688 1084.75537109375 1083.75256347656 1084.8818359375 1089.75842285156
931.808532714844 942.271789550781 944.931213378906 949.884338378906 946.118835449219 947.0390625 956.016723632812 958.50537109375 952.472900390625 955.943115234375 951.704833984375 955.043273925781 959.735229492188 969.702819824219 969.43017578125 978.171325683594 975.647216796875 973.44970703125 973.310546875 983.2060546875 981.471984863281 979.521911621094 990.484008789062 992.807922363281 991.911865234375 984.6943359375 985.382690429688 992.490112304688 992.808715820312 993.462646484375 996.36083984375 995.566589355469 985.992309570312 997.875793457031 995.967163085938 998.25 994.288024902344 1001.65026855469 1009.18237304688 1004.73431396484 1011.1669921875 999.586242675781 995.921081542969 989.4990234375 989.169250488281 989.796691894531 994.418701171875 980.278564453125 982.607421875 990.762817382812 987.412231445312 987.907592773438 991.539001464844 988.992126464844 994.834167480469 1001.92456054688 1007.3115234375 999.412231445312 997.705627441406 1002.02032470703 1002.19165039062 992.88134765625 993.814086914062 997.709655761719 1012.23278808594 1009.14959716797 1008.23315429688 1018.96740722656 1018.11938476562 1014.23638916016 1022.51110839844 1010.02014160156 1014.35882568359 1007.39007568359 993.010681152344 999.780700683594 1005.96301269531 994.962280273438 987.294616699219 986.193176269531 991.641235351562 1000.62182617188 1007.86907958984 1004.62585449219 1001.9013671875 1000.08471679688 1001.46197509766 1005.51440429688 1012.17224121094 1020.83062744141 1022.72723388672 1019.00012207031 1018.44305419922 1027.27233886719 1036.931640625 1040.16027832031 1038.955078125 1032.32446289062 1024.54040527344 1013.52154541016 1016.35955810547 1010.43347167969 1008.52392578125 1008.54235839844 1013.56854248047 1008.77380371094 1010.55554199219 999.977600097656 999.457824707031 985.509155273438 966.659729003906 960.935852050781 958.801452636719 944.277587890625 947.843688964844 949.128784179688 967.506042480469 973.901062011719 982.237182617188 992.92919921875 1002.23651123047 1000.42755126953 1011.33044433594 1032.40368652344 1036.59240722656 1030.20458984375 1041.51684570312 1035.74682617188 1038.46997070312 1041.78881835938 1034.34985351562 1040.62109375 1037.14331054688 1040.09875488281 1038.92041015625 1038.72290039062 1050.44921875 1042.93432617188 1050.70361328125 1049.66333007812 1050.3515625 1057.13659667969 1063.13122558594 1067.07873535156 1082.28356933594 1082.93493652344 1089.0966796875 1083.06298828125 1090.61669921875 1081.25561523438
940.770935058594 942.930541992188 942.741333007812 951.242614746094 954.72021484375 950.288940429688 956.840209960938 959.970886230469 963.143981933594 967.953186035156 961.442016601562 960.093872070312 966.326782226562 969.081726074219 968.513549804688 980.974182128906 975.838684082031 974.111206054688 976.466979980469 979.650634765625 978.370239257812 978.619995117188 993.483337402344 983.503051757812 986.415710449219 990.7763671875 982.294311523438 997.144165039062 996.727722167969 990.947509765625 990.477600097656 994.979309082031 994.04541015625 987.1357421875 993.186157226562 993.693603515625 1000.31243896484 1001.92205810547 1007.33068847656 1001.97283935547 1003.11755371094 998.966796875 994.09423828125 984.9423828125 987.778198242188 986.754333496094 996.781555175781 984.102478027344 978.621520996094 980.583618164062 976.400817871094 984.665283203125 984.364807128906 992.341186523438 991.9482421875 1001.37432861328 1002.87579345703 993.049133300781 996.334289550781 996.737854003906 994.687927246094 995.170837402344 995.715637207031 1005.00787353516 1003.23608398438 1000.73742675781 1007.65399169922 1009.67321777344 1011.48333740234 1011.92645263672 1015.53173828125 1005.7294921875 1004.34118652344 1005.41345214844 999.861389160156 1004.90356445312 1002.64733886719 1010.19470214844 993.423278808594 985.468627929688 993.859130859375 992.458129882812 996.556091308594 1002.72875976562 999.910339355469 1001.95379638672 1010.71508789062 1014.73870849609 1019.20764160156 1023.01806640625 1025.33984375 1019.24969482422 1027.302734375 1028.09899902344 1034.56481933594 1036.66638183594 1025.92028808594 1018.55279541016 1028.41430664062 1015.13507080078 1013.501953125 1013.57244873047 1003.26666259766 1006.88275146484 1016.11102294922 1012.32604980469 1005.55969238281 999.988586425781 995.175964355469 986.5751953125 973.568908691406 957.093505859375 952.7119140625 941.436462402344 948.600769042969 952.485717773438 958.820007324219 969.611877441406 987.337524414062 997.48291015625 996.901489257812 1001.43884277344 1018.42828369141 1028.74523925781 1039.00952148438 1035.92907714844 1033.19055175781 1019.29388427734 1031.4482421875 1036.61120605469 1035.67272949219 1038.90515136719 1039.50415039062 1038.70031738281 1041.357421875 1040.73876953125 1040.25183105469 1034.70922851562 1032.27624511719 1040.82971191406 1036.1103515625 1046.53686523438 1047.041015625 1066.50048828125 1074.78161621094 1089.10583496094 1084.68188476562 1081.37182617188 1083.95385742188 1086.322265625
940.208984375 940.974182128906 949.880737304688 949.807067871094 959.318969726562 955.7021484375 960.79248046875 962.353576660156 961.645935058594 966.087829589844 965.9990234375 967.027893066406 966.074157714844 973.139831542969 976.150390625 975.614685058594 973.609619140625 974.338989257812 983.8134765625 984.980102539062 987.565979003906 980.184814453125 982.338745117188 986.521240234375 986.800354003906 986.58447265625 994.6337890625 992.54248046875 985.930419921875 983.220092773438 984.877807617188 996.945434570312 988.832946777344 994.769958496094 989.435729980469 988.578735351562 989.668762207031 991.708190917969 990.961547851562 1000.46826171875 996.854370117188 988.274047851562 978.873474121094 983.340393066406 985.584533691406 986.246337890625 988.443176269531 985.480895996094 974.783996582031 984.234069824219 980.03564453125 980.976196289062 984.240661621094 984.91357421875 1001.37982177734 999.11572265625 993.753051757812 996.740356445312 987.9638671875 989.267395019531 995.848266601562 997.933715820312 1000.40539550781 1002.38702392578 1000.36352539062 1002.85827636719 999.486206054688 1017.28997802734 1014.95904541016 1011.58380126953 1013.10754394531 1005.71643066406 1001.69714355469 995.444091796875 1007.76324462891 1004.75036621094 1007.49206542969 1005.13690185547 998.728759765625 996.677612304688 990.548767089844 990.176025390625 998.175415039062 1003.62884521484 1004.60510253906 999.16064453125 1006.11303710938 1014.23693847656 1019.15209960938 1026.4580078125 1024.47009277344 1019.16717529297 1028.22131347656 1026.369140625 1027.41076660156 1033.97265625 1026.75769042969 1018.40576171875 1017.14294433594 1020.01068115234 1012.5263671875 1012.41467285156 1007.74792480469 1007.25994873047 1013.14025878906 1016.12347412109 1012.90972900391 1000.78985595703 986.249877929688 973.578857421875 962.467163085938 953.273132324219 944.322326660156 944.229858398438 946.696716308594 947.881225585938 955.581176757812 966.5537109375 981.927307128906 996.711853027344 994.796203613281 1005.07995605469 1020.76965332031 1031.482421875 1040.02526855469 1024.17028808594 1032.37805175781 1023.56121826172 1027.69128417969 1029.34680175781 1037.8271484375 1041.00610351562 1048.23547363281 1048.64184570312 1040.53967285156 1029.46960449219 1024.55944824219 1032.41540527344 1027.95483398438 1023.5322265625 1029.470703125 1031.30346679688 1050.58386230469 1064.11389160156 1076.01940917969 1075.5087890625 1081.20056152344 1080.03234863281 1080.9130859375 1077.97265625
946.702026367188 943.573913574219 948.238037109375 947.063537597656 959.58203125 962.175903320312 960.494079589844 955.060180664062 955.102905273438 960.360656738281 958.04296875 962.084716796875 972.632080078125 976.740295410156 977.962463378906 979.140991210938 983.395812988281 980.85791015625 976.281311035156 982.86376953125 980.153381347656 980.216796875 973.979675292969 981.797058105469 993.224670410156 990.663696289062 988.486083984375 992.861389160156 983.467468261719 979.669677734375 985.157653808594 987.298583984375 990.821350097656 993.16015625 992.215087890625 993.351501464844 998.732971191406 989.31201171875 1001.06018066406 997.130187988281 996.272644042969 993.530639648438 985.843566894531 985.339782714844 991.421203613281 996.924560546875 994.877319335938 986.197204589844 976.36865234375 975.88427734375 983.778076171875 984.278625488281 980.758605957031 987.644836425781 986.057800292969 987.009826660156 988.059875488281 981.591186523438 979.467834472656 986.029052734375 993.624450683594 996.251403808594 993.156188964844 996.017944335938 1001.81848144531 1003.83392333984 1004.64508056641 1020.65692138672 1013.1923828125 1005.41418457031 1006.07623291016 1002.33337402344 1001.07434082031 1003.54675292969 998.853332519531 995.688537597656 998.906433105469 1010.34094238281 1006.59094238281 1005.5908203125 992.294799804688 994.256164550781 994.561279296875 995.88037109375 1011.20440673828 1009.9931640625 1011.12200927734 1024.36157226562 1020.74243164062 1020.46728515625 1023.08520507812 1021.62774658203 1027.53967285156 1027.4736328125 1028.50695800781 1027.55310058594 1025.23669433594 1010.86651611328 1010.18890380859 1015.61376953125 1008.03411865234 1003.55426025391 1005.29388427734 1003.83178710938 1008.80798339844 1008.57098388672 1004.26416015625 995.069213867188 980.822814941406 974.531066894531 969.656494140625 953.897277832031 950.493225097656 945.77685546875 945.822143554688 945.210144042969 959.182861328125 964.401062011719 978.024841308594 986.254150390625 995.507446289062 1001.59375 1016.98620605469 1022.40191650391 1037.79248046875 1023.64532470703 1021.20910644531 1022.45904541016 1030.85339355469 1035.68078613281 1033.40686035156 1031.42956542969 1030.34741210938 1036.47583007812 1039.61694335938 1032.73498535156 1025.63317871094 1026.09826660156 1030.19653320312 1025.38232421875 1031.11010742188 1029.28784179688 1040.4921875 1062.9443359375 1081.56555175781 1083.63146972656 1079.50280761719 1080.71435546875 1080.91076660156 1082.4990234375
952.208312988281 954.855651855469 959.347839355469 957.938537597656 969.969421386719 972.089904785156 965.341857910156 959.65185546875 957.048095703125 953.592590332031 965.559020996094 970.691284179688 971.263305664062 973.854919433594 971.756469726562 975.516235351562 979.947937011719 977.615539550781 978.675109863281 976.796508789062 981.069702148438 983.463806152344 978.170166015625 989.386535644531 991.9443359375 986.645446777344 988.740600585938 987.079711914062 988.501647949219 990.119934082031 987.291015625 990.347839355469 984.995178222656 992.348266601562 987.106018066406 994.411010742188 988.630432128906 993.617797851562 987.067749023438 987.59130859375 980.711059570312 993.675415039062 990.858337402344 987.138732910156 988.884521484375 998.183715820312 992.008483886719 990.828369140625 977.789978027344 984.031616210938 985.285217285156 981.779907226562 984.495666503906 977.570007324219 976.643859863281 976.681274414062 975.78662109375 974.779907226562 980.472900390625 994.742858886719 991.095092773438 990.689636230469 994.048034667969 995.825561523438 998.531433105469 1005.10168457031 1009.14538574219 1004.28680419922 1006.39721679688 1005.43481445312 1002.72290039062 993.465576171875 1000.98480224609 998.706420898438 998.959350585938 996.61767578125 1004.01373291016 1006.34783935547 1001.42614746094 1002.35009765625 996.732360839844 989.654907226562 991.791809082031 1002.49090576172 1007.79724121094 1013.95538330078 1021.79876708984 1020.59222412109 1022.57824707031 1019.64343261719 1024.49731445312 1025.49938964844 1020.23583984375 1018.69769287109 1024.15698242188 1029.564453125 1028.43872070312 1014.03967285156 1003.31280517578 1014.171875 1003.92175292969 1007.14605712891 1008.9033203125 1011.70635986328 1003.75903320312 1003.90386962891 998.947631835938 996.174865722656 975.881652832031 978.728576660156 968.620483398438 961.022521972656 948.974792480469 946.257934570312 953.805297851562 954.322937011719 959.468383789062 958.015563964844 973.287231445312 986.880126953125 996.5869140625 995.348510742188 1014.4365234375 1022.10162353516 1031.40002441406 1021.64501953125 1024.2802734375 1028.58959960938 1032.34106445312 1032.74951171875 1040.41455078125 1030.53332519531 1026.5947265625 1021.97973632812 1032.50170898438 1036.64086914062 1026.34460449219 1020.1162109375 1026.71887207031 1024.50048828125 1023.54205322266 1025.3359375 1041.88732910156 1061.18835449219 1071.69384765625 1074.38342285156 1081.90893554688 1074.65747070312 1080.07238769531 1081.51000976562
955.540832519531 960.375 969.99609375 967.572875976562 969.248962402344 970.350891113281 968.085693359375 965.132080078125 967.0810546875 974.656372070312 973.040283203125 974.890319824219 983.229614257812 974.320678710938 975.66162109375 971.393676757812 968.547729492188 964.591247558594 973.519836425781 984.666809082031 983.81689453125 982.307739257812 989.815307617188 992.835083007812 991.912658691406 983.936584472656 982.884582519531 983.988891601562 985.857482910156 987.848266601562 991.096069335938 993.050842285156 996.410705566406 989.705017089844 992.778503417969 989.163391113281 988.794860839844 988.583984375 982.284240722656 976.859497070312 977.405334472656 986.253479003906 985.109436035156 990.754943847656 990.362670898438 986.594482421875 989.028198242188 985.739440917969 990.967956542969 985.495544433594 990.701721191406 985.524108886719 984.056945800781 974.521240234375 970.42041015625 973.292907714844 975.213073730469 974.420471191406 980.966613769531 989.237731933594 994.377624511719 990.753234863281 989.965148925781 994.875610351562 992.692260742188 994.661804199219 994.3681640625 1001.64239501953 991.452087402344 998.571105957031 998.816772460938 993.716430664062 998.141967773438 993.21484375 998.123718261719 1002.15112304688 1002.05529785156 1004.84326171875 995.405944824219 1004.13659667969 1001.58026123047 985.157653808594 996.19189453125 999.176696777344 1003.49359130859 1012.99169921875 1018.80920410156 1014.26770019531 1008.72290039062 1011.94390869141 1016.36584472656 1022.79675292969 1017.38702392578 1019.76629638672 1015.94830322266 1022.33441162109 1026.35546875 1021.42291259766 1009.49993896484 1016.57879638672 1017.91772460938 1009.01019287109 1011.35632324219 1009.04614257812 1006.33959960938 1005.43035888672 1003.5869140625 996.403198242188 985.319152832031 980.266052246094 975.9375 959.994567871094 949.208618164062 951.466064453125 958.267456054688 955.627014160156 955.198486328125 959.246398925781 960.914001464844 980.664978027344 979.177307128906 997.776184082031 1010.61553955078 1011.29559326172 1012.859375 1022.82525634766 1018.41351318359 1028.73913574219 1025.49560546875 1028.8330078125 1036.70031738281 1035.03723144531 1024.95288085938 1024.154296875 1028.35266113281 1027.13879394531 1023.24780273438 1019.05963134766 1020.34259033203 1021.99859619141 1025.45178222656 1036.80700683594 1045.02136230469 1060.86975097656 1065.64331054688 1083.48889160156 1081.21691894531 1077.63061523438 1081.18530273438 1090.72863769531
954.823791503906 955.553039550781 967.277404785156 971.650695800781 969.952697753906 965.551208496094 969.929565429688 970.68701171875 969.947631835938 973.475341796875 971.578430175781 971.300903320312 975.120666503906 971.545043945312 975.751037597656 968.442932128906 971.314147949219 967.051940917969 973.274353027344 980.035400390625 972.764282226562 983.628540039062 984.300354003906 984.003845214844 993.10546875 982.763305664062 981.9033203125 982.5 980.913269042969 981.657043457031 984.009765625 996.253173828125 993.71142578125 985.7412109375 983.104309082031 987.285217285156 983.708251953125 983.23583984375 979.716003417969 981.788391113281 975.794616699219 977.347900390625 969.976867675781 983.924682617188 983.385314941406 983.919982910156 982.5390625 989.140502929688 990.506958007812 986.430114746094 984.407775878906 981.246948242188 976.269897460938 983.061462402344 975.086791992188 972.534057617188 970.6669921875 972.617492675781 978.559204101562 981.093078613281 986.31591796875 984.669250488281 989.104431152344 992.775756835938 996.745727539062 989.452453613281 993.913818359375 996.322265625 987.481811523438 987.467346191406 986.148559570312 986.5302734375 987.926330566406 998.288391113281 998.123840332031 994.200500488281 995.810852050781 997.366027832031 1008.16198730469 1005.79583740234 1007.29858398438 993.069946289062 996.308349609375 1001.56494140625 1008.19036865234 1016.5556640625 1014.43420410156 1004.34368896484 1017.03680419922 1009.32690429688 1020.47015380859 1010.34790039062 1000.94995117188 1002.92791748047 1007.89361572266 1013.84210205078 1022.46929931641 1027.16845703125 1016.52001953125 1011.28942871094 1011.07202148438 1011.10882568359 1011.55926513672 1008.19036865234 1004.29974365234 994.685302734375 996.264587402344 999.249633789062 990.749694824219 987.276062011719 983.15966796875 972.427001953125 960.641357421875 964.534851074219 960.865417480469 958.763000488281 960.098937988281 956.70263671875 957.588439941406 968.354309082031 985.668273925781 1003.09423828125 1009.57635498047 1009.59814453125 1017.31768798828 1012.853515625 1022.19403076172 1029.99621582031 1036.80017089844 1025.54016113281 1024.87292480469 1025.13000488281 1020.70739746094 1021.50805664062 1026.31469726562 1023.72814941406 1020.89831542969 1020.01818847656 1025.48608398438 1018.271484375 1025.2353515625 1035.64685058594 1049.89208984375 1062.93994140625 1070.76220703125 1077.59252929688 1081.32434082031 1081.24597167969 1094.91442871094 1097.66711425781
963.356201171875 959.118591308594 966.74609375 964.234313964844 966.788330078125 963.802856445312 974.174621582031 969.647888183594 969.737976074219 974.397094726562 971.340209960938 978.430541992188 974.576599121094 977.131591796875 979.288757324219 970.125305175781 968.317565917969 968.641235351562 972.621520996094 974.523620605469 978.805847167969 976.520080566406 982.182678222656 977.415588378906 984.665649414062 982.980407714844 986.101684570312 991.170104980469 977.691772460938 975.839477539062 982.854248046875 994.579162597656 992.12890625 988.4296875 983.001342773438 983.59130859375 986.981994628906 984.527526855469 980.197814941406 977.686950683594 977.96630859375 977.303039550781 973.282531738281 983.279907226562 983.908142089844 973.856994628906 986.110046386719 987.672546386719 984.524658203125 990.770385742188 988.656860351562 979.66357421875 983.870300292969 982.472900390625 980.795104980469 981.992370605469 975.4072265625 979.841979980469 981.033813476562 984.591247558594 987.707641601562 984.942260742188 987.814453125 992.4794921875 998.414855957031 992.611755371094 993.569274902344 983.516235351562 986.426208496094 989.326538085938 989.201354980469 983.143615722656 985.934143066406 994.319885253906 995.445678710938 993.112854003906 991.050109863281 996.690185546875 1000.32067871094 1006.42358398438 1008.69189453125 1007.42694091797 997.242004394531 997.271301269531 1004.21044921875 1007.92242431641 1012.27105712891 1005.74182128906 1004.29040527344 1011.14581298828 1010.03546142578 997.097106933594 1004.90606689453 1009.61987304688 1007.26348876953 998.639892578125 1011.41455078125 1011.89581298828 1021.13214111328 1012.46948242188 1014.75408935547 1010.59552001953 1009.79272460938 1001.62927246094 1001.15374755859 1007.10382080078 997.936889648438 994.090942382812 996.893371582031 997.531494140625 983.843078613281 972.67578125 969.722473144531 961.960632324219 973.821716308594 969.620422363281 964.603759765625 961.871337890625 965.271057128906 971.516235351562 992.578918457031 1001.69177246094 1004.95379638672 1013.11364746094 1011.05096435547 1022.57775878906 1029.69250488281 1027.197265625 1019.68273925781 1020.29046630859 1020.34765625 1013.57287597656 1021.65496826172 1024.29077148438 1015.61328125 1020.84967041016 1025.44116210938 1023.47332763672 1033.48547363281 1031.75390625 1031.09509277344 1040.7861328125 1047.02807617188 1056.435546875 1056.57116699219 1071.60217285156 1085.58239746094 1086.73693847656 1082.83801269531 1095.66430664062
954.182739257812 955.670532226562 964.82275390625 961.576843261719 968.081420898438 971.330505371094 976.788818359375 969.715698242188 967.722900390625 976.60546875 973.503356933594 973.090637207031 966.327026367188 975.180847167969 975.8095703125 972.933349609375 969.457092285156 972.965209960938 974.431091308594 972.170104980469 974.184204101562 978.548095703125 977.533996582031 977.158752441406 975.722473144531 982.098937988281 988.988037109375 988.401977539062 979.038879394531 975.80419921875 981.120544433594 981.919860839844 989.121398925781 994.796264648438 979.896911621094 985.181701660156 993.984375 986.719177246094 977.598083496094 974.630920410156 984.711181640625 973.429321289062 981.606872558594 984.688537597656 983.415588378906 981.869079589844 979.090209960938 982.83740234375 976.618957519531 978.200927734375 980.770751953125 980.420288085938 981.888000488281 981.5 978.141235351562 974.257629394531 984.367736816406 980.173645019531 978.211730957031 976.105407714844 981.048400878906 977.456726074219 987.363464355469 992.351013183594 989.895324707031 985.763671875 983.617980957031 984.92578125 982.679870605469 990.026184082031 992.239929199219 986.571899414062 989.899169921875 999.9169921875 993.3525390625 981.608337402344 986.858276367188 997.990295410156 1007.13049316406 1001.61352539062 1005.89678955078 1010.97369384766 999.866333007812 1001.76110839844 1003.77075195312 1009.88134765625 1008.83807373047 1002 1001.73675537109 1006.41052246094 1004.37652587891 997.169189453125 995.810119628906 1002.45245361328 1006.43353271484 1003.40734863281 1001.95245361328 1012.99047851562 1011.53643798828 1013.75885009766 1008.63562011719 1007.38415527344 998.543151855469 998.567810058594 1001.68395996094 997.255065917969 998.902770996094 1003.73358154297 997.239501953125 999.272705078125 993.335388183594 987.983459472656 976.311462402344 970.030883789062 978.933654785156 972.129638671875 970.099182128906 966.406311035156 970.723510742188 982.161193847656 987.815979003906 1002.37280273438 1014.12561035156 1008.89556884766 1012.35705566406 1018.76629638672 1029.109375 1024.09631347656 1021.55889892578 1011.34661865234 1006.72271728516 1018.87884521484 1011.25506591797 1019.60504150391 1016.85931396484 1023.89855957031 1025.65832519531 1028.55187988281 1033.44384765625 1035.78637695312 1050.28198242188 1054.78100585938 1049.87573242188 1063.06909179688 1065.22436523438 1073.17224121094 1076.52307128906 1082.86389160156 1087.97021484375 1086.86206054688
958.211181640625 960.293395996094 965.444030761719 963.663818359375 963.347045898438 968.274169921875 968.070068359375 965.936828613281 974.399841308594 977.663757324219 976.355407714844 967.940002441406 963.579772949219 963.983032226562 976.052429199219 969.203979492188 967.521484375 973.241271972656 973.474975585938 978.007080078125 981.203186035156 978.112670898438 976.22021484375 968.044555664062 963.994201660156 976.265014648438 982.619079589844 984.086486816406 979.421142578125 977.966796875 980.405517578125 988.510864257812 996.8994140625 992.795349121094 983.586364746094 984.28173828125 989.403625488281 989.407653808594 978.9892578125 979.752746582031 981.819152832031 977.591552734375 983.6845703125 984.862915039062 987.452331542969 986.707763671875 987.90380859375 983.856506347656 980.9248046875 972.789672851562 985.405700683594 980.664611816406 973.883361816406 978.926391601562 971.708801269531 968.492126464844 972.066345214844 979.510559082031 977.94677734375 975.924743652344 981.610229492188 982.527160644531 986.882019042969 984.701843261719 987.484985351562 981.110229492188 976.130065917969 981.123229980469 990.760070800781 991.278076171875 995.676452636719 985.888244628906 991.912048339844 998.325317382812 990.848510742188 990.696716308594 994.751098632812 989.832763671875 1005.10400390625 1000.69927978516 1003.85357666016 989.182495117188 993.723449707031 1003.3994140625 994.489196777344 1005.40252685547 1005.84826660156 1000.09393310547 997.160400390625 1000.21356201172 1005.52624511719 995.500549316406 991.573852539062 993.218872070312 1008.27416992188 1003.01019287109 1006.77734375 1014.28863525391 1014.92144775391 1009.0556640625 1000.58917236328 995.371276855469 992.654357910156 992.095825195312 997.013732910156 997.936462402344 997.021728515625 994.690063476562 992.633178710938 990.733947753906 989.849182128906 987.560485839844 987.779296875 982.436218261719 990.943969726562 988.580993652344 991.159423828125 982.83642578125 981.941040039062 984.979675292969 995.597717285156 1000.95599365234 1008.92236328125 1028.54870605469 1014.24664306641 1014.93920898438 1014.37432861328 1019.67279052734 1024.24926757812 1013.53448486328 1012.77478027344 1004.05462646484 1014.15625 1010.68792724609 1015.27239990234 1028.56030273438 1026.572265625 1031.17919921875 1045.38195800781 1056.42248535156 1053.34497070312 1057.49633789062 1059.76745605469 1066.66320800781 1074.28100585938 1073.3603515625 1086.6728515625 1095.17468261719 1086.76684570312 1089.47607421875
946.106628417969 948.389709472656 957.454528808594 958.426940917969 966.413635253906 975.064086914062 971.170043945312 970.747375488281 977.802612304688 978.012084960938 970.835266113281 977.303405761719 971.7041015625 972.710815429688 972.984558105469 968.02587890625 969.613342285156 964.575927734375 969.103393554688 974.684509277344 984.556518554688 985.998168945312 968.968566894531 961.380310058594 955.857971191406 966.509704589844 979.218688964844 977.104187011719 987.279052734375 982.106811523438 980.540954589844 987.695434570312 985.957458496094 978.857788085938 978.664855957031 977.437133789062 991.170654296875 990.495910644531 988.205688476562 977.711975097656 976.254943847656 974.908874511719 981.962280273438 988.212646484375 996.898742675781 993.554626464844 988.886779785156 981.454528808594 975.429809570312 969.710144042969 968.587829589844 971.706176757812 965.541198730469 970.590209960938 969.455017089844 963.578979492188 971.854187011719 970.234680175781 980.43603515625 982.813110351562 984.264587402344 979.458190917969 984.813659667969 984.757629394531 981.422729492188 974.72265625 975.626892089844 982.334167480469 980.341918945312 982.148864746094 983.609680175781 981.379516601562 980.31103515625 989.827941894531 987.625244140625 986.077331542969 981.597229003906 987.002807617188 996.868713378906 1001.13891601562 993.128845214844 991.398864746094 996.506164550781 1001.95709228516 1005.23907470703 1008.693359375 997.501342773438 994.350036621094 998.285034179688 999.051025390625 998.208679199219 997.826293945312 1001.98077392578 1005.48822021484 1009.27453613281 1011.36901855469 1011.39068603516 998.089538574219 998.271179199219 999.15087890625 999.973876953125 990.515991210938 998.059143066406 990.410583496094 993.932312011719 1009.50451660156 1003.57049560547 1000.88385009766 991.381164550781 989.684692382812 985.468627929688 984.950500488281 988.326538085938 994.382141113281 1005.4423828125 997.554077148438 999.794860839844 993.805480957031 993.318664550781 992.234619140625 996.383483886719 1002.79547119141 1009.7880859375 1013.54370117188 1013.56677246094 1010.18395996094 1000.86419677734 1019.46527099609 1011.96502685547 1011.03558349609 1007.16748046875 1008.39318847656 1015.63977050781 1020.37487792969 1022.810546875 1035.17944335938 1037.10815429688 1041.62268066406 1058.72082519531 1062.73706054688 1060.53051757812 1061.22534179688 1070.95190429688 1077.81811523438 1090.32006835938 1086.50109863281 1088.39440917969 1095.18518066406 1101.77563476562 1104.34912109375
958.544311523438 951.079650878906 962.276611328125 961.575805664062 970.240600585938 968.421325683594 968.9111328125 979.917236328125 982.570495605469 975.248840332031 973.307556152344 970.119689941406 969.797790527344 974.527160644531 971.8271484375 961.863159179688 958.573120117188 964.306518554688 963.455505371094 981.826416015625 976.467834472656 985.844177246094 974.379028320312 969.634765625 961.318176269531 969.035949707031 972.638916015625 982.204345703125 982.935974121094 992.46923828125 993.343444824219 980.049865722656 982.21875 982.586242675781 979.744934082031 979.358520507812 983.8916015625 980.063781738281 978.589965820312 976.697021484375 972.656616210938 982.199462890625 979.826354980469 986.610534667969 988.299560546875 990.005004882812 978.7001953125 977.458374023438 975.357604980469 978.431823730469 967.985046386719 968.928344726562 967.265441894531 968.068603515625 975.015869140625 960.651611328125 967.266540527344 976.206787109375 977.844909667969 984.268615722656 986.245666503906 982.75439453125 987.760009765625 983.00341796875 968.506591796875 962.806457519531 969.327453613281 972.956298828125 981.247314453125 976.792541503906 973.493286132812 978.784545898438 978.928955078125 981.383972167969 986.657653808594 980.911071777344 983.848571777344 984.625 985.688720703125 989.043762207031 990.308837890625 996.933959960938 999.222717285156 1004.50140380859 1012.74102783203 1004.82006835938 995.748291015625 990.702270507812 1001.96221923828 999.526123046875 1000.21600341797 997.666015625 1002.61120605469 1008.06030273438 1010.70880126953 1014.11175537109 1012.00482177734 1004.7783203125 994.75390625 996.794738769531 998.5576171875 991.046691894531 993.903259277344 991.553039550781 997.233154296875 1003.71148681641 1009.52264404297 1003.04193115234 989.925415039062 986.51318359375 987.877624511719 987.667053222656 990.137756347656 999.628051757812 1007.82727050781 1012.3173828125 1007.68218994141 995.594604492188 994.689697265625 998.087585449219 1000.94586181641 1005.33386230469 1007.29583740234 1007.44281005859 1007.64013671875 995.976135253906 994.423889160156 1018.66204833984 1008.23059082031 1011.84796142578 1014.20623779297 1018.64202880859 1018.55999755859 1019.72497558594 1026.95581054688 1033.43811035156 1042.20349121094 1054.92529296875 1057.16296386719 1062.45092773438 1056.9208984375 1056.27661132812 1072.40759277344 1078.96020507812 1083.61657714844 1099.89855957031 1093.17687988281 1103.28381347656 1114.88732910156 1116.53430175781
959.892028808594 963.47412109375 971.217468261719 969.253540039062 969.753662109375 973.750183105469 964.978149414062 976.241027832031 982.559265136719 976.047607421875 979.245483398438 974.169250488281 963.5068359375 961.528259277344 975.091979980469 975.280334472656 972.964599609375 971.287292480469 977.611022949219 978.329345703125 983.964111328125 978.681762695312 967.865844726562 966.098205566406 976.773071289062 981.658996582031 974.265441894531 983.905456542969 984.241882324219 988.18603515625 982.917907714844 981.685363769531 977.61767578125 976.351928710938 976.992980957031 972.932434082031 982.465698242188 976.55615234375 968.732299804688 978.422607421875 975.955200195312 981.112243652344 988.291076660156 981.935974121094 991.491455078125 981.342346191406 975.470336914062 978.394592285156 974.948181152344 978.043701171875 978.172119140625 968.545837402344 970.228759765625 966.18212890625 967.825317382812 966.621887207031 964.284545898438 970.070007324219 977.646606445312 983.170959472656 980.325012207031 977.418762207031 983.815856933594 981.571655273438 973.184387207031 972.081176757812 961.760009765625 963.26611328125 971.660278320312 969.257690429688 968.185302734375 971.220275878906 971.292297363281 981.828125 980.629699707031 985.001892089844 984.602355957031 983.667053222656 983.415893554688 989.541625976562 989.165954589844 997.0087890625 1003.15515136719 993.8876953125 996.37548828125 996.490844726562 1001.35729980469 993.968017578125 994.928649902344 998.474792480469 1001.61987304688 1004.78814697266 1006.79431152344 1009.0478515625 1010.89489746094 1017.35748291016 1001.72088623047 1000.02612304688 995.120910644531 994.824829101562 996.525451660156 990.115478515625 992.215148925781 1002.14617919922 1006.27923583984 1002.52972412109 1006.12225341797 1002.67724609375 999.867309570312 992.190734863281 991.416015625 996.896911621094 996.044494628906 996.615234375 998.015380859375 1007.05432128906 1008.54052734375 1004.28015136719 1003.36981201172 996.541931152344 1002.81610107422 998.76220703125 994.505615234375 1001.95269775391 1013.13757324219 1004.12768554688 1001.13549804688 1003.88714599609 1004.33081054688 1010.93811035156 1015.53820800781 1015.69567871094 1020.56262207031 1020.50610351562 1035.56616210938 1042.42041015625 1047.45532226562 1057.69763183594 1061.87683105469 1066.39038085938 1057.33337402344 1060.80407714844 1071.02453613281 1078.23388671875 1086.03137207031 1097.96557617188 1103.42395019531 1121.18957519531 1121.76293945312 1120.16552734375
956.857788085938 965.966918945312 965.897338867188 963.917541503906 969.725952148438 974.26318359375 972.529724121094 969.733947753906 972.108642578125 963.350891113281 968.440734863281 970.563842773438 973.253662109375 963.776794433594 979.248474121094 971.44384765625 972.582580566406 975.768371582031 987.394165039062 975.188293457031 985.203552246094 969.667724609375 973.418579101562 969.546325683594 971.302001953125 971.472839355469 972.022155761719 968.831481933594 966.609741210938 980.719665527344 977.013122558594 975.904052734375 981.361877441406 983.387512207031 978.044555664062 983.931823730469 983.535888671875 974.399047851562 976.177795410156 973.916442871094 980.626708984375 979.61181640625 981.587219238281 985.480834960938 977.507263183594 970.331787109375 966.876770019531 965.19970703125 970.702270507812 975.245666503906 974.62158203125 984.7490234375 977.02734375 964.458251953125 966.557739257812 967.998596191406 973.502868652344 979.213745117188 974.740661621094 976.110412597656 979.319763183594 978.423583984375 974.298156738281 981.44091796875 971.451782226562 963.917785644531 962.525939941406 968.36083984375 972.641235351562 971.255920410156 977.124755859375 978.217651367188 981.318054199219 972.040954589844 977.103454589844 976.695373535156 983.787231445312 990.007263183594 985.801025390625 987.4287109375 983.48974609375 997.635925292969 987.246276855469 988.513916015625 991.327026367188 987.88232421875 995.105346679688 989.476806640625 981.630065917969 986.147155761719 1001.42431640625 999.96728515625 1007.57208251953 1013.10144042969 1005.65374755859 1010.3779296875 1005.20092773438 995.699768066406 985.991882324219 993.293518066406 993.417541503906 986.88330078125 990.919921875 994.075378417969 998.38525390625 1001.10589599609 994.787353515625 991.806823730469 985.210083007812 989.758117675781 993.695434570312 998.474182128906 1002.34197998047 997.770141601562 1001.53833007812 1002.57952880859 1002.40802001953 1003.12005615234 1003.8212890625 995.445495605469 993.613159179688 990.996032714844 991.014587402344 994.954895019531 996.651733398438 1001.07922363281 1007.05419921875 1014.40789794922 1013.26446533203 1011.92175292969 1018.86010742188 1016.24700927734 1013.36169433594 1026.96533203125 1042.673828125 1055.75927734375 1055.76171875 1065.20397949219 1071.44702148438 1069.55322265625 1074.39575195312 1074.75769042969 1078.93603515625 1083.28747558594 1092.74853515625 1102.30676269531 1113.14660644531 1124.09069824219 1128.09301757812 1129.34436035156
948.829833984375 952.915893554688 961.067443847656 962.864807128906 971.662902832031 971.019470214844 971.396240234375 970.899291992188 969.97021484375 965.46337890625 967.439758300781 973.023620605469 973.026611328125 975.35205078125 972.785949707031 976.830993652344 973.182556152344 985.980041503906 983.766418457031 985.93359375 982.706359863281 967.26416015625 969.573425292969 971.975952148438 985.781311035156 975.169311523438 963.218322753906 969.271606445312 978.894226074219 978.326232910156 977.85888671875 977.880432128906 979.180358886719 994.544616699219 993.622253417969 982.8603515625 984.653381347656 977.220031738281 972.619445800781 979.482055664062 973.278259277344 971.215942382812 978.110656738281 973.845703125 971.349792480469 970.467529296875 971.506225585938 972.735229492188 977.074401855469 976.698547363281 968.037658691406 969.166870117188 971.882080078125 967.367126464844 967.005615234375 967.243591308594 981.785888671875 982.02099609375 975.749877929688 969.748474121094 974.1005859375 973.096801757812 975.637817382812 967.212829589844 968.738525390625 963.992431640625 958.0751953125 968.520263671875 969.537231445312 972.97802734375 978.09423828125 985.321166992188 987.945495605469 978.12890625 975.06640625 966.913146972656 981.877563476562 983.44921875 984.354858398438 976.471496582031 981.9130859375 983.793884277344 979.849548339844 975.78076171875 979.210571289062 988.4873046875 989.550231933594 990.476928710938 979.500244140625 986.971740722656 992.223876953125 1005.48937988281 1015.20751953125 1008.62341308594 1000.45989990234 1001.49249267578 1003.50354003906 998.108825683594 984.088806152344 990.098510742188 983.741760253906 976.695190429688 992.500366210938 985.0390625 988.797546386719 991.215637207031 981.493469238281 979.303161621094 981.313171386719 986.609191894531 989.742492675781 995.259826660156 997.15966796875 998.625854492188 997.901916503906 999.321166992188 996.220275878906 998.903564453125 1004.27752685547 990.906799316406 990.164733886719 1003.09716796875 997.145385742188 993.619934082031 1001.48510742188 1000.09600830078 1008.54522705078 1010.78344726562 1021.29125976562 1025.25756835938 1020.93817138672 1030.33947753906 1032.24914550781 1036.87841796875 1055.73864746094 1059.88439941406 1063.70007324219 1067.16979980469 1071.9677734375 1073.77819824219 1090.21826171875 1088.16638183594 1095.17578125 1093.52258300781 1105.26843261719 1107.69604492188 1128.12805175781 1133.68725585938 1130.95202636719 1131.93017578125
947.492126464844 946.564697265625 956.878784179688 957.656860351562 953.483215332031 964.927368164062 967.447082519531 962.999267578125 963.819885253906 965.696899414062 969.322326660156 970.259216308594 974.941345214844 979.939331054688 975.153442382812 973.54833984375 972.975463867188 977.532897949219 982.140502929688 988.114929199219 979.513854980469 967.090209960938 972.319396972656 980.816162109375 974.242065429688 969.055969238281 963.956359863281 973.675842285156 974.060974121094 982.515014648438 979.006469726562 977.708618164062 990.096374511719 990.755310058594 993.758972167969 989.9716796875 985.6201171875 978.818115234375 977.920654296875 979.530700683594 974.124206542969 975.632873535156 977.420043945312 972.973754882812 972.051635742188 970.000732421875 975.218505859375 974.086120605469 967.299682617188 974.613037109375 969.484252929688 969.538818359375 976.993530273438 972.986083984375 972.931396484375 971.636657714844 972.805480957031 984.307800292969 981.189208984375 980.2109375 975.594543457031 984.818420410156 975.94482421875 971.242553710938 959.372131347656 963.657531738281 964.192565917969 963.62353515625 968.350708007812 969.326049804688 978.595520019531 981.279296875 977.138488769531 975.609252929688 974.482177734375 968.590087890625 979.284362792969 981.976623535156 978.32373046875 983.956970214844 973.154052734375 983.787170410156 978.434997558594 978.28662109375 977.1728515625 984.802734375 987.21435546875 991.012268066406 991.540832519531 986.697875976562 997.693176269531 998.563171386719 996.648315429688 1003.48663330078 993.41650390625 989.498474121094 992.683959960938 996.322814941406 992.943481445312 984.257080078125 986.934448242188 992.336975097656 990.794250488281 984.251647949219 985.040100097656 979.018188476562 985.853149414062 981.619201660156 977.698425292969 982.499206542969 987.716552734375 990.518615722656 987.560546875 994.297241210938 999.816955566406 1005.39739990234 1000.71105957031 995.930419921875 1002.24932861328 991.863037109375 995.066467285156 997.085144042969 999.424682617188 999.836547851562 1006.65313720703 1006.71899414062 1007.63330078125 1021.06481933594 1032.80249023438 1026.95373535156 1025.66687011719 1029.80688476562 1030.66613769531 1036.623046875 1053.48132324219 1059.78454589844 1061.88830566406 1066.66931152344 1080.03234863281 1087.27490234375 1096.53784179688 1101.80493164062 1112.54431152344 1107.40478515625 1112.77722167969 1131.83410644531 1138.44714355469 1140.75805664062 1144.2578125 1133.48815917969
954.974365234375 951.512145996094 953.208557128906 954.2822265625 952.056762695312 953.436828613281 959.474609375 966.625732421875 969.381652832031 972.06787109375 963.064880371094 964.242736816406 978.799011230469 972.651916503906 979.663269042969 974.244506835938 971.970520019531 970.595520019531 975.512145996094 981.147705078125 976.027648925781 984.242858886719 984.377807617188 985.349365234375 978.300354003906 976.23046875 968.672302246094 970.969116210938 976.510986328125 981.347778320312 979.9013671875 985.961486816406 992.959228515625 991.267578125 989.074279785156 991.659118652344 983.464660644531 979.843383789062 969.6865234375 977.066589355469 980.529663085938 969.11083984375 961.189147949219 962.728454589844 969.154418945312 979.30712890625 979.737731933594 981.180480957031 970.506591796875 983.148803710938 976.137634277344 970.544677734375 976.82421875 960.577514648438 964.562744140625 969.276123046875 968.094970703125 975.990539550781 976.309448242188 979.843139648438 972.236694335938 975.92822265625 976.810363769531 969.691345214844 968.296569824219 969.016418457031 971.831909179688 972.765869140625 968.400207519531 968.545837402344 965.140075683594 963.382751464844 968.374389648438 966.976867675781 966.380676269531 971.0576171875 980.461303710938 975.188720703125 971.903381347656 973.240234375 973.143249511719 978.439697265625 973.884155273438 980.284301757812 974.443054199219 981.165100097656 988.649719238281 992.443176269531 988.906555175781 985.489013671875 989.364929199219 990.8701171875 992.417602539062 998.188842773438 989.19921875 986.652282714844 980.904174804688 994.625671386719 991.050964355469 985.361633300781 987.447937011719 986.872985839844 985.429382324219 982.644287109375 984.219299316406 976.415893554688 973.417114257812 979.967407226562 982.361450195312 982.321472167969 983.333435058594 985.771423339844 990.93798828125 991.016296386719 990.774353027344 993.908081054688 999.83740234375 1000.95819091797 994.168579101562 1007.31787109375 1005.29815673828 1000.30462646484 1003.9072265625 1004.26831054688 1013.11187744141 1017.14886474609 1017.19934082031 1018.73950195312 1022.25067138672 1027.1650390625 1032.88232421875 1031.61645507812 1037.16186523438 1038.76293945312 1062.27416992188 1064.71850585938 1057.46655273438 1066.43701171875 1088.31713867188 1095.99255371094 1106.52124023438 1116.619140625 1121.03527832031 1124.35131835938 1130.35314941406 1128.94067382812 1137.80541992188 1153.99291992188 1153.68835449219 1154.46459960938
942.434509277344 951.274475097656 946.1455078125 956.34423828125 953.864624023438 953.884948730469 956.405578613281 971.655456542969 976.863891601562 974.962585449219 968.078857421875 966.739868164062 971.800476074219 978.225402832031 977.861938476562 975.265563964844 976.031188964844 969.310974121094 975.388061523438 977.36083984375 976.228210449219 977.446533203125 974.916320800781 969.827819824219 972.458618164062 978.533142089844 973.850769042969 966.266296386719 976.817565917969 982.711364746094 976.409362792969 982.023559570312 984.151733398438 990.820068359375 988.3310546875 981.741271972656 979.621337890625 976.930358886719 972.045715332031 979.093872070312 973.279724121094 968.508483886719 966.576538085938 966.700073242188 967.883361816406 969.296936035156 971.842224121094 973.537536621094 972.2548828125 968.3369140625 966.218505859375 975.56982421875 971.76904296875 965.401306152344 966.716186523438 973.492797851562 974.262939453125 977.251892089844 974.893188476562 969.74951171875 974.772521972656 974.951477050781 966.896850585938 971.918762207031 969.228759765625 970.573059082031 976.145935058594 977.893676757812 972.6162109375 968.060974121094 958.681579589844 962.307739257812 962.255432128906 963.56982421875 965.841247558594 967.63671875 972.875 973.853210449219 974.125671386719 977.827331542969 976.090026855469 981.851257324219 971.5498046875 976.331970214844 973.009948730469 979.463317871094 983.889892578125 984.69287109375 979.468688964844 976.456665039062 983.436584472656 986.896789550781 994.341735839844 994.732543945312 988.648071289062 983.031494140625 982.97802734375 993.726989746094 990.2333984375 985.58740234375 995.890197753906 988.421081542969 984.417053222656 978.884399414062 983.853393554688 982.259399414062 974.441589355469 976.227600097656 986.136962890625 986.486267089844 982.247375488281 986.585388183594 983.142822265625 987.286254882812 989.211669921875 997.883850097656 996.361511230469 984.670043945312 987.135925292969 995.418090820312 1004.93035888672 1015.77783203125 1010.94525146484 1005.01141357422 1009.05328369141 1002.24505615234 1008.50067138672 1024.92565917969 1022.4638671875 1020.55303955078 1028.96911621094 1037.43249511719 1038.62536621094 1051.68017578125 1062.46374511719 1064.64672851562 1062.73046875 1073.99572753906 1086.56030273438 1100.26965332031 1105.54663085938 1117.32641601562 1135.80419921875 1132.92663574219 1131.27697753906 1134.06091308594 1152.85192871094 1155.90759277344 1164.1455078125 1166.94030761719
943.350158691406 944.636413574219 948.009765625 944.889404296875 957.187133789062 958.633239746094 961.7841796875 967.088623046875 977.541259765625 975.57177734375 967.080505371094 970.799377441406 963.396118164062 972.929931640625 970.666809082031 976.355895996094 978.617431640625 974.52001953125 978.267456054688 979.588256835938 976.565368652344 971.980346679688 973.325561523438 964.335998535156 967.5341796875 963.948852539062 962.334899902344 969.0849609375 964.4169921875 977.496398925781 980.503112792969 975.836120605469 977.001037597656 979.461181640625 978.362976074219 978.806823730469 980.251892089844 974.694763183594 980.059997558594 974.4833984375 972.917907714844 977.351623535156 971.749694824219 961.916442871094 969.422912597656 966.124267578125 965.120056152344 971.893859863281 974.105529785156 962.6796875 967.290405273438 975.315002441406 975.948486328125 968.078369140625 970.308959960938 979.960388183594 976.093994140625 967.484924316406 967.727722167969 971.011291503906 971.028747558594 966.966735839844 975.340637207031 983.3603515625 973.497375488281 975.330871582031 973.391235351562 969.042846679688 964.465026855469 965.587646484375 956.363403320312 952.474731445312 956.483459472656 960.552917480469 958.661865234375 964.816467285156 975.327941894531 979.383728027344 978.335083007812 989.581359863281 980.669982910156 971.338439941406 969.305114746094 963.468872070312 977.458251953125 969.914367675781 981.550048828125 981.051879882812 977.942443847656 972.40185546875 975.238220214844 978.725952148438 991.4853515625 990.368041992188 989.984069824219 984.860229492188 975.962585449219 984.44189453125 984.150390625 989.441955566406 985.058349609375 993.664184570312 982.103393554688 979.126525878906 976.305908203125 982.777893066406 979.344421386719 984.7763671875 984.574340820312 989.3984375 992.345458984375 991.253845214844 987.755432128906 987.842651367188 989.875 988.634582519531 995.57373046875 985.799377441406 986.439636230469 995.510681152344 1005.62316894531 1018.17266845703 1016.05987548828 1011.00463867188 1004.43988037109 999.827453613281 1002.41314697266 1020.16076660156 1022.17462158203 1016.03692626953 1022.37963867188 1036.09985351562 1032.06286621094 1048.0849609375 1059.10107421875 1062.99865722656 1065.00646972656 1080.64477539062 1090.75805664062 1099.77062988281 1110.29077148438 1118.07482910156 1128.31896972656 1127.6572265625 1147.3115234375 1149.55773925781 1153.71008300781 1164.92346191406 1162.7890625 1165.5654296875
943.60302734375 950.539123535156 950.297973632812 955.4189453125 958.179504394531 963.675048828125 963.651794433594 959.696838378906 967.868835449219 976.259643554688 975.727722167969 973.456115722656 977.696899414062 968.9990234375 974.085388183594 972.491333007812 978.444519042969 980.933227539062 982.520202636719 984.212951660156 980.775573730469 967.524475097656 973.774536132812 966.486022949219 967.022216796875 961.82080078125 960.622985839844 973.510864257812 965.938232421875 971.94775390625 981.3369140625 981.260375976562 974.215454101562 979.676696777344 977.713562011719 976.598388671875 969.481506347656 968.185119628906 971.967468261719 970.736083984375 967.935424804688 974.401733398438 974.334838867188 958.619812011719 963.610961914062 973.182373046875 955.482299804688 968.283386230469 963.329772949219 972.031677246094 966.671997070312 971.300842285156 970.461364746094 968.302978515625 974.5673828125 978.051391601562 971.90185546875 971.869995117188 968.351745605469 966.746765136719 971.463134765625 973.170593261719 981.191345214844 982.68212890625 980.088073730469 975.520629882812 976.645263671875 973.825622558594 963.9501953125 965.765075683594 957.597595214844 950.406555175781 955.585571289062 956.41845703125 959.424560546875 966.02587890625 973.439331054688 982.137573242188 974.83447265625 983.523986816406 982.978271484375 966.319885253906 964.09521484375 969.614685058594 979.480285644531 977.398620605469 978.520690917969 976.163635253906 978.112915039062 972.095764160156 977.691345214844 982.272155761719 986.256958007812 988.749755859375 983.758483886719 980.21875 980.738220214844 979.149963378906 980.138854980469 982.885925292969 983.704528808594 985.951049804688 975.646606445312 978.922668457031 982.876525878906 983.03125 986.764709472656 987.294067382812 990.184448242188 993.391784667969 994.680480957031 990.623291015625 997.78662109375 995.969970703125 998.451477050781 1004.92547607422 1001.20135498047 1004.22955322266 994.893981933594 999.856628417969 1016.40997314453 1010.58685302734 1011.16687011719 1000.12469482422 1002.8642578125 996.173034667969 1011.88220214844 1016.81689453125 1019.90997314453 1018.44354248047 1025.59436035156 1032.046875 1037.14965820312 1053.32446289062 1053.96655273438 1068.83190917969 1070.9921875 1075.66882324219 1090.00268554688 1099.41076660156 1110.28784179688 1113.55151367188 1127.39086914062 1134.22790527344 1140.61462402344 1148.814453125 1147.79870605469 1168.61193847656 1159.63696289062 1171.18408203125
943.130554199219 941.525207519531 947.4970703125 951.666198730469 955.895446777344 965.132141113281 960.699340820312 967.610900878906 958.41357421875 960.631164550781 975.150939941406 974.1962890625 975.829772949219 974.010620117188 970.639465332031 973.209838867188 981.464111328125 982.791259765625 988.313842773438 980.288757324219 972.8671875 965.971069335938 964.309448242188 969.602661132812 967.261901855469 959.731506347656 968.272827148438 970.427307128906 966.63037109375 968.296691894531 982.662414550781 980.305236816406 974.208740234375 973.197143554688 968.407409667969 961.420593261719 968.571716308594 966.597595214844 968.895935058594 967.718383789062 961.44580078125 961.597290039062 962.082275390625 961.511779785156 968.35302734375 962.643981933594 959.540649414062 961.226501464844 960.077575683594 971.487426757812 972.223815917969 968.015014648438 965.703735351562 973.472229003906 973.525146484375 964.102416992188 966.841186523438 963.543334960938 967.698913574219 963.320129394531 962.168273925781 970.084106445312 972.753051757812 972.604125976562 972.686706542969 976.997741699219 978.824340820312 975.98583984375 974.551452636719 963.995300292969 955.618774414062 953.546325683594 958.732604980469 965.245178222656 968.25341796875 966.361694335938 975.798522949219 974.146301269531 969.803100585938 977.507385253906 971.779846191406 970.908508300781 963.687194824219 974.749267578125 980.463073730469 974.528930664062 979.8515625 978.530151367188 973.103820800781 977.402954101562 976.631896972656 977.438720703125 985.507873535156 978.853759765625 979.33447265625 976.218078613281 972.835266113281 976.945129394531 983.443481445312 973.09521484375 979.538146972656 979.487670898438 968.868041992188 978.843078613281 985.549987792969 992.043151855469 991.957580566406 992.535949707031 993.196411132812 998.350646972656 993.898742675781 993.6728515625 997.3759765625 1005.41778564453 1008.26281738281 1014.45959472656 1008.59893798828 1005.52362060547 1003.57354736328 994.197937011719 1006.30975341797 1007.64422607422 1009.42828369141 1005.93731689453 1008.26086425781 1006.37780761719 1008.62603759766 1004.83068847656 1010.17248535156 1018.06713867188 1017.23913574219 1022.86645507812 1038.18737792969 1056.26770019531 1058.51391601562 1062.19152832031 1073.01086425781 1084.99597167969 1092.23815917969 1107.75708007812 1109.45703125 1114.12634277344 1124.37390136719 1131.57568359375 1141.53747558594 1139.79321289062 1144.54309082031 1145.5869140625 1157.76611328125 1165.32116699219
946.838195800781 944.651611328125 950.887939453125 956.921447753906 957.846923828125 963.8505859375 961.726379394531 967.5126953125 960.495727539062 960.753662109375 963.712036132812 970.292724609375 968.052429199219 965.330688476562 973.78369140625 970.338134765625 978.574096679688 981.85498046875 975.512756347656 970.329895019531 968.595397949219 966.747314453125 966.701110839844 965.271301269531 962.208862304688 956.946228027344 964.082885742188 962.044128417969 960.974914550781 973.743591308594 979.819580078125 979.242736816406 979.561157226562 964.773559570312 961.530944824219 956.671020507812 965.955993652344 971.540832519531 966.483032226562 968.763854980469 962.638549804688 961.705749511719 966.672912597656 966.966247558594 961.345642089844 957.137023925781 955.02734375 961.536437988281 961.78564453125 964.038024902344 972.069763183594 970.557434082031 969.086608886719 973.3955078125 964.646667480469 961.772888183594 964.699462890625 979.01904296875 972.398864746094 956.810913085938 951.886352539062 972.146667480469 974.774597167969 972.77978515625 976.044067382812 972.624938964844 981.387084960938 977.533020019531 964.815246582031 968.293579101562 962.968505859375 964.804321289062 965.094055175781 967.477355957031 975.427429199219 970.459716796875 972.429321289062 970.731628417969 964.075805664062 971.978332519531 964.234313964844 975.170532226562 972.001708984375 973.534301757812 979.497009277344 975.088623046875 970.417175292969 967.542114257812 971.295532226562 978.322387695312 979.292114257812 980.335388183594 976.150329589844 982.587097167969 978.842956542969 978.731811523438 976.913330078125 969.698303222656 974.194702148438 977.432800292969 974.898681640625 977.47705078125 978.433166503906 981.729064941406 987.279418945312 991.577087402344 996.598693847656 996.017822265625 992.874633789062 991.5205078125 1000.59698486328 1006.11730957031 1006.89373779297 1009.76556396484 1014.01342773438 1015.27044677734 1011.00555419922 1011.40374755859 997.024841308594 1001.92590332031 996.007202148438 1007.84136962891 1007.51208496094 1007.30456542969 1014.75366210938 1008.09466552734 1016.19665527344 1015.31286621094 1017.01391601562 1018.6181640625 1018.13439941406 1025.40393066406 1039.09423828125 1047.19030761719 1062.02600097656 1069.09790039062 1077.44274902344 1088.55017089844 1096.99719238281 1115.64440917969 1116.94409179688 1114.54943847656 1125.35693359375 1131.66040039062 1135.99438476562 1134.63305664062 1136.2548828125 1138.265625 1150.18872070312 1150.51550292969
948.905578613281 959.20751953125 957.499450683594 959.8466796875 961.170471191406 969.856689453125 965.242614746094 965.041564941406 966.389526367188 961.129699707031 967.485900878906 971.08203125 973.688171386719 970.465881347656 975.39404296875 979.539306640625 978.941162109375 976.8916015625 976.837097167969 968.4541015625 968.06494140625 967.411010742188 965.410278320312 958.940612792969 964.624816894531 957.932495117188 960.251220703125 965.817565917969 970.697082519531 974.593017578125 973.270690917969 966.835266113281 975.305297851562 972.456420898438 962.681884765625 965.512756347656 964.0048828125 967.241638183594 967.0693359375 965.267700195312 965.093444824219 964.806030273438 961.379760742188 964.318908691406 956.8310546875 949.529113769531 952.008728027344 964.071044921875 964.321716308594 970.34375 977.631286621094 973.547729492188 969.095458984375 970.365600585938 963.903015136719 959.125427246094 968.131225585938 976.310852050781 971.473449707031 961.312255859375 960.06005859375 962.757934570312 970.473876953125 965.61376953125 979.530456542969 977.361999511719 975.090698242188 975.282409667969 965.364807128906 970.882141113281 968.885437011719 967.312438964844 965.564392089844 969.835083007812 967.633850097656 970.15478515625 974.619384765625 964.369873046875 963.077758789062 966.492309570312 963.886474609375 972.86181640625 970.716918945312 971.362670898438 974.339538574219 974.754150390625 965.339782714844 962.843688964844 978.247985839844 978.51953125 974.504821777344 973.990112304688 976.168090820312 969.4375 968.781799316406 969.051330566406 976.483276367188 980.503051757812 980.793212890625 984.691589355469 975.086059570312 980.5693359375 984.268310546875 991.181213378906 990.991821289062 995.356872558594 994.800415039062 1002.10107421875 983.70458984375 995.47802734375 998.013305664062 1006.32763671875 1003.73431396484 1008.38238525391 1009.67736816406 1009.92132568359 1012.19470214844 1012.26959228516 1001.98956298828 1003.56518554688 997.728759765625 1006.10656738281 1013.97485351562 1020.17260742188 1018.30621337891 1016.62579345703 1014.70434570312 1019.28509521484 1028.44445800781 1029.11901855469 1030.75146484375 1034.34033203125 1043.88513183594 1053.61755371094 1063.71728515625 1065.31726074219 1068.20812988281 1086.53491210938 1091.42443847656 1104.8251953125 1112.19970703125 1113.18347167969 1117.64709472656 1117.99731445312 1126.32727050781 1131.6875 1122.59716796875 1131.55285644531 1140.74340820312 1146.75366210938
947.583801269531 957.247131347656 963.777526855469 963.588623046875 963.462951660156 959.978088378906 959.230346679688 964.380981445312 969.567321777344 968.086120605469 964.599365234375 968.64501953125 967.3916015625 977.662048339844 980.417175292969 985.467529296875 985.213684082031 971.012023925781 968.3330078125 969.05810546875 965.227478027344 968.172790527344 968.011535644531 970.644165039062 961.71533203125 955.138000488281 957.891723632812 962.137512207031 973.562866210938 974.189392089844 972.064514160156 963.036010742188 970.705932617188 970.814392089844 971.647216796875 970.717163085938 963.083312988281 964.036804199219 963.893737792969 962.041625976562 970.909973144531 967.402221679688 960.407104492188 955.893127441406 948.080261230469 947.113403320312 951.225036621094 958.930847167969 964.845581054688 971.02587890625 977.9033203125 972.454772949219 970.099914550781 973.097412109375 958.506713867188 967.606079101562 964.370300292969 974.498657226562 975.210632324219 970.478881835938 963.913269042969 959.004211425781 969.463989257812 969.311706542969 978.097778320312 975.166381835938 967.599182128906 967.319274902344 968.301391601562 963.234252929688 965.932434082031 963.818115234375 969.899780273438 963.464111328125 968.593444824219 963.136047363281 977.543518066406 967.364196777344 960.787048339844 966.56787109375 963.62646484375 961.547241210938 960.878601074219 970.465942382812 967.296264648438 975.423583984375 974.592468261719 974.378173828125 979.783081054688 970.17431640625 974.773132324219 973.901550292969 970.51318359375 972.421813964844 973.112548828125 973.005981445312 971.263122558594 977.75146484375 981.81640625 980.630126953125 977.388671875 980.476806640625 988.050476074219 981.685791015625 986.677185058594 996.381591796875 997.695068359375 992.571411132812 984.916870117188 992.802429199219 997.515075683594 998.107788085938 994.485717773438 1007.61547851562 1011.69122314453 1007.74285888672 1015.49566650391 1013.99517822266 1007.93737792969 1012.21539306641 1009.77978515625 1015.06756591797 1018.92462158203 1019.41564941406 1019.37408447266 1021.63214111328 1022.72003173828 1028.35717773438 1029.02429199219 1030.13549804688 1043.76257324219 1043.61108398438 1046.66284179688 1051.87426757812 1055.74377441406 1064.69555664062 1069.73583984375 1080.00256347656 1095.22424316406 1102.78515625 1106.12390136719 1116.54724121094 1123.17919921875 1122.00280761719 1122.748046875 1124.71008300781 1127.75695800781 1129.61889648438 1145.38610839844 1146.84545898438
959.918884277344 963.604248046875 968.511596679688 956.223388671875 957.313720703125 967.702331542969 967.453552246094 965.814147949219 968.031860351562 971.393005371094 970.092590332031 970.337585449219 975.491882324219 978.478881835938 986.86962890625 982.393310546875 973.525451660156 969.910705566406 967.817504882812 955.622253417969 971.781433105469 960.691955566406 971.834350585938 968.483337402344 961.983276367188 961.743225097656 961.250732421875 960.1591796875 969.409790039062 974.94140625 971.615661621094 969.576110839844 969.824462890625 961.034729003906 965.16015625 976.785766601562 971.756469726562 962.484558105469 968.309936523438 960.512939453125 965.360778808594 959.5458984375 952.453735351562 953.557861328125 956.317443847656 950.884460449219 954.409423828125 960.181518554688 977.863952636719 979.373291015625 966.598083496094 975.85546875 967.190551757812 972.582702636719 962.9765625 967.137329101562 963.388305664062 972.412841796875 973.242614746094 961.503173828125 965.083557128906 957.365417480469 961.953186035156 970.639892578125 971.716430664062 966.390930175781 962.044250488281 964.904479980469 957.451599121094 961.490478515625 962.005432128906 965.567565917969 966.184326171875 966.747985839844 968.105712890625 968.113952636719 982.6650390625 974.632568359375 962.930908203125 964.355102539062 953.752502441406 964.8740234375 959.236755371094 960.370361328125 973.192138671875 972.301025390625 965.472534179688 971.793212890625 977.311401367188 973.80615234375 973.646301269531 977.956359863281 968.453491210938 971.932556152344 967.769836425781 968.203063964844 964.37744140625 969.36376953125 970.865966796875 980.077026367188 976.546569824219 981.846862792969 980.284851074219 974.342834472656 979.01953125 992.478210449219 986.146118164062 989.294189453125 985.407653808594 985.888305664062 995.951049804688 993.411071777344 994.748229980469 999.886535644531 998.779357910156 999.666625976562 1011.13330078125 1009.49261474609 1003.02392578125 1008.05267333984 1020.62884521484 1014.86267089844 1021.08154296875 1021.25115966797 1022.46569824219 1035.09057617188 1034.40734863281 1031.03894042969 1030.46313476562 1036.40002441406 1044.57800292969 1045.44140625 1051.02221679688 1057.71496582031 1061.15954589844 1067.68078613281 1069.3037109375 1081.88940429688 1085.71936035156 1097.34838867188 1100.92834472656 1105.56604003906 1113.85229492188 1117.86169433594 1116.43969726562 1123.81604003906 1131.4189453125 1130.36096191406 1133.29504394531 1131.72644042969
955.533020019531 965.97265625 970.680969238281 955.786315917969 956.42529296875 971.899230957031 973.618591308594 972.97265625 974.791320800781 965.779846191406 971.966186523438 971.281555175781 976.694763183594 963.468627929688 982.180114746094 982.14892578125 970.921569824219 965.756042480469 972.466857910156 971.576354980469 971.959289550781 968.518249511719 968.010925292969 967.666748046875 968.137451171875 967.186462402344 965.067138671875 964.651794433594 962.267150878906 970.879821777344 970.587341308594 970.168640136719 967.930969238281 965.940002441406 965.311218261719 971.127136230469 961.214538574219 953.94384765625 956.254577636719 960.66796875 956.048950195312 969.073913574219 967.432434082031 961.841735839844 963.811462402344 961.040832519531 952.984680175781 959.488647460938 967.4326171875 969.293273925781 968.08935546875 975.577697753906 975.821166992188 970.083557128906 972.160217285156 963.159057617188 967.90966796875 965.868408203125 970.738220214844 963.149353027344 959.540832519531 958.655334472656 967.108642578125 962.39111328125 968.339538574219 965.18994140625 968.035095214844 970.866943359375 962.210998535156 961.365966796875 966.695068359375 967.908630371094 971.546447753906 969.922668457031 969.838195800781 968.170288085938 967.284240722656 973.585693359375 970.963439941406 963.063171386719 951.502563476562 964.086853027344 962.207824707031 966.240539550781 972.120361328125 974.073669433594 966.765808105469 966.459106445312 970.601135253906 971.107543945312 975.663024902344 979.127807617188 979.415466308594 967.377990722656 969.057739257812 971.485168457031 970.501403808594 968.433654785156 970.450012207031 975.578918457031 975.897216796875 976.613708496094 977.747985839844 982.537658691406 982.708190917969 984.789611816406 987.419860839844 983.66552734375 989.09326171875 991.734313964844 992.66552734375 993.542358398438 994.021301269531 989.862548828125 994.884643554688 995.639282226562 1011.11865234375 1010.03118896484 1007.77459716797 1015.35278320312 1022.04425048828 1023.57000732422 1029.49450683594 1025.16833496094 1029.9482421875 1032.05029296875 1038.18676757812 1038.36047363281 1032.75415039062 1041.2177734375 1045.29736328125 1045.05847167969 1051.43823242188 1062.53552246094 1067.35192871094 1065.18054199219 1080.70617675781 1087.86083984375 1093.04370117188 1101.283203125 1104.17895507812 1103.91369628906 1107.44409179688 1109.59692382812 1111.67578125 1118.94079589844 1130.12829589844 1130.08923339844 1123.29040527344 1127.90539550781
961.491027832031 964.730041503906 964.898803710938 961.19287109375 960.875122070312 968.203002929688 974.386840820312 976.69091796875 973.855834960938 969.711364746094 974.436828613281 979.221618652344 979.6904296875 974.315734863281 981.648681640625 981.657592773438 982.70263671875 977.312866210938 971.494018554688 970.57958984375 967.343994140625 969.517578125 967.194946289062 959.41455078125 968.276672363281 957.300659179688 964.143615722656 971.974304199219 965.793151855469 966.894165039062 971.058959960938 970.3408203125 967.215576171875 965.962951660156 962.53173828125 962.08984375 962.779357910156 950.339233398438 957.486145019531 960.853515625 968.450073242188 974.7880859375 973.232299804688 974.195983886719 971.930541992188 963.5146484375 958.789184570312 960.584533691406 971.810607910156 970.105895996094 967.232482910156 964.9931640625 972.651123046875 977.249755859375 970.485168457031 970.693359375 962.458068847656 961.7236328125 961.771179199219 962.543395996094 962.914306640625 961.265991210938 957.990356445312 955.678649902344 953.289733886719 955.982971191406 963.586059570312 968.867126464844 970.255615234375 962.264892578125 963.6552734375 967.9345703125 969.214233398438 967.240051269531 970.7919921875 963.169494628906 967.828918457031 968.723205566406 970.532348632812 964.850646972656 960.131713867188 969.756286621094 961.38427734375 972.650390625 976.395935058594 975.838989257812 972.026245117188 972.876037597656 967.929382324219 970.187744140625 974.04150390625 972.424499511719 963.180114746094 959.673522949219 963.178955078125 973.931213378906 977.520263671875 977.8837890625 972.237121582031 977.862670898438 972.315795898438 979.078247070312 973.689208984375 992.03369140625 982.486511230469 977.083190917969 984.96533203125 990.199157714844 978.453063964844 990.291076660156 999.646484375 989.937927246094 1001.45227050781 998.404602050781 996.075866699219 1000.7548828125 1006.9794921875 1003.62268066406 1005.46643066406 1009.50531005859 1014.88854980469 1027.02856445312 1034.40100097656 1030.71655273438 1032.37927246094 1028.46228027344 1030.78076171875 1034.10693359375 1039.1650390625 1036.99206542969 1045.07568359375 1046.35485839844 1056.79760742188 1059.53894042969 1068.32897949219 1073.15307617188 1081.7978515625 1088.70532226562 1094.15954589844 1099.10388183594 1100.79577636719 1099.66540527344 1111.40783691406 1100.96936035156 1106.63110351562 1103.34887695312 1113.62377929688 1113.07165527344 1117.22802734375 1121.57971191406
958.224060058594 961.775207519531 955.690246582031 954.8203125 967.11572265625 978.505981445312 977.764343261719 974.725891113281 969.399597167969 964.124328613281 967.306213378906 965.5361328125 967.247497558594 972.573852539062 975.634704589844 981.236206054688 975.77880859375 971.431091308594 971.047546386719 968.105102539062 967.574523925781 964.922180175781 962.511291503906 960.198974609375 961.212097167969 958.625427246094 952.692077636719 965.083435058594 964.279724121094 966.865844726562 972.15234375 964.503723144531 963.738525390625 971.911865234375 965.068298339844 966.304809570312 954.519836425781 958.023498535156 953.142211914062 957.704345703125 965.501098632812 969.319885253906 976.438537597656 966.838195800781 963.913391113281 962.688720703125 957.773315429688 955.206237792969 958.72265625 964.475463867188 957.648742675781 968.231689453125 965.768249511719 965.702819824219 962.679504394531 959.485900878906 955.091674804688 958.770935058594 961.629333496094 957.758239746094 956.207397460938 948.390930175781 945.171997070312 954.06396484375 960.649597167969 956.896179199219 951.841186523438 952.367370605469 965.057067871094 955.155456542969 953.1416015625 958.263854980469 960.373229980469 963.843017578125 967.128967285156 961.504211425781 961.882690429688 957.55810546875 968.772827148438 973.229614257812 971.6640625 972.502014160156 968.759704589844 971.423767089844 980.699279785156 975.079528808594 968.468322753906 974.804565429688 974.061584472656 971.408813476562 981.375305175781 977.137634277344 963.275512695312 960.946472167969 964.556579589844 969.641296386719 981.8251953125 979.428161621094 971.06201171875 975.305236816406 976.245239257812 984.742736816406 988.741882324219 985.752319335938 981.791198730469 980.815612792969 973.039794921875 979.197570800781 978.420349121094 982.724792480469 993.920166015625 993.198120117188 999.89892578125 997.120544433594 992.613586425781 996.613220214844 1003.11303710938 1000.63287353516 1012.76312255859 1020.68688964844 1019.64624023438 1018.36791992188 1025.06860351562 1036.71154785156 1034.70031738281 1024.90283203125 1028.76513671875 1033.40649414062 1029.11682128906 1035.48571777344 1044.36450195312 1049.19165039062 1069.9287109375 1068.3984375 1073.2353515625 1085.09167480469 1098.67236328125 1096.75109863281 1099.08508300781 1097.07531738281 1104.91906738281 1100.71179199219 1101.46215820312 1099.88806152344 1104.796875 1093.79553222656 1102.33032226562 1111.44909667969 1100.86779785156 1109.23974609375
959.906433105469 958.765014648438 957.775573730469 958.286682128906 972.891418457031 977.108154296875 984.031555175781 978.238525390625 975.281555175781 960.953552246094 957.937927246094 957.909484863281 959.182800292969 966.1943359375 973.682983398438 970.342041015625 971.039184570312 971.292419433594 973.779113769531 967.060852050781 955.477844238281 962.179748535156 966.624816894531 964.201721191406 961.060119628906 964.28759765625 959.388244628906 955.661254882812 962.38427734375 967.035400390625 965.781311035156 960.726806640625 960.198852539062 959.374633789062 963.610595703125 964.594604492188 960.03076171875 963.073791503906 955.663452148438 955.636352539062 959.526489257812 966.39453125 967.236938476562 965.708557128906 961.558410644531 953.865600585938 951.411926269531 948.259338378906 950.0263671875 958.493713378906 958.268493652344 968.238708496094 967.516418457031 965.349975585938 957.300354003906 961.090637207031 967.424621582031 961.387145996094 956.709045410156 959.7880859375 953.267822265625 942.640075683594 943.252563476562 948.090881347656 952.100036621094 960.264770507812 959.344970703125 952.736145019531 960.968383789062 964.96435546875 956.836181640625 960.687561035156 965.622131347656 962.313171386719 958.675476074219 951.619812011719 964.670654296875 965.098327636719 959.462768554688 962.155029296875 970.537963867188 974.383483886719 967.268005371094 966.869934082031 978.331115722656 971.326171875 973.482727050781 977.647827148438 973.387817382812 971.138000488281 977.205749511719 978.893676757812 970.988647460938 965.845947265625 963.021667480469 971.738342285156 976.461242675781 974.101623535156 967.879455566406 966.548583984375 974.0595703125 979.711303710938 985.124084472656 992.211608886719 991.029541015625 982.54931640625 978.63916015625 983.9853515625 989.222290039062 983.563720703125 984.953186035156 990.840454101562 994.571472167969 992.497192382812 983.074157714844 993.252624511719 989.191223144531 998.885437011719 1006.14074707031 1012.59020996094 1021.70349121094 1018.28594970703 1026.34619140625 1032.7734375 1033.3662109375 1030.16638183594 1028.13830566406 1031.11596679688 1027.03894042969 1032.05749511719 1044.40966796875 1046.63366699219 1063.22973632812 1060.90979003906 1070.35534667969 1084.19592285156 1094.83715820312 1091.36376953125 1094.95666503906 1098.9248046875 1102.67639160156 1095.11437988281 1096.94311523438 1095.74462890625 1089.18444824219 1095.54638671875 1100.41613769531 1093.69372558594 1092.06665039062 1100.70178222656
962.476989746094 957.498046875 961.512268066406 968.592102050781 971.202026367188 964.57421875 977.483276367188 977.484313964844 969.438720703125 964.960876464844 965.307189941406 964.54833984375 965.768432617188 972.011840820312 976.125671386719 978.761474609375 977.703735351562 965.162902832031 961.005310058594 963.553344726562 954.792907714844 971.760559082031 967.043823242188 965.331787109375 963.590637207031 954.433532714844 959.786437988281 955.251831054688 954.357604980469 960.220336914062 963.47705078125 958.052551269531 954.241943359375 964.482971191406 969.426879882812 964.887817382812 967.635070800781 963.686401367188 970.822814941406 970.715637207031 963.822631835938 963.977416992188 965.543273925781 965.9228515625 958.20849609375 959.267333984375 957.170471191406 967.271057128906 959.125427246094 953.501586914062 960.012512207031 965.595092773438 962.748779296875 963.0400390625 958.676818847656 956.1669921875 957.743408203125 957.98583984375 950.757507324219 949.439392089844 950.1328125 943.180114746094 951.318054199219 955.560241699219 956.223449707031 962.682983398438 957.878356933594 955.954650878906 957.11767578125 963.4677734375 956.199035644531 960.537048339844 962.736572265625 955.733825683594 956.359680175781 960.34423828125 957.162841796875 961.920227050781 958.860290527344 957.31982421875 966.824645996094 971.570678710938 957.167175292969 962.487609863281 964.321533203125 959.050598144531 959.835327148438 969.023559570312 977.787414550781 970.923767089844 970.721069335938 969.637756347656 970.404663085938 968.098022460938 969.993041992188 971.831298828125 976.580810546875 969.604919433594 969.145385742188 960.548278808594 971.406311035156 974.896240234375 982.138305664062 986.435729980469 991.943420410156 985.819519042969 979.925109863281 990.496887207031 986.6962890625 994.763000488281 993.029968261719 993.1455078125 997.178100585938 991.860656738281 988.908447265625 992.057556152344 991.366088867188 990.335876464844 1011.03155517578 1004.70361328125 1006.0185546875 1017.84143066406 1021.41967773438 1018.21850585938 1035.84521484375 1034.92102050781 1034.62951660156 1033.19934082031 1035.58654785156 1031.4375 1041.20971679688 1044.59948730469 1054.46594238281 1061.51428222656 1071.37463378906 1077.83911132812 1091.44653320312 1090.6572265625 1094.21496582031 1085.14270019531 1092.07104492188 1095.44799804688 1090.59460449219 1090.85522460938 1088.60339355469 1084.82019042969 1091.19738769531 1080.19152832031 1091.07360839844 1087.73266601562
963.191955566406 957.426330566406 963.403930664062 965.721374511719 973.966064453125 963.560241699219 971.251098632812 966.4033203125 962.640747070312 967.947387695312 960.050170898438 952.848205566406 969.3671875 976.451538085938 979.586791992188 979.23779296875 977.350219726562 969.424133300781 960.412292480469 961.513916015625 958.813537597656 963.44091796875 966.033447265625 964.150207519531 958.8623046875 954.568786621094 953.411071777344 951.200622558594 952.28173828125 955.965881347656 957.275817871094 954.097412109375 955.048217773438 964.632019042969 963.954895019531 955.959350585938 961.473449707031 964.603149414062 968.502258300781 965.07177734375 964.212585449219 957.769165039062 968.740051269531 961.152587890625 952.246032714844 954.736206054688 956.304077148438 953.141235351562 956.142333984375 947.137268066406 954.161437988281 960.45068359375 957.620056152344 960.920837402344 960.033142089844 961.824768066406 954.658569335938 953.505554199219 949.478088378906 954.540771484375 952.246765136719 943.57275390625 948.351806640625 949.942565917969 952.255126953125 956.414489746094 957.126647949219 954.092895507812 955.742553710938 960.871032714844 956.477844238281 952.925048828125 965.014953613281 954.301147460938 960.718566894531 959.803588867188 952.581115722656 953.324340820312 951.381408691406 962.25390625 962.82470703125 957.933349609375 957.966186523438 961.768676757812 957.59765625 959.783203125 960.292419433594 970.213134765625 970.8408203125 974.486572265625 969.896667480469 967.005065917969 970.463806152344 972.792541503906 976.013305664062 980.338012695312 967.4033203125 967.026184082031 967.944274902344 968.324645996094 975.081115722656 976.753662109375 980.651977539062 987.149719238281 983.150085449219 976.603393554688 989.50634765625 989.657531738281 990.484436035156 993.933471679688 992.947692871094 989.594787597656 992.459350585938 987.579833984375 994.474548339844 997.875854492188 995.524719238281 999.162231445312 1005.48852539062 1008.66589355469 1013.10833740234 1010.10546875 1011.73760986328 1004.51715087891 1023.48785400391 1029.19396972656 1027.21228027344 1032.58520507812 1036.4814453125 1029.5390625 1035.81579589844 1047.73620605469 1051.26977539062 1060.17004394531 1066.23986816406 1079.77429199219 1093.31994628906 1094.92297363281 1086.29992675781 1081.51574707031 1085.30297851562 1088.67358398438 1089.39978027344 1082.50244140625 1084.33898925781 1086.86865234375 1083.40014648438 1082.34631347656 1083.25073242188 1073.3173828125
