NCOLS 150
NROWS 37
XLLCORNER 7394249
YLLCORNER 4842389
CELLSIZE 30
NODATA_VALUE -9999
954.948059082031 963.349792480469 968.566223144531 971.790893554688 972.018676757812 974.567565917969 971.928527832031 974.478759765625 970.914428710938 970.846008300781 975.898742675781 975.09326171875 986.339538574219 982.381591796875 980.633972167969 975.382141113281 973.693054199219 980.986389160156 984.61767578125 987.273986816406 978.167358398438 970.571594238281 973.732177734375 965.019775390625 960.953918457031 961.438598632812 965.141967773438 958.406677246094 964.057861328125 959.099182128906 970.387939453125 966.11083984375 968.944580078125 969.142333984375 976.696594238281 976.464782714844 969.909057617188 970.212036132812 961.824951171875 964.829711914062 959.669738769531 961.301391601562 963.195495605469 955.939575195312 959.662231445312 968.270812988281 975.38818359375 967.960388183594 970.657409667969 970.644897460938 970.949584960938 968.635803222656 965.433227539062 959.463989257812 970.984924316406 967.52490234375 965.541259765625 942.569885253906 941.986511230469 945.910278320312 942.669128417969 945.079406738281 955.911499023438 965.119445800781 979.815673828125 977.865051269531 965.637084960938 960.975769042969 962.806335449219 967.382629394531 959.192321777344 966.89892578125 969.083251953125 975.289245605469 975.006042480469 963.803894042969 966.565979003906 966.533325195312 965.216369628906 956.2001953125 956.160522460938 963.625610351562 965.949279785156 972.630676269531 966.374694824219 973.087646484375 967.922668457031 974.764587402344 972.6357421875 960.459350585938 973.817565917969 971.863830566406 980.79150390625 973.213806152344 975.784545898438 965.831909179688 972.505676269531 977.520629882812 983.56689453125 971.76220703125 977.438781738281 975.285217285156 978.649658203125 979.156921386719 986.635925292969 987.138488769531 992.795715332031 982.711181640625 987.126525878906 988.544128417969 992.433471679688 991.026245117188 1002.02691650391 1002.44415283203 1007.22790527344 1009.95306396484 1016.14959716797 1003.17578125 1011.63739013672 1009.9140625 1008.28540039062 1018.12060546875 1023.25994873047 1024.98425292969 1028.46765136719 1031.09582519531 1039.40258789062 1045.84106445312 1046.94921875 1054.55603027344 1054.74682617188 1067.60046386719 1069.58410644531 1074.47680664062 1079.4462890625 1089.90844726562 1099.02819824219 1104.91394042969 1098.88781738281 1103.2314453125 1101.36450195312 1099.81359863281 1106.38317871094 1123.26318359375 1120.82885742188 1127.1640625 1127.27087402344 1135.88659667969 1135.20483398438 1130.72644042969
970.376770019531 969.457092285156 970.252990722656 960.664611816406 964.020263671875 970.262939453125 963.867919921875 969.59765625 967.015441894531 972.341674804688 974.678588867188 974.824584960938 977.767150878906 980.872924804688 979.660034179688 971.144592285156 969.514282226562 975.186157226562 978.43505859375 982.596801757812 974.677001953125 967.741638183594 969.315856933594 964.853088378906 963.110961914062 960.399536132812 953.536071777344 966.14990234375 971.697570800781 965.286987304688 977.675170898438 975.104919433594 971.361633300781 967.30126953125 969.442504882812 969.040283203125 978.619506835938 974.338195800781 967.548706054688 968.906494140625 957.772583007812 953.198425292969 957.957092285156 959.671875 956.099731445312 962.847106933594 963.719177246094 969.855773925781 963.548217773438 966.350708007812 968.208923339844 970.569946289062 965.090576171875 966.783874511719 969.690368652344 965.655883789062 954.899597167969 942.589965820312 944.983459472656 948.310302734375 948.492919921875 950.21044921875 951.571411132812 961.065673828125 965.968872070312 969.088317871094 958.636352539062 951.5927734375 952.686950683594 964.407165527344 969.442932128906 967.2529296875 976.800964355469 964.304443359375 964.172790527344 957.880615234375 966.230163574219 965.8916015625 963.031188964844 957.815124511719 959.221862792969 961.37109375 962.527954101562 970.236389160156 969.7080078125 970.300903320312 970.328491210938 970.914428710938 973.884643554688 967.956420898438 977.560913085938 970.062805175781 979.159423828125 973.4951171875 982.425048828125 979.135864257812 974.394470214844 976.344482421875 978.014526367188 974.579711914062 979.913452148438 970.150695800781 974.588256835938 979.904907226562 975.291809082031 981.906921386719 994.158142089844 983.310546875 985.169372558594 986.194885253906 983.745178222656 991.920654296875 1001.28265380859 1001.11077880859 1001.37475585938 1016.92962646484 1013.82287597656 1000.6513671875 1007.37091064453 1008.47082519531 1010.31945800781 1020.44268798828 1022.35900878906 1029.78979492188 1032.02160644531 1032.62976074219 1039.02624511719 1043.56652832031 1040.12951660156 1044.91162109375 1046.18676757812 1059.61437988281 1071.93078613281 1081.55102539062 1095.79711914062 1103.63195800781 1105.80187988281 1102.24230957031 1108.35083007812 1108.92468261719 1107.57629394531 1108.58020019531 1105.64782714844 1109.822265625 1119.34094238281 1118.40649414062 1117.02075195312 1124.56799316406 1121.80773925781 1114.62377929688
969.938781738281 966.124938964844 966.967102050781 962.673767089844 962.667663574219 964.757446289062 969.218017578125 963.679504394531 957.781799316406 969.465698242188 971.031677246094 972.810119628906 978.61328125 979.873229980469 975.308471679688 979.215881347656 973.7138671875 977.113891601562 968.988647460938 977.511779785156 966.108032226562 964.131530761719 963.723083496094 961.383850097656 959.654541015625 955.023986816406 960.994567871094 966.62353515625 966.956420898438 973.54150390625 972.473815917969 972.323852539062 977.805541992188 972.883666992188 970.099792480469 971.981018066406 971.616943359375 970.524047851562 960.886352539062 958.45751953125 957.226623535156 957.506591796875 958.400756835938 958.56494140625 955.27880859375 962.076232910156 959.472045898438 956.45751953125 961.259338378906 955.599975585938 945.313293457031 960.046875 949.509033203125 958.46728515625 957.460876464844 958.356567382812 948.406494140625 954.496398925781 951.802062988281 954.576965332031 959.628967285156 955.11767578125 958.285949707031 956.156799316406 968.04296875 959.516174316406 960.921630859375 958.416381835938 952.690673828125 956.707214355469 968.889343261719 970.64501953125 974.209838867188 966.230651855469 956.137756347656 962.598754882812 966.877868652344 967.444030761719 963.543579101562 962.838439941406 967.175903320312 961.252563476562 963.813354492188 969.96875 964.586975097656 963.386352539062 970.483520507812 973.266662597656 970.106201171875 974.660278320312 978.404846191406 979.917053222656 979.055908203125 976.231201171875 984.994323730469 977.985290527344 974.257019042969 971.0869140625 973.713317871094 977.396301269531 980.476745605469 979.4111328125 974.134582519531 973.577880859375 981.653991699219 985.062438964844 982.124450683594 979.268188476562 977.745849609375 983.678649902344 988.589172363281 996.898071289062 999.995544433594 999.408874511719 1004.90472412109 1004.18054199219 1007.08331298828 1005.78015136719 1004.25476074219 1007.89117431641 1013.36364746094 1019.78558349609 1026.39453125 1024.46264648438 1029.49047851562 1038.259765625 1039.06689453125 1032.70007324219 1040.25512695312 1039.74584960938 1046.37048339844 1054.04699707031 1064.29028320312 1071.40209960938 1082.26416015625 1092.28283691406 1094.25 1098.51342773438 1103.54089355469 1105.12060546875 1108.64892578125 1106.81701660156 1099.6875 1110.53039550781 1108.84191894531 1112.26379394531 1106.89404296875 1105.83483886719 1100.0810546875 1099.43493652344
965.917724609375 966.942016601562 971.872131347656 973.921325683594 974.876098632812 973.03466796875 973.997192382812 973.993103027344 962.170959472656 971.445556640625 973.593933105469 967.690612792969 976.108825683594 972.38671875 970.721801757812 983.399841308594 970.638610839844 975.792846679688 971.095703125 970.666320800781 966.067321777344 958.493896484375 959.898742675781 960.257507324219 962.790832519531 963.179565429688 961.012756347656 959.41357421875 964.27392578125 964.931335449219 973.131713867188 970.414184570312 972.497680664062 966.578430175781 977.678466796875 966.788146972656 967.378601074219 965.782470703125 960.911804199219 955.816955566406 946.178588867188 948.067993164062 946.415771484375 943.281616210938 943.068237304688 955.965942382812 954.486389160156 957.68212890625 954.11865234375 949.516540527344 941.451293945312 946.943969726562 942.845520019531 947.923034667969 954.464416503906 959.978149414062 952.42529296875 953.841796875 952.734313964844 956.352905273438 961.677185058594 962.927551269531 951.934753417969 960.147888183594 955.648864746094 958.747436523438 951.533386230469 952.466979980469 953.742126464844 951.399353027344 954.747314453125 963.23193359375 967.110534667969 955.3173828125 958.967346191406 963.208801269531 961.397521972656 954.362426757812 963.918518066406 959.098449707031 961.742248535156 960.232177734375 968.278442382812 969.012268066406 964.899475097656 966.196838378906 963.134094238281 963.4443359375 970.358459472656 967.773010253906 976.943359375 979.897644042969 977.541442871094 976.476867675781 976.908081054688 975.070251464844 974.491027832031 973.554931640625 976.659484863281 981.224609375 982.103515625 973.561950683594 969.418762207031 975.327819824219 978.738708496094 976.613098144531 976.991333007812 970.32568359375 981.191284179688 984.80322265625 990.533447265625 989.338989257812 990.199462890625 999.556335449219 1006.80975341797 1003.51892089844 1007.36267089844 1011.54992675781 1006.26684570312 1009.16400146484 1019.52490234375 1012.87811279297 1015.68139648438 1019.13397216797 1018.78747558594 1024.1318359375 1022.32659912109 1030.47790527344 1031.02551269531 1045.28930664062 1050.74670410156 1062.96252441406 1067.1630859375 1071.609375 1070.00012207031 1084.470703125 1089.828125 1097.50451660156 1095.42944335938 1092.64978027344 1094.52502441406 1107.75805664062 1098.43566894531 1101.64672851562 1095.86950683594 1096.44616699219 1097.580078125 1085.31579589844 1086.01135253906 1087.61352539062
963.615478515625 977.579162597656 977.911926269531 974.05126953125 975.119384765625 969.874267578125 973.872863769531 967.663269042969 969.573669433594 968.18212890625 968.573059082031 967.938110351562 971.757202148438 971.273132324219 971.351867675781 978.037353515625 981.066955566406 976.390808105469 970.277465820312 966.149047851562 964.734741210938 958.574340820312 958.664245605469 962.611022949219 963.128112792969 963.555908203125 958.977661132812 963.57470703125 960.040283203125 965.491271972656 973.486450195312 956.903015136719 969.570922851562 970.189331054688 963.632690429688 965.062866210938 965.190490722656 961.31103515625 957.124267578125 952.650939941406 951.703796386719 955.623352050781 947.12939453125 948.733520507812 955.377807617188 952.676330566406 951.546325683594 952.457214355469 949.034362792969 953.123657226562 949.62939453125 950.207397460938 946.00537109375 948.780700683594 948.94482421875 961.17822265625 953.521850585938 947.031494140625 955.519836425781 954.956298828125 966.402465820312 967.564758300781 955.149108886719 957.3330078125 962.116943359375 960.651000976562 951.148803710938 953.179992675781 947.358032226562 943.621337890625 958.663452148438 964.66064453125 959.234741210938 955.781005859375 959.176452636719 955.569763183594 957.771301269531 959.658447265625 959.735961914062 960.254150390625 970.845336914062 967.116333007812 961.760803222656 957.772338867188 962.328552246094 960.995666503906 956.892333984375 968.400512695312 971.198913574219 969.324096679688 967.287414550781 975.386108398438 966.894653320312 973.6552734375 978.300048828125 981.805297851562 971.787048339844 973.980041503906 978.500061035156 970.140747070312 971.835205078125 976.473449707031 971.816711425781 971.084045410156 968.370422363281 976.649047851562 972.034729003906 980.111755371094 983.031372070312 983.008178710938 991.336547851562 993.598327636719 993.668518066406 994.724548339844 996.004272460938 1004.33514404297 1003.49871826172 1004.24755859375 1002.84191894531 1008.98968505859 1014.45892333984 1022.15515136719 1011.05487060547 1008.59924316406 1007.7529296875 1012.19818115234 1016.10980224609 1026.89855957031 1035.10864257812 1036.53771972656 1049.83093261719 1062.39184570312 1069.41711425781 1084.1669921875 1088.197265625 1085.65270996094 1081.38818359375 1083.79284667969 1093.95190429688 1091.611328125 1091.73120117188 1091.5341796875 1086.59997558594 1080.08605957031 1082.85876464844 1091.39916992188 1086.70483398438 1090.5322265625 1083.17919921875 1076.146484375
967.347595214844 974.894287109375 985.527221679688 979.05224609375 979.035827636719 976.346374511719 973.457885742188 958.535339355469 962.907836914062 965.186157226562 968.989990234375 970.630310058594 970.76220703125 972.2041015625 975.766906738281 965.701049804688 977.388000488281 968.854309082031 973.58203125 969.326477050781 972.189819335938 964.153198242188 961.386779785156 965.99365234375 957.289978027344 963.346862792969 966.815124511719 965.842712402344 960.806701660156 962.760375976562 966.655334472656 962.400390625 964.300048828125 969.476806640625 957.7255859375 958.143981933594 964.254272460938 955.945495605469 956.198669433594 947.740417480469 949.775817871094 953.778381347656 954.326232910156 953.951538085938 955.746704101562 955.825256347656 954.487243652344 954.771606445312 951.240234375 951.648010253906 951.887390136719 952.879516601562 951.4150390625 942.960998535156 947.783508300781 953.393432617188 961.277160644531 950.631774902344 959.027954101562 965.832397460938 962.251281738281 972.05224609375 963.89599609375 964.467834472656 959.034423828125 956.865783691406 949.940490722656 949.059326171875 952.482055664062 945.489624023438 955.890686035156 953.772644042969 958.399780273438 954.558166503906 953.292175292969 955.673950195312 954.038330078125 950.691772460938 959.377807617188 960.579833984375 962.634582519531 962.203796386719 963.893005371094 962.284362792969 965.312133789062 966.409851074219 956.727233886719 961.314880371094 963.905212402344 973.777282714844 969.843505859375 972.108215332031 969.365783691406 962.749145507812 968.698120117188 985.623657226562 977.504760742188 982.941040039062 974.708068847656 977.174987792969 973.855163574219 973.351379394531 975.226745605469 975.940673828125 980.157836914062 982.480895996094 974.144104003906 976.647399902344 976.380432128906 983.475524902344 990.028442382812 998.446350097656 991.981994628906 988.40576171875 993.726806640625 999.05078125 1003.55053710938 1006.43304443359 1002.75714111328 1009.74310302734 1018.28131103516 1011.85589599609 1016.44964599609 1005.26428222656 1007.27935791016 1011.22998046875 1014.05767822266 1032.82006835938 1032.21691894531 1043.0205078125 1056.45300292969 1067.26391601562 1073.23071289062 1090.140625 1092.251953125 1094.65014648438 1089.00415039062 1080.04821777344 1092.07861328125 1090.69311523438 1096.04858398438 1083.44323730469 1078.34252929688 1074.45825195312 1070.26574707031 1080.77587890625 1082.65783691406 1077.34057617188 1073.92687988281 1068.88500976562
972.470825195312 975.888854980469 975.377380371094 975.871459960938 977.508850097656 982.8720703125 977.536743164062 971.53515625 962.314880371094 969.629638671875 974.902099609375 973.267578125 969.822143554688 969.779296875 972.776977539062 965.564086914062 965.658508300781 970.364013671875 965.342163085938 975.535461425781 969.364685058594 960.467468261719 958.107727050781 952.19482421875 960.740295410156 964.707946777344 970.757690429688 962.67333984375 962.444396972656 960.430908203125 957.791137695312 957.397094726562 966.493041992188 961.96533203125 963.462036132812 960.339416503906 955.727478027344 959.948364257812 958.261901855469 951.922485351562 951.863830566406 952.21240234375 950.940734863281 954.706970214844 958.833618164062 960.127197265625 954.830932617188 942.388488769531 956.512573242188 957.337158203125 954.997375488281 948.644104003906 946.643676757812 954.23974609375 949.213562011719 951.063537597656 958.118225097656 964.150329589844 959.798522949219 958.641235351562 952.351501464844 954.669494628906 964.374633789062 968.316040039062 959.671020507812 959.837646484375 951.038146972656 949.104064941406 956.694702148438 958.341186523438 959.233520507812 955.827270507812 959.214782714844 950.222290039062 955.400390625 963.58251953125 958.015380859375 954.464172363281 966.280029296875 956.987731933594 961.87109375 955.93701171875 963.105895996094 957.246948242188 959.67236328125 954.353637695312 953.697937011719 966.534301757812 969.680480957031 967.843872070312 965.332641601562 969.927734375 969.4580078125 970.020568847656 975.791625976562 987.272216796875 982.258972167969 990.179077148438 980.395568847656 975.447448730469 978.283569335938 973.417663574219 972.862609863281 974.8154296875 980.990112304688 982.89599609375 981.029235839844 969.549255371094 979.621398925781 980.945373535156 983.826782226562 984.151428222656 985.67138671875 989.395324707031 991.439636230469 999.253173828125 1006.76953125 1009.1083984375 1004.21899414062 1003.77197265625 1015.82531738281 1004.19323730469 1009.16613769531 1013.31750488281 1000.10803222656 1003.17230224609 1018.06811523438 1023.3291015625 1035.11108398438 1042.98510742188 1055.96240234375 1067.64624023438 1072.74047851562 1083.89733886719 1088.10583496094 1092.53503417969 1086.28186035156 1079.80200195312 1090.53356933594 1088.72485351562 1080.29089355469 1069.62109375 1071.78112792969 1067.30883789062 1073.74145507812 1069.361328125 1071.10473632812 1070.22766113281 1062.9609375 1056.79541015625
975.846313476562 974.53759765625 970.928955078125 972.553833007812 974.927429199219 976.745422363281 977.188659667969 969.225463867188 976.010986328125 972.393249511719 971.650695800781 976.367736816406 965.72607421875 966.7666015625 972.801147460938 969.801208496094 966.363220214844 968.740539550781 968.612060546875 972.018493652344 969.376281738281 964.496154785156 967.148193359375 956.62841796875 957.523132324219 959.741760253906 947.170227050781 955.445678710938 965.934936523438 962.037292480469 959.531188964844 955.413269042969 965.069396972656 955.196044921875 952.058227539062 954.652282714844 956.804809570312 955.162536621094 952.393859863281 945.903015136719 949.853393554688 946.1689453125 955.5732421875 963.536804199219 958.1591796875 957.410583496094 957.649780273438 955.223876953125 955.396240234375 956.710083007812 959.1494140625 953.964599609375 955.6015625 959.175842285156 954.008728027344 950.512390136719 949.485290527344 965.856140136719 964.600402832031 960.587219238281 962.75341796875 964.074340820312 958.997436523438 964.828979492188 957.651123046875 956.079040527344 950.554748535156 952.724060058594 955.970153808594 957.719543457031 961.821533203125 961.700500488281 958.683288574219 958.329711914062 967.863403320312 966.493774414062 961.596130371094 963.787719726562 961.022888183594 966.241638183594 960.388610839844 960.807922363281 966.520385742188 964.724365234375 958.348266601562 958.338012695312 961.081665039062 966.877075195312 964.827880859375 959.394897460938 957.551879882812 963.471252441406 970.751770019531 972.852233886719 972.84814453125 983.967163085938 994.000732421875 986.4990234375 988.713806152344 975.439208984375 984.955139160156 971.546630859375 973.270202636719 979.124572753906 982.792663574219 983.142456054688 986.010986328125 982.584228515625 989.778076171875 993.370178222656 993.678283691406 982.31640625 985.835266113281 989.571594238281 989.386413574219 985.825805664062 998.820495605469 999.168579101562 1010.85137939453 1007.15277099609 1011.79443359375 1000.65643310547 1000.48486328125 1005.18792724609 1010.88629150391 1013.19378662109 1021.68615722656 1033.55895996094 1045.56909179688 1049.98718261719 1046.55859375 1065.97509765625 1055.39526367188 1065.98547363281 1069.46960449219 1083.4345703125 1080.236328125 1080.96887207031 1073.37316894531 1072.63671875 1065.06677246094 1069.505859375 1062.19055175781 1067.21166992188 1063.05407714844 1057.11572265625 1063.52014160156 1060.47180175781 1064.29797363281 1057.22314453125
967.93408203125 973.159790039062 968.709106445312 963.920532226562 969.807983398438 975.042907714844 976.667419433594 979.187377929688 974.9208984375 972.697692871094 968.242614746094 969.739135742188 968.907775878906 963.211242675781 964.90625 974.893493652344 972.523071289062 960.187377929688 967.868225097656 968.95458984375 968.196411132812 971.105529785156 961.091674804688 955.337280273438 948.273315429688 944.748352050781 949.909790039062 955.321472167969 951.469055175781 953.481750488281 961.169616699219 955.322265625 953.346435546875 951.246459960938 942.356262207031 949.327880859375 963.925659179688 960.900207519531 951.323608398438 945.176513671875 947.388549804688 950.135314941406 958.209777832031 965.201965332031 956.350280761719 951.710632324219 959.704040527344 964.191772460938 953.779113769531 953.176452636719 958.650207519531 952.604370117188 961.00146484375 956.007202148438 964.558654785156 957.35546875 960.715209960938 969.273132324219 962.566955566406 956.797546386719 954.252502441406 955.945983886719 965.833679199219 954.189270019531 959.23388671875 951.779541015625 957.570190429688 954.05810546875 955.398986816406 958.4658203125 962.702331542969 961.053100585938 962.414367675781 956.998107910156 963.283203125 972.442810058594 966.008178710938 965.821166992188 964.467407226562 960.81640625 958.499633789062 971.153930664062 959.484741210938 959.043273925781 960.08642578125 951.377563476562 965.249572753906 967.168823242188 969.296447753906 962.445861816406 959.483947753906 968.960693359375 963.661865234375 971.734680175781 974.98876953125 985.635314941406 982.392639160156 982.632507324219 983.413879394531 984.341857910156 980.121154785156 985.874267578125 979.872985839844 981.036804199219 979.012512207031 979.77685546875 984.919616699219 985.611022949219 991.169189453125 994.344299316406 991.913696289062 994.6103515625 1001.18420410156 993.770690917969 994.518676757812 989.16748046875 1002.01190185547 1011.3876953125 1014.96234130859 1013.52368164062 1014.3828125 1007.17462158203 1002.12542724609 1002.40118408203 1016.24688720703 1021.1748046875 1022.70819091797 1028.35205078125 1036.66589355469 1046.19299316406 1050.36047363281 1051.8115234375 1056.71630859375 1055.37438964844 1058.998046875 1069.74426269531 1075.3876953125 1069.97961425781 1065.47277832031 1056.66369628906 1062.83129882812 1059.48303222656 1058.88562011719 1061.01159667969 1059.3994140625 1043.70068359375 1056.10412597656 1066.28991699219 1065.66589355469 1062.41735839844
962.50439453125 963.930297851562 966.937194824219 965.3193359375 967.132141113281 970.805297851562 974.632202148438 972.634948730469 975.881530761719 974.347595214844 971.121704101562 966.836608886719 964.264343261719 963.924621582031 964.318054199219 971.178405761719 964.697387695312 965.22998046875 968.174682617188 972.592041015625 972.244079589844 969.083129882812 967.050903320312 953.02734375 947.754272460938 951.419128417969 951.907836914062 948.7021484375 944.3046875 946.242736816406 961.680969238281 956.836486816406 950.007507324219 947.05224609375 948.314819335938 958.47021484375 958.9677734375 956.614135742188 959.257263183594 945.66552734375 949.781494140625 958.436096191406 957.046630859375 970.288146972656 960.119140625 951.677673339844 950.215454101562 947.459045410156 945.376525878906 952.144592285156 949.5986328125 950.611511230469 951.2255859375 957.00341796875 958.617614746094 949.441772460938 955.63037109375 962.269592285156 962.626342773438 961.459594726562 964.009887695312 957.911071777344 961.278564453125 964.08251953125 963.477294921875 950.162109375 950.218933105469 959.043823242188 959.008422851562 965.066528320312 974.870849609375 974.460571289062 962.679748535156 962.044189453125 964.704345703125 964.518859863281 969.42138671875 969.379760742188 963.670593261719 959.800659179688 966.09130859375 971.236206054688 968.687561035156 957.619750976562 957.8017578125 957.816162109375 963.578369140625 963.159423828125 969.653137207031 972.974792480469 962.378540039062 958.650512695312 960.424072265625 966.807373046875 973.279235839844 976.480529785156 977.610229492188 977.858215332031 983.130065917969 979.001647949219 980.145141601562 980.709594726562 982.019836425781 986.142395019531 983.704467773438 979.839782714844 979.365112304688 984.227783203125 991.379577636719 999.987487792969 998.10595703125 1000.54614257812 1000.69683837891 1005.77227783203 999.653503417969 997.861633300781 1002.22521972656 1006.96063232422 1015.27978515625 1013.11175537109 1015.06060791016 1007.79278564453 1014.74926757812 1010.38061523438 1018.91003417969 1033.43884277344 1027.93334960938 1033.76110839844 1034.54467773438 1038.30187988281 1046.81420898438 1047.48974609375 1041.86840820312 1050.44018554688 1059.19116210938 1053.19543457031 1053.4970703125 1056.00012207031 1053.19812011719 1048.79296875 1041.34521484375 1045.91491699219 1043.12976074219 1051.53796386719 1040.65063476562 1038.97229003906 1050.29357910156 1056.15588378906 1058.16162109375 1060.05236816406
953.864501953125 957.532165527344 959.651794433594 958.059509277344 961.707458496094 970.765747070312 971.446716308594 975.551818847656 973.049499511719 964.744812011719 967.721252441406 958.448425292969 965.363098144531 955.821655273438 971.066833496094 978.435974121094 980.432373046875 975.514099121094 978.260314941406 977.035827636719 972.457397460938 966.5712890625 966.509399414062 953.427612304688 943.037414550781 948.106140136719 943.413208007812 947.518615722656 948.287658691406 951.021423339844 954.77587890625 960.5283203125 951.072509765625 950.645874023438 949.5234375 946.804504394531 954.685485839844 959.100524902344 954.280395507812 947.621826171875 952.996215820312 959.7646484375 959.418334960938 967.123107910156 958.238708496094 950.607788085938 944.17138671875 937.914184570312 944.099365234375 951.713012695312 946.240661621094 947.728698730469 953.112854003906 951.482360839844 953.231018066406 957.401062011719 964.809204101562 967.155334472656 963.102111816406 965.596008300781 968.54248046875 961.7373046875 961.379272460938 963.55615234375 963.379028320312 967.895751953125 961.796081542969 968.168151855469 971.543518066406 970.598022460938 969.76806640625 980.171630859375 964.311706542969 970.304382324219 966.432495117188 966.24560546875 966.329406738281 961.174011230469 969.086791992188 966.147644042969 972.643432617188 978.245910644531 972.537475585938 969.403076171875 970.780517578125 973.1083984375 974.239379882812 974.572998046875 963.902404785156 969.805786132812 964.093994140625 965.473815917969 956.76171875 962.905395507812 965.8505859375 965.402587890625 976.410522460938 973.305847167969 971.635192871094 972.127807617188 978.368225097656 982.235595703125 977.625549316406 977.825805664062 985.268493652344 986.484985351562 992.38232421875 992.605773925781 992.542114257812 994.824829101562 993.895935058594 999.301818847656 1003.19909667969 1003.76751708984 1008.18853759766 1008.23132324219 1007.73046875 1013.85211181641 1007.70391845703 1012.69348144531 1006.84075927734 1002.45141601562 1016.64050292969 1008.30743408203 1016.41314697266 1032.11889648438 1024.46667480469 1027.91760253906 1032.07104492188 1031.44885253906 1028.63305664062 1042.87292480469 1047.81018066406 1048.63635253906 1052.73498535156 1051.89892578125 1044.830078125 1047.90502929688 1046.22961425781 1041.64086914062 1036.44592285156 1027.11779785156 1032.04443359375 1029.85412597656 1027.91174316406 1039.63647460938 1048.82312011719 1052.18798828125 1060.89965820312 1058.20251464844
953.155029296875 948.830383300781 945.826354980469 949.217163085938 961.820251464844 960.957580566406 965.987670898438 971.919921875 967.118713378906 962.668273925781 965.254760742188 956.281677246094 963.546142578125 957.705261230469 951.049987792969 969.011962890625 962.319519042969 970.087463378906 965.736694335938 975.20068359375 972.128356933594 958.506164550781 952.645446777344 949.523681640625 948.710632324219 946.614624023438 942.725830078125 942.977905273438 945.669067382812 940.704956054688 948.540771484375 949.468444824219 953.139526367188 954.059020996094 952.098754882812 948.695007324219 951.305847167969 952.61669921875 955.251403808594 961.252807617188 960.222290039062 947.160583496094 963.115295410156 965.41552734375 957.229675292969 948.30615234375 944.690734863281 941.401550292969 947.516479492188 960.580932617188 950.590637207031 943.015686035156 944.836669921875 953.69384765625 950.834167480469 959.570861816406 970.948181152344 971.86865234375 967.434143066406 965.78955078125 963.16015625 956.742858886719 955.637329101562 961.234252929688 959.217834472656 975.038208007812 967.567810058594 975.74267578125 970.712768554688 969.674438476562 969.850769042969 978.626342773438 971.250366210938 964.877624511719 967.051086425781 965.359558105469 973.097229003906 966.314208984375 967.901245117188 965.97705078125 974.295104980469 976.927124023438 978.360412597656 973.253479003906 968.271545410156 970.352111816406 970.691101074219 972.15771484375 970.477416992188 969.38330078125 967.257568359375 966.7021484375 965.800109863281 958.887878417969 968.349975585938 966.782287597656 968.945739746094 965.694946289062 965.793884277344 970.318786621094 970.855346679688 981.405822753906 985.299133300781 981.478881835938 982.898376464844 991.556884765625 997.238891601562 994.196166992188 1001.54730224609 998.467834472656 998.358337402344 1006.90051269531 1005.01000976562 1006.24731445312 1009.2685546875 1014.53302001953 1016.72534179688 1013.63775634766 1007.40484619141 1010.04913330078 1005.73205566406 1009.49536132812 1011.27813720703 1019.81823730469 1012.23425292969 1020.50854492188 1024.17468261719 1026.66943359375 1033.06567382812 1038.66528320312 1029.654296875 1036.99426269531 1041.90002441406 1048.52563476562 1045.49816894531 1047.03247070312 1044.63208007812 1055.47814941406 1038.77453613281 1042.04638671875 1037.5361328125 1026.90051269531 1034.83642578125 1031.53051757812 1029.89196777344 1030.94702148438 1049.84826660156 1051.49462890625 1048.4248046875 1049.43286132812
957.128173828125 953.936706542969 946.175415039062 943.491943359375 952.180908203125 955.617309570312 961.092651367188 967.041625976562 952.742004394531 960.511291503906 956.133483886719 956.91015625 950.124328613281 955.714599609375 951.248474121094 951.294982910156 961.833923339844 963.677673339844 965.533203125 963.96728515625 965.422790527344 959.718872070312 954.499206542969 952.198120117188 953.018981933594 952.008972167969 942.042236328125 943.020385742188 944.878540039062 940.984619140625 944.278930664062 940.791748046875 952.527770996094 952.261352539062 947.565795898438 944.650939941406 949.422302246094 942.524597167969 946.745544433594 956.76416015625 950.743103027344 944.634155273438 949.073547363281 962.241638183594 959.184020996094 957.377380371094 959.932678222656 950.581298828125 958.697631835938 959.250793457031 954.9775390625 944.936767578125 953.837829589844 951.980834960938 954.910583496094 963.722412109375 974.985290527344 969.930480957031 967.275451660156 969.662902832031 960.598205566406 963.314086914062 960.839477539062 958.725219726562 960.063049316406 958.50927734375 960.981750488281 966.886962890625 969.872131347656 971.516784667969 972.774963378906 971.9638671875 976.128540039062 967.706665039062 967.749938964844 970.535095214844 961.138977050781 965.885620117188 961.607971191406 966.345458984375 976.479614257812 978.139709472656 972.919006347656 969.694396972656 973.284301757812 975.276733398438 981.633972167969 977.656494140625 962.094360351562 972.871276855469 971.427551269531 962.583251953125 966.833618164062 965.834594726562 967.655395507812 967.367248535156 960.734375 960.033996582031 961.813293457031 969.093017578125 975.0400390625 973.623596191406 990.69970703125 984.390380859375 989.573364257812 987.855712890625 996.367736816406 999.550231933594 1006.03198242188 1004.48065185547 995.912963867188 994.908081054688 1006.88079833984 1009.05926513672 1019.73950195312 1016.44555664062 1021.31652832031 1018.56268310547 1010.21649169922 1013.47229003906 1012.31408691406 1015.35192871094 1017.95776367188 1012.61450195312 1009.10589599609 1023.21502685547 1024.361328125 1029.24877929688 1040.19189453125 1045.34350585938 1036.654296875 1037.11145019531 1046.47277832031 1045.62573242188 1041.9462890625 1044.46545410156 1044.28527832031 1044.26330566406 1050.44897460938 1040.1328125 1034.91247558594 1028.91174316406 1027.33239746094 1029.20739746094 1029.54418945312 1037.4169921875 1038.80944824219 1040.9716796875 1044.79260253906 1047.89685058594
961.745056152344 945.917602539062 948.83984375 950.775817871094 950.832885742188 956.701171875 954.995361328125 950.180725097656 946.284301757812 952.661743164062 955.443237304688 952.458740234375 946.606628417969 955.635314941406 949.658081054688 948.497436523438 953.892211914062 960.970336914062 955.481018066406 948.990234375 957.588623046875 953.944152832031 948.211669921875 948.773620605469 951.273559570312 953.137634277344 950.909423828125 945.369262695312 944.230590820312 939.030090332031 940.640563964844 937.106140136719 949.432250976562 943.676147460938 949.083740234375 951.264831542969 944.212646484375 949.297302246094 953.312744140625 948.74609375 942.925720214844 940.590026855469 946.128845214844 953.412170410156 959.828796386719 965.463623046875 966.699340820312 961.923278808594 965.165405273438 959.311096191406 961.314636230469 966.977905273438 962.314147949219 953.978576660156 963.270141601562 968.839416503906 968.010620117188 964.618103027344 960.716552734375 960.535400390625 953.760192871094 964.039672851562 965.21875 959.316284179688 960.20947265625 951.847717285156 955.082824707031 957.620422363281 969.364440917969 974.289794921875 978.450073242188 982.353942871094 981.237976074219 971.944519042969 962.972229003906 971.132263183594 976.803466796875 969.466247558594 970.375 971.227722167969 968.145874023438 976.273498535156 974.120666503906 977.956726074219 973.7900390625 969.308349609375 978.1611328125 982.938781738281 971.735656738281 966.180603027344 971.465881347656 954.334594726562 963.286804199219 963.476806640625 964.778686523438 965.353332519531 974.798583984375 959.144165039062 962.5732421875 968.296508789062 974.146667480469 978.346618652344 990.553039550781 986.583618164062 984.84228515625 983.851135253906 990.246643066406 1004.78387451172 1000.37915039062 1000.49633789062 995.319396972656 993.483825683594 1008.95544433594 1019.8056640625 1012.73712158203 1012.36614990234 1019.26239013672 1022.23742675781 1019.21697998047 1012.90594482422 1012.48126220703 1010.87585449219 1012.69281005859 1010.92907714844 1019.76818847656 1026.05712890625 1028.53527832031 1027.24230957031 1028.79223632812 1033.61706542969 1041.55334472656 1043.11047363281 1050.7958984375 1055.27270507812 1049.39282226562 1041.46105957031 1041.90881347656 1041.97839355469 1040.97644042969 1035.55517578125 1034.64379882812 1033.25671386719 1025.27685546875 1022.34906005859 1024.29223632812 1035.40319824219 1031.5234375 1024.28479003906 1032.166015625 1041.56713867188
963.489929199219 953.381591796875 949.495483398438 948.615112304688 952.143493652344 949.842651367188 946.5576171875 948.77392578125 954.020629882812 950.406005859375 949.848693847656 950.462585449219 938.206848144531 941.227172851562 945.150024414062 947.298034667969 948.213623046875 952.649780273438 948.645080566406 946.686950683594 943.010192871094 953.773742675781 946.976867675781 955.019653320312 948.842468261719 949.922485351562 959.361999511719 949.9462890625 938.611877441406 940.175231933594 942.794128417969 943.656311035156 946.346374511719 952.8173828125 950.868835449219 951.492492675781 950.50537109375 942.305236816406 945.824768066406 944.524658203125 953.066284179688 952.943908691406 953.40478515625 947.8154296875 959.94921875 961.081115722656 968.129455566406 973.253479003906 971.577941894531 968.3515625 975.678100585938 965.6494140625 965.878723144531 965.292541503906 965.729553222656 966.703430175781 968.091491699219 963.725646972656 957.782775878906 959.580810546875 955.445068359375 960.860656738281 954.885803222656 960.938232421875 967.269592285156 953.715881347656 951.389953613281 964.682006835938 959.775756835938 956.138000488281 969.828674316406 981.583740234375 967.589965820312 970.802185058594 965.021057128906 960.002990722656 960.787902832031 963.176635742188 964.510864257812 969.071044921875 975.909790039062 974.312805175781 980.071228027344 977.189086914062 973.8310546875 979.515014648438 985.171508789062 973.840393066406 983.245483398438 968.60302734375 965.637817382812 961.376525878906 967.0302734375 966.76220703125 974.318237304688 983.019165039062 974.479248046875 963.692687988281 962.115295410156 974.103881835938 981.701965332031 980.45849609375 986.289733886719 987.515869140625 989.098449707031 991.493041992188 995.016723632812 999.542358398438 1001.541015625 994.341735839844 997.690856933594 991.8466796875 1001.63458251953 1006.90832519531 1009.14233398438 1016.2822265625 1024.95715332031 1029.87780761719 1027.72680664062 1019.18658447266 1022.44689941406 1023.677734375 1020.11950683594 1024.74633789062 1018.70166015625 1020.40655517578 1026.80541992188 1025.23608398438 1029.48876953125 1038.095703125 1036.89660644531 1049.0595703125 1042.89453125 1054.16198730469 1051.25476074219 1039.58190917969 1035.25390625 1041.11950683594 1038.32861328125 1035.11328125 1034.23303222656 1024.92163085938 1025.92297363281 1015.42425537109 1014.08001708984 1020.71588134766 1018.22680664062 1019.92431640625 1021.63244628906 1031.93432617188
960.001953125 955.595275878906 957.232849121094 952.0400390625 944.62890625 955.627990722656 949.831787109375 949.931030273438 952.620361328125 951.176208496094 945.102661132812 946.810180664062 940.899658203125 934.212951660156 948.959777832031 947.801818847656 946.397155761719 953.4462890625 949.008239746094 947.447387695312 944.856018066406 950.255554199219 944.628479003906 948.665893554688 947.800598144531 945.349304199219 952.988403320312 949.532592773438 948.025573730469 938.242736816406 943.467834472656 944.850952148438 941.340759277344 945.530395507812 953.705932617188 954.505310058594 947.694152832031 952.696411132812 951.574401855469 950.011108398438 955.779602050781 958.802307128906 951.777709960938 947.09521484375 957.673461914062 959.024108886719 963.5595703125 969.137512207031 974.491394042969 969.624084472656 968.105346679688 969.459167480469 959.88916015625 965.458129882812 970.304138183594 961.340881347656 965.721496582031 961.351013183594 968.863403320312 960.531921386719 959.397033691406 954.682006835938 958.242980957031 957.503784179688 968.721618652344 960.003479003906 962.822448730469 967.409912109375 961.467895507812 958.896118164062 974.928588867188 980.156921386719 969.716552734375 964.583190917969 964.744323730469 970.4443359375 965.121398925781 968.728454589844 965.888916015625 966.443115234375 977.844421386719 979.77734375 984.889221191406 979.534606933594 980.984985351562 989.766357421875 979.281005859375 975.820739746094 975.423156738281 976.326477050781 972.298950195312 969.890075683594 968.361450195312 976.747985839844 978.552795410156 973.317138671875 980.206176757812 974.406127929688 975.347717285156 976.544982910156 987.289123535156 988.177734375 983.026794433594 996.844421386719 997.82421875 998.617492675781 1000.07476806641 1000.14636230469 993.9453125 986.211303710938 995.714660644531 996.098876953125 998.176208496094 1016.79998779297 1018.28833007812 1027.71899414062 1035.98400878906 1033.72521972656 1029.33666992188 1025.6083984375 1026.62841796875 1032.03271484375 1040.67858886719 1030.75939941406 1031.72021484375 1031.58312988281 1024.32153320312 1021.42858886719 1031.53601074219 1035.14770507812 1039.30407714844 1047.59350585938 1048.96862792969 1047.47009277344 1038.77819824219 1040.72021484375 1041.494140625 1043.42407226562 1034.15185546875 1039.16918945312 1029.75134277344 1022.22351074219 1011.79370117188 1013.40380859375 1019.33636474609 1019.99206542969 1016.00213623047 1018.30792236328 1023.1279296875 1031.67065429688
957.919128417969 950.820190429688 950.804077148438 944.718444824219 947.846313476562 949.773986816406 953.142028808594 944.496948242188 944.578918457031 938.45849609375 930.977233886719 938.547912597656 941.125305175781 943.473083496094 947.783508300781 937.79833984375 945.380310058594 944.742797851562 946.288330078125 947.500122070312 958.319946289062 954.643310546875 949.037292480469 943.849243164062 944.159423828125 944.581481933594 948.75146484375 951.269958496094 945.8681640625 944.360534667969 945.704040527344 943.048767089844 943.769104003906 947.061767578125 954.563415527344 942.604309082031 949.575439453125 956.368286132812 953.751159667969 950.775390625 965.574096679688 963.560363769531 954.184020996094 962.137268066406 961.391235351562 958.651733398438 973.39599609375 968.547119140625 971.941040039062 967.586669921875 970.249145507812 970.233825683594 963.150329589844 966.69091796875 968.215393066406 969.639099121094 967.818664550781 968.035583496094 973.548400878906 960.320007324219 964.3095703125 958.605529785156 954.3193359375 955.787353515625 956.423706054688 963.917846679688 967.239990234375 969.497497558594 975.716430664062 972.3720703125 973.485778808594 977.805786132812 978.824584960938 971.089416503906 971.834411621094 979.557678222656 979.678833007812 977.623901367188 967.034057617188 974.97265625 977.884826660156 981.468444824219 986.436340332031 981.338500976562 986.050903320312 979.123901367188 980.77685546875 981.682678222656 971.107604980469 974.292541503906 975.216491699219 972.458129882812 974.530639648438 974.035888671875 979.300354003906 981.3095703125 977.865905761719 975.87060546875 980.948120117188 986.511657714844 989.036010742188 993.828186035156 994.514709472656 991.812866210938 995.820983886719 995.647644042969 999.328796386719 1002.95788574219 1011.00640869141 998.99267578125 1005.16479492188 1006.20520019531 1001.78344726562 1011.18493652344 1019.64971923828 1022.96154785156 1026.21325683594 1031.00695800781 1041.09338378906 1036.62561035156 1036.68444824219 1035.82165527344 1035.43090820312 1032.56787109375 1041.68615722656 1042.35021972656 1033.95190429688 1029.61291503906 1030.62121582031 1038.83276367188 1046.62622070312 1043.49755859375 1044.7060546875 1039.05871582031 1034.39489746094 1036.76098632812 1037.74389648438 1033.45239257812 1033.88391113281 1035.65979003906 1027.75231933594 1023.73687744141 1008.61706542969 1016.55578613281 1012.74743652344 1023.70672607422 1023.05517578125 1009.96057128906 1014.89324951172 1027.30334472656
957.8369140625 956.249206542969 946.662963867188 942.566955566406 940.083129882812 933.3056640625 936.674743652344 943.269165039062 939.976379394531 935.09326171875 939.773986816406 942.514404296875 944.085632324219 944.56298828125 946.62451171875 952.863586425781 944.589721679688 946.142456054688 943.064453125 953.277526855469 964.024597167969 960.177673339844 945.648315429688 941.240234375 946.5498046875 955.756408691406 957.019287109375 949.771850585938 946.331726074219 944.612976074219 946.265075683594 942.016967773438 941.382873535156 946.820922851562 949.608215332031 941.088562011719 953.070068359375 957.614990234375 952.802917480469 954.550048828125 961.316528320312 968.364929199219 960.962646484375 964.442565917969 967.69677734375 968.91796875 980.572509765625 974.732604980469 971.191467285156 969.895751953125 963.841857910156 965.95458984375 969.562072753906 968.378051757812 966.808410644531 972.629577636719 975.050659179688 977.281982421875 973.609741210938 967.191772460938 969.789855957031 968.296630859375 968.134765625 961.860656738281 967.834533691406 961.907531738281 967.384765625 959.717346191406 973.850402832031 965.796508789062 968.454406738281 966.33203125 975.099792480469 975.02734375 979.463012695312 976.357238769531 978.344421386719 967.966796875 979.9560546875 975.939697265625 978.465270996094 986.347595214844 981.201599121094 985.51513671875 977.946594238281 974.062133789062 967.5537109375 970.342834472656 975.11474609375 986.669921875 980.378845214844 968.531494140625 978.999694824219 984.48828125 985.252807617188 986.822631835938 984.079467773438 982.501159667969 983.364990234375 990.352783203125 993.395629882812 996.081970214844 998.261352539062 996.041259765625 988.541931152344 995.400390625 994.686401367188 1009.20086669922 1010.84295654297 1002.53295898438 996.572387695312 1005.34838867188 1010.43267822266 1012.31121826172 1020.36352539062 1016.51782226562 1022.23059082031 1025.5888671875 1041.16809082031 1044.96179199219 1042.9169921875 1032.53125 1038.01147460938 1043.23083496094 1040.76379394531 1043.44189453125 1042.01525878906 1032.46374511719 1030.10241699219 1038.16101074219 1047.162109375 1042.23364257812 1036.73571777344 1032.83032226562 1035.92211914062 1035.17553710938 1029.29833984375 1036.02746582031 1028.826171875 1028.57739257812 1021.39379882812 1009.20544433594 1008.15301513672 1007.28356933594 1015.58404541016 1007.28802490234 1011.90222167969 1005.64227294922 1003.27014160156 1013.61071777344
946.412292480469 954.077026367188 943.607238769531 938.141052246094 935.954223632812 939.812622070312 934.471008300781 939.147888183594 937.569580078125 943.876953125 934.872985839844 942.785705566406 946.807250976562 946.561340332031 959.919677734375 955.799499511719 950.879943847656 954.134399414062 954.834289550781 957.052307128906 960.7236328125 962.250122070312 951.4482421875 947.310424804688 956.610595703125 959.678833007812 968.722229003906 961.531677246094 956.855407714844 947.3740234375 944.551879882812 952.293823242188 956.664978027344 954.3056640625 952.815002441406 946.448547363281 947.998229980469 949.469787597656 948.7900390625 953.873046875 962.583618164062 960.106506347656 964.143127441406 962.659545898438 961.260864257812 972.538879394531 978.9814453125 979.157287597656 974.961059570312 967.66845703125 966.556640625 975.063171386719 979.734069824219 973.779174804688 972.858642578125 977.375732421875 970.770385742188 967.541564941406 972.3125 973.464477539062 970.746948242188 975.700134277344 971.103210449219 975.1240234375 962.69970703125 966.995971679688 972.392150878906 975.617431640625 975.718139648438 964.830322265625 969.2841796875 971.531066894531 975.680297851562 979.735229492188 985.978332519531 982.470275878906 973.625061035156 967.606262207031 971.949768066406 976.775939941406 987.393310546875 982.908508300781 986.472595214844 992.034545898438 985.291564941406 974.307983398438 971.668090820312 975.034423828125 980.594177246094 984.476440429688 986.269165039062 971.9921875 980.177490234375 992.122314453125 993.170104980469 986.802185058594 989.590148925781 988.740844726562 998.609558105469 998.50634765625 999.899169921875 1002.89862060547 1003.27758789062 1003.83850097656 998.012939453125 998.685974121094 995.172180175781 1006.98175048828 1018.46148681641 1007.10339355469 1006.06115722656 1002.20080566406 1012.556640625 1020.14105224609 1019.21807861328 1010.60882568359 1017.64001464844 1013.80432128906 1032.82775878906 1036.57604980469 1041.78381347656 1040.61169433594 1039.15771484375 1033.56530761719 1039.87634277344 1042.41589355469 1031.74963378906 1023.90655517578 1032.64221191406 1040.42053222656 1036.82202148438 1035.04138183594 1026.8232421875 1029.77612304688 1030.27087402344 1031.58154296875 1030.82238769531 1028.49792480469 1033.61157226562 1024.56872558594 1012.65881347656 1014.59088134766 1014.91467285156 1015.70404052734 1018.47027587891 1008.20477294922 1017.94757080078 1005.28680419922 1003.02288818359 1008.89001464844
948.705993652344 946.956848144531 950.494384765625 946.467834472656 942.350341796875 945.923278808594 945.312805175781 944.981811523438 940.1728515625 944.73486328125 955.246459960938 960.073120117188 946.646850585938 954.169494628906 951.905456542969 954.074340820312 954.177062988281 961.616516113281 961.333923339844 961.771423339844 964.703735351562 965.295104980469 963.821044921875 952.101379394531 956.872131347656 961.498901367188 967.0185546875 966.08544921875 963.52587890625 948.977905273438 948.389953613281 954.022827148438 962.942810058594 954.446594238281 956.238220214844 950.880981445312 953.043579101562 946.851379394531 959.577514648438 962.399658203125 960.107971191406 968.712707519531 977.823181152344 962.524169921875 968.507873535156 975.304260253906 979.901977539062 980.339050292969 973.4130859375 973.477294921875 981.47021484375 979.234130859375 991.997253417969 973.42236328125 976.756530761719 980.345458984375 970.9375 974.229858398438 968.430358886719 975.867919921875 969.175170898438 973.167541503906 968.854553222656 974.019409179688 968.409790039062 974.687133789062 974.192749023438 973.73681640625 975.073425292969 966.5908203125 968.284240722656 978.205871582031 982.539245605469 977.058898925781 984.271606445312 980.387878417969 982.212585449219 978.522705078125 979.657043457031 977.890441894531 975.26416015625 979.941833496094 985.672241210938 983.538696289062 984.90380859375 986.657348632812 987.777709960938 984.52783203125 981.2666015625 982.485107421875 978.219970703125 983.338623046875 987.433410644531 986.907409667969 989.66650390625 984.373168945312 988.784606933594 996.921752929688 1000.56903076172 998.035766601562 1006.53997802734 998.273498535156 1005.65826416016 1003.15374755859 1000.05084228516 1002.97064208984 1002.68371582031 1006.17462158203 1011.39416503906 1013.32818603516 1008.77746582031 1014.37335205078 1021.16467285156 1019.63812255859 1017.99273681641 1023.18054199219 1020.52758789062 1028.95495605469 1035.04736328125 1036.28161621094 1040.04724121094 1038.5078125 1036.56750488281 1038.55444335938 1035.52209472656 1035.82299804688 1027.98901367188 1024.51306152344 1029.95251464844 1028.47509765625 1025.80908203125 1026.54736328125 1024.27355957031 1026.36633300781 1026.5146484375 1027.05114746094 1031.11547851562 1021.11059570312 1016.75555419922 1022.72338867188 1008.74749755859 1007.33447265625 1020.27069091797 1020.74560546875 1015.69879150391 1007.63360595703 1000.31689453125 996.339416503906 998.874572753906 1001.77770996094
953.998046875 945.426330566406 950.121215820312 942.283325195312 941.09619140625 943.198669433594 943.414245605469 947.332458496094 941.348266601562 945.5615234375 952.412963867188 961.817443847656 958.460571289062 952.383605957031 948.220642089844 963.219604492188 962.037353515625 970.18408203125 971.398681640625 965.877258300781 969.773742675781 969.536376953125 970.43212890625 966.0205078125 960.876647949219 963.454650878906 967.284423828125 964.659973144531 954.5498046875 957.451049804688 958.049194335938 954.317443847656 957.627685546875 958.687805175781 960.534423828125 952.713806152344 956.980712890625 961.131164550781 965.879028320312 969.846252441406 982.640197753906 979.071411132812 979.586608886719 977.039733886719 978.481079101562 981.415954589844 988.425170898438 991.3515625 984.225036621094 978.196105957031 989.574951171875 990.302856445312 987.824340820312 984.5 983.690673828125 979.784362792969 979.520812988281 976.849365234375 975.927856445312 971.931762695312 971.480529785156 970.151672363281 967.952087402344 970.934753417969 973.172790527344 976.004150390625 970.060852050781 974.420715332031 974.967407226562 971.039672851562 974.042297363281 978.773254394531 984.167297363281 987.384094238281 984.371826171875 981.725524902344 979.828857421875 983.516723632812 983.752258300781 978.417236328125 968.94970703125 976.682189941406 985.368774414062 987.8486328125 990.356628417969 985.173583984375 984.789428710938 990.854248046875 980.018920898438 983.847229003906 972.060180664062 977.728332519531 980.342529296875 978.361572265625 985.760131835938 988.260986328125 991.364196777344 998.578735351562 998.28662109375 999.9287109375 1004.83312988281 1005.66052246094 1011.13110351562 1001.61651611328 1005.42565917969 1006.94403076172 1010.62512207031 1012.97283935547 1016.4482421875 1020.47009277344 1023.65173339844 1023.19921875 1017.83239746094 1020.26953125 1022.68676757812 1035.94152832031 1033.53601074219 1035.5654296875 1045.98254394531 1039.8076171875 1047.47155761719 1049.9921875 1050.18640136719 1036.28454589844 1044.32080078125 1035.80920410156 1020.87512207031 1017.01672363281 1022.63507080078 1021.31573486328 1023.82757568359 1020.80224609375 1022.2978515625 1027.82580566406 1023.892578125 1026.23596191406 1019.26641845703 1017.49560546875 1007.94970703125 1002.92230224609 1000.33074951172 1010.60211181641 1019.69616699219 1019.10668945312 1001.81982421875 998.230163574219 989.879638671875 995.236206054688 1000.88244628906 1006.35174560547
952.366821289062 947.4453125 942.059814453125 943.608825683594 941.094787597656 950.138671875 943.590759277344 933.257507324219 936.157531738281 951.612915039062 954.986328125 958.464904785156 965.459411621094 965.249938964844 950.836486816406 963.572143554688 961.716003417969 968.144958496094 972.105163574219 968.129516601562 964.438415527344 969.921691894531 977.906066894531 976.126586914062 965.464233398438 972.603271484375 978.351318359375 973.6455078125 966.369812011719 969.801147460938 966.738830566406 962.087829589844 961.946899414062 957.21142578125 964.522705078125 960.355041503906 960.200622558594 969.779724121094 974.120483398438 976.81884765625 992.197509765625 993.050170898438 989.608276367188 984.675476074219 984.925598144531 978.774719238281 987.548278808594 990.79541015625 981.68896484375 987.074340820312 991.919067382812 980.827331542969 982.066223144531 993.8642578125 985.022155761719 987.02783203125 981.335754394531 977.106811523438 976.326538085938 972.009887695312 968.873901367188 974.808349609375 969.624450683594 967.158508300781 968.902038574219 974.10693359375 979.872192382812 980.211791992188 971.986938476562 972.76708984375 978.374206542969 983.911987304688 988.285034179688 983.982299804688 985.007263183594 980.500427246094 984.086608886719 983.9560546875 988.322326660156 982.486877441406 974.385437011719 975.615600585938 990.018798828125 992.779052734375 985.226318359375 986.032653808594 981.330810546875 986.168273925781 985.502807617188 984.119750976562 977.363403320312 978.137329101562 970.05908203125 968.0654296875 976.114013671875 977.089050292969 996.801452636719 993.469909667969 997.156799316406 995.106201171875 995.108703613281 1001.84271240234 1013.36773681641 1007.85083007812 1011.62420654297 1019.66778564453 1014.90234375 1012.62451171875 1014.48199462891 1016.71032714844 1026.46960449219 1026.18469238281 1036.86328125 1033.84680175781 1031.8173828125 1031.10595703125 1030.92602539062 1041.01831054688 1042.48278808594 1037.58447265625 1045.05737304688 1039.80615234375 1047.77978515625 1037.95556640625 1037.90344238281 1027.74084472656 1022.20141601562 1016.09393310547 1007.6845703125 1008.85406494141 1011.74072265625 1013.79174804688 1013.86163330078 1023.76263427734 1022.23706054688 1024.46020507812 1021.77825927734 1012.81982421875 1008.44653320312 1003.47955322266 1002.79809570312 1005.91082763672 1007.96716308594 1005.94744873047 1009.40216064453 993.00341796875 985.163696289062 980.334106445312 993.651000976562 1003.93054199219
941.041564941406 938.581237792969 940.151794433594 947.419555664062 943.933471679688 945.062927246094 940.454345703125 937.615783691406 943.116027832031 948.091369628906 959.096008300781 965.422912597656 967.217468261719 972.956909179688 971.928100585938 969.872741699219 963.450744628906 970.532897949219 975.233215332031 971.978698730469 969.328491210938 972.202514648438 982.079528808594 981.219055175781 973.240295410156 977.932739257812 981.229919433594 976.125610351562 975.152465820312 977.234191894531 968.217163085938 966.162780761719 969.907287597656 965.369934082031 963.596313476562 975.241821289062 970.172607421875 971.823059082031 974.577026367188 982.40625 993.506225585938 994.574157714844 997.198547363281 992.292419433594 988.5556640625 986.466796875 991.925476074219 1005.29431152344 992.422607421875 995.351196289062 992.202941894531 983.829040527344 985.57666015625 983.912719726562 987.168884277344 978.707885742188 969.677856445312 974.999389648438 980.584411621094 980.41943359375 978.003295898438 978.2197265625 971.534729003906 967.333435058594 969.1728515625 980.118347167969 977.72021484375 977.783935546875 978.485168457031 982.747253417969 974.972961425781 978.326721191406 989.641906738281 978.324768066406 978.532958984375 986.068542480469 986.628479003906 995.195861816406 985.944091796875 980.869079589844 985.912414550781 990.462646484375 989.486328125 992.1689453125 989.312438964844 987.651306152344 985.963439941406 981.73974609375 979.525024414062 988.158386230469 982.650024414062 976.950866699219 977.560791015625 978.004760742188 985.837646484375 985.843139648438 997.093688964844 995.494934082031 997.198913574219 998.743408203125 1001.55944824219 1006.88757324219 1008.5302734375 1014.68212890625 1010.74877929688 1019.59014892578 1024.15905761719 1012.36804199219 1016.40979003906 1014.78839111328 1026.1669921875 1025.83166503906 1037.46057128906 1027.25622558594 1036.05017089844 1034.85180664062 1025.42395019531 1034.72668457031 1035.76037597656 1036.69116210938 1037.27709960938 1036.42004394531 1031.99523925781 1036.21020507812 1034.6044921875 1029.17614746094 1021.77655029297 1010.53039550781 1008.98846435547 1002.83148193359 1006.50415039062 1011.16424560547 1013.44146728516 1014.61566162109 1025.88452148438 1016.84924316406 1016.828125 1015.96069335938 1004.328125 999.05078125 998.418579101562 999.223754882812 998.435913085938 1003.97467041016 1007.86962890625 996.703063964844 993.759338378906 989.846740722656 989.516479492188 1010.30584716797
943.753601074219 941.433166503906 944.873352050781 946.254943847656 943.321960449219 935.708068847656 941.937561035156 934.911926269531 947.748229980469 947.072570800781 951.278198242188 951.081481933594 970.326416015625 974.89794921875 975.828125 972.301940917969 975.065612792969 973.22265625 970.558837890625 972.288024902344 968.945556640625 975.978393554688 980.077941894531 981.823059082031 982.244384765625 975.05224609375 975.440246582031 971.892272949219 965.27392578125 967.289001464844 970.650695800781 976.195190429688 969.975708007812 976.76318359375 975.211853027344 973.746765136719 965.62646484375 960.518371582031 958.957336425781 978.519226074219 985.409301757812 991.438293457031 996.454528808594 997.862243652344 999.338562011719 996.47509765625 994.809692382812 998.619445800781 1006.85174560547 1005.66326904297 998.733276367188 990.2021484375 989.392395019531 989.795837402344 989.269348144531 977.731811523438 966.447204589844 976.212097167969 983.414123535156 977.286010742188 976.822021484375 977.267761230469 968.125183105469 959.306945800781 973.982360839844 976.367797851562 979.818298339844 983.418212890625 978.836242675781 981.347412109375 972.856750488281 978.388366699219 992.8154296875 993.270324707031 990.461364746094 996.543579101562 986.081665039062 993.040954589844 991.578552246094 988.353515625 991.746643066406 990.119689941406 992.5859375 988.222595214844 990.109619140625 988.015319824219 989.418701171875 983.251281738281 984.468627929688 991.618713378906 983.785705566406 982.645263671875 972.130798339844 985.73486328125 992.695678710938 991.355712890625 992.773864746094 998.5244140625 990.299255371094 989.50048828125 990.971069335938 1003.1337890625 1007.51788330078 1018.28308105469 1017.70617675781 1019.09838867188 1017.7724609375 1008.73388671875 1020.54620361328 1023.80291748047 1019.97412109375 1030.80346679688 1029.16247558594 1035.36767578125 1030.86975097656 1030.26708984375 1029.09936523438 1025.48950195312 1040.22595214844 1042.30688476562 1042.98803710938 1021.42694091797 1026.81494140625 1033.70336914062 1028.80847167969 1029.93188476562 1031.51318359375 1011.92132568359 1007.94525146484 1003.90905761719 1007.48150634766 1003.41198730469 1012.83795166016 1018.96276855469 1019.87176513672 1019.99011230469 1003.0146484375 1006.54974365234 1003.29577636719 994.143005371094 993.866638183594 1000.70080566406 989.280456542969 1000.46783447266 1000.04516601562 1001.36889648438 997.2275390625 995.712463378906 992.505615234375 997.24755859375
942.731018066406 938.061157226562 939.342407226562 933.435668945312 942.268615722656 931.990295410156 940.747253417969 934.346557617188 943.560180664062 954.385620117188 953.855590820312 963.49560546875 970.052978515625 981.880065917969 970.09423828125 978.933349609375 978.791076660156 977.39599609375 969.649291992188 971.901428222656 976.363586425781 980.240539550781 976.9013671875 985.537170410156 981.5341796875 978.897338867188 975.135620117188 966.218933105469 965.057006835938 966.807739257812 975.786315917969 978.579406738281 980.307922363281 972.968200683594 973.848693847656 975.349365234375 974.331726074219 970.568237304688 975.887634277344 983.864501953125 998.20361328125 994.090698242188 1005.92956542969 1001.21875 1004.95825195312 1011.57263183594 1004.57995605469 1010.87866210938 1005.701171875 1005.97912597656 1002.24670410156 989.489807128906 987.228942871094 987.0380859375 985.293823242188 980.15185546875 977.934204101562 967.544189453125 974.691711425781 972.934875488281 978.093139648438 971.788452148438 963.890258789062 956.787902832031 973.407043457031 978.988525390625 980.364318847656 974.020812988281 977.331909179688 981.374572753906 970.478332519531 978.475036621094 989.854187011719 992.03466796875 998.232727050781 998.531616210938 999.508911132812 995.843505859375 985.262573242188 989.515686035156 989.391418457031 985.935302734375 989.959594726562 992.929260253906 989.061767578125 985.795471191406 992.347045898438 996.096923828125 981.939453125 981.348449707031 985.696716308594 983.271118164062 984.944152832031 984.86572265625 990.603149414062 988.459411621094 999.041870117188 994.378051757812 990.857299804688 995.323181152344 1005.33227539062 997.989990234375 1011.32165527344 1012.18713378906 1010.42791748047 1021.03729248047 1019.82635498047 1020.36560058594 1018.77087402344 1010.30224609375 1012.23376464844 1016.31213378906 1022.45208740234 1029.96667480469 1021.85552978516 1030.08837890625 1026.35754394531 1018.92199707031 1020.20172119141 1028.55480957031 1034.51293945312 1030.16552734375 1030.65100097656 1029.37707519531 1030.54870605469 1025.95251464844 1016.56573486328 1011.68627929688 1013.14013671875 1003.59222412109 1000.32873535156 1009.18737792969 1001.65252685547 1008.09606933594 1008.048828125 1013.13940429688 1004.71142578125 1004.67431640625 996.738098144531 1001.51226806641 991.944641113281 996.367431640625 989.585144042969 991.0771484375 988.163818359375 992.551879882812 988.906860351562 998.957458496094 1000.44714355469 1012.87072753906
937.505737304688 936.479858398438 934.711486816406 939.11279296875 932.716125488281 941.269653320312 934.357727050781 944.247253417969 952.522583007812 959.278015136719 964.279174804688 962.199890136719 971.887084960938 977.428405761719 977.452209472656 979.265686035156 980.757202148438 973.54296875 965.539123535156 973.740234375 980.062744140625 984.554870605469 979.669799804688 982.388305664062 987.548217773438 987.655334472656 977.636108398438 973.796875 970.417236328125 969.36865234375 984.474914550781 980.337158203125 976.102844238281 969.079467773438 975.012390136719 988.772644042969 978.457824707031 982.674926757812 991.516540527344 988.97802734375 986.019653320312 990.31396484375 1005.0537109375 999.764770507812 1009.73205566406 1013.72235107422 1012.43237304688 1013.77349853516 1002.03491210938 1001.53247070312 991.585571289062 998.496948242188 991.174194335938 986.516845703125 981.915283203125 974.035827636719 969.391357421875 977.590942382812 977.943969726562 973.10205078125 965.9375 967.274536132812 965.74609375 968.045837402344 964.584716796875 970.236999511719 973.990600585938 977.322875976562 977.86572265625 980.57080078125 978.722045898438 979.261413574219 981.133605957031 983.383178710938 997.952087402344 998.7021484375 997.352478027344 998.845031738281 995.252197265625 992.372314453125 996.029479980469 992.735717773438 994.074340820312 997.076232910156 1002.04327392578 1001.61029052734 997.811950683594 999.565490722656 990.981811523438 990.717651367188 980.652160644531 992.104370117188 976.943786621094 986.552062988281 990.954711914062 987.570678710938 999.480041503906 1003.54516601562 1002.8017578125 1004.34899902344 1007.48547363281 1001.86950683594 1008.03588867188 1009.38665771484 1012.34399414062 1022.48931884766 1022.21704101562 1018.80694580078 1022.34185791016 1017.20471191406 1010.310546875 1025.00500488281 1029.25231933594 1036.46960449219 1024.04162597656 1025.36987304688 1023.26226806641 1014.06823730469 1015.68121337891 1015.48028564453 1028.29809570312 1035.12951660156 1033.67492675781 1029.08630371094 1033.04614257812 1018.83905029297 1020.73101806641 1013.33514404297 1003.69201660156 1006.31170654297 1001.53619384766 1001.54077148438 1003.54644775391 1005.25811767578 1007.10314941406 1015.08990478516 1015.14691162109 1006.15673828125 994.317810058594 999.932922363281 1000.05560302734 996.112548828125 979.796569824219 985.531372070312 982.140014648438 985.941955566406 983.470520019531 988.634155273438 999.982543945312 1004.83227539062
946.563110351562 940.239685058594 937.530090332031 937.081665039062 937.686889648438 934.266235351562 936.696166992188 945.061767578125 949.939697265625 953.315612792969 958.848022460938 954.378051757812 965.676574707031 968.548889160156 977.89111328125 976.018737792969 980.343505859375 981.653686523438 976.072998046875 969.8017578125 981.753051757812 979.599548339844 976.321166992188 993.366516113281 992.901000976562 992.864074707031 983.526184082031 981.648742675781 974.596313476562 975.655700683594 988.976806640625 982.56005859375 982.145141601562 963.244140625 973.768371582031 985.723266601562 985.305419921875 990.767578125 988.290283203125 990.193298339844 994.435302734375 995.563537597656 1009.525390625 1005.72845458984 1009.27917480469 1016.07525634766 1016.85412597656 1012.86920166016 1013.85217285156 1000.27569580078 995.729125976562 997.99853515625 994.848449707031 985.873229980469 971.295166015625 972.442443847656 976.249938964844 980.24609375 973.211059570312 974.634216308594 968.115051269531 974.024841308594 980.765563964844 981.646667480469 968.621765136719 972.327453613281 976.953430175781 978.548645019531 982.794616699219 987.199829101562 988.650207519531 981.337646484375 983.154602050781 988.726928710938 995.156005859375 1000.37890625 994.910705566406 994.804016113281 1003.05456542969 995.620788574219 1000.61846923828 1008.49645996094 1000.01202392578 1000.66162109375 1001.44366455078 1002.82025146484 1003.06365966797 1000.72436523438 998.896057128906 984.857666015625 990.659240722656 992.85693359375 991.611083984375 984.901550292969 991.762573242188 983.249572753906 990.457763671875 1000.91967773438 1000.33972167969 1006.91931152344 1010.07513427734 1005.35998535156 1015.22229003906 1010.92938232422 1011.71234130859 1020.61541748047 1020.42034912109 1029.3642578125 1030.92749023438 1026.87133789062 1018.76782226562 1021.63470458984 1029.19299316406 1025.74768066406 1024.2490234375 1017.02563476562 1018.73529052734 1019.66906738281 1010.87329101562 1011.74981689453 1019.34985351562 1023.65539550781 1027.62475585938 1030.32897949219 1028.3720703125 1020.87286376953 1018.42358398438 1017.10223388672 1000.94171142578 1005.04638671875 1005.42767333984 1009.23492431641 1009.10687255859 1008.28814697266 1019.93548583984 1018.75476074219 1014.68890380859 999.330139160156 997.877380371094 991.922241210938 994.654663085938 995.769958496094 980.968383789062 977.744567871094 974.570434570312 982.598937988281 984.459289550781 988.735656738281 996.2314453125 1002.23028564453
934.806091308594 933.638793945312 928.466613769531 935.361083984375 938.738098144531 938.956420898438 948.11669921875 946.841430664062 947.546813964844 949.406066894531 957.170227050781 959.390014648438 966.000732421875 974.875549316406 972.6318359375 981.848754882812 981.455932617188 979.572204589844 981.26513671875 981.099487304688 987.203186035156 989.087463378906 993.713256835938 988.415893554688 994.994323730469 994.078674316406 982.190307617188 980.457824707031 984.874877929688 976.120971679688 974.585876464844 983.791076660156 977.635009765625 975.665588378906 978.580200195312 986.310913085938 988.823303222656 997.274230957031 993.101623535156 995.735412597656 991.458190917969 994.242553710938 1001.74768066406 1008.33721923828 1007.51000976562 1009.61212158203 1016.14685058594 1017.60833740234 1020.34381103516 1015.16156005859 1006.49859619141 1003.97381591797 991.627075195312 987.840026855469 982.873779296875 979.623291015625 974.799987792969 978.98388671875 978.435363769531 977.755920410156 978.898254394531 980.829467773438 973.788879394531 972.033142089844 974.933044433594 980.432556152344 980.355834960938 988.60302734375 979.8955078125 991.178100585938 993.509216308594 984.569580078125 990.422424316406 990.538391113281 995.401000976562 999.945251464844 1001.45617675781 998.059814453125 996.697631835938 994.458801269531 1007.42852783203 1003.54083251953 1001.25262451172 1002.41040039062 998.664367675781 1005.15753173828 1002.16546630859 1008.28668212891 1001.28662109375 991.928771972656 998.196655273438 998.340515136719 993.771118164062 985.816772460938 988.136535644531 988.548278808594 1003.32788085938 1000.98748779297 1006.05438232422 1000.53143310547 1005.49578857422 1008.05364990234 1009.96807861328 1008.21319580078 1003.67340087891 1017.95739746094 1027.6337890625 1034.98413085938 1036.11865234375 1026.91491699219 1026.77844238281 1025.10229492188 1025.84399414062 1028.9794921875 1025.54272460938 1015.55218505859 1015.67517089844 1017.62426757812 1020.06915283203 1018.18359375 1015.55572509766 1019.65692138672 1026.67993164062 1029.28540039062 1024.79846191406 1025.20788574219 1026.53503417969 1005.10339355469 1001.15447998047 1003.53143310547 1014.94293212891 1026.26989746094 1028.09387207031 1023.36022949219 1024.04748535156 1017.85723876953 1002.71759033203 997.735717773438 992.714233398438 984.300903320312 983.929504394531 983.722106933594 986.042175292969 975.7275390625 978.471435546875 992.4873046875 979.085998535156 982.88134765625 999.861755371094 1010.548828125
938.077514648438 931.915893554688 928.344299316406 933.085327148438 934.645141601562 934.686706542969 944.246459960938 947.6484375 950.218933105469 953.778625488281 965.6416015625 971.678161621094 977.700317382812 977.320190429688 978.412902832031 982.489379882812 980.471740722656 988.719604492188 981.920959472656 991.064880371094 988.911926269531 988.330810546875 989.591125488281 998.092407226562 999.805480957031 997.816223144531 993.519775390625 979.651000976562 985.114013671875 979.40478515625 982.12255859375 979.699401855469 975.969482421875 983.156066894531 992.406066894531 992.791320800781 989.004760742188 1001.58990478516 996.631774902344 993.97412109375 992.800903320312 993.774291992188 996.051879882812 1006.84161376953 1013.24725341797 1015.21789550781 1024.0400390625 1029.65026855469 1028.55310058594 1021.61853027344 1008.71441650391 1003.12280273438 1002.29193115234 998.85009765625 989.779968261719 982.348449707031 972.750122070312 975.046813964844 975.001647949219 982.776306152344 985.028198242188 979.272644042969 965.868774414062 973.737243652344 972.156982421875 973.951354980469 980.3857421875 980.8564453125 980.885498046875 987.661315917969 987.502197265625 994.260681152344 997.423034667969 1001.0361328125 997.600524902344 1002.02301025391 1003.79937744141 1000.1171875 992.158813476562 997.357116699219 1000.62237548828 1004.76971435547 1001.50518798828 997.912109375 999.241943359375 998.194641113281 1001.17504882812 993.295104980469 998.2294921875 988.84033203125 994.375793457031 1001.57452392578 993.034606933594 993.116577148438 995.460388183594 996.860900878906 1004.95404052734 1003.69976806641 1003.86041259766 1011.30285644531 1009.33587646484 1005.07189941406 1012.64392089844 1017.0556640625 1014.79974365234 1021.02819824219 1026.13671875 1041.48168945312 1037.57458496094 1026.23791503906 1018.80993652344 1027.30090332031 1031.38500976562 1032.59289550781 1029.31408691406 1021.77923583984 1020.34301757812 1019.26019287109 1016.16253662109 1016.05554199219 1014.04412841797 1019.44738769531 1019.89599609375 1024.95910644531 1019.48675537109 1022.15692138672 1017.58251953125 1014.64501953125 1001.17425537109 1007.71954345703 1011.17913818359 1018.24035644531 1028.76477050781 1023.63922119141 1021.64398193359 1010.85504150391 1002.50842285156 992.008361816406 985.523498535156 982.673706054688 981.812438964844 976.221435546875 976.125671386719 976.71044921875 978.863952636719 976.088073730469 981.176635742188 984.208129882812 1002.58123779297 1016.87060546875
940.517150878906 936.167602539062 941.9248046875 943.216735839844 940.181823730469 935.641723632812 932.412170410156 938.782470703125 951.832275390625 951.79638671875 962.329223632812 969.789001464844 975.527526855469 972.300109863281 972.354797363281 977.406982421875 982.166137695312 980.635986328125 977.145874023438 985.328918457031 989.612365722656 975.804382324219 983.570983886719 988.790222167969 1000.71496582031 1000.76361083984 990.762145996094 992.056762695312 987.9052734375 988.159973144531 978.074523925781 984.429077148438 988.052917480469 983.076904296875 988.1083984375 995.773864746094 986.702026367188 990.782775878906 997.004333496094 995.718139648438 994.107604980469 995.570434570312 998.339599609375 1000.35260009766 1012.04248046875 1016.14624023438 1022.74737548828 1026.22924804688 1030.86511230469 1025.08850097656 1016.53637695312 1014.58892822266 1009.31219482422 992.065246582031 989.342956542969 984.381164550781 979.71923828125 971.960266113281 981.028381347656 985.195251464844 984.270568847656 976.26513671875 970.078430175781 968.820983886719 958.715881347656 972.38134765625 978.91064453125 977.692993164062 977.296569824219 981.944030761719 985.709045410156 987.515930175781 993.036254882812 988.031005859375 991.890869140625 998.0771484375 996.639221191406 999.726928710938 992.953186035156 1000.05804443359 998.859680175781 1009.74914550781 998.283813476562 1002.33868408203 1001.36315917969 998.212829589844 994.9716796875 993.313720703125 998.117980957031 998.9296875 1005.25305175781 1007.12512207031 1001.05334472656 987.474853515625 1002.79028320312 1005.37573242188 1005.203125 1000.23504638672 1001.50836181641 1008.37213134766 1017.84069824219 1002.541015625 1005.22326660156 1022.76037597656 1020.03509521484 1026.05615234375 1023.24438476562 1025.40393066406 1025.17077636719 1026.41796875 1030.41174316406 1035.73876953125 1039.45324707031 1030.0517578125 1034.46691894531 1029.75512695312 1024.92431640625 1024.21752929688 1029.11242675781 1017.10162353516 1013.06713867188 1014.59912109375 1017.25103759766 1014.29327392578 1009.27935791016 1009.17974853516 1010.19598388672 1009.30700683594 1010.33526611328 1009.71423339844 1009.38336181641 1013.96063232422 1013.35333251953 1015.91802978516 1010.51989746094 1005.82507324219 998.359130859375 996.331787109375 992.314575195312 983.685363769531 983.2060546875 980.302368164062 986.249267578125 977.571105957031 972.156311035156 974.151062011719 979.1279296875 986.642578125 995.626953125 1004.84014892578
939.903991699219 942.801635742188 949.5625 946.734985351562 941.916931152344 941.853637695312 940.252624511719 942.005065917969 943.858459472656 952.631469726562 966.074096679688 968.791015625 978.949157714844 977.868896484375 976.55517578125 968.570983886719 972.285095214844 982.564575195312 976.705078125 983.190368652344 984.165222167969 980.447875976562 985.507934570312 989.810485839844 995.030517578125 989.747680664062 989.378479003906 989.274719238281 984.614562988281 985.273620605469 983.843444824219 985.808959960938 979.590515136719 981.410705566406 983.374450683594 984.823120117188 990.108825683594 990.487121582031 1001.05200195312 1007.23248291016 1001.80352783203 1002.91552734375 997.857116699219 1003.35693359375 1010.31225585938 1011.03100585938 1021.16345214844 1023.55895996094 1023.08758544922 1021.75933837891 1009.02557373047 1012.95556640625 1006.38244628906 995.944091796875 992.668029785156 995.449462890625 985.708679199219 983.870727539062 984.327270507812 982.526611328125 977.462280273438 977.450439453125 976.556213378906 976.373229980469 970.85546875 966.541198730469 971.532958984375 978.677734375 987.828918457031 981.747497558594 982.570861816406 986.425170898438 984.44921875 982.571105957031 994.323791503906 996.671264648438 994.580993652344 983.379516601562 983.291442871094 998.9677734375 1011.39135742188 1010.67706298828 1003.62829589844 1002.79113769531 996.224670410156 1007.61975097656 1003.35473632812 997.198364257812 997.419189453125 995.821838378906 1007.01458740234 1009.05603027344 1003.19213867188 985.455322265625 995.669494628906 1008.37280273438 1002.44964599609 1001.91888427734 997.928039550781 996.045043945312 1013.05725097656 1013.01672363281 1009.20465087891 1016.7490234375 1023.23876953125 1029.08129882812 1019.09265136719 1023.6689453125 1031.34985351562 1030.07177734375 1031.33837890625 1032.65209960938 1045.65478515625 1035.705078125 1027.81811523438 1029.93188476562 1021.69897460938 1023.98443603516 1026.26184082031 1014.78503417969 1002.607421875 1008.48284912109 1002.59545898438 1007.68609619141 1001.38330078125 998.480102539062 1010.24456787109 1003.16815185547 999.970642089844 995.365600585938 1009.17608642578 1009.08538818359 1006.67254638672 999.964172363281 1000.16333007812 1003.18621826172 997.686401367188 988.186889648438 991.151794433594 986.499755859375 977.485778808594 981.790588378906 979.79150390625 978.967956542969 973.510864257812 972.999206542969 970.049377441406 980.383605957031 987.767028808594 1001.20404052734
954.653686523438 945.959655761719 954.041381835938 950.725036621094 946.122680664062 940.412719726562 940.01318359375 951.785278320312 950.847839355469 960.150390625 963.973449707031 967.599487304688 978.591064453125 977.901245117188 978.830017089844 977.302917480469 975.531860351562 973.394470214844 975.101135253906 977.358459472656 979.635986328125 977.044921875 977.750183105469 989.378356933594 983.919067382812 984.182556152344 979.576171875 983.206298828125 979.605285644531 975.63330078125 973.59130859375 974.837707519531 979.414733886719 983.537780761719 986.300476074219 982.725891113281 984.385498046875 994.360107421875 1001.88366699219 995.361633300781 1001.60559082031 990.470581054688 994.928771972656 1004.50909423828 1006.77429199219 1003.80065917969 1019.67730712891 1023.61444091797 1030.16906738281 1029.53149414062 1014.73522949219 1012.82873535156 1011.21820068359 1003.58874511719 990.80810546875 985.610229492188 992.832458496094 990.816772460938 989.832946777344 979.095153808594 975.095092773438 969.251159667969 975.76416015625 974.783020019531 974.443725585938 977.7841796875 974.799133300781 979.644897460938 988.821044921875 978.925109863281 983.207092285156 981.889831542969 986.163818359375 981.666687011719 982.451965332031 988.903442382812 987.316955566406 986.478942871094 984.773559570312 999.740173339844 1007.1630859375 1007.04986572266 1006.14910888672 1004.53918457031 997.102966308594 1007.58233642578 999.149658203125 1000.69494628906 1002.48254394531 990.977600097656 996.087951660156 992.237609863281 1002.57891845703 993.515197753906 994.779296875 1000.55914306641 999.145629882812 991.453857421875 995.633117675781 995.286437988281 1006.78216552734 1012.60198974609 1013.38830566406 1019.32623291016 1019.42749023438 1029.41345214844 1019.94970703125 1013.72705078125 1031.11401367188 1033.45983886719 1035.92810058594 1037.80505371094 1047.24536132812 1038.88354492188 1027.26684570312 1028.54833984375 1026.78283691406 1024.267578125 1027.3017578125 1016.07293701172 1005.42645263672 1008.3427734375 1004.35028076172 991.836242675781 986.376586914062 991.841918945312 1004.11553955078 996.914794921875 997.040466308594 993.481323242188 1002.37646484375 999.738952636719 998.740173339844 993.833862304688 995.8369140625 997.706237792969 993.598388671875 978.737426757812 987.244079589844 982.598510742188 981.197875976562 979.5732421875 973.838256835938 974.679809570312 969.470703125 977.889892578125 969.084533691406 978.508911132812 983.117248535156 995.324645996094
952.542724609375 945.122131347656 948.370544433594 952.191650390625 945.598815917969 946.169067382812 943.31494140625 942.876525878906 956.817687988281 959.95068359375 970.06005859375 972.702575683594 979.429931640625 975.559020996094 967.451416015625 965.217712402344 968.779296875 956.035339355469 963.234985351562 967.791687011719 976.2431640625 981.890930175781 983.630493164062 986.269287109375 985.325317382812 972.56298828125 977.97998046875 976.678161621094 975.6376953125 966.167785644531 969.043640136719 966.570617675781 982.117126464844 990.715637207031 991.333435058594 986.934814453125 987.762390136719 994.776123046875 1000.04119873047 992.714599609375 995.153686523438 988.562255859375 990.434020996094 997.486389160156 993.453735351562 1000.72100830078 1008.14465332031 1011.18743896484 1026.72399902344 1028.43188476562 1015.83532714844 1012.08349609375 1013.12835693359 995.528198242188 989.559204101562 986.650085449219 992.601928710938 995.10986328125 991.618041992188 983.767150878906 978.988220214844 975.353759765625 980.667663574219 988.188171386719 982.056518554688 980.508972167969 978.406616210938 980.382385253906 980.231018066406 987.697692871094 984.72900390625 983.57275390625 983.615478515625 984.333557128906 980.563903808594 981.431457519531 992.161437988281 986.732238769531 996.980590820312 1001.05120849609 1004.25671386719 1003.09399414062 1011.08184814453 1005.86444091797 1005.27740478516 990.641357421875 987.220581054688 1004.84490966797 1001.49438476562 997.161804199219 1003.67352294922 993.435363769531 995.8798828125 991.03466796875 994.526794433594 1000.73980712891 1003.23522949219 1001.16870117188 999.746276855469 1007.09948730469 1006.51342773438 1006.75476074219 1016.22741699219 1013.71411132812 1015.10009765625 1012.62048339844 1009.76263427734 1016.82513427734 1032.51782226562 1042.53344726562 1043.28930664062 1035.43505859375 1049.05432128906 1058.80920410156 1048.07678222656 1045.66577148438 1029.43298339844 1028.74084472656 1020.93292236328 1017.89837646484 1011.3173828125 1001.18383789062 996.44189453125 983.098388671875 974.395385742188 989.119079589844 989.574340820312 997.862365722656 985.86083984375 985.394592285156 995.066284179688 996.129089355469 995.578186035156 988.29150390625 989.404663085938 981.407470703125 979.482177734375 973.354858398438 983.263427734375 982.770629882812 978.909057617188 974.169677734375 974.971862792969 971.858459472656 969.5556640625 966.584289550781 967.7021484375 975.317626953125 981.55517578125 993.174987792969
945.597534179688 948.553527832031 945.313293457031 947.185791015625 946.061340332031 943.333129882812 941.780151367188 944.933166503906 952.790344238281 955.477722167969 953.649475097656 964.765258789062 971.697570800781 974.463989257812 966.851257324219 961.901184082031 957.147521972656 959.062316894531 955.306457519531 959.240234375 969.377258300781 978.072875976562 977.829711914062 982.801330566406 978.777221679688 973.726623535156 972.639221191406 963.827331542969 961.968200683594 961.100341796875 964.899169921875 960.872741699219 968.082397460938 985.686096191406 995.274169921875 986.044921875 980.940124511719 985.335754394531 988.489318847656 990.360656738281 984.41015625 988.229919433594 990.417602539062 986.118225097656 985.874694824219 997.848083496094 1003.15582275391 1000.67712402344 1019.31988525391 1020.28930664062 1018.48999023438 1013.38098144531 1011.11071777344 992.139282226562 997.897094726562 988.258728027344 992.593872070312 992.749572753906 990.631774902344 982.829345703125 982.845520019531 982.85205078125 978.198120117188 986.72314453125 983.441955566406 979.935302734375 973.637878417969 979.809997558594 982.1669921875 985.118408203125 988.073120117188 978.780822753906 985.041015625 990.568420410156 989.576171875 988.473022460938 989.494689941406 996.355651855469 994.1982421875 997.148132324219 999.4375 1011.12255859375 1014.91076660156 1009.44207763672 1006.46685791016 988.957946777344 992.344116210938 996.974182128906 999.279418945312 987.239685058594 1000.41906738281 988.901062011719 998.136108398438 998.146545410156 997.348693847656 997.785949707031 1004.91357421875 1009.33740234375 1005.49822998047 999.986572265625 1001.44274902344 1006.28955078125 1013.96929931641 1006.76989746094 1011.88098144531 1011.39013671875 1013.48217773438 1022.63928222656 1031.50354003906 1038.42407226562 1043.63073730469 1043.81579589844 1050.10632324219 1060.06872558594 1058.73669433594 1050.64916992188 1045.63513183594 1040.20068359375 1034.72351074219 1019.025390625 1010.52270507812 1008.0126953125 996.914672851562 992.617797851562 978.82373046875 990.539978027344 977.550354003906 980.113525390625 980.728881835938 987.708374023438 984.29052734375 982.546142578125 979.0029296875 979.992309570312 980.965026855469 977.27490234375 978.6650390625 979.071594238281 984.25341796875 986.687438964844 973.570251464844 980.287109375 967.331604003906 970.740051269531 972.097778320312 969.105102539062 977.450439453125 976.060241699219 981.548522949219 985.566345214844
947.903869628906 950.818054199219 949.668640136719 945.945251464844 942.944702148438 942.998779296875 939.927001953125 942.467895507812 948.175537109375 951.758239746094 956.166381835938 961.901062011719 962.726623535156 974.363159179688 966.89501953125 961.472778320312 964.565185546875 957.655334472656 955.420593261719 959.927062988281 968.877380371094 964.558959960938 967.115844726562 971.806823730469 964.713012695312 969.501281738281 966.454467773438 960.064147949219 961.472534179688 963.329650878906 964.337890625 964.298034667969 973.268676757812 981.626892089844 988.55419921875 987.634704589844 986.933288574219 975.870056152344 977.968811035156 983.984252929688 980.560729980469 984.403747558594 986.555725097656 981.592468261719 982.738647460938 988.697814941406 992.741760253906 993.542297363281 1011.33441162109 1009.78527832031 1012.67791748047 1009.5537109375 1003.72521972656 992.026733398438 993.075378417969 999.105224609375 984.773681640625 978.589233398438 983.1572265625 986.927490234375 982.316223144531 988.348937988281 986.345642089844 982.020324707031 985.032165527344 983.002136230469 975.432861328125 980.3798828125 986.265441894531 983.7216796875 983.545166015625 987.412902832031 984.996032714844 994.924865722656 986.214111328125 989.467529296875 991.900756835938 996.626647949219 996.747924804688 999.820434570312 996.889221191406 1008.12036132812 1012.16430664062 1016.38879394531 1002.20324707031 994.851928710938 988.347717285156 1001.54626464844 996.359436035156 1003.95190429688 1006.63427734375 1007.56579589844 996.478881835938 998.030151367188 1007.35827636719 999.103454589844 998.153198242188 1003.26983642578 1001.83038330078 1005.82409667969 1003.58514404297 1009.53814697266 1015.33575439453 1004.27172851562 1011.79595947266 1017.04174804688 1020.17388916016 1027.53771972656 1032.32019042969 1044.50939941406 1049.39733886719 1047.54077148438 1053.50073242188 1062.76794433594 1064.03442382812 1061.91101074219 1063.60144042969 1056.74011230469 1036.38073730469 1020.85534667969 1013.35198974609 1011.53106689453 1006.96380615234 1002.09289550781 995.855285644531 981.506103515625 981.772827148438 971.802673339844 973.667175292969 980.987243652344 985.789367675781 972.943115234375 975.185119628906 982.230407714844 986.398010253906 983.961547851562 986.923767089844 984.473937988281 980.863647460938 972.912414550781 971.656372070312 974.099731445312 971.659606933594 966.535278320312 970.64306640625 969.930725097656 971.659545898438 971.004333496094 979.814575195312 980.833129882812
957.748352050781 949.945495605469 943.664733886719 947.563903808594 939.666748046875 939.474243164062 937.114501953125 935.199157714844 942.294982910156 949.284973144531 959.69384765625 956.693176269531 962.545593261719 969.360534667969 960.89892578125 959.269287109375 954.352478027344 947.846740722656 957.76171875 964.320068359375 961.477844238281 957.275512695312 958.099853515625 961.260864257812 961.339782714844 961.595336914062 962.286437988281 964.354797363281 960.835205078125 964.021240234375 956.194274902344 961.565673828125 974.776794433594 978.174621582031 978.947326660156 981.979919433594 984.266479492188 970.261962890625 976.517395019531 985.7275390625 983.854797363281 985.09716796875 984.816162109375 986.895935058594 988.274719238281 983.030578613281 985.547912597656 997.882263183594 1001.71166992188 1013.8037109375 1000.28649902344 998.766723632812 996.908508300781 995.593872070312 988.663513183594 993.470947265625 987.016418457031 987.440856933594 982.8408203125 981.865478515625 978.1181640625 987.775573730469 993.49462890625 988.486206054688 985.970581054688 986.930358886719 988.817321777344 984.091735839844 989.810119628906 996.575927734375 998.495666503906 987.878967285156 986.802124023438 987.896667480469 991.680603027344 989.934631347656 986.521728515625 985.899169921875 989.13037109375 993.702392578125 995.266479492188 1000.71911621094 1011.0888671875 1010.87115478516 1005.09204101562 1001.68237304688 1002.89654541016 988.195861816406 998.824523925781 1005.03967285156 996.005432128906 1002.17041015625 1002.90179443359 999.438781738281 1003.50494384766 1005.40466308594 1003.10003662109 1007.23834228516 1012.02990722656 1004.22052001953 1014.05682373047 1015.37152099609 1008.62878417969 1006.99639892578 1011.08483886719 1016.67181396484 1022.14978027344 1026.71484375 1032.33544921875 1046.66955566406 1050.38073730469 1059.08471679688 1055.64489746094 1057.88171386719 1063.39086914062 1059.29187011719 1065.11938476562 1046.73364257812 1035.79467773438 1020.36108398438 1016.14117431641 1011.95111083984 1004.94268798828 1002.09948730469 999.951965332031 986.48779296875 982.32177734375 973.129272460938 975.250427246094 973.863037109375 984.270690917969 976.343017578125 978.761169433594 973.069702148438 973.833312988281 976.034118652344 970.173034667969 975.286682128906 974.176696777344 978.664978027344 968.189208984375 963.8681640625 964.319885253906 967.121520996094 970.688415527344 968.274780273438 968.218688964844 964.444641113281 979.402221679688 972.508239746094
954.150024414062 960.15771484375 949.030212402344 938.07568359375 940.704345703125 932.325988769531 935.325988769531 939.9033203125 942.891540527344 945.296813964844 956.175231933594 949.481872558594 956.680847167969 957.458557128906 949.140441894531 952.545471191406 941.990173339844 953.03076171875 961.629699707031 961.684936523438 963.073425292969 959.072692871094 959.653686523438 962.418334960938 972.863037109375 959.952331542969 955.9248046875 962.994873046875 952.254577636719 956.893005371094 957.808715820312 968.892578125 964.0146484375 976.389404296875 982.2939453125 980.369323730469 969.754333496094 971.3388671875 974.091186523438 975.901000976562 977.793090820312 986.207885742188 979.744079589844 986.565124511719 994.183776855469 986.86328125 982.443054199219 988.608215332031 990.502136230469 991.637756347656 999.65966796875 1001.05847167969 995.806030273438 993.413513183594 994.572204589844 994.493774414062 987.197692871094 990.078430175781 994.200561523438 993.817199707031 990.552673339844 992.911743164062 1000.52819824219 993.356384277344 992.810852050781 987.100463867188 986.78662109375 988.588500976562 988.126892089844 991.405944824219 984.155029296875 986.717224121094 984.233825683594 992.1142578125 987.927856445312 985.152954101562 989.190246582031 990.340393066406 986.241271972656 994.753173828125 997.424560546875 1000.07641601562 1008.85626220703 1009.37976074219 1012.02917480469 1013.12408447266 1007.00427246094 996.840942382812 1001.00036621094 997.1201171875 1000.40740966797 1002.41156005859 1005.68408203125 1003.28558349609 1007.11145019531 1004.13989257812 1010.38104248047 1008.60809326172 1001.27618408203 1004.75231933594 1019.29699707031 1013.42883300781 1010.89105224609 1011.12066650391 1012.14190673828 1023.21136474609 1022.41613769531 1031.8857421875 1046.125 1044.27136230469 1048.29150390625 1058.33142089844 1061.29699707031 1074.92077636719 1068.60339355469 1065.05346679688 1061.97326660156 1052.84741210938 1041.11657714844 1037.98071289062 1023.60693359375 1020.49304199219 1011.86785888672 1005.23486328125 998.653747558594 990.635375976562 987.469299316406 981.049377441406 982.271423339844 983.048095703125 987.214172363281 975.480773925781 974.739807128906 976.792236328125 969.054443359375 966.920593261719 972.499206542969 969.202270507812 969.688415527344 979.329895019531 962.61328125 959.832092285156 959.679565429688 959.008361816406 968.688232421875 962.084533691406 971.923217773438 968.972778320312 974.073669433594 974.0458984375
