NCOLS 150
NROWS 37
XLLCORNER 7394249
YLLCORNER 4843109
CELLSIZE 30
NODATA_VALUE -9999
944.796325683594 939.062438964844 933.588256835938 948.442077636719 953.545776367188 950.870483398438 955.008117675781 963.602966308594 966.849487304688 973.092163085938 972.346069335938 970.238342285156 973.284118652344 967.581787109375 953.958984375 955.026611328125 960.181945800781 972.946716308594 979.503723144531 977.779479980469 972.072998046875 986.985961914062 995.29443359375 1003.86163330078 995.559326171875 997.707214355469 990.880554199219 994.058044433594 984.483764648438 989.841247558594 993.606506347656 998.865905761719 1005.18267822266 1000.23852539062 999.655395507812 1009.48382568359 1008.79321289062 1009.40753173828 1009.97351074219 1006.75238037109 1008.88854980469 1007.42535400391 1003.68292236328 1009.06353759766 1008.63000488281 1008.47503662109 1000.08288574219 993.863708496094 995.017028808594 981.317138671875 984.579895019531 981.056945800781 982.600830078125 989.146911621094 996.041870117188 987.895080566406 988.634521484375 986.746337890625 997.842895507812 1015.08795166016 1006.20251464844 998.538269042969 995.982727050781 993.216796875 1004.85125732422 1014.77215576172 1007.92645263672 1007.90838623047 999.982604980469 1007.14904785156 1011.10180664062 1008.53619384766 1012.94567871094 1010.14154052734 1000.78601074219 997.715270996094 1003.98583984375 1001.52618408203 1004.81079101562 999.471923828125 1000.27178955078 998.812255859375 1001.47406005859 1003.49182128906 1002.87365722656 998.635620117188 1002.56683349609 1006.71008300781 1008.08380126953 1024.49780273438 1032.33117675781 1019.51422119141 1024.08752441406 1020.431640625 1031.32409667969 1023.59161376953 1015.56665039062 1014.13256835938 1007.46862792969 1005.10723876953 1002.79162597656 1004.619140625 1004.19085693359 1007.76196289062 1005.46087646484 1011.24237060547 1006.30499267578 998.271484375 996.654479980469 992.186218261719 980.172729492188 966.091857910156 958.069152832031 948.011962890625 946.790466308594 948.888549804688 948.027099609375 966.864624023438 972.461242675781 992.010375976562 994.815551757812 1003.78259277344 1017.91381835938 1017.44787597656 1024.66296386719 1036.36499023438 1043.61889648438 1045.97912597656 1040.98718261719 1042.27233886719 1043.72253417969 1052.22692871094 1048.24084472656 1050.57775878906 1055.912109375 1061.63952636719 1054.04943847656 1056.76110839844 1054.66857910156 1047.31311035156 1051.99926757812 1056.17419433594 1072.51135253906 1080.46643066406 1087.17468261719 1085.00866699219 1086.017578125 1091.30627441406 1096.869140625 1087.55187988281
936.417053222656 935.873657226562 938.281799316406 957.50390625 961.749816894531 960.071533203125 966.597839355469 964.684997558594 970.005676269531 969.410217285156 972.751647949219 974.021789550781 975.925537109375 964.591430664062 958.846496582031 955.032470703125 965.2216796875 972.473876953125 975.176818847656 983.34912109375 975.265930175781 980.983764648438 995.764709472656 995.248291015625 986.926818847656 992.740600585938 990.894714355469 987.092834472656 990.297729492188 998.098388671875 995.821533203125 1000.86926269531 1000.08282470703 998.325256347656 998.171875 997.260498046875 997.137451171875 1002.04516601562 1008.28717041016 1004.85565185547 1004.47900390625 1003.38409423828 995.172729492188 995.277893066406 1001.70428466797 1004.57537841797 996.546508789062 988.032653808594 983.777221679688 980.944580078125 987.537048339844 981.386047363281 979.682739257812 987.655151367188 988.409790039062 982.144592285156 994.159790039062 990.197448730469 985.302978515625 1002.78295898438 997.360229492188 1001.30895996094 1003.21636962891 997.804504394531 1002.90802001953 1005.55578613281 1001.51232910156 996.682556152344 995.030334472656 1003.333984375 1002.39477539062 1001.89196777344 1004.32690429688 1002.47009277344 1001.63348388672 995.230773925781 992.318542480469 999.829223632812 1001.23968505859 1002.41259765625 996.130615234375 998.068603515625 998.141662597656 1002.44183349609 1008.16516113281 1003.13958740234 1010.88922119141 1010.66809082031 1009.14331054688 1014.86492919922 1019.33990478516 1020.31994628906 1012.27807617188 1020.69055175781 1017.71331787109 1016.85412597656 1011.31176757812 1003.947265625 1005.72998046875 1001.12322998047 994.725280761719 997.669311523438 1002.68060302734 1004.29327392578 1009.28662109375 1012.61822509766 1007.55023193359 1000.18536376953 992.468444824219 988.85986328125 971.632568359375 965.736755371094 965.435363769531 958.541015625 945.513061523438 948.609191894531 954.761352539062 956.746398925781 968.450988769531 989.912963867188 994.140930175781 1005.67749023438 1023.62487792969 1022.59869384766 1028.20983886719 1048.185546875 1051.12719726562 1045.86560058594 1039.32080078125 1041.97534179688 1040.87170410156 1039.22387695312 1046.15502929688 1048.09729003906 1054.71765136719 1050.87280273438 1053.9921875 1061.17358398438 1049.83483886719 1046.21203613281 1055.3037109375 1052.54187011719 1074.0029296875 1076.95446777344 1082.603515625 1090.33276367188 1086.47985839844 1090.12622070312 1091.0625 1083.12219238281
944.956237792969 950.431091308594 943.104553222656 958.332763671875 961.120727539062 958.151306152344 965.110961914062 973.680053710938 965.364074707031 967.83544921875 968.907348632812 972.232849121094 971.141662597656 976.75927734375 974.466125488281 964.174560546875 969.090698242188 975.357666015625 964.433959960938 971.147155761719 979.263732910156 975.413696289062 983.257019042969 982.309387207031 993.402648925781 988.389099121094 983.825073242188 988.051574707031 997.18701171875 997.493896484375 993.510620117188 992.65185546875 986.011657714844 982.5810546875 984.946105957031 990.692932128906 986.34423828125 1001.94268798828 997.239318847656 1002.85296630859 1003.46063232422 995.875427246094 992.435485839844 997.051330566406 995.8193359375 998.60205078125 994.765014648438 987.427795410156 980.098693847656 981.916442871094 971.47509765625 969.897338867188 980.630310058594 975.949584960938 980.631652832031 989.461547851562 985.161499023438 985.999877929688 996.728088378906 990.906677246094 999.144348144531 997.567016601562 1008.96173095703 998.560119628906 994.688537597656 1000.52612304688 997.335693359375 985.073608398438 996.411499023438 999.30712890625 1001.21655273438 999.315979003906 1003.57971191406 997.3681640625 996.27099609375 1003.23944091797 995.487426757812 988.68017578125 989.17724609375 990.955627441406 993.766906738281 995.189147949219 996.346923828125 994.031005859375 1005.45556640625 1011.34130859375 1017.03845214844 1017.10986328125 1008.63757324219 1012.18103027344 1016.65222167969 1018.73742675781 1021.63739013672 1008.36920166016 1014.41937255859 1012.79949951172 1016.16345214844 1002.27270507812 1009.82556152344 1001.11169433594 1003.30841064453 1000.78765869141 1005.45880126953 1004.00970458984 1008.80303955078 1002.67309570312 1002.23675537109 991.650085449219 985.56005859375 982.078063964844 975.612976074219 962.208068847656 958.823364257812 955.291564941406 948.057739257812 952.507507324219 951.30078125 959.120422363281 970.478698730469 990.504089355469 1000.90454101562 1006.25079345703 1027.32336425781 1038.14916992188 1033.869140625 1041.54724121094 1046.75891113281 1050.08435058594 1042.50695800781 1041.80444335938 1044.27612304688 1044.02966308594 1047.7265625 1040.62744140625 1044.83911132812 1046.88952636719 1049.51379394531 1056.31860351562 1046.63317871094 1044.310546875 1052.88781738281 1064.03112792969 1077.28088378906 1078.56140136719 1088.72692871094 1101.53393554688 1095.0224609375 1097.16320800781 1086.173828125 1094.55334472656
951.198303222656 942.300903320312 958.017639160156 957.504577636719 959.674743652344 968.115051269531 958.09619140625 965.107971191406 971.699340820312 965.837829589844 967.931762695312 961.288757324219 969.301391601562 980.72119140625 983.917175292969 979.667663574219 969.302062988281 968.311889648438 977.846069335938 967.265991210938 978.168090820312 978.413330078125 972.742431640625 986.289733886719 982.977416992188 982.256103515625 989.426208496094 995.027893066406 1006.48785400391 1000.61444091797 990.5634765625 993.903564453125 992.665344238281 986.701293945312 979.880615234375 982.920959472656 989.588562011719 995.4326171875 1001.59887695312 1003.55120849609 1004.33190917969 998.010681152344 996.605651855469 998.095581054688 993.8671875 994.914733886719 991.909545898438 982.437561035156 982.978759765625 981.418090820312 979.930541992188 977.442749023438 978.934875488281 979.128295898438 976.669067382812 985.688659667969 983.903015136719 990.681030273438 995.390502929688 998.33447265625 1001.20654296875 991.993225097656 991.098937988281 993.953735351562 983.95166015625 992.423400878906 981.010009765625 989.288269042969 994.586486816406 997.471862792969 1002.68603515625 1003.17248535156 1004.2587890625 1000.6796875 998.08837890625 1001.12353515625 998.655029296875 992.142211914062 987.590148925781 989.896484375 990.119445800781 998.698303222656 993.2119140625 1007.36260986328 1003.578125 1011.09173583984 1010.94525146484 1007.73260498047 1014.83111572266 1021.71044921875 1017.61779785156 1021.45965576172 1023.26904296875 1015.24993896484 1018.89587402344 1014.94848632812 1020.47308349609 1018.07781982422 1017.50262451172 1004.81439208984 1016.34320068359 1008.39477539062 998.470947265625 1002.88507080078 1000.93005371094 1006.56762695312 995.288146972656 992.224914550781 986.073852539062 972.396301269531 968.176879882812 964.600341796875 952.780883789062 943.845153808594 945.418518066406 952.170227050781 952.417846679688 970.830322265625 974.517761230469 989.108764648438 997.243408203125 1001.81097412109 1020.52111816406 1034.56481933594 1043.54357910156 1039.89794921875 1041.47778320312 1044.48107910156 1033.84069824219 1035.39685058594 1039.51403808594 1028.61437988281 1041.26794433594 1036.55529785156 1045.79296875 1049.2333984375 1045.64123535156 1046.22863769531 1046.66809082031 1044.4560546875 1048.24438476562 1059.03479003906 1067.27062988281 1081.56689453125 1087.42846679688 1100.76818847656 1089.93432617188 1092.42956542969 1091.18737792969 1077.98352050781
947.416870117188 944.953796386719 954.819396972656 966.295532226562 968.372802734375 967.769348144531 973.304260253906 965.083557128906 968.668151855469 972.629150390625 967.639282226562 970.805358886719 972.253234863281 975.579223632812 981.672302246094 973.961791992188 973.355407714844 973.312377929688 971.8896484375 965.209533691406 975.804382324219 979.620727539062 987.212890625 980.26025390625 973.220275878906 976.755981445312 988.987609863281 984.894897460938 992.178894042969 982.743286132812 983.464904785156 988.971740722656 988.877868652344 976.251220703125 976.984008789062 981.975708007812 989.767028808594 992.594421386719 998.792602539062 999.061340332031 1005.11499023438 997.070373535156 990.422119140625 997.930908203125 993.067504882812 996.66552734375 1003.27301025391 994.253540039062 988.647766113281 973.666564941406 973.007080078125 980.982849121094 987.875610351562 984.308410644531 982.049133300781 978.690490722656 983.218566894531 996.749084472656 991.847900390625 986.211486816406 995.472412109375 987.91357421875 987.764038085938 984.186706542969 985.693420410156 983.763061523438 983.125122070312 989.951171875 993.211242675781 1001.521484375 1004.93823242188 1010.06481933594 1010.60308837891 1004.17828369141 1009.00311279297 1005.61865234375 1008.81561279297 997.278747558594 992.248657226562 989.900695800781 998.054565429688 992.929016113281 993.149291992188 1005.91851806641 1010.67785644531 1018.14477539062 1009.81524658203 997.836059570312 1003.04547119141 1014.94104003906 1014.26354980469 1014.66802978516 1023.25561523438 1018.71820068359 1024.39514160156 1017.43475341797 1018.33758544922 1022.8056640625 1014.94903564453 1007.75372314453 1015.4755859375 1002.43566894531 992.769470214844 997.122253417969 1002.26727294922 1005.51495361328 1001.79840087891 993.518493652344 988.201477050781 978.660583496094 973.985534667969 965.44140625 956.075378417969 947.09814453125 955.106567382812 951.59814453125 963.583251953125 975.295288085938 969.731689453125 988.01904296875 997.924621582031 1007.39294433594 1025.10607910156 1030.58947753906 1035.95556640625 1028.43835449219 1036.62341308594 1030.56481933594 1032.431640625 1041.16723632812 1027.74755859375 1017.0859375 1027.30786132812 1044.64526367188 1038.69201660156 1044.86450195312 1034.74719238281 1040.96325683594 1041.95349121094 1053.40478515625 1047.9609375 1061.18139648438 1075.01342773438 1089.86840820312 1098.49548339844 1099.998046875 1089.55810546875 1094.40795898438 1094.37866210938 1085.40502929688
943.845642089844 949.053588867188 955.316711425781 963.229736328125 965.15771484375 964.119567871094 972.83984375 966.702270507812 965.925415039062 973.903503417969 974.459167480469 972.546691894531 969.475769042969 971.935913085938 984.13818359375 975.498168945312 977.639465332031 977.447143554688 980.018920898438 981.17431640625 978.5625 987.319396972656 990.291137695312 987.916259765625 981.305114746094 976.416564941406 979.407165527344 979.807678222656 978.655090332031 978.753295898438 979.054931640625 982.563293457031 989.623046875 983.344848632812 992.536560058594 986.406494140625 984.492248535156 987.09814453125 984.460571289062 993.100341796875 991.534240722656 984.10693359375 991.268676757812 993.400695800781 984.310607910156 989.50341796875 984.437194824219 981.766235351562 981.503784179688 974.181640625 975.138549804688 981.429748535156 983.50390625 978.053771972656 979.532104492188 980.011535644531 985.8095703125 979.13037109375 987.24072265625 985.361083984375 995.798645019531 992.939453125 992.352844238281 996.441833496094 993.971008300781 990.633178710938 989.697204589844 1000.68505859375 995.37060546875 1004.23425292969 1002.37652587891 999.329345703125 1003.05499267578 1004.88262939453 1001.06665039062 1001.74926757812 1011.35412597656 1007.28448486328 1003.44250488281 998.985534667969 1005.25622558594 997.391418457031 1003.70141601562 1008.01416015625 1019.27795410156 1016.08374023438 1017.986328125 1014.38305664062 1007.76281738281 1003.59924316406 1016.03411865234 1004.72637939453 1009.86877441406 1022.142578125 1027.85900878906 1027.88928222656 1025.90087890625 1023.59637451172 1013.29302978516 1015.87512207031 1015.84149169922 1005.990234375 1004.99737548828 995.636596679688 1003.34716796875 1006.38317871094 1001.27862548828 1001.56842041016 988.161071777344 984.6591796875 972.373657226562 965.357604980469 955.171508789062 954.6826171875 954.750793457031 951.728393554688 954.441833496094 964.486389160156 974.457885742188 981.616271972656 991.180541992188 996.858947753906 1010.67864990234 1019.51257324219 1016.82415771484 1019.30926513672 1027.64819335938 1023.05999755859 1037.26123046875 1030.43432617188 1029.13110351562 1026.51501464844 1017.80236816406 1023.38439941406 1028.85180664062 1023.78491210938 1032.05139160156 1046.01184082031 1044.37365722656 1051.38073730469 1050.40759277344 1061.61096191406 1081.08374023438 1090.92712402344 1096.537109375 1095.16137695312 1089.89074707031 1092.17163085938 1085.01257324219 1084.78234863281
950.986511230469 947.5966796875 950.694519042969 967.255187988281 965.547973632812 972.11865234375 970.080078125 968.3671875 976.308776855469 979.602600097656 973.430297851562 972.942626953125 969.045959472656 981.031860351562 979.755676269531 974.273620605469 977.353820800781 980.022827148438 979.488830566406 975.138793945312 984.650634765625 985.086975097656 986.200561523438 985.209289550781 980.561706542969 977.924621582031 973.638916015625 979.543762207031 982.323486328125 980.928100585938 985.841979980469 980.4345703125 986.387268066406 976.550231933594 990.06689453125 990.988525390625 984.581420898438 979.100769042969 982.393737792969 978.693786621094 980.816345214844 977.908264160156 987.605041503906 993.576782226562 991.75634765625 985.913452148438 981.735595703125 972.551513671875 980.063293457031 971.7197265625 976.773010253906 975.969604492188 973.8740234375 975.139099121094 974.474975585938 973.216674804688 983.110046386719 971.135375976562 980.460205078125 988.375793457031 989.919372558594 997.810485839844 990.948120117188 989.829711914062 997.776550292969 1002.1611328125 1000.81518554688 1001.64154052734 997.408020019531 1002.95288085938 999.3837890625 996.110534667969 1007.98101806641 1005.09490966797 992.895263671875 1007.6884765625 1005.34698486328 1013.16931152344 1009.57348632812 998.308288574219 999.629028320312 1003.29046630859 1006.87774658203 1008.25036621094 1013.125 1008.90625 1013.49212646484 1014.76873779297 1009.79278564453 1008.46929931641 1009.98785400391 1009.89221191406 1011.74957275391 1017.66687011719 1018.90930175781 1021.56701660156 1027.39196777344 1027.54296875 1013.35388183594 1011.96063232422 1012.18267822266 1005.22637939453 992.970092773438 993.955810546875 1003.75439453125 1003.81671142578 997.315673828125 988.281433105469 986.30126953125 981.188720703125 981.48046875 974.040161132812 959.105163574219 958.471557617188 962.172668457031 949.150573730469 958.192749023438 964.430114746094 973.585083007812 988.421630859375 984.876403808594 994.665893554688 1010.83795166016 1014.41351318359 1009.26940917969 1008.72692871094 1019.72875976562 1021.07751464844 1025.28125 1019.80596923828 1017.70416259766 1019.46130371094 1016.16888427734 1006.826171875 1013.77355957031 1013.09808349609 1016.13110351562 1033.2041015625 1039.44372558594 1039.96520996094 1053.28686523438 1067.69055175781 1074.43127441406 1092.97570800781 1094.34252929688 1100.96557617188 1100.65710449219 1098.75134277344 1097.35266113281 1094.51965332031
953.861877441406 964.959777832031 968.651123046875 964.351989746094 968.720703125 976.26171875 971.718383789062 974.973937988281 971.467834472656 977.158325195312 980.600219726562 972.298889160156 974.699401855469 978.353515625 973.3388671875 964.941162109375 971.223205566406 984.857666015625 970.964660644531 972.027709960938 981.845397949219 985.538635253906 983.046936035156 974.264038085938 984.547912597656 980.081604003906 978.931945800781 977.443786621094 991.088195800781 983.414794921875 982.715698242188 989.888916015625 980.394104003906 978.937866210938 981.025573730469 987.953918457031 990.851745605469 982.128845214844 971.948547363281 969.198486328125 971.991455078125 973.923095703125 982.150268554688 986.9091796875 984.744262695312 973.096984863281 974.148803710938 976.509521484375 974.940856933594 975.052185058594 979.566955566406 974.184509277344 966.487121582031 966.501098632812 973.9111328125 969.400390625 969.623474121094 978.725463867188 971.651489257812 986.503356933594 996.9970703125 993.393310546875 990.323425292969 996.880798339844 998.814636230469 991.077087402344 996.991882324219 999.401733398438 993.08984375 999.247253417969 1003.18988037109 998.957275390625 1006.11315917969 998.453674316406 997.448547363281 1005.38952636719 999.869689941406 1008.74053955078 1009.298828125 1009.10168457031 1006.7353515625 1009.74566650391 1009.14617919922 1009.126953125 1010.62957763672 1005.59210205078 1014.13970947266 1012.64892578125 1014.62823486328 1013.83099365234 1004.80944824219 1002.99566650391 1004.68359375 1019.134765625 1014.43743896484 1030.1416015625 1017.81811523438 1013.76293945312 1008.11871337891 1010.81640625 1015.36151123047 1006.09497070312 996.849792480469 982.972229003906 990.076904296875 989.316528320312 988.257385253906 987.430297851562 982.457397460938 979.991577148438 973.327697753906 970.703063964844 964.749328613281 964.920471191406 961.115051269531 959.580383300781 957.720825195312 959.453247070312 981.474304199219 987.345336914062 996.939636230469 1002.74200439453 1000.38348388672 1010.05236816406 1017.40930175781 1018.37902832031 1022.06317138672 1020.22161865234 1024.47814941406 1015.60308837891 1012.49108886719 1011.17645263672 1010.21075439453 1015.41162109375 1011.45031738281 1008.44958496094 1013.37634277344 1024.47412109375 1041.18786621094 1043.70434570312 1055.5732421875 1063.19299316406 1073.69995117188 1085.01196289062 1085.43505859375 1101.96057128906 1104.75122070312 1113.18090820312 1119.33459472656 1112.56799316406
945.958068847656 958.270080566406 959.329956054688 961.142456054688 968.520751953125 970.743835449219 971.455505371094 974.761779785156 976.113342285156 975.438781738281 973.301696777344 978.656311035156 971.442199707031 968.257263183594 968.168518066406 966.947326660156 972.072387695312 981.3740234375 979.282531738281 977.683959960938 979.218444824219 981.908569335938 980.59814453125 971.980163574219 985.388549804688 984.304382324219 984.331115722656 980.4970703125 985.635009765625 979.14208984375 977.136535644531 984.739624023438 983.701110839844 979.317565917969 980.100830078125 985.608276367188 988.156921386719 984.521057128906 980.394592285156 980.11962890625 962.910095214844 970.027099609375 973.408569335938 981.186462402344 977.543212890625 976.779602050781 968.557739257812 975.658386230469 980.446594238281 982.590698242188 977.330200195312 979.821472167969 979.849365234375 975.189208984375 969.712280273438 967.369995117188 969.108703613281 972.774475097656 975.332214355469 979.892517089844 983.693115234375 988.652404785156 997.213134765625 993.313232421875 989.570922851562 991.919006347656 986.328125 989.219116210938 987.596557617188 989.69580078125 998.021301269531 993.822204589844 995.156372070312 997.457275390625 990.956359863281 993.845520019531 1002.12750244141 1005.30432128906 1002.72637939453 999.292297363281 1006.62316894531 1009.27294921875 1010.28161621094 1010.62573242188 1002.671875 1005.31732177734 1001.49456787109 1000.05413818359 1006.08984375 1010.10845947266 1003.97375488281 997.94140625 1004.79907226562 1005.29473876953 1008.59484863281 1015.75518798828 1021.0283203125 1024.56262207031 1014.31677246094 1000.43469238281 1009.68176269531 1005.8662109375 1008.47174072266 993.688720703125 990.402160644531 992.642517089844 1003.13714599609 1000.87017822266 992.455017089844 983.724487304688 971.602661132812 978.453674316406 977.701782226562 981.909423828125 975.570007324219 963.295776367188 962.640380859375 965.257995605469 980.026428222656 990.607238769531 990.820068359375 997.642822265625 1001.44549560547 1004.55535888672 1009.31561279297 1017.67181396484 1023.78997802734 1029.34973144531 1015.1533203125 1007.41937255859 1009.49475097656 1010.15179443359 1017.09576416016 1019.22973632812 1019.78826904297 1014.93597412109 1017.81115722656 1033.17407226562 1044.42297363281 1045.01708984375 1053.54943847656 1065.8154296875 1083.37744140625 1083.91577148438 1091.36083984375 1100.92553710938 1111.7119140625 1117.57043457031 1121.72839355469 1118.70532226562
949.466735839844 954.335083007812 958.769104003906 963.818237304688 960.259216308594 966.719665527344 971.677307128906 972.475280761719 976.196228027344 973.816467285156 972.396484375 968.407104492188 974.072082519531 965.606384277344 967.377258300781 974.778564453125 972.864135742188 978.713073730469 982.594055175781 987.0703125 983.16259765625 985.053894042969 976.701599121094 971.486083984375 980.18115234375 976.231079101562 979.543518066406 983.975280761719 986.450744628906 983.462890625 978.746826171875 976.359558105469 983.095336914062 979.865600585938 980.289672851562 985.811462402344 991.767150878906 978.551086425781 981.638977050781 979.902526855469 969.954345703125 978.869873046875 985.300476074219 980.247375488281 990.003295898438 977.282897949219 979.087341308594 970.761535644531 972.921569824219 976.236633300781 974.307495117188 975.605407714844 982.260314941406 982.136291503906 975.633544921875 975.365295410156 966.491455078125 966.198425292969 975.117919921875 974.063293457031 983.419006347656 996.545715332031 990.403686523438 986.066955566406 993.464050292969 989.207641601562 981.5390625 981.470764160156 979.943786621094 983.002014160156 991.884948730469 984.616271972656 993.255187988281 989.272094726562 994.541259765625 986.197631835938 995.057983398438 999.613525390625 993.587585449219 994.863708496094 1005.58312988281 1003.34448242188 997.665893554688 996.756042480469 993.951904296875 994.90673828125 994.185668945312 991.877868652344 1002.16131591797 999.707702636719 1003.35675048828 991.213562011719 996.281433105469 1003.71820068359 1007.56896972656 1011.08392333984 1017.71112060547 1015.91107177734 1007.18145751953 996.405578613281 990.568969726562 996.22314453125 994.844177246094 988.239624023438 990.6494140625 998.067810058594 994.738159179688 1001.25756835938 989.448181152344 980.75390625 976.580383300781 988.661315917969 995.135131835938 985.699279785156 985.698669433594 973.150573730469 966.306701660156 982.8310546875 978.501281738281 990.581909179688 988.34521484375 982.124816894531 999.329895019531 996.091369628906 1007.72534179688 1008.62683105469 1020.81390380859 1012.283203125 1006.8759765625 1006.90515136719 1004.81707763672 1016.36987304688 1027.08178710938 1020.31872558594 1021.12225341797 1023.00903320312 1021.30578613281 1037.77490234375 1044.78503417969 1050.69323730469 1055.85498046875 1072.49658203125 1086.20227050781 1087.810546875 1087.57592773438 1098.20874023438 1107.60192871094 1112.07397460938 1118.10363769531 1120.15063476562
948.72998046875 956.362731933594 959.582336425781 962.465209960938 962.09423828125 966.895446777344 965.097961425781 969.929138183594 967.239807128906 970.103393554688 969.038513183594 978.927795410156 971.430297851562 961.920104980469 969.042724609375 970.674194335938 968.757629394531 980.985961914062 986.839294433594 988.899841308594 990.685363769531 986.696960449219 970.970275878906 971.116577148438 975.589965820312 975.501281738281 981.015625 982.068542480469 988.46240234375 987.140502929688 981.823547363281 980.590515136719 977.602294921875 986.204650878906 987.647094726562 988.6181640625 986.979614257812 981.45458984375 993.393737792969 977.1943359375 974.23828125 981.995239257812 986.957885742188 981.246398925781 979.69091796875 970.37890625 978.709838867188 979.181762695312 980.694702148438 981.596496582031 974.16064453125 970.2822265625 977.249694824219 975.14990234375 974.545104980469 979.953247070312 979.363220214844 974.656921386719 973.410766601562 976.787963867188 983.176330566406 984.21728515625 984.45849609375 982.052673339844 982.038452148438 982.987487792969 976.866149902344 974.985290527344 974.568725585938 978.679809570312 980.848022460938 981.555297851562 993.639099121094 986.984436035156 993.203063964844 989.042114257812 996.390319824219 993.511962890625 988.954162597656 995.279235839844 997.550659179688 995.265747070312 996.957397460938 993.037109375 989.069396972656 991.887268066406 994.058288574219 990.932800292969 991.625244140625 990.537658691406 990.594116210938 994.68212890625 997.190368652344 1005.53259277344 1010.79620361328 1015.25708007812 1012.68432617188 1009.05194091797 999.940979003906 993.65283203125 986.887878417969 995.58740234375 992.551391601562 988.879455566406 993.628234863281 999.8955078125 992.856323242188 995.494934082031 995.906372070312 990.177856445312 988.0380859375 984.96484375 992.062316894531 994.050659179688 996.300354003906 993.091064453125 985.821960449219 990.151123046875 990.836547851562 986.641723632812 986.316223144531 992.122741699219 994.987609863281 999.96142578125 1003.91400146484 1001.56402587891 1017.17541503906 1012.88000488281 1009.34387207031 1010.47015380859 1013.09637451172 1015.93536376953 1014.16607666016 1016.15991210938 1016.52746582031 1017.81860351562 1030.248046875 1039.66430664062 1044.74743652344 1052.33374023438 1062.05944824219 1077.68225097656 1084.68212890625 1088.99072265625 1092.64990234375 1108.865234375 1113.36657714844 1111.72082519531 1119.76550292969 1130.78369140625
949.982788085938 950.686645507812 950.710388183594 970.808715820312 970.678527832031 967.422424316406 965.710327148438 969.220581054688 967.638366699219 969.180786132812 971.985168457031 976.930603027344 970.094299316406 957.223815917969 963.20263671875 980.745544433594 973.312866210938 980.976379394531 991.882202148438 992.385498046875 979.404357910156 981.877319335938 973.177185058594 974.197631835938 975.285827636719 974.054077148438 973.106689453125 978.008605957031 990.684265136719 992.632751464844 990.889404296875 980.326843261719 986.862609863281 980.702331542969 991.878234863281 991.213562011719 988.608276367188 981.179260253906 988.320983886719 979.543823242188 973.992065429688 983.056945800781 970.51416015625 976.662658691406 965.799926757812 972.918334960938 970.541381835938 979.851989746094 986.138549804688 978.494079589844 978.591979980469 974.900390625 968.843200683594 973.512939453125 980.32861328125 979.40185546875 973.699951171875 969.964538574219 974.986572265625 978.362365722656 976.94873046875 983.813415527344 983.614624023438 978.618347167969 979.3046875 970.545532226562 967.716186523438 971.949096679688 977.961120605469 983.299255371094 981.30908203125 979.057006835938 982.075988769531 988.602172851562 988.134887695312 994.197875976562 995.485900878906 990.081909179688 985.261840820312 996.142761230469 992.21435546875 991.644226074219 985.763427734375 982.285888671875 992.737487792969 994.512573242188 987.648132324219 992.843994140625 999.262756347656 984.200134277344 990.078125 996.876953125 1001.90313720703 1003.38812255859 1019.28668212891 1011.96569824219 1005.98706054688 998.477294921875 995.380004882812 993.801696777344 991.779296875 990.7666015625 992.292785644531 987.109558105469 989.78271484375 991.407775878906 996.841857910156 993.026306152344 995.185729980469 995.076049804688 995.414978027344 992.851745605469 1003.71032714844 1000.61901855469 1003.98748779297 1001.95971679688 1010.70190429688 1004.55334472656 999.570068359375 996.327575683594 990.509521484375 1002.31256103516 992.176879882812 993.994140625 995.09619140625 1004.22064208984 1005.54907226562 1014.70263671875 1016.04327392578 1010.17260742188 1014.79016113281 1016.60675048828 1013.91284179688 1017.64709472656 1028.36047363281 1037.75158691406 1040.92492675781 1046.76892089844 1049.87878417969 1054.32604980469 1067.34045410156 1073.23510742188 1088.00524902344 1090.52416992188 1090.45056152344 1104.83947753906 1115.98937988281 1122.291015625 1124.47924804688 1136.2666015625
953.910034179688 953.359130859375 965.171142578125 973.11962890625 975.809204101562 971.342163085938 971.702087402344 965.9873046875 972.772094726562 974.653137207031 972.865234375 970.805297851562 967.67431640625 972.865783691406 975.249572753906 983.430541992188 981.254943847656 980.748962402344 982.880126953125 982.739074707031 983.246276855469 984.3212890625 973.09521484375 972.753662109375 976.1689453125 977.971435546875 970.039916992188 970.984436035156 981.661071777344 982.952941894531 985.483459472656 982.545959472656 985.696594238281 979.944396972656 978.851257324219 979.350036621094 991.600769042969 986.370239257812 988.916320800781 979.482482910156 975.739440917969 984.195129394531 974.002075195312 974.361633300781 974.871826171875 971.449829101562 972.064697265625 979.948120117188 987.111572265625 989.273498535156 976.998962402344 981.638671875 966.47119140625 967.242492675781 976.281127929688 971.419799804688 971.660522460938 967.464660644531 971.298217773438 982.394714355469 977.74560546875 978.6728515625 982.167419433594 978.121398925781 986.019348144531 985.891967773438 976.223083496094 978.35009765625 973.729370117188 962.686279296875 971.354125976562 974.8154296875 977.585021972656 980.607604980469 985.585083007812 988.164611816406 985.673400878906 990.11376953125 987.366455078125 985.513732910156 987.336791992188 988.025939941406 982.155456542969 984.916564941406 982.244323730469 982.779296875 993.228210449219 995.733581542969 990.922668457031 990.952270507812 996.124328613281 990.489624023438 996.358154296875 1003.6064453125 1008.62396240234 1006.40350341797 1002.43267822266 1003.18969726562 1002.02709960938 996.515197753906 997.505310058594 992.658203125 991.425659179688 988.19775390625 987.399597167969 994.150817871094 994.224670410156 996.061462402344 988.178649902344 992.285400390625 1000.33221435547 1010.27764892578 1005.45257568359 1009.21319580078 1006.69995117188 1011.84045410156 1011.10064697266 999.601867675781 997.908020019531 998.650268554688 990.510803222656 991.3525390625 990.759094238281 990.049255371094 993.0205078125 997.966430664062 1006.67358398438 1011.9150390625 1005.35827636719 1013.28021240234 1020.09118652344 1023.87872314453 1021.07720947266 1023.70623779297 1029.89587402344 1038.19250488281 1039.693359375 1051.37280273438 1048.32299804688 1064.88586425781 1067.10168457031 1078.97119140625 1082.57568359375 1094.61645507812 1104.12048339844 1110.85290527344 1116.64233398438 1135.04663085938 1134.6220703125 1138.16577148438
957.950500488281 953.105529785156 959.863037109375 965.263854980469 966.487915039062 968.392150878906 972.940795898438 970.876647949219 970.4423828125 973.204467773438 978.289672851562 977.639282226562 972.787780761719 968.214294433594 978.072814941406 977.560241699219 977.231994628906 975.232666015625 975.874206542969 976.20654296875 975.634643554688 988.389404296875 974.572570800781 968.49462890625 974.662231445312 969.487609863281 964.706298828125 969.273986816406 974.927917480469 976.99755859375 978.679260253906 977.532409667969 970.013610839844 976.317443847656 974.001770019531 978.896789550781 977.18896484375 977.532775878906 970.56396484375 977.993225097656 977.819763183594 982.175231933594 971.519592285156 980.08349609375 978.501220703125 966.119323730469 961.812744140625 968.554992675781 984.319274902344 979.085754394531 977.774291992188 976.464050292969 967.920593261719 972.256225585938 971.109375 965.465148925781 964.301635742188 959.748779296875 970.0947265625 977.757019042969 973.635620117188 984.27099609375 986.712219238281 977.71826171875 987.715087890625 987.03955078125 975.919250488281 973.237182617188 969.298156738281 968.474548339844 976.042663574219 976.616027832031 974.221435546875 983.583923339844 979.936584472656 979.355651855469 975.727478027344 991.578186035156 979.761413574219 989.308410644531 986.656127929688 986.164611816406 982.502868652344 984.471130371094 985.7578125 989.112915039062 1000.19201660156 1008.62145996094 994.908752441406 995.587097167969 994.837463378906 990.024780273438 1002.90533447266 1006.10021972656 1010.65911865234 1006.1484375 1003.81512451172 996.002624511719 997.949829101562 985.301696777344 992.68310546875 986.374755859375 991.624084472656 981.572326660156 982.890014648438 990.630920410156 985.450866699219 983.406433105469 987.784729003906 991.706787109375 993.073364257812 1006.22729492188 1000.986328125 1001.98602294922 1005.78948974609 1003.64031982422 994.415283203125 985.603332519531 998.325988769531 994.244445800781 998.704895019531 1003.87249755859 1003.12310791016 995.730590820312 989.544494628906 993.936706542969 1004.08026123047 1011.45159912109 1012.98431396484 1015.94439697266 1024.08862304688 1018.92230224609 1023.67828369141 1029.10400390625 1030.57080078125 1035.38439941406 1032.73034667969 1040.61560058594 1053.31530761719 1064.33044433594 1077.1787109375 1079.65356445312 1092.63208007812 1099.08251953125 1104.59436035156 1123.19165039062 1122.55822753906 1139.60986328125 1144.3515625 1150.78356933594
950.824462890625 953.2099609375 959.54541015625 959.092224121094 960.976928710938 968.304138183594 963.653869628906 965.049621582031 964.262817382812 964.218872070312 968.062622070312 976.237915039062 966.975708007812 977.130432128906 978.091918945312 977.243896484375 980.821533203125 980.393310546875 979.518310546875 971.154663085938 968.006408691406 973.751953125 976.9794921875 976.328674316406 968.410461425781 963.924743652344 967.503295898438 972.638793945312 964.079040527344 977.788513183594 982.6494140625 977.524475097656 973.618225097656 971.227905273438 969.474182128906 978.196655273438 972.834533691406 975.53173828125 972.257751464844 967.703186035156 969.065002441406 974.223022460938 965.000671386719 974.116577148438 977.948547363281 960.382934570312 964.245910644531 965.673461914062 967.216613769531 969.838012695312 975.134887695312 978.670715332031 969.731994628906 967.5615234375 971.884216308594 979.460693359375 969.429931640625 968.556518554688 968.280151367188 975.0908203125 982.672485351562 983.015747070312 985.59326171875 988.545288085938 987.074279785156 980.851623535156 975.448669433594 964.112487792969 966.695434570312 962.934814453125 976.375854492188 972.548095703125 973.050720214844 974.220397949219 974.4560546875 977.904602050781 973.796203613281 981.323791503906 989.991577148438 989.556396484375 989.909545898438 986.746520996094 982.869384765625 985.526184082031 989.397521972656 994.694030761719 1005.25817871094 1004.22961425781 1002.49078369141 998.081359863281 1001.59173583984 1001.30645751953 995.418395996094 1003.31280517578 1003.79656982422 998.241821289062 994.95458984375 997.495483398438 994.922119140625 987.546508789062 992.215881347656 994.279846191406 994.489074707031 993.130798339844 984.578186035156 983.720092773438 982.120788574219 980.915222167969 985.758056640625 990.250732421875 993.176452636719 993.024047851562 1003.0712890625 995.828125 988.24951171875 997.520446777344 997.197937011719 985.053283691406 989.55859375 993.594299316406 999.678100585938 1001.79553222656 1001.00451660156 995.289184570312 1002.70306396484 1004.1220703125 1001.56884765625 1006.41241455078 1017.25170898438 1022.4833984375 1026.73010253906 1028.13403320312 1028.69555664062 1030.50805664062 1037.55895996094 1034.4599609375 1039.59423828125 1050.61108398438 1053.84936523438 1064.93786621094 1086.41015625 1094.14038085938 1099.42114257812 1105.68811035156 1113.4365234375 1125.11450195312 1137.28466796875 1140.54797363281 1142.80603027344 1153.64294433594
946.942077636719 949.060485839844 954.32666015625 952.581237792969 956.44677734375 960.107238769531 959.267944335938 966.363342285156 965.109008789062 959.16064453125 967.074584960938 978.826049804688 974.515747070312 985.575744628906 983.888122558594 979.927001953125 977.049377441406 976.877136230469 980.967224121094 979.248779296875 976.073120117188 975.089477539062 969.454528808594 971.793701171875 963.892150878906 961.7314453125 971.481140136719 973.403503417969 976.762878417969 966.820068359375 975.798156738281 971.869323730469 975.262023925781 979.178039550781 973.39990234375 973.685791015625 971.181762695312 978.573486328125 973.445739746094 974.295837402344 970.152099609375 970.498229980469 966.038818359375 964.698669433594 970.253234863281 968.052001953125 965.105529785156 962.675964355469 970.6748046875 979.136352539062 974.021301269531 970.015563964844 973.657470703125 967.485412597656 973.771545410156 969.395751953125 969.863037109375 973.027160644531 971.466369628906 967.289916992188 976.081787109375 982.774536132812 991.780517578125 990.518127441406 985.057189941406 974.897338867188 973.431396484375 969.631042480469 959.547241210938 955.010925292969 967.089782714844 968.715881347656 966.083923339844 971.505737304688 971.8095703125 975.837036132812 970.40576171875 969.934753417969 975.257446289062 977.808410644531 983.448425292969 988.898864746094 977.189819335938 981.082397460938 987.287658691406 999.883911132812 996.362915039062 989.846313476562 1001.19781494141 999.249694824219 996.229309082031 991.037231445312 989.12939453125 995.148803710938 996.304321289062 997.793029785156 985.13818359375 980.830200195312 991.58154296875 984.960021972656 988.498229980469 988.04833984375 988.880187988281 981.052551269531 991.339965820312 988.420593261719 981.029663085938 987.071533203125 981.697387695312 984.076110839844 995.981262207031 987.825988769531 990.787292480469 983.813049316406 986.302490234375 986.706726074219 991.092346191406 986.748107910156 984.063903808594 1000.22906494141 993.202209472656 998.027648925781 1004.83752441406 997.354736328125 999.551025390625 1000.73474121094 1005.86535644531 1018.52954101562 1016.98309326172 1020.91925048828 1036.81457519531 1031.26586914062 1034.279296875 1034.65124511719 1039.72094726562 1042.12036132812 1050.41162109375 1051.35241699219 1059.45727539062 1070.16296386719 1089.60729980469 1098.80639648438 1106.29357910156 1112.92150878906 1122.54064941406 1130.47155761719 1146.736328125 1144.3232421875 1159.12426757812 1162.11975097656
942.910827636719 950.322509765625 950.465209960938 953.352905273438 963.889953613281 959.091247558594 957.383422851562 960.338623046875 959.399841308594 963.703857421875 958.624877929688 967.62646484375 971.117919921875 978.296936035156 981.212219238281 992.435241699219 987.914794921875 984.450927734375 971.911987304688 976.539001464844 975.675476074219 977.140625 975.431457519531 969.002319335938 971.6220703125 966.185485839844 972.502563476562 979.426391601562 975.325988769531 974.147644042969 976.515625 969.5986328125 973.003479003906 972.216979980469 963.106323242188 970.660278320312 973.364074707031 978.207824707031 967.44189453125 980.369812011719 979.5263671875 973.775146484375 967.125183105469 963.635681152344 962.353637695312 966.339599609375 965.757568359375 969.89892578125 969.701965332031 972.627075195312 970.955261230469 972.246337890625 974.09521484375 971.789428710938 970.444396972656 966.308227539062 967.57177734375 969.331359863281 971.863830566406 970.690246582031 971.75537109375 986.427124023438 993.118774414062 988.781066894531 982.494812011719 978.444213867188 978.980895996094 971.373352050781 963.299499511719 963.055603027344 961.266296386719 971.4755859375 973.508178710938 965.813659667969 971.403930664062 967.908264160156 969.696166992188 974.550048828125 974.765441894531 972.957763671875 974.651672363281 980.597595214844 981.053955078125 992.750610351562 988.407348632812 991.002990722656 989.882385253906 989.368591308594 994.318176269531 989.719970703125 995.874389648438 986.436889648438 991.526733398438 989.928344726562 990.430236816406 999.554931640625 992.987487792969 984.104675292969 982.240112304688 984.367919921875 983.350402832031 995.556091308594 991.132934570312 984.75341796875 988.878295898438 983.847106933594 978.393798828125 984.062194824219 985.720825195312 987.617431640625 981.49072265625 988.118713378906 987.513549804688 986.920837402344 986.244018554688 980.913757324219 982.492492675781 993.393188476562 992.746276855469 994.056335449219 996.149353027344 999.9169921875 1002.25469970703 997.846557617188 1003.61779785156 1004.44525146484 1011.36468505859 1021.57952880859 1025.98950195312 1032.8486328125 1038.1025390625 1039.74938964844 1036.19848632812 1037.17321777344 1048.07897949219 1060.68420410156 1059.921875 1065.41723632812 1067.11596679688 1070.56713867188 1091.84301757812 1095.33996582031 1112.68811035156 1124.14379882812 1123.24304199219 1134.81530761719 1139.07666015625 1147.12585449219 1155.70275878906 1158.67150878906
941.659362792969 942.788146972656 951.033325195312 955.714660644531 948.835510253906 955.897644042969 956.875915527344 957.138305664062 949.586120605469 953.050354003906 960.593627929688 966.562744140625 971.276428222656 975.072204589844 970.831787109375 980.859313964844 990.681213378906 990.744812011719 976.450500488281 974.226806640625 969.285217285156 976.870422363281 975.636657714844 975.778564453125 974.123291015625 965.454956054688 966.765075683594 967.256042480469 970.896606445312 970.298583984375 983.246276855469 975.783508300781 976.217407226562 970.392761230469 966.572265625 964.749938964844 972.41015625 975.522094726562 969.853820800781 981.374145507812 966.199584960938 970.395446777344 967.469055175781 963.090576171875 954.89013671875 963.739440917969 966.679260253906 966.85791015625 965.473510742188 967.048828125 960.331848144531 959.197265625 973.721740722656 969.026794433594 965.536987304688 963.703308105469 966.428771972656 968.19287109375 969.71337890625 967.006652832031 978.672912597656 982.123901367188 981.445922851562 979.851501464844 985.058410644531 979.179504394531 976.936401367188 972.617431640625 962.805236816406 955.127868652344 956.383605957031 958.656311035156 960.349731445312 968.491271972656 973.548522949219 970.254455566406 968.16259765625 978.629272460938 978.064392089844 971.703552246094 970.539306640625 974.646728515625 978.443115234375 979.609313964844 980.591430664062 984.48583984375 990.786926269531 989.581359863281 980.571228027344 983.576293945312 986.292236328125 985.924011230469 980.892272949219 986.076904296875 986.438537597656 993.827880859375 994.138854980469 986.233642578125 987.953674316406 981.248962402344 991.207092285156 981.312622070312 989.4912109375 985.771118164062 980.951721191406 985.438110351562 975.230041503906 982.142944335938 983.473266601562 988.935668945312 993.091125488281 985.164428710938 984.831420898438 983.104187011719 986.709533691406 985.933959960938 992.442626953125 986.416015625 989.045349121094 995.691711425781 999.6689453125 1007.59112548828 1010.56176757812 1001.19274902344 1003.68640136719 1010.08239746094 1016.38580322266 1020.80847167969 1025.24328613281 1029.56115722656 1032.77917480469 1042.56774902344 1047.88427734375 1044.42944335938 1052.69543457031 1058.08813476562 1062.84509277344 1074.58361816406 1063.37976074219 1072.37023925781 1094.28479003906 1105.84460449219 1107.37438964844 1117.57641601562 1116.78588867188 1127.40734863281 1140.13513183594 1152.31286621094 1159.57019042969 1168.65515136719
954.383056640625 953.228271484375 945.676940917969 961.9677734375 964.932800292969 963.865417480469 962.128601074219 965.5458984375 957.773254394531 952.632019042969 964.928466796875 967.216369628906 972.673461914062 972.450378417969 972.870727539062 984.38427734375 977.989074707031 970.692199707031 968.996948242188 972.405212402344 975.828979492188 975.791137695312 970.429077148438 973.980651855469 973.704956054688 973.036987304688 971.504943847656 972.052001953125 967.882995605469 978.788269042969 985.706848144531 973.588623046875 972.662353515625 965.946594238281 964.754821777344 965.537475585938 961.224243164062 972.003662109375 969.493774414062 985.048461914062 972.184753417969 970.031921386719 967.415100097656 965.883666992188 960.994873046875 961.929382324219 963.32861328125 969.421752929688 967.228698730469 970.733093261719 956.700500488281 956.679443359375 965.816040039062 967.801696777344 964.794006347656 966.282775878906 959.345397949219 958.738220214844 959.398803710938 974.07177734375 971.774047851562 978.529968261719 974.106689453125 968.465026855469 969.405029296875 973.018676757812 968.173034667969 968.827209472656 959.943725585938 952.760620117188 951.410400390625 955.375915527344 952.907775878906 961.521179199219 967.700927734375 972.169860839844 961.841186523438 974.856750488281 979.144836425781 979.231018066406 981.175048828125 975.794311523438 977.89892578125 972.099609375 972.128356933594 974.514221191406 980.426513671875 975.430114746094 972.83203125 977.122314453125 973.810546875 976.462036132812 978.395263671875 979.15234375 980.572021484375 974.146545410156 980.333740234375 982.897888183594 985.215148925781 990.718566894531 986.14306640625 991.524963378906 991.061950683594 977.365539550781 981.936462402344 983.349365234375 984.434326171875 984.056335449219 988.016540527344 993.321472167969 993.702575683594 987.336608886719 986.689880371094 996.332702636719 994.132080078125 1003.94720458984 997.7509765625 999.226440429688 996.688171386719 996.276062011719 1000.13061523438 1017.75933837891 1015.99383544922 1008.70922851562 1010.58563232422 1018.58734130859 1018.15484619141 1038.29809570312 1036.43432617188 1037.01916503906 1040.40844726562 1041.494140625 1048.62463378906 1053.31640625 1061.23864746094 1064.72094726562 1071.22619628906 1080.26672363281 1081.05029296875 1080.57531738281 1096.78332519531 1103.42724609375 1103.98803710938 1122.60632324219 1126.44665527344 1132.69604492188 1151.23645019531 1163.95239257812 1171.94873046875 1163.84289550781
956.770690917969 957.669128417969 955.589904785156 958.996154785156 967.533752441406 962.614624023438 963.654296875 967.240478515625 968.02392578125 965.617919921875 963.175659179688 965.557189941406 967.914489746094 976.145385742188 978.468200683594 973.83740234375 976.42041015625 966.625366210938 969.616821289062 978.933288574219 976.608947753906 969.536865234375 964.81591796875 967.596252441406 963.287719726562 959.650207519531 966.849182128906 972.516906738281 967.586059570312 974.606689453125 982.303527832031 971.997192382812 972.315551757812 972.243286132812 957.838134765625 962.772033691406 966.835205078125 968.772705078125 974.670166015625 982.296142578125 977.853759765625 978.283142089844 968.326965332031 965.772827148438 966.563293457031 966.764526367188 966.975036621094 974.760070800781 968.879699707031 969.703674316406 965.765014648438 965.650085449219 966.682312011719 972.2451171875 971.840270996094 970.344848632812 955.572143554688 954.870300292969 967.261413574219 969.453674316406 966.817321777344 969.465759277344 979.348022460938 974.309875488281 980.922912597656 976.474792480469 972.305603027344 965.680419921875 957.089538574219 949.903747558594 954.448852539062 958.487121582031 959.746032714844 966.081115722656 966.675964355469 978.443420410156 970.637817382812 978.921813964844 974.193115234375 976.657653808594 977.600708007812 973.022888183594 969.224731445312 965.657165527344 970.411499023438 969.594665527344 969.721496582031 973.740661621094 978.490600585938 984.924072265625 976.732421875 968.528137207031 980.752319335938 974.984680175781 983.835083007812 984.476440429688 987.582153320312 988.797790527344 984.937683105469 985.35986328125 983.628356933594 982.479431152344 986.570922851562 978.753234863281 984.670227050781 981.862670898438 976.797912597656 990.78369140625 989.1875 997.220336914062 991.881652832031 989.629211425781 1000.34912109375 1002.32806396484 1003.53253173828 1003.05114746094 1016.26678466797 1003.32751464844 1011.15551757812 1008.05993652344 1014.86987304688 1022.78723144531 1014.65679931641 1013.09307861328 1015.84204101562 1019.22454833984 1023.96899414062 1039.046875 1035.40478515625 1048.2216796875 1056.79846191406 1046.87170410156 1055.64025878906 1059.78369140625 1062.70043945312 1071.55627441406 1071.94079589844 1079.71240234375 1087.15612792969 1081.466796875 1094.26220703125 1099.35290527344 1104.90893554688 1120.34387207031 1125.47741699219 1138.43505859375 1158.15393066406 1169.54125976562 1181.86779785156 1163.322265625
950.527526855469 954.650207519531 959.326782226562 965.052856445312 961.037353515625 954.400207519531 959.869140625 968.9521484375 966.346374511719 970.996154785156 973.187744140625 970.8525390625 970.44677734375 982.211181640625 982.879516601562 977.754638671875 972.305786132812 970.391784667969 978.474853515625 981.259338378906 971.632873535156 970.948852539062 971.27734375 967.696716308594 969.308898925781 966.194396972656 960.418518066406 965.568420410156 959.434448242188 969.275634765625 974.661743164062 983.259704589844 974.722473144531 966.791564941406 966.120300292969 967.834411621094 970.366455078125 967.943725585938 964.744689941406 977.892883300781 977.697937011719 972.770812988281 967.471801757812 966.278259277344 963.965698242188 961.20361328125 969.249450683594 968.711059570312 963.51318359375 964.820495605469 974.937133789062 971.652160644531 978.450378417969 980.616027832031 967.147827148438 966.511535644531 972.327758789062 969.628112792969 967.405700683594 967.364379882812 965.00341796875 968.05810546875 974.090026855469 976.228637695312 972.251708984375 968.133728027344 968.794555664062 965.992736816406 962.289245605469 950.567687988281 956.639831542969 968.5341796875 970.534851074219 965.235656738281 964.812927246094 974.494750976562 971.710327148438 980.446716308594 978.411560058594 970.090759277344 974.915100097656 965.40966796875 961.2265625 957.183837890625 962.964721679688 971.355773925781 973.679870605469 977.463928222656 991.775329589844 979.855834960938 977.387084960938 964.342712402344 972.992980957031 977.559020996094 974.917785644531 985.959594726562 980.413391113281 980.0517578125 984.561828613281 988.094299316406 981.586486816406 983.078491210938 984.189880371094 986.4814453125 993.647521972656 988.188415527344 987.645629882812 987.980651855469 989.270385742188 991.719482421875 990.413330078125 998.763366699219 991.260803222656 1001.72973632812 1002.76751708984 1008.78955078125 1013.95678710938 1011.39825439453 1004.60363769531 1004.89056396484 1008.74786376953 1024.09594726562 1017.85974121094 1015.23059082031 1018.73492431641 1023.01971435547 1029.86560058594 1039.97131347656 1041.68493652344 1050.68408203125 1054.79296875 1058.74829101562 1060.68640136719 1054.40759277344 1058.73754882812 1064.90637207031 1082.69030761719 1086.4619140625 1080.36987304688 1081.54809570312 1096.49084472656 1101.74377441406 1111.419921875 1117.02575683594 1124.33325195312 1134.58825683594 1152.76672363281 1168.30700683594 1176.11401367188 1156.85766601562
942.548156738281 951.513916015625 966.285583496094 964.653381347656 957.349975585938 956.249328613281 970.387573242188 967.611938476562 968.599792480469 972.248046875 981.380798339844 985.951477050781 981.335693359375 970.510986328125 970.894104003906 974.115173339844 975.55859375 976.246276855469 973.165161132812 978.917053222656 969.658630371094 975.61083984375 968.580749511719 974.750610351562 967.042419433594 965.390747070312 962.668212890625 966.244079589844 965.641662597656 970.062438964844 971.936157226562 974.494873046875 972.90576171875 965.447204589844 970.465087890625 968.997192382812 971.592895507812 974.566345214844 967.690307617188 969.773376464844 972.4267578125 965.671875 969.23876953125 967.625366210938 961.184143066406 964.250244140625 960.288696289062 962.03955078125 964.144409179688 970.733581542969 967.432922363281 968.06103515625 969.822448730469 968.976684570312 967.047729492188 968.162841796875 975.056884765625 974.96142578125 975.553649902344 963.971496582031 958.690979003906 962.140563964844 965.640563964844 971.446594238281 969.886291503906 967.272705078125 960.662536621094 963.237670898438 963.686340332031 960.950073242188 960.321350097656 964.721069335938 962.691223144531 972.070739746094 970.843627929688 967.771911621094 976.586181640625 972.28466796875 971.984497070312 971.918762207031 965.250732421875 970.447082519531 960.385437011719 968.273254394531 971.137023925781 970.105651855469 973.027526855469 978.509765625 980.62548828125 986.166320800781 986.7109375 976.784484863281 974.553039550781 966.969848632812 966.520751953125 972.159301757812 977.274291992188 976.045166015625 979.472045898438 979.158447265625 985.787475585938 981.35888671875 981.507568359375 990.250671386719 991.716186523438 993.151184082031 996.185180664062 995.808654785156 992.127380371094 990.416870117188 993.777160644531 996.664794921875 996.368347167969 998.916564941406 995.967590332031 1002.03179931641 1000.54699707031 1001.27899169922 1004.18768310547 1005.17797851562 995.438171386719 1006.50891113281 1008.29284667969 1006.80926513672 1020.59191894531 1023.49224853516 1031.52990722656 1036.70056152344 1049.24694824219 1047.35095214844 1053.86303710938 1055.94604492188 1060.96752929688 1056.26184082031 1063.14477539062 1061.53540039062 1073.82507324219 1085.69995117188 1095.29711914062 1088.64196777344 1091.78198242188 1107.54125976562 1109.98327636719 1112.85656738281 1132.15209960938 1135.22839355469 1156.09741210938 1161.22631835938 1165.423828125 1151.03747558594
954.104553222656 950.711242675781 960.945739746094 964.922607421875 956.132568359375 958.578979492188 964.338745117188 972.547058105469 966.129333496094 962.107055664062 975.933532714844 979.431274414062 975.952758789062 976.597412109375 966.167724609375 978.168151855469 974.0966796875 978.067504882812 975.617858886719 973.736145019531 971.626586914062 979.240600585938 970.465881347656 973.204345703125 967.570739746094 962.334289550781 967.242614746094 971.515686035156 968.16650390625 970.133544921875 964.823303222656 975.331665039062 969.651062011719 965.533874511719 978.828552246094 972.779602050781 968.905517578125 970.620971679688 957.906372070312 957.125305175781 968.998413085938 967.368957519531 956.272338867188 958.90771484375 961.413635253906 967.639587402344 961.999633789062 960.860290527344 969.028259277344 968.670837402344 968.465759277344 963.037231445312 970.866455078125 966.793090820312 963.75341796875 962.782043457031 970.461853027344 972.917663574219 968.772094726562 970.65576171875 964.841186523438 955.050537109375 956.288208007812 958.948059082031 962.046203613281 968.588928222656 963.380798339844 956.07763671875 953.3857421875 963.168518066406 966.681823730469 964.196105957031 968.075317382812 965.958129882812 968.591735839844 966.953735351562 963.150512695312 968.271057128906 969.023986816406 966.723876953125 969.7548828125 967.649475097656 967.697204589844 966.457153320312 977.54296875 973.377197265625 986.477722167969 978.784729003906 978.325317382812 973.842468261719 977.6298828125 977.718872070312 973.981994628906 975.605346679688 976.200134277344 969.169372558594 977.759582519531 980.969055175781 985.729431152344 980.549499511719 978.144958496094 980.977783203125 984.813415527344 988.537475585938 989.652099609375 991.128845214844 1001.03540039062 995.141418457031 993.049133300781 992.320495605469 990.633666992188 996.262390136719 990.653381347656 993.16162109375 992.852172851562 999.589111328125 1000.78936767578 998.953918457031 1001.34399414062 1007.23767089844 1007.92352294922 1006.51885986328 1006.12603759766 1012.1025390625 1025.36157226562 1024.07189941406 1039.91235351562 1038.73681640625 1048.43041992188 1048.03332519531 1051.10034179688 1048.73327636719 1052.27465820312 1063.00219726562 1068.73767089844 1071.1923828125 1076.28662109375 1080.19653320312 1091.70874023438 1094.84460449219 1099.43359375 1104.79760742188 1095.91491699219 1099.83508300781 1106.39367675781 1122.61376953125 1142.50891113281 1142.00244140625 1147.7109375 1144.05590820312
955.868408203125 960.461791992188 964.108520507812 964.557006835938 956.957092285156 968.142150878906 960.71826171875 965.354553222656 966.350280761719 960.638122558594 970.631774902344 975.130798339844 968.14892578125 966.479431152344 974.007507324219 978.29638671875 974.912841796875 975.266357421875 969.094482421875 976.215270996094 971.871032714844 971.232482910156 973.209045410156 968.67529296875 969.677124023438 962.575866699219 962.055847167969 972.759216308594 966.730346679688 962.049987792969 967.639404296875 973.543762207031 983.199401855469 973.325439453125 975.3349609375 969.835754394531 964.997436523438 970.073669433594 960.791870117188 961.8447265625 958.252624511719 965.954162597656 960.874450683594 964.321472167969 961.060424804688 968.760803222656 968.616455078125 970.820251464844 975.882507324219 970.775390625 966.797119140625 963.926208496094 963.602233886719 958.197448730469 961.544799804688 961.766479492188 960.11572265625 966.22021484375 966.814453125 961.113037109375 966.460021972656 953.812133789062 945.741821289062 946.023193359375 951.650451660156 958.012084960938 957.094055175781 945.645446777344 954.774169921875 956.126037597656 964.914428710938 965.998352050781 966.3671875 968.452880859375 964.836181640625 962.169372558594 968.962585449219 969.712463378906 959.841857910156 960.228271484375 965.958312988281 961.769775390625 975.966430664062 968.096313476562 969.14599609375 968.759094238281 975.533813476562 976.968933105469 975.919128417969 980.767822265625 969.292053222656 970.921142578125 971.578186035156 968.560363769531 973.710327148438 970.028198242188 978.368957519531 983.174743652344 987.170104980469 987.628234863281 984.587341308594 983.234375 984.445983886719 993.110961914062 989.749572753906 993.362487792969 997.850830078125 990.303161621094 990.052795410156 982.505981445312 988.445556640625 993.967529296875 1001.82202148438 999.461303710938 996.694519042969 1001.95104980469 1003.08972167969 996.389038085938 1005.65203857422 1002.75671386719 1013.76605224609 1015.52551269531 1003.41619873047 1011.41381835938 1023.29663085938 1027.79797363281 1037.76123046875 1040.78369140625 1052.39758300781 1050.22277832031 1052.16906738281 1054.06457519531 1060.51672363281 1067.60278320312 1087.21044921875 1080.21044921875 1084.02966308594 1081.14672851562 1095.232421875 1104.26916503906 1098.24450683594 1104.25341796875 1100.17504882812 1106.380859375 1106.310546875 1119.06274414062 1116.923828125 1129.19091796875 1137.51440429688 1145.89050292969
952.733093261719 948.138610839844 957.976135253906 959.309265136719 961.495422363281 966.861572265625 965.950805664062 967.373046875 967.971435546875 963.649780273438 965.78271484375 977.95849609375 970.9443359375 967.154418945312 969.321105957031 977.161071777344 968.013916015625 965.249572753906 966.081909179688 972.119079589844 976.365112304688 972.057006835938 975.95263671875 967.060180664062 960.684936523438 965.761474609375 962.427490234375 972.724731445312 976.864013671875 972.1259765625 972.152648925781 975.051940917969 982.729370117188 981.460876464844 966.958435058594 963.882141113281 963.529968261719 961.476928710938 958.597900390625 960.426818847656 961.493041992188 966.828063964844 964.036926269531 957.218078613281 966.750244140625 971.908142089844 970.695068359375 964.643127441406 973.188232421875 970.448303222656 967.945007324219 965.184631347656 965.820678710938 951.245239257812 953.582824707031 952.991394042969 957.255493164062 960.015563964844 959.340698242188 957.393432617188 958.869689941406 949.3017578125 951.517700195312 953.201538085938 955.252502441406 952.361022949219 943.935180664062 951.198852539062 951.173522949219 957.586547851562 959.493041992188 961.905334472656 959.309692382812 969.892639160156 961.873901367188 953.941528320312 957.40966796875 960.1826171875 964.235961914062 962.25830078125 954.843078613281 962.859497070312 965.766784667969 964.120422363281 977.721374511719 970.125427246094 971.015625 971.901245117188 972.470153808594 975.485778808594 972.543701171875 973.006164550781 979.253967285156 974.281494140625 979.8232421875 974.202514648438 986.709167480469 985.707397460938 990.04931640625 979.751770019531 978.746948242188 986.561645507812 985.143920898438 989.884155273438 986.049133300781 992.452331542969 995.283874511719 991.939758300781 987.730529785156 991.884155273438 986.959777832031 991.444396972656 999.893005371094 998.298522949219 1004.51977539062 1002.91156005859 1004.45697021484 998.131408691406 988.018615722656 999.049682617188 1015.68048095703 1013.19104003906 1012.08312988281 1015.34173583984 1032.31982421875 1027.529296875 1038.00634765625 1045.76647949219 1051.93017578125 1050.32604980469 1047.07995605469 1063.04931640625 1065.00036621094 1079.07934570312 1090.10766601562 1086.57580566406 1090.45666503906 1084.94909667969 1098.20422363281 1101.29357910156 1105.0126953125 1097.00207519531 1101.07434082031 1103.99377441406 1108.7099609375 1110.51135253906 1106.93200683594 1107.61511230469 1127.64501953125 1128.67529296875
947.666809082031 949.635681152344 956.836059570312 960.958740234375 964.304260253906 965.205749511719 974.56494140625 967.647705078125 980.905029296875 970.2099609375 962.777709960938 965.668090820312 975.004699707031 973.692260742188 967.571228027344 966.500244140625 969.692260742188 971.604614257812 967.495788574219 968.294677734375 967.176696777344 970.375610351562 972.064453125 965.842163085938 962.285705566406 959.787231445312 959.884765625 965.671630859375 968.765258789062 973.097290039062 969.128601074219 972.485229492188 973.083129882812 973.411315917969 967.72509765625 964.320129394531 955.60546875 951.372924804688 960.439636230469 952.275634765625 956.748413085938 963.88525390625 964.310607910156 960.890930175781 967.427429199219 962.270324707031 969.784423828125 973.743103027344 971.418090820312 976.2685546875 964.968811035156 971.388671875 965.425903320312 959.076904296875 953.135986328125 954.264099121094 949.438171386719 951.855773925781 967.628723144531 962.023376464844 950.238403320312 945.135070800781 941.797058105469 949.7265625 949.953308105469 957.37890625 950.471435546875 952.887451171875 961.214538574219 959.204040527344 963.912780761719 965.474609375 970.713745117188 966.345336914062 960.474182128906 959.423278808594 959.733703613281 968.916320800781 967.649108886719 963.369995117188 959.550109863281 965.438903808594 978.531433105469 982.996887207031 968.616821289062 969.955322265625 972.76904296875 969.234924316406 971.092346191406 969.265625 972.94580078125 978.827453613281 977.682434082031 977.308959960938 971.657470703125 967.515747070312 976.091613769531 978.032897949219 979.43310546875 984.223266601562 983.339416503906 981.892944335938 982.519226074219 980.599060058594 982.990356445312 993.346862792969 986.452819824219 982.605346679688 980.560485839844 977.670166015625 990.504150390625 985.981994628906 997.576782226562 1000.00158691406 1000.27716064453 1002.00567626953 1003.50256347656 996.502746582031 999.843383789062 995.889404296875 1012.490234375 1015.38995361328 1015.70123291016 1020.07885742188 1033.75842285156 1030.39477539062 1033.4091796875 1031.384765625 1042.57373046875 1038.939453125 1049.48852539062 1055.36474609375 1070.42224121094 1077.24499511719 1085.88098144531 1091.36328125 1089.02978515625 1098.04748535156 1098.61962890625 1094.92834472656 1101.28161621094 1093.46154785156 1101.46984863281 1101.89135742188 1102.43884277344 1105.130859375 1093.93591308594 1103.43054199219 1112.30065917969 1122.732421875
957.116333007812 954.148620605469 952.097106933594 958.575927734375 972.836669921875 965.966735839844 977.684387207031 973.110473632812 973.995483398438 969.556213378906 977.914123535156 978.983764648438 977.390563964844 979.145080566406 973.876098632812 978.199096679688 971.563537597656 969.483581542969 966.648498535156 963.416809082031 970.214233398438 969.373718261719 961.976745605469 959.204895019531 959.866027832031 957.650634765625 962.390930175781 961.708801269531 961.613891601562 967.653991699219 971.084289550781 970.7412109375 958.415893554688 963.616516113281 963.303161621094 958.254577636719 958.285888671875 947.516357421875 958.121276855469 958.684753417969 955.91455078125 954.264038085938 960.477294921875 967.713989257812 961.572326660156 957.480529785156 963.339172363281 976.203247070312 980.803527832031 978.96435546875 962.887817382812 967.2685546875 965.593627929688 966.073974609375 964.39208984375 957.538024902344 942.804992675781 948.542663574219 954.764892578125 959.7705078125 955.132446289062 949.087585449219 942.829528808594 949.96533203125 959.630065917969 965.362670898438 959.933837890625 960.514953613281 966.771911621094 958.358703613281 960.4541015625 970.479248046875 968.286193847656 966.637023925781 965.4189453125 967.743103027344 970.364929199219 960.74072265625 967.372619628906 962.882080078125 969.807067871094 966.897094726562 979.357482910156 973.201721191406 979.468139648438 964.786987304688 973.075561523438 962.1171875 965.106872558594 973.169677734375 972.802490234375 974.442443847656 973.409729003906 975.710754394531 972.461608886719 968.851013183594 971.04833984375 975.010925292969 974.575317382812 978.049621582031 984.519775390625 981.704467773438 984.809997558594 979.126403808594 983.691833496094 976.911254882812 979.59033203125 975.96484375 975.609741210938 978.623229980469 978.170959472656 985.086791992188 982.399780273438 994.7109375 1001.06463623047 998.734741210938 1005.82897949219 997.625549316406 1006.53594970703 997.87548828125 1007.86175537109 1022.00189208984 1021.97924804688 1027.75463867188 1029.2080078125 1024.10363769531 1029.27453613281 1039.85888671875 1044.14758300781 1040.80590820312 1046.13720703125 1063.99780273438 1074.08251953125 1071.77111816406 1081.19458007812 1090.95471191406 1087.59008789062 1095.9892578125 1095.40112304688 1097.0029296875 1093.103515625 1089.95983886719 1093.40783691406 1085.79284667969 1091.42102050781 1091.71630859375 1096.28454589844 1104.7255859375 1103.29699707031 1109.95227050781
961.225341796875 969.243774414062 963.446350097656 961.812561035156 970.776428222656 973.510314941406 976.949768066406 972.423095703125 966.599060058594 970.855712890625 973.384033203125 975.51611328125 980.7001953125 975.054931640625 972.535827636719 975.223083496094 969.794921875 969.954895019531 974.864929199219 973.704528808594 979.064453125 976.284606933594 967.040405273438 966.90869140625 963.698364257812 960.831787109375 966.804260253906 965.306274414062 964.528198242188 968.741821289062 973.965026855469 968.215515136719 961.875427246094 963.776123046875 966.242919921875 952.245788574219 951.782409667969 955.009460449219 955.602722167969 964.329345703125 957.993408203125 954.619750976562 953.759155273438 963.641479492188 958.425842285156 958.762817382812 958.849426269531 967.491027832031 968.246215820312 957.697387695312 956.171997070312 956.286071777344 960.616577148438 955.63134765625 956.999633789062 954.203796386719 940.612854003906 941.448547363281 953.688171386719 957.925537109375 948.604064941406 954.693359375 956.352294921875 954.170654296875 967.3232421875 969.7666015625 963.004760742188 961.054504394531 950.729797363281 957.729553222656 954.106140136719 961.216979980469 962.385986328125 961.617553710938 954.80419921875 960.054443359375 965.237670898438 964.292419433594 965.068420410156 963.551879882812 964.752502441406 971.999938964844 973.288818359375 979.803894042969 974.981506347656 973.11767578125 967.934692382812 967.566772460938 979.359802246094 969.561706542969 972.186462402344 970.043273925781 978.293518066406 979.241638183594 973.236389160156 971.820861816406 972.677978515625 967.229248046875 971.385498046875 972.950439453125 978.558410644531 981.386962890625 980.14208984375 979.111083984375 986.600830078125 976.041381835938 972.129821777344 970.768188476562 976.333862304688 979.0693359375 983.5888671875 983.744079589844 984.936157226562 986.908081054688 995.049133300781 993.668273925781 992.539123535156 999.924499511719 1008.87359619141 1005.70208740234 1003.15734863281 1011.0234375 1020.07257080078 1022.59173583984 1019.85650634766 1024.10034179688 1017.46789550781 1031.97290039062 1037.05603027344 1049.62463378906 1048.61376953125 1056.0537109375 1067.27685546875 1076.03259277344 1081.27099609375 1086.97705078125 1089.05932617188 1084.60681152344 1087.64733886719 1099.650390625 1086.46154785156 1093.60693359375 1093.68884277344 1093.791015625 1091.05712890625 1090.0419921875 1096.87072753906 1098.12329101562 1104.68872070312 1096.353515625
963.740539550781 966.606628417969 973.412780761719 978.394226074219 973.395935058594 980.533935546875 981.294006347656 973.885803222656 968.033813476562 973.474304199219 973.046020507812 970.564758300781 976.624938964844 972.516357421875 975.182189941406 965.614440917969 966.400329589844 974.392883300781 972.199523925781 973.976806640625 967.154357910156 960.506958007812 959.520751953125 960.7978515625 964.947570800781 967.067810058594 973.571411132812 964.109252929688 971.44580078125 964.835083007812 967.583679199219 962.325500488281 965.318481445312 970.866638183594 966.381774902344 956.881958007812 957.038452148438 959.401123046875 956.175415039062 959.026977539062 962.507263183594 957.271606445312 958.147033691406 953.305358886719 952.71142578125 955.774719238281 949.551452636719 952.5986328125 953.4296875 948.863403320312 953.073669433594 952.773559570312 957.038513183594 959.314575195312 948.550720214844 951.933532714844 946.095642089844 951.621520996094 949.018676757812 951.782958984375 956.295166015625 951.850280761719 942.289978027344 947.36474609375 963.925842285156 964.886413574219 952.0244140625 949.621276855469 956.848083496094 960.97509765625 962.488830566406 951.460571289062 958.081298828125 957.988220214844 962.340698242188 959.938537597656 958.76904296875 958.51953125 962.629211425781 966.805908203125 973.9267578125 980.96142578125 981.881103515625 977.349975585938 974.205017089844 968.041687011719 967.441528320312 968.526428222656 972.516418457031 969.176391601562 972.76318359375 979.428161621094 978.480041503906 978.737915039062 976.440185546875 966.349792480469 973.130432128906 965.35693359375 966.104675292969 973.850769042969 977.309265136719 980.53564453125 983.3447265625 984.091064453125 977.402648925781 974.727722167969 972.360473632812 977.715209960938 978.450988769531 978.723266601562 982.386413574219 981.689819335938 983.418884277344 982.496643066406 986.1435546875 994.935913085938 986.663330078125 991.6484375 1010.35052490234 1008.48278808594 1005.14538574219 1004.95758056641 1009.88995361328 1018.26531982422 1015.88256835938 1016.19458007812 1024.65173339844 1026.37060546875 1034.57312011719 1039.37524414062 1047.54870605469 1055.22338867188 1066.08166503906 1078.27307128906 1089.30126953125 1086.740234375 1085.88549804688 1090.33959960938 1083.97277832031 1090.15466308594 1090.078125 1091.64978027344 1083.21472167969 1082.17443847656 1089.05261230469 1090.90698242188 1101.89184570312 1101.24182128906 1103.01770019531 1088.36730957031
956.658203125 968.287170410156 973.32275390625 967.694458007812 976.211853027344 979.118957519531 977.49609375 970.827941894531 967.292297363281 968.197387695312 969.84130859375 973.4814453125 973.642578125 974.063598632812 967.977722167969 966.640014648438 967.786193847656 970.169921875 969.720764160156 963.728393554688 955.238891601562 953.843566894531 948.017822265625 956.324279785156 967.337951660156 971.799865722656 969.766357421875 967.970275878906 968.037658691406 973.095642089844 964.711059570312 959.663208007812 960.235717773438 963.097717285156 963.170837402344 963.021911621094 967.067199707031 961.535400390625 966.599670410156 962.052124023438 961.498962402344 952.427856445312 958.10693359375 959.194702148438 954.5693359375 954.858093261719 952.712768554688 943.528076171875 949.839172363281 945.353515625 941.014953613281 943.159423828125 947.78076171875 958.828674316406 952.016418457031 948.422668457031 952.716369628906 948.022583007812 958.703063964844 961.843078613281 955.175720214844 951.759765625 940.635498046875 946.019653320312 958.865661621094 958.266479492188 945.758056640625 952.856506347656 949.859191894531 957.808410644531 950.84521484375 956.029907226562 948.741333007812 952.356689453125 954.823486328125 953.368469238281 959.120361328125 956.773315429688 959.764282226562 964.236145019531 970.085205078125 977.878967285156 983.558898925781 977.628051757812 981.064514160156 975.732299804688 968.665832519531 974.20751953125 969.061950683594 970.114685058594 968.98486328125 974.440002441406 979.021118164062 980.647338867188 967.823913574219 962.431274414062 973.735290527344 970.714782714844 964.233825683594 972.741455078125 977.342529296875 980.822204589844 984.067077636719 989.893615722656 989.235168457031 988.216735839844 979.072875976562 978.656555175781 988.912902832031 989.972900390625 992.954284667969 986.222595214844 982.337341308594 982.640808105469 983.16455078125 987.765441894531 988.374084472656 994.964904785156 1005.24383544922 1000.54949951172 1001.86944580078 1002.30975341797 1008.53839111328 1015.58868408203 1014.89208984375 1011.75927734375 1010.67553710938 1022.57354736328 1034.4501953125 1037.7919921875 1053.76403808594 1054.18969726562 1059.33813476562 1073.95104980469 1089.64611816406 1089.06860351562 1089.419921875 1084.43359375 1083.3388671875 1082.25341796875 1085.15637207031 1083.32666015625 1077.23010253906 1070.15234375 1075.32885742188 1083.2333984375 1099.05029296875 1089.25561523438 1092.55578613281 1094.68005371094
962.760375976562 964.380004882812 967.174072265625 969.03125 969.15478515625 974.150695800781 970.963806152344 969.096801757812 970.156066894531 971.860595703125 975.791748046875 981.442199707031 979.995361328125 975.474487304688 970.134521484375 964.552001953125 972.180847167969 973.398742675781 966.41357421875 956.168884277344 952.225402832031 949.807922363281 940.643432617188 952.806457519531 965.341125488281 969.313903808594 967.545227050781 963.145263671875 967.060119628906 975.037475585938 959.696960449219 955.7529296875 960.013305664062 965.034423828125 963.386291503906 962.664367675781 964.418151855469 965.781433105469 962.950134277344 953.324340820312 953.028015136719 951.879272460938 953.353332519531 959.7451171875 962.523803710938 956.901184082031 953.45263671875 945.235412597656 950.436950683594 944.032104492188 943.633178710938 932.791809082031 950.588562011719 952.549560546875 956.77880859375 950.9072265625 960.031799316406 962.622680664062 956.44091796875 956.097534179688 952.338317871094 949.435424804688 952.742797851562 950.097595214844 955.792114257812 955.349975585938 953.34716796875 951.372131347656 951.028625488281 953.080322265625 952.820251464844 955.021484375 954.20166015625 956.968566894531 966.420654296875 957.958251953125 960.590209960938 962.996948242188 967.413269042969 960.301025390625 963.577941894531 970.11279296875 974.447265625 977.677734375 974.934020996094 970.862487792969 966.053588867188 969.000732421875 974.119262695312 972.138488769531 968.400268554688 965.925048828125 969.744934082031 968.665344238281 970.827453613281 975.958984375 975.57763671875 976.892944335938 974.016479492188 972.014099121094 982.208129882812 982.615356445312 980.765991210938 986.584106445312 1000.03503417969 986.743103027344 978.792419433594 982.187316894531 986.609069824219 989.101013183594 983.612548828125 983.357421875 993.783630371094 985.705749511719 987.880310058594 992.244262695312 987.150329589844 998.905334472656 1008.02264404297 1004.83508300781 996.827575683594 995.7109375 988.93212890625 998.046203613281 1007.34484863281 1004.59332275391 1015.4482421875 1011.34619140625 1023.66754150391 1031.22131347656 1047.09643554688 1046.203125 1056.46350097656 1070.07165527344 1074.88549804688 1080.03442382812 1089.87292480469 1086.19091796875 1079.41979980469 1076.60192871094 1072.33312988281 1073.61840820312 1068.30529785156 1061.39074707031 1069.00988769531 1069.49108886719 1074.146484375 1080.95373535156 1082.4482421875 1079.66943359375
969.474487304688 966.548217773438 968.961791992188 966.773315429688 972.669860839844 978.788757324219 970.70654296875 972.973083496094 975.002502441406 976.721008300781 974.634826660156 974.295227050781 976.633178710938 972.261657714844 976.211975097656 972.176635742188 978.462951660156 975.48095703125 970.052856445312 964.370300292969 955.000549316406 950.523620605469 946.820556640625 948.872802734375 956.802734375 956.876708984375 957.427062988281 952.47802734375 955.251342773438 963.883850097656 958.469848632812 956.9482421875 957.574768066406 968.949645996094 963.867553710938 958.627807617188 961.622924804688 964.265197753906 953.027099609375 954.402709960938 954.04541015625 966.461975097656 957.943603515625 955.059814453125 958.015869140625 955.280639648438 951.305419921875 945.725708007812 950.978576660156 943.050109863281 944.250549316406 947.0556640625 959.989440917969 951.643615722656 956.412109375 954.7607421875 953.580688476562 954.939819335938 962.627685546875 959.63232421875 950.946472167969 955.391845703125 955.064758300781 952.690856933594 950.931640625 959.048522949219 948.456787109375 955.561218261719 953.287170410156 952.648010253906 943.47216796875 955.273498535156 966.000915527344 967.392211914062 964.435424804688 959.038635253906 960.278991699219 965.788635253906 959.385925292969 960.139953613281 967.555053710938 975.000427246094 969.672119140625 970.668090820312 971.152587890625 967.686279296875 966.556701660156 971.149841308594 973.225280761719 976.097290039062 970.781494140625 964.869934082031 965.436828613281 962.49853515625 970.771423339844 979.197082519531 973.972778320312 974.451293945312 978.640686035156 976.025756835938 973.606323242188 986.659606933594 987.747131347656 982.981872558594 996.424560546875 987.981018066406 975.627868652344 983.504638671875 988.66650390625 985.995178222656 985.098266601562 988.028198242188 991.362243652344 984.617126464844 988.55419921875 991.997375488281 988.661926269531 996.740051269531 1001.23040771484 1007.03460693359 990.597961425781 997.77490234375 998.279541015625 994.808837890625 1001.26806640625 1010.34643554688 1012.98529052734 1012.22784423828 1016.39642333984 1024.59057617188 1041.15393066406 1039.22058105469 1041.73962402344 1062.79931640625 1072.75390625 1082.81909179688 1098.162109375 1087.84484863281 1072.53991699219 1066.3154296875 1068.39916992188 1065.93017578125 1067.13354492188 1058.0859375 1059.73583984375 1065.8505859375 1068.43981933594 1079.28442382812 1069.84020996094 1072.30126953125
974.233520507812 974.440856933594 968.210144042969 968.999694824219 979.236022949219 980.905334472656 979.344482421875 973.211303710938 982.63720703125 970.325805664062 966.570068359375 971.091674804688 968.104125976562 965.473083496094 965.742797851562 974.890319824219 977.199645996094 977.487060546875 972.696533203125 968.499267578125 964.939392089844 951.23486328125 944.454406738281 941.1044921875 947.740173339844 956.429748535156 953.197814941406 939.808776855469 941.738220214844 953.337585449219 957.151611328125 956.078674316406 956.053771972656 963.47021484375 956.724426269531 953.945922851562 951.406921386719 955.193359375 949.861083984375 940.181335449219 958.586730957031 956.025390625 955.621765136719 946.125183105469 947.241271972656 944.538330078125 952.742858886719 951.916870117188 947.434692382812 946.9013671875 953.304504394531 955.062622070312 957.756469726562 958.522399902344 956.575317382812 955.166809082031 950.108642578125 953.355712890625 961.140075683594 958.915771484375 958.67919921875 956.716064453125 955.950622558594 948.207946777344 954.051513671875 954.261901855469 958.446105957031 945.274719238281 954.772644042969 944.450073242188 947.180969238281 953.408386230469 958.243347167969 961.591979980469 972.541381835938 971.436706542969 968.508239746094 956.265319824219 961.562072753906 959.440856933594 960.712585449219 966.49169921875 966.311340332031 962.770202636719 959.91162109375 963.396728515625 965.805419921875 961.578796386719 968.08935546875 964.541564941406 971.259155273438 964.270751953125 967.8193359375 970.950500488281 977.828918457031 980.860046386719 976.375549316406 975.742065429688 974.680908203125 981.150451660156 979.376159667969 983.400512695312 985.644958496094 993.029357910156 982.431945800781 986.829162597656 987.079467773438 994.868835449219 987.894775390625 998.129943847656 990.983825683594 986.328308105469 992.449829101562 1005.83123779297 994.218505859375 994.83154296875 997.990417480469 1005.75677490234 1012.25079345703 1012.30084228516 993.589050292969 987.449157714844 994.648498535156 1003.99945068359 1001.07934570312 1007.10229492188 1007.74060058594 1015.99432373047 1020.4072265625 1031.98168945312 1028.72680664062 1039.9599609375 1051.72814941406 1064.84069824219 1061.56555175781 1074.23205566406 1084.31384277344 1075.87902832031 1073.12280273438 1059.10119628906 1058.09912109375 1056.50744628906 1053.05993652344 1050.61303710938 1057.369140625 1064.58227539062 1055.40942382812 1060.5048828125 1065.09143066406 1055.33874511719
980.046936035156 978.667846679688 979.979187011719 967.751403808594 964.209228515625 976.76123046875 969.720764160156 976.287780761719 980.104370117188 970.426025390625 960.163696289062 965.166015625 967.459045410156 963.022521972656 960.844360351562 968.999267578125 965.993896484375 981.180969238281 973.839172363281 958.438842773438 958.544616699219 944.892822265625 947.484680175781 941.52587890625 946.478332519531 943.960632324219 944.210998535156 941.982116699219 946.903015136719 952.085998535156 964.746520996094 953.074096679688 953.671691894531 956.090698242188 950.740478515625 942.720092773438 952.84130859375 958.163879394531 958.763122558594 957.433166503906 952.158996582031 960.282592773438 957.021362304688 951.744934082031 945.139404296875 948.735046386719 952.186340332031 963.42724609375 965.566040039062 957.347473144531 950.483276367188 953.240417480469 947.859985351562 952.822814941406 957.183288574219 960.959594726562 959.005920410156 952.880615234375 955.349914550781 959.861389160156 961.338806152344 957.705871582031 962.233581542969 952.986938476562 960.162536621094 954.802917480469 950.557312011719 961.037353515625 958.630432128906 949.562744140625 954.842407226562 965.222717285156 969.121826171875 966.804321289062 980.109008789062 969.938110351562 972.1591796875 969.162048339844 972.226318359375 972.860168457031 971.666076660156 963.761291503906 972.52392578125 963.791137695312 967.262756347656 972.706115722656 975.553894042969 972.463806152344 963.599609375 963.504089355469 963.182861328125 968.306945800781 972.792907714844 971.997131347656 967.613830566406 970.122619628906 967.284423828125 977.006469726562 975.072570800781 977.492553710938 982.802673339844 974.221008300781 985.880676269531 979.294311523438 981.330444335938 986.478881835938 982.920166015625 985.634887695312 994.15478515625 1002.84356689453 994.078857421875 994.077026367188 999.766052246094 1004.42620849609 1003.32330322266 999.403564453125 996.296447753906 1004.33770751953 1005.66973876953 1007.51995849609 994.525817871094 991.804870605469 990.950561523438 1012.2509765625 1011.85241699219 1010.59564208984 1016.77587890625 1023.11950683594 1034.39514160156 1029.47229003906 1023.14971923828 1032.98229980469 1044.26000976562 1054.18566894531 1061.00866699219 1070.95715332031 1083.56677246094 1086.83679199219 1076.62548828125 1063.779296875 1050.40979003906 1046.740234375 1045.84643554688 1044.37939453125 1053.40100097656 1053.66125488281 1056.23901367188 1053.15930175781 1059.99499511719 1049.60217285156
977.93017578125 980.02734375 973.837158203125 970.830383300781 968.151794433594 969.179260253906 970.472900390625 969.041442871094 964.692199707031 966.575073242188 957.693298339844 952.139953613281 953.945983886719 958.305358886719 947.119934082031 954.723937988281 968.712097167969 966.512634277344 965.702819824219 954.699279785156 946.431640625 943.599060058594 947.022338867188 946.545715332031 948.390625 946.908447265625 943.195068359375 949.827880859375 944.766174316406 955.132568359375 960.907592773438 960.548156738281 954.302978515625 956.3828125 953.168212890625 948.8017578125 949.718505859375 959.760803222656 954.832580566406 958.260681152344 956.133666992188 956.065002441406 950.516540527344 960.31884765625 953.964172363281 953.141906738281 949.363891601562 961.139892578125 958.975219726562 954.614562988281 956.939025878906 949.790649414062 950.782348632812 948.673522949219 960.58935546875 961.480346679688 960.561584472656 961.700439453125 958.695190429688 959.959777832031 958.6201171875 960.586303710938 961.031982421875 950.015747070312 959.628723144531 953.480651855469 960.483703613281 965.779479980469 964.8203125 968.074340820312 967.286865234375 970.167175292969 963.138488769531 963.799072265625 972.439514160156 969.329772949219 964.323974609375 969.482177734375 964.650146484375 962.463562011719 973.701965332031 974.949035644531 965.428771972656 962.081726074219 969.78369140625 968.184875488281 960.316772460938 962.963439941406 969.929626464844 965.972473144531 975.171142578125 967.692687988281 968.486267089844 960.689208984375 962.375732421875 967.617614746094 967.12744140625 971.919494628906 976.944641113281 983.763610839844 986.341918945312 983.022644042969 977.970947265625 980.370727539062 986.971313476562 989.960205078125 984.869995117188 987.325500488281 1000.79528808594 1000.67663574219 997.326721191406 1001.15795898438 1012.46411132812 1013.74389648438 1013.392578125 1012.07244873047 1015.71051025391 1012.17388916016 1006.40667724609 1000.21875 1001.29260253906 995.371215820312 999.150085449219 1008.11199951172 1004.93859863281 1016.00579833984 1030.59887695312 1028.88220214844 1030.03247070312 1028.4677734375 1025.44934082031 1021.54156494141 1039.06066894531 1041.5302734375 1051.50756835938 1069.32739257812 1072.88659667969 1079.00390625 1075.97570800781 1058.38854980469 1037.6787109375 1038.34729003906 1025.42248535156 1035.63500976562 1039.13134765625 1046.89404296875 1055.69189453125 1049.87036132812 1050.33776855469 1045.41833496094
975.21337890625 975.688049316406 980.224243164062 971.928955078125 970.124938964844 966.670349121094 970.999694824219 967.397521972656 962.084289550781 954.764099121094 951.448608398438 950.119506835938 948.135986328125 946.064514160156 946.749877929688 950.7109375 962.535278320312 958.85791015625 955.336669921875 952.585754394531 942.437072753906 950.0546875 943.301574707031 945.433471679688 948.837463378906 949.225830078125 948.431762695312 947.183776855469 944.197814941406 959.470947265625 954.69677734375 957.904357910156 955.645751953125 964.451843261719 960.09326171875 955.032775878906 958.471130371094 958.69140625 958.184997558594 953.684936523438 950.840637207031 948.66552734375 943.411071777344 947.5380859375 938.764709472656 948.561645507812 955.102355957031 960.133056640625 959.883666992188 950.096435546875 954.919799804688 952.67919921875 949.446472167969 953.830932617188 961.769958496094 954.195190429688 963.531311035156 953.659301757812 956.292541503906 965.51171875 955.025451660156 956.127136230469 960.278076171875 958.548583984375 962.542663574219 955.656005859375 963.347106933594 964.572265625 970.996765136719 971.629760742188 971.337768554688 971.808227539062 971.029663085938 961.04443359375 962.308349609375 968.67041015625 960.379455566406 960.341979980469 966.499084472656 968.245239257812 969.909545898438 978.498474121094 973.011352539062 968.864685058594 974.623474121094 971.103698730469 971.348205566406 974.821899414062 969.051940917969 971.181396484375 970.051635742188 970.195434570312 971.481079101562 965.489868164062 970.357238769531 974.960876464844 974.359375 978.451782226562 980.544677734375 988.143310546875 982.725524902344 980.628784179688 986.684387207031 978.457641601562 983.552490234375 983.502014160156 989.328430175781 998.238891601562 1000.34887695312 1004.22821044922 1005.18353271484 1001.25811767578 1008.4814453125 1013.18109130859 1015.02941894531 1007.78485107422 1019.30810546875 1017.65380859375 1008.42028808594 1008.59106445312 1000.50634765625 1005.88861083984 1000.79791259766 1004.40966796875 1009.38922119141 1013.61596679688 1018.39611816406 1020.01672363281 1021.29180908203 1029.77905273438 1022.93267822266 1023.32025146484 1033.53161621094 1049.70727539062 1050.72497558594 1065.27429199219 1071.80346679688 1068.55407714844 1061.47875976562 1049.39953613281 1037.22998046875 1033.09204101562 1025.9873046875 1030.43237304688 1038.92797851562 1039.65612792969 1041.10607910156 1041.39050292969 1039.11303710938 1044.9970703125
975.256103515625 968.432067871094 968.650756835938 972.522644042969 967.914001464844 962.4599609375 959.734313964844 962.410583496094 952.523010253906 956.478149414062 954.852661132812 946.159057617188 944.748840332031 938.082397460938 938.475524902344 950.387268066406 951.168090820312 957.168579101562 949.24658203125 947.877258300781 935.514526367188 936.604553222656 938.346496582031 941.264343261719 946.675964355469 946.763610839844 948.737121582031 950.107299804688 950.824401855469 946.749694824219 959.528564453125 949.952087402344 947.015930175781 957.534240722656 958.608337402344 956.198486328125 952.04736328125 959.351196289062 957.302856445312 966.099304199219 953.744323730469 951.082641601562 956.670471191406 939.804382324219 941.687316894531 950.193542480469 953.064208984375 958.400756835938 964.520874023438 948.958251953125 960.71484375 964.183044433594 955.895446777344 959.507568359375 963.255798339844 956.799865722656 962.310852050781 961.376159667969 962.549255371094 965.545471191406 962.12255859375 959.942749023438 952.666564941406 948.493530273438 945.385559082031 950.959777832031 951.910339355469 951.736755371094 962.122802734375 966.707153320312 968.663452148438 974.510864257812 970.237060546875 967.349365234375 964.085571289062 969.730224609375 957.772277832031 961.113464355469 973.334350585938 970.092590332031 966.750122070312 973.203369140625 978.808227539062 976.441528320312 970.447387695312 974.5791015625 975.678771972656 979.3466796875 978.667419433594 971.744934082031 975.902038574219 967.193969726562 973.748474121094 960.063049316406 968.888610839844 980.72802734375 984.752014160156 982.582702636719 979.796264648438 988.190734863281 986.89794921875 981.549377441406 993.010131835938 987.464660644531 994.426330566406 986.541442871094 1001.59558105469 1003.69647216797 1007.70843505859 1008.02453613281 1004.029296875 1007.85394287109 1005.38391113281 1008.11303710938 1006.67694091797 1005.48516845703 1009.26953125 1010.52935791016 1015.46319580078 1015.82458496094 1016.53942871094 1023.79669189453 1013.92706298828 1009.54357910156 1013.48187255859 1016.34130859375 1018.98596191406 1023.04510498047 1017.29528808594 1027.25866699219 1025.58703613281 1024.28564453125 1034.48864746094 1043.09912109375 1057.45703125 1063.06823730469 1061.40393066406 1070.10241699219 1052.50280761719 1033.75170898438 1028.29797363281 1028.58752441406 1020.27136230469 1023.11950683594 1034.12744140625 1045.74035644531 1038.22570800781 1028.64343261719 1029.55358886719 1029.29260253906
