NCOLS 150
NROWS 37
XLLCORNER 7394249
YLLCORNER 4843259
CELLSIZE 30
NODATA_VALUE -9999
948.889587402344 951.77197265625 946.795288085938 946.789794921875 950.225769042969 960.124206542969 971.958374023438 969.267822265625 965.929321289062 971.121337890625 969.611083984375 963.898254394531 961.102722167969 959.2041015625 960.695922851562 959.292724609375 958.219787597656 951.857482910156 962.373901367188 969.405090332031 978.559692382812 989.565551757812 984.120422363281 983.164672851562 979.250793457031 985.189880371094 991.937438964844 996.001953125 1005.98968505859 1006.00366210938 1009.53607177734 1012.47485351562 1018.64282226562 1022.83374023438 1029.0185546875 1023.55877685547 1016.08734130859 1016.55279541016 1017.22601318359 1019.45782470703 1021.04241943359 1034.10534667969 1034.90637207031 1032.35974121094 1032.84313964844 1032.51293945312 1027.52551269531 1010.61383056641 1006.40734863281 1007.65576171875 998.737976074219 999.049438476562 999.027160644531 996.713073730469 994.557678222656 1004.89331054688 997.729614257812 1010.84826660156 1014.68493652344 1014.42260742188 1018.03674316406 1019.04626464844 1018.68041992188 1019.7138671875 1016.97662353516 1022.58557128906 1025.521484375 1023.41064453125 1030.43774414062 1017.76763916016 1020.10815429688 1026.64025878906 1017.26354980469 1019.83605957031 1016.90808105469 1001.83294677734 1015.20733642578 1018.83093261719 1021.4541015625 1021.01263427734 1023.06884765625 1026.73596191406 1017.79699707031 1011.82232666016 1014.10137939453 1011.46612548828 1013.76397705078 1009.57379150391 1008.68359375 1003.45684814453 1008.12628173828 1008.60430908203 1017.68182373047 1022.56951904297 1016.21087646484 1012.09185791016 1013.93695068359 1005.87091064453 999.907836914062 1003.93505859375 1005.90502929688 1000.25848388672 987.658020019531 981.246643066406 981.571350097656 983.308532714844 983.866943359375 983.840454101562 985.7158203125 981.886413574219 976.716674804688 967.811706542969 953.934997558594 947.682922363281 940.700927734375 938.321899414062 938.448547363281 946.483337402344 951.729125976562 957.352478027344 961.323852539062 974.383361816406 978.929809570312 987.71923828125 999.833618164062 1014.87200927734 1029.20104980469 1031.39697265625 1041.8310546875 1043.81958007812 1050.11694335938 1045.90734863281 1052.18054199219 1048.42639160156 1057.64538574219 1053.6240234375 1060.89379882812 1076.07568359375 1078.26281738281 1065.27282714844 1073.98229980469 1094.767578125 1097.41174316406 1094.20239257812 1084.87866210938 1095.62890625 1092.72058105469 1098.20556640625 1096.08544921875 1100.83483886719
940.523559570312 934.722534179688 932.122375488281 938.991271972656 942.642761230469 953.009216308594 955.748657226562 962.930297851562 954.381286621094 954.014526367188 955.799011230469 959.005859375 959.786315917969 952.605285644531 952.539184570312 951.470336914062 955.23583984375 961.736633300781 964.042541503906 960.018859863281 975.14013671875 980.849548339844 985.92041015625 983.785949707031 982.685180664062 980.221008300781 982.717834472656 990.40869140625 987.378540039062 996.140808105469 1011.6318359375 1003.33465576172 1009.97149658203 1023.10754394531 1024.51745605469 1020.98150634766 1019.97540283203 1018.50463867188 1023.16339111328 1009.68237304688 1018.11163330078 1030.59204101562 1047.90344238281 1034.83959960938 1021.96936035156 1026.00512695312 1018.84552001953 1013.19616699219 1004.23211669922 998.3974609375 993.219848632812 994.23828125 1001.92639160156 990.3701171875 994.749877929688 1006.30792236328 1009.67132568359 1009.55261230469 1007.89398193359 1016.01458740234 1010.74102783203 1010.29498291016 1009.35131835938 1010.4111328125 1018.26208496094 1020.96075439453 1026.28430175781 1020.07708740234 1023.74633789062 1022.10485839844 1015.03973388672 1015.11889648438 1014.38104248047 1016.24127197266 1012.13977050781 1010.19866943359 1015.34045410156 1012.57635498047 1018.53063964844 1016.14935302734 1012.59051513672 1021.58245849609 1002.72436523438 1006.96307373047 1010.29943847656 1004.59899902344 1003.31042480469 1003.22570800781 1005.53552246094 1010.71319580078 1013.04821777344 1022.05749511719 1023.46588134766 1027.3701171875 1023.97314453125 1022.37371826172 1019.83917236328 1010.13848876953 1012.35205078125 1005.60656738281 999.945129394531 999.500183105469 989.431762695312 990.929992675781 992.760925292969 992.931396484375 986.664245605469 982.999145507812 982.078430175781 978.414367675781 974.453918457031 968.301696777344 964.100708007812 961.206665039062 956.811584472656 943.189147949219 947.408447265625 956.261779785156 961.0673828125 971.124755859375 981.99169921875 981.778869628906 991.239624023438 992.988098144531 1002.22650146484 1016.17303466797 1033.40490722656 1037.81530761719 1036.82775878906 1045.81030273438 1041.84375 1049.06103515625 1058.28088378906 1048.81311035156 1046.8671875 1053.77526855469 1060.59484863281 1061.47668457031 1064.43432617188 1060.55737304688 1078.15075683594 1088.24523925781 1087.0546875 1083.49719238281 1082.95068359375 1093.0634765625 1093.67541503906 1097.66564941406 1095.2705078125 1103.38220214844
943.903259277344 942.455322265625 932.366333007812 934.735534667969 947.37939453125 953.321533203125 951.44580078125 951.458068847656 943.888000488281 955.455688476562 959.692687988281 961.724975585938 950.402709960938 947.166259765625 951.904235839844 955.427429199219 957.986633300781 957.169067382812 957.234252929688 959.666015625 964.168884277344 972.771362304688 986.011169433594 981.61474609375 983.348205566406 977.698059082031 984.312866210938 986.180786132812 989.009582519531 995.671203613281 1005.69213867188 1011.42541503906 1012.89715576172 1010.66461181641 1010.80236816406 1011.43646240234 1008.05926513672 1020.53912353516 1009.60784912109 1009.30139160156 1021.85479736328 1025.70275878906 1033.90869140625 1035.84057617188 1027.34033203125 1016.70086669922 1008.70648193359 1004.81140136719 998.312072753906 982.089904785156 986.108459472656 985.205078125 997.759460449219 990.006713867188 991.531799316406 1004.28887939453 1011.11169433594 1013.77783203125 1010.16027832031 1011.58129882812 1010.55480957031 1007.7880859375 1009.6337890625 1012.03527832031 1013.99224853516 1020.39080810547 1016.59045410156 1020.18939208984 1024.79260253906 1015.65924072266 1012.98522949219 1007.07568359375 1010.1015625 1010.32861328125 1011.23211669922 1012.32012939453 1011.48272705078 1006.76037597656 1008.97857666016 1011.52294921875 1000.21643066406 1005.72033691406 1003.32379150391 999.508666992188 1002.60357666016 1003.84912109375 1009.90240478516 1010.03961181641 1017.69342041016 1016.44366455078 1022.38000488281 1026.6767578125 1031.37451171875 1027.08435058594 1032.23999023438 1031.7841796875 1020.78979492188 1013.36633300781 1018.46563720703 1003.79833984375 998.694702148438 1005.05456542969 1001.51098632812 1003.95166015625 1002.36126708984 1004.92706298828 997.228759765625 991.509887695312 984.707641601562 975.639892578125 973.339782714844 963.888732910156 957.267578125 963.135375976562 950.841247558594 949.767822265625 953.2158203125 965.892883300781 977.324462890625 994.069702148438 993.352783203125 985.093444824219 1000.01501464844 1007.43109130859 1016.17431640625 1024.451171875 1028.89184570312 1033.61352539062 1039.69848632812 1046.32849121094 1040.25842285156 1042.7509765625 1045.21459960938 1051.3505859375 1051.12658691406 1049.74060058594 1052.79907226562 1055.54455566406 1061.56079101562 1060.53759765625 1075.88110351562 1078.14855957031 1082.94262695312 1082.46960449219 1091.39172363281 1096.47985839844 1094.919921875 1088.11950683594 1091.08166503906 1100.02575683594
951.384887695312 943.639465332031 943.562377929688 939.651184082031 953.859191894531 957.192443847656 952.51416015625 942.735168457031 954.763488769531 954.055053710938 960.451721191406 969.023071289062 961.79052734375 961.338256835938 958.9794921875 948.7958984375 954.622436523438 951.251098632812 959.501342773438 957.177612304688 962.57421875 976.379516601562 986.055786132812 985.376098632812 987.158752441406 980.826354980469 982.149047851562 988.825012207031 990.409545898438 995.420532226562 1003.25695800781 1002.33990478516 1004.02813720703 1004.96612548828 1001.06866455078 1004.55389404297 1008.41772460938 1014.38079833984 1023.76794433594 1014.05322265625 1018.43792724609 1028.18994140625 1025.02722167969 1030.74719238281 1024.82336425781 1011.31164550781 1003.91741943359 995.387451171875 1004.22021484375 991.183410644531 983.866516113281 985.492797851562 987.351684570312 991.817321777344 995.701416015625 997.775024414062 1009.34808349609 1018.33306884766 1012.93859863281 1009.84185791016 1014.33563232422 1014.82946777344 1005.05285644531 1004.11462402344 1005.45770263672 1017.23260498047 1024.10266113281 1020.46295166016 1014.53088378906 1017.43365478516 1007.89276123047 1006.04309082031 1003.56231689453 1004.44934082031 1003.34143066406 992.082702636719 999.62646484375 1003.15386962891 1004.36553955078 1006.21258544922 999.849975585938 1002.41973876953 997.016235351562 998.114013671875 1003.77325439453 1007.25457763672 1008.36828613281 1012.67810058594 1009.60180664062 1014.92895507812 1022.29162597656 1030.51318359375 1040.8349609375 1035.62573242188 1030.61584472656 1026.10522460938 1019.71496582031 1008.12170410156 1001.78814697266 1004.94525146484 997.994506835938 998.888977050781 998.440368652344 1004.08062744141 1004.20874023438 1015.1494140625 1009.52893066406 1000.6806640625 985.786376953125 980.611267089844 974.305847167969 960.444396972656 948.966125488281 959.161987304688 950.721740722656 952.752990722656 955.206848144531 975.447387695312 981.876586914062 995.845458984375 995.802429199219 997.066345214844 1009.02008056641 1010.60943603516 1022.16473388672 1027.95349121094 1026.84045410156 1035.88659667969 1036.70764160156 1040.47412109375 1042.19409179688 1045.15026855469 1048.24792480469 1051.22583007812 1052.6181640625 1051.541015625 1051.8876953125 1054.90368652344 1051.51159667969 1058.52087402344 1076.04174804688 1072.80102539062 1075.99096679688 1082.515625 1093.14050292969 1097.1904296875 1094.75073242188 1096.52465820312 1097.14392089844 1106.09692382812
941.888488769531 943.690368652344 942.108642578125 947.18896484375 954.713745117188 958.401550292969 954.06396484375 958.90625 959.711120605469 962.233703613281 963.571228027344 957.690979003906 957.954650878906 958.130920410156 962.080627441406 958.297729492188 965.751342773438 959.337463378906 953.075561523438 959.329528808594 972.66357421875 975.887878417969 972.750793457031 978.851013183594 985.716247558594 981.915832519531 982.69287109375 985.736755371094 993.331176757812 996.084289550781 998.6376953125 996.921081542969 997.722229003906 994.212707519531 998.295959472656 1000.19781494141 1009.84454345703 1017.97009277344 1027.14538574219 1023.03570556641 1024.28393554688 1024.70385742188 1019.51617431641 1023.66888427734 1016.54296875 1013.23480224609 1000.31524658203 1006.37115478516 996.191101074219 991.556701660156 986.500854492188 986.903747558594 983.373107910156 995.519714355469 987.929016113281 998.666625976562 1004.76123046875 1009.20153808594 1007.80151367188 1010.11285400391 1018.6103515625 1004.12835693359 1000.18096923828 1000.22180175781 1009.74188232422 1011.77648925781 1013.30932617188 1007.64312744141 1016.64727783203 1017.67651367188 1004.3466796875 1008.64367675781 1005.75543212891 998.008239746094 994.035888671875 993.80908203125 1004.423828125 999.123901367188 1004.35046386719 1003.16998291016 1005.08251953125 998.993835449219 993.882385253906 994.998352050781 1004.61639404297 1011.86090087891 1012.49169921875 1015.36206054688 1008.84063720703 1016.61065673828 1025.36706542969 1031.94519042969 1033.2001953125 1030.80639648438 1029.1298828125 1019.85430908203 1021.88659667969 1008.09649658203 1004.29760742188 1008.93316650391 998.454528808594 997.812316894531 1001.38751220703 1004.04455566406 1003.6953125 1012.71734619141 1009.63946533203 1006.39343261719 987.7001953125 980.001159667969 970.117004394531 952.661193847656 941.00341796875 949.902526855469 946.352294921875 957.715637207031 971.5341796875 979.237365722656 984.493713378906 1001.61633300781 1012.93621826172 1013.20532226562 1016.00903320312 1028.87414550781 1025.3974609375 1020.62658691406 1023.61486816406 1036.68542480469 1039.89331054688 1039.73779296875 1053.71508789062 1048.57897949219 1053.03979492188 1047.24536132812 1054.56799316406 1053.25463867188 1051.38610839844 1044.69348144531 1048.49035644531 1056.26574707031 1070.42150878906 1071.16052246094 1079.67395019531 1087.35217285156 1088.27526855469 1095.99523925781 1098.96655273438 1096.32263183594 1099.98889160156 1107.46533203125
951.589233398438 952.591674804688 952.129821777344 955.14306640625 966.402099609375 953.004638671875 953.279174804688 959.616149902344 960.489196777344 963.472961425781 970.009460449219 965.69287109375 965.874145507812 974.796936035156 971.832336425781 975.694641113281 960.178588867188 968.660278320312 967.870178222656 969.873168945312 980.824890136719 983.283142089844 976.468078613281 973.214965820312 974.520751953125 965.383728027344 972.209533691406 990.288452148438 992.158386230469 988.872802734375 993.071105957031 998.005920410156 987.179016113281 991.998474121094 1002.28619384766 1010.80999755859 1015.18078613281 1018.54217529297 1019.32397460938 1022.50201416016 1013.91644287109 1017.16168212891 1017.60168457031 1017.82702636719 1015.43530273438 1005.78588867188 1000.83996582031 1002.53204345703 998.869934082031 990.336486816406 987.025817871094 986.568969726562 980.457275390625 987.889831542969 992.63232421875 995.445617675781 998.992736816406 1000.25964355469 1000.85504150391 1005.27276611328 1004.37274169922 998.3310546875 994.135803222656 999.206115722656 993.967956542969 1006.50482177734 1001.24731445312 997.766479492188 1003.10412597656 1004.86840820312 1005.26086425781 1005.9638671875 1008.10443115234 997.16796875 999.464111328125 1000.18054199219 995.180114746094 994.644409179688 997.601196289062 995.614379882812 1002.14306640625 998.567932128906 987.814208984375 994.491638183594 999.873229980469 1006.9970703125 1007.00952148438 1015.1767578125 1011.06701660156 1023.85021972656 1020.18511962891 1009.23504638672 1013.32336425781 1019.26806640625 1019.86157226562 1018.46960449219 1019.01983642578 1000.19055175781 1003.29724121094 1004.11114501953 1007.96514892578 1003.96051025391 1010.02630615234 1005.06396484375 1005.38586425781 1012.99792480469 1011.60040283203 1004.51019287109 991.994750976562 970.118957519531 958.496215820312 956.8203125 945.229370117188 944.836059570312 953.375366210938 967.639709472656 976.171630859375 977.712097167969 985.048583984375 1004.81408691406 1020.54608154297 1027.97021484375 1023.99328613281 1026.29650878906 1020.10406494141 1024.79516601562 1029.07287597656 1033.81164550781 1034.22766113281 1044.40234375 1047.53100585938 1039.5576171875 1039.34985351562 1038.9091796875 1043.83972167969 1048.07666015625 1043.56262207031 1043.22192382812 1046.76647949219 1051.77697753906 1051.50830078125 1066.68798828125 1074.31323242188 1080.09045410156 1090.38452148438 1111.09899902344 1104.90881347656 1106.30590820312 1109.13146972656 1112.17932128906
951.633422851562 950.162841796875 947.643188476562 955.481201171875 964.465881347656 960.748962402344 964.152465820312 965.598327636719 961.081298828125 971.881469726562 972.988708496094 975.410827636719 975.919006347656 981.843139648438 975.828369140625 978.637268066406 977.7783203125 973.502136230469 975.476989746094 977.990356445312 989.46826171875 988.113708496094 980.520385742188 973.346496582031 975.896728515625 979.1923828125 977.721801757812 986.551818847656 994.074279785156 994.42041015625 995.477416992188 986.806274414062 990.206848144531 993.87939453125 1001.10095214844 1005.06372070312 1008.96795654297 1003.11956787109 1004.46044921875 1016.03887939453 1010.48297119141 1013.63232421875 1008.44537353516 1003.23956298828 1010.54699707031 999.535766601562 991.738952636719 988.019592285156 997.904846191406 988.520202636719 985.626770019531 981.642822265625 986.087951660156 984.115966796875 999.997680664062 994.749633789062 997.049011230469 995.035888671875 997.904357910156 994.845642089844 990.359313964844 981.947998046875 984.193298339844 996.789855957031 1003.07293701172 1000.25323486328 998.151977539062 998.943481445312 1000.81567382812 994.714599609375 1000.20074462891 1004.18408203125 1008.10137939453 1009.47985839844 999.904113769531 1000.04803466797 1001.55725097656 1002.0361328125 995.967651367188 989.720275878906 992.739807128906 997.86279296875 988.9521484375 992.902221679688 1000.55450439453 1001.81359863281 1003.95812988281 1012.26898193359 1014.36547851562 1009.69909667969 1016.82257080078 1013.63732910156 1006.56750488281 1010.88305664062 1017.03802490234 1011.61920166016 1010.56243896484 1005.97314453125 1002.77172851562 1002.65240478516 1008.69006347656 1011.77325439453 1015.79248046875 1004.55810546875 1003.5029296875 1010.06390380859 1016.62219238281 1002.85296630859 987.568786621094 972.36376953125 955.53466796875 957.615295410156 949.774536132812 946.725524902344 947.417114257812 962.878723144531 965.354064941406 978.644714355469 985.833312988281 1003.16870117188 1013.79937744141 1025.17797851562 1025.08215332031 1015.80493164062 1020.75903320312 1021.43182373047 1029.20629882812 1027.11633300781 1037.73107910156 1039.7802734375 1039.78869628906 1035.34008789062 1028.94580078125 1025.54479980469 1029.96032714844 1033.48791503906 1034.27380371094 1038.96569824219 1042.62780761719 1046.25085449219 1055.95324707031 1064.21813964844 1070.79650878906 1083.09020996094 1100.6943359375 1110.26599121094 1117.22937011719 1120.13500976562 1122.15026855469 1129.98193359375
956.234680175781 957.505737304688 957.542053222656 951.598693847656 958.885498046875 966.557189941406 964.1748046875 968.91796875 975.866638183594 974.384216308594 977.226196289062 974.927429199219 979.186767578125 975.998474121094 968.524658203125 975.028015136719 980.977661132812 985.725952148438 984.7392578125 986.05224609375 985.660522460938 980.923278808594 975.818542480469 981.774536132812 983.24609375 983.274963378906 992.160217285156 993.304992675781 989.025634765625 989.990600585938 984.024108886719 984.689453125 993.432067871094 986.395874023438 996.168823242188 1002.99645996094 997.202514648438 996.356567382812 995.038757324219 999.567749023438 1001.16693115234 998.537292480469 998.541015625 1002.11706542969 1006.21356201172 992.369140625 994.779357910156 990.574829101562 993.276733398438 984.119934082031 985.114562988281 991.184997558594 993.724487304688 984.560791015625 988.356750488281 999.046142578125 1000.50848388672 993.853149414062 986.658386230469 991.439453125 988.282043457031 977.493530273438 984.576965332031 990.910095214844 998.223815917969 1001.51342773438 992.750610351562 1001.98699951172 998.635925292969 991.588989257812 1006.30731201172 995.811218261719 1008.71502685547 997.175598144531 1001.48828125 1001.31811523438 1002.150390625 1006.00811767578 996.706726074219 994.416687011719 997.53466796875 995.620361328125 996.825988769531 998.860412597656 1001.03826904297 997.025146484375 1002.31799316406 1013.10186767578 1011.57025146484 1011.02465820312 1015.13525390625 1014.85650634766 1019.05572509766 1007.63726806641 1008.37567138672 1001.58172607422 1007.83428955078 1007.90942382812 1011.60681152344 1016.71826171875 1010.94061279297 1012.38055419922 1009.89233398438 996.047607421875 997.994934082031 998.364685058594 1011.36456298828 999.982055664062 984.373840332031 974.246215820312 961.300354003906 961.802978515625 952.491760253906 951.802490234375 953.104553222656 969.34765625 975.304138183594 985.843200683594 992.919982910156 1003.33306884766 1014.89880371094 1031.150390625 1028.63403320312 1016.48297119141 1020.125 1029.84252929688 1030.63854980469 1030.85620117188 1036.34716796875 1036.15661621094 1035.79455566406 1030.70227050781 1016.40985107422 1021.97924804688 1020.3330078125 1020.6279296875 1025.1201171875 1026.9208984375 1046.11791992188 1053.72998046875 1061.44262695312 1067.42956542969 1072.20520019531 1081.37377929688 1099.08203125 1110.61267089844 1121.26550292969 1128.8828125 1139.95190429688 1140.92846679688
959.0078125 960.339599609375 956.513854980469 956.896118164062 961.1181640625 954.894653320312 959.863830566406 969.669006347656 972.001647949219 966.917541503906 971.679382324219 964.447204589844 964.450378417969 969.919067382812 975.143005371094 977.130798339844 979.007751464844 984.372314453125 981.346984863281 983.396240234375 979.363891601562 978.284484863281 973.191772460938 982.038391113281 986.6572265625 982.716003417969 990.042663574219 993.867614746094 986.718872070312 985.601623535156 980.113220214844 987.249267578125 993.438171386719 987.340026855469 988.914428710938 994.708251953125 998.5078125 994.354919433594 986.976135253906 1000.65338134766 994.158264160156 987.439208984375 992.925659179688 1002.00836181641 1013.91540527344 1002.81176757812 994.874328613281 997.331237792969 992.856811523438 981.537048339844 988.1728515625 991.089538574219 986.691528320312 985.390747070312 990.362182617188 986.964416503906 988.184753417969 996.180297851562 992.756408691406 991.1259765625 985.52880859375 982.839050292969 979.457214355469 987.861938476562 993.240051269531 990.8076171875 991.888916015625 998.735412597656 1000.92358398438 997.979370117188 1004.4443359375 998.534057617188 1004.43536376953 999.092407226562 1001.36956787109 994.108093261719 996.167175292969 1002.80517578125 1003.66729736328 992.7900390625 994.626159667969 1004.048828125 994.975158691406 998.881103515625 994.170349121094 989.465209960938 1003.40222167969 1010.32623291016 1014.96032714844 1011.82202148438 1028.47033691406 1021.68664550781 1024.76818847656 1016.15679931641 1001.17205810547 1000.10601806641 998.721435546875 1011.2060546875 1004.33581542969 1005.02777099609 1002.04321289062 1001.91528320312 995.432678222656 1006.55657958984 998.666931152344 998.686340332031 998.781127929688 995.110656738281 992.728149414062 977.649047851562 961.725952148438 960.064453125 948.271423339844 944.382263183594 956.344970703125 971.643310546875 981.831970214844 987.911499023438 994.629943847656 997.9296875 1011.60162353516 1014.84692382812 1020.02319335938 1026.63818359375 1025.7451171875 1035.74047851562 1039.95227050781 1042.27294921875 1033.85571289062 1032.05603027344 1031.83703613281 1033.8359375 1025.14733886719 1018.90173339844 1024.31018066406 1023.71765136719 1023.64495849609 1036.42700195312 1035.826171875 1045.16125488281 1060.9833984375 1066.96350097656 1077.99560546875 1089.8564453125 1099.96643066406 1105.40112304688 1122.10046386719 1135.50817871094 1140.27185058594 1148.66528320312
957.931945800781 963.350036621094 961.414001464844 961.398193359375 963.23681640625 965.268981933594 959.763549804688 964.999389648438 970.321655273438 967.203674316406 967.101318359375 967.544006347656 976.038146972656 979.391357421875 977.57421875 971.632995605469 978.858947753906 976.309997558594 981.8505859375 978.655639648438 985.454040527344 977.715698242188 985.886535644531 986.553588867188 986.818176269531 988.64208984375 990.792175292969 991.829467773438 987.843811035156 986.458618164062 982.599243164062 989.311828613281 984.076171875 986.786804199219 986.330017089844 995.662536621094 992.447143554688 982.834838867188 982.989807128906 992.140930175781 982.629821777344 987.1494140625 988.338500976562 994.947082519531 995.860778808594 994.640380859375 987.596313476562 980.017272949219 990.448608398438 986.826293945312 990.652770996094 983.43212890625 978.502258300781 983.332946777344 983.61474609375 989.851379394531 990.506225585938 998.314331054688 1003.03387451172 998.158386230469 985.575805664062 986.518676757812 980.783264160156 991.336730957031 990.167297363281 991.535949707031 994.366760253906 1002.32806396484 1004.75909423828 1007.38159179688 993.416625976562 996.282470703125 1005.94403076172 1011.89544677734 1005.82849121094 996.841857910156 989.214721679688 997.053771972656 1003.39556884766 1004.48004150391 1004.63275146484 1006.50396728516 1002.70635986328 1002.36694335938 994.65478515625 994.324157714844 1000.57360839844 1009.99432373047 1013.13922119141 1012.93212890625 1022.07373046875 1022.52740478516 1023.1376953125 1022.30938720703 1010.59893798828 1004.91241455078 1002.21331787109 1006.60858154297 999.649291992188 1005.47503662109 993.818359375 999.077880859375 1000.73028564453 1000.85675048828 1004.75103759766 995.97021484375 992.165283203125 989.081665039062 978.702697753906 975.538696289062 968.854797363281 960.076477050781 946.93310546875 946.741882324219 955.125732421875 971.771484375 974.17822265625 979.594421386719 997.8056640625 997.779602050781 1006.92761230469 1020.94000244141 1021.95733642578 1021.89910888672 1027.06469726562 1036.45532226562 1029.48706054688 1037.15002441406 1024.64270019531 1026.48913574219 1023.85693359375 1020.89685058594 1021.95776367188 1020.17071533203 1020.28900146484 1018.87127685547 1029.69738769531 1032.41796875 1038.68957519531 1044.18823242188 1068.81750488281 1079.35827636719 1082.79516601562 1095.18383789062 1101.76599121094 1120.05688476562 1124.81762695312 1137.82348632812 1149.94104003906 1146.69067382812
960.735595703125 965.334716796875 954.75244140625 959.49560546875 972.9833984375 974.654296875 968.442749023438 975.912475585938 965.429260253906 971.262878417969 969.733642578125 975.283630371094 974.937316894531 974.819885253906 974.022521972656 975.480285644531 979.340515136719 972.194580078125 971.458679199219 982.787719726562 986.261352539062 978.677856445312 988.287963867188 992.626342773438 986.822143554688 988.672241210938 985.525268554688 991.834045410156 989.916015625 984.820556640625 990.827758789062 987.964111328125 987.463439941406 983.994201660156 987.912414550781 992.935363769531 980.89453125 985.661376953125 981.424926757812 982.278076171875 982.391174316406 983.447082519531 976.443115234375 985.159362792969 983.873474121094 990.915649414062 980.231384277344 978.637756347656 980.4931640625 989.370849609375 991.018737792969 986.104125976562 974.214416503906 981.565979003906 980.063354492188 995.788208007812 986.915954589844 995.284545898438 995.119323730469 995.823669433594 991.701843261719 993.072204589844 991.386535644531 990.870178222656 989.913208007812 993.083740234375 992.879150390625 992.848388671875 998.808227539062 1000.7744140625 988.296142578125 990.044494628906 999.047607421875 1005.75860595703 998.3134765625 1003.41748046875 1004.89294433594 999.864685058594 1006.98901367188 1010.04290771484 1005.99462890625 1004.48022460938 1010.92144775391 1007.74871826172 1003.43298339844 1004.01806640625 1007.98040771484 1019.81079101562 1013.54028320312 1026.1201171875 1024.77111816406 1021.71368408203 1014.37976074219 1010.27984619141 1011.52191162109 1003.71685791016 1004.79772949219 1013.23089599609 1000.25903320312 997.37353515625 994.351501464844 997.763061523438 998.442749023438 998.042297363281 999.090454101562 986.771118164062 979.4560546875 982.069641113281 985.867431640625 976.194274902344 965.296875 963.993896484375 948.823486328125 952.532653808594 955.360229492188 968.000366210938 970.385498046875 980.579956054688 988.015441894531 1003.21032714844 1009.62231445312 1015.17156982422 1017.13000488281 1022.32513427734 1021.65991210938 1023.06665039062 1025.42529296875 1026.85266113281 1027.9150390625 1032.76086425781 1027.2841796875 1027.67126464844 1017.31536865234 1021.95861816406 1032.86474609375 1026.92810058594 1022.04174804688 1023.35681152344 1031.03210449219 1061.67907714844 1072.09204101562 1087.05786132812 1094.73229980469 1108.33605957031 1109.99096679688 1123.99450683594 1127.41040039062 1132.12780761719 1155.69287109375 1150.92150878906
949.347534179688 952.621459960938 958.407470703125 956.601928710938 965.447692871094 965.414733886719 974.830505371094 976.324035644531 968.623291015625 973.691833496094 973.096252441406 969.841369628906 975.401611328125 977.735046386719 978.950622558594 973.258422851562 960.392822265625 956.790161132812 974.27880859375 978.857727050781 985.987976074219 980.564880371094 982.237426757812 984.953063964844 993.224853515625 986.146728515625 985.583557128906 980.364379882812 984.239318847656 984.479797363281 987.947448730469 985.563598632812 982.79296875 976.775939941406 987.04443359375 988.152282714844 982.027465820312 967.59814453125 973.008422851562 984.300537109375 977.8271484375 970.475769042969 966.766296386719 973.901611328125 988.480712890625 979.277954101562 980.292053222656 982.606994628906 980.306823730469 986.325256347656 985.813415527344 976.908569335938 972.634033203125 970.521545410156 978.778625488281 982.977416992188 994.669372558594 992.876098632812 990.46728515625 999.208984375 992.859436035156 1001.79827880859 1005.33471679688 994.522399902344 987.761108398438 986.715515136719 989.755432128906 993.918029785156 991.330200195312 986.832336425781 990.049621582031 996.848571777344 994.117797851562 1009.15380859375 1004.46990966797 1009.31011962891 1008.17565917969 1003.31579589844 1004.87286376953 1004.65972900391 1004.72448730469 1008.82501220703 1010.94897460938 1007.59600830078 1004.28680419922 1004.40075683594 1017.38586425781 1012.21295166016 1018.18682861328 1016.12213134766 1009.35009765625 1015.2666015625 1003.16729736328 1006.26745605469 1010.35699462891 999.861877441406 999.431823730469 999.809997558594 1003.85491943359 998.1552734375 1000.94116210938 1001.48657226562 997.745666503906 995.658508300781 1001.046875 992.760681152344 993.811096191406 983.177124023438 988.24072265625 986.075927734375 979.6455078125 964.870788574219 963.247802734375 960.320922851562 953.111694335938 962.595275878906 970.0439453125 984.178344726562 992.932067871094 995.258483886719 1006.61175537109 1015.13763427734 1009.18725585938 1019.95965576172 1025.89489746094 1026.80419921875 1031.47973632812 1027.10998535156 1026.43188476562 1029.03393554688 1026.12548828125 1015.50286865234 1014.87316894531 1023.20989990234 1022.97888183594 1020.53912353516 1020.4130859375 1020.06683349609 1037.43273925781 1054.11474609375 1071.65356445312 1090.10998535156 1090.85607910156 1106.291015625 1123.21801757812 1123.32580566406 1137.16455078125 1141.62036132812 1152.015625 1159.08312988281
954.506286621094 950.111999511719 952.01171875 957.893737792969 971.739501953125 970.58056640625 972.713623046875 971.892761230469 972.0625 975.677124023438 980.771911621094 981.323547363281 977.781127929688 984.970458984375 978.290466308594 961.493286132812 959.49560546875 962.460510253906 968.461975097656 984.751281738281 986.319396972656 984.758605957031 983.04248046875 988.66015625 991.377746582031 985.295593261719 979.871398925781 979.580444335938 986.0400390625 992.158020019531 985.967895507812 993.007507324219 988.065734863281 985.219543457031 980.310668945312 985.719482421875 974.359375 968.103210449219 969.811584472656 969.666564941406 977.089599609375 973.346313476562 972.519653320312 978.136108398438 988.121948242188 984.399169921875 977.851989746094 975.518188476562 975.585876464844 984.212829589844 983.052734375 980.345642089844 979.895202636719 972.719848632812 967.991394042969 968.941650390625 987.085205078125 985.817993164062 994.082885742188 995.439758300781 1000.025390625 1010.38763427734 1003.99145507812 1003.06866455078 991.048400878906 984.426452636719 985.522583007812 985.578857421875 991.34814453125 987.505554199219 996.997131347656 994.644714355469 1002.41925048828 1003.07012939453 1000.61187744141 1014.86791992188 1005.48315429688 996.315124511719 997.183959960938 998.862548828125 1007.18225097656 1016.40045166016 1010.09393310547 1005.29656982422 1005.37817382812 999.104675292969 1002.29620361328 1007.58990478516 1005.53479003906 1005.94708251953 1005.35968017578 1006.07336425781 1006.84808349609 1004.39459228516 1003.01782226562 996.877319335938 1008.61376953125 1004.20062255859 1000.19799804688 993.64013671875 994.921630859375 1001.98211669922 1004.3017578125 991.441284179688 993.875549316406 995.085388183594 998.539184570312 990.57470703125 998.158508300781 988.162414550781 972.879699707031 963.630126953125 970.778747558594 970.541809082031 960.188049316406 959.724731445312 973.042053222656 983.930969238281 993.437438964844 1000.98229980469 999.011169433594 1012.39202880859 1001.94873046875 1018.93634033203 1013.24188232422 1019.8154296875 1020.50225830078 1022.48883056641 1025.77868652344 1023.85363769531 1017.00085449219 1016.88201904297 1017.90838623047 1022.64807128906 1019.73870849609 1018.53344726562 1020.77001953125 1030.05651855469 1046.27075195312 1060.57421875 1079.55163574219 1093.09362792969 1093.98022460938 1108.86511230469 1125.52575683594 1131.85510253906 1141.6669921875 1142.76000976562 1153.41394042969 1170.37854003906
947.399719238281 948.781799316406 942.90185546875 957.53857421875 966.518676757812 972.644836425781 969.107788085938 973.684753417969 971.850219726562 975.037048339844 986.074096679688 979.883422851562 978.292785644531 982.320922851562 982.244384765625 976.31396484375 968.680358886719 980.506225585938 973.004333496094 972.643981933594 983.119323730469 983.106628417969 986.609252929688 986.171020507812 986.778686523438 989.730712890625 985.394470214844 978.600830078125 987.109924316406 987.320373535156 991.965270996094 989.4775390625 995.575622558594 991.718811035156 984.6416015625 979.075317382812 976.553039550781 972.013977050781 967.296997070312 973.499877929688 984.431579589844 972.094055175781 977.532165527344 984.954895019531 986.911376953125 990.899963378906 983.054626464844 975.507690429688 977.833557128906 980.909790039062 981.194580078125 976.005981445312 982.557434082031 970.102172851562 963.286010742188 970.435852050781 981.889282226562 985.37158203125 988.981140136719 1003.89276123047 1003.35595703125 1007.71948242188 1011.25927734375 1004.30413818359 987.924194335938 990.554748535156 985.391174316406 995.740173339844 1000.09802246094 987.035705566406 987.389831542969 991.824401855469 996.934387207031 1000.26135253906 1014.43151855469 1016.32556152344 999.501831054688 1000.14556884766 1002.24090576172 1000.06042480469 1002.36779785156 1011.3115234375 1012.09387207031 1007.21044921875 1006.23883056641 1003.70294189453 996.351989746094 1005.36315917969 1005.55212402344 1001.24615478516 1002.48486328125 1001.37481689453 1008.03454589844 1003.03295898438 996.400024414062 1002.31896972656 1010.88830566406 1006.51068115234 1003.18505859375 987.572387695312 990.084655761719 995.992309570312 1001.01354980469 998.930603027344 993.967529296875 999.098815917969 995.10595703125 995.0244140625 995.721008300781 990.875671386719 981.65673828125 974.539978027344 975.92138671875 978.648010253906 970.425720214844 969.88330078125 979.503295898438 989.611450195312 989.499267578125 995.762084960938 1003.74462890625 1011.76879882812 1011.00756835938 1013.21887207031 1012.11730957031 1017.45617675781 1020.51306152344 1019.68695068359 1015.65686035156 1015.83129882812 1013.89019775391 1010.337890625 1013.70513916016 1019.54949951172 1011.36364746094 1018.43872070312 1027.37219238281 1035.13232421875 1052.59912109375 1076.23474121094 1080.82568359375 1094.92883300781 1099.84448242188 1104.15100097656 1125.02685546875 1132.74865722656 1144.53637695312 1149.54614257812 1164.50769042969 1172.46716308594
943.703247070312 942.168273925781 950.628723144531 963.055053710938 962.399719238281 967.146179199219 965.799133300781 972.131042480469 980.695556640625 970.214050292969 980.263732910156 979.612976074219 979.666748046875 974.986633300781 973.219360351562 977.554992675781 971.862487792969 980.811889648438 979.189453125 976.059753417969 977.721557617188 979.996765136719 981.564392089844 982.496154785156 985.378479003906 987.280578613281 994.273864746094 989.181823730469 980.742858886719 980.474304199219 990.664672851562 995.278869628906 993.648986816406 993.161987304688 985.655822753906 975.916748046875 976.164489746094 975.316101074219 977.810485839844 977.043395996094 974.638122558594 971.399719238281 984.529113769531 984.984191894531 985.657409667969 982.775817871094 981.021179199219 978.088745117188 976.903076171875 977.703918457031 975.577880859375 971.623229980469 964.145141601562 971.068969726562 964.8623046875 960.971496582031 969.73681640625 979.619812011719 991.539123535156 999.788940429688 1001.33721923828 1011.09954833984 1007.14666748047 993.408752441406 994.398742675781 993.290283203125 987.296997070312 980.580688476562 986.368469238281 991.613403320312 987.878356933594 994.471557617188 995.967712402344 998.620361328125 999.913757324219 1004.12908935547 995.842163085938 999.925231933594 1000.01043701172 1002.60858154297 1002.66180419922 1004.46594238281 1007.39575195312 1001.30749511719 997.294677734375 1000.88598632812 996.929992675781 1006.35876464844 1001.52368164062 999.365966796875 992.153747558594 995.634704589844 1002.29284667969 1002.24786376953 999.816040039062 1004.58245849609 1007.0341796875 1002.16760253906 1003.23303222656 986.906127929688 991.100891113281 992.861022949219 997.033996582031 997.433898925781 988.962463378906 988.609985351562 990.555603027344 988.22412109375 994.507263183594 989.465942382812 999.170166015625 987.463317871094 984.046447753906 996.730712890625 989.534729003906 995.466430664062 978.885192871094 987.314697265625 985.987609863281 992.085510253906 995.790893554688 1006.08654785156 1009.50811767578 1005.52172851562 1006.9296875 1014.29986572266 1013.79650878906 1010.92840576172 1007.57098388672 1009.83404541016 1004.58612060547 1007.89239501953 1017.51031494141 1016.58251953125 1014.76501464844 1015.17510986328 1026.15942382812 1033.65295410156 1054.4814453125 1077.01049804688 1082.23559570312 1093.35595703125 1102.01135253906 1114.724609375 1121.49682617188 1138.50537109375 1140.57556152344 1155.91809082031 1162.69030761719 1173.96545410156
951.166625976562 952.643615722656 961.510803222656 966.728881835938 979.465515136719 971.1591796875 973.462646484375 971.398132324219 975.873779296875 970.969909667969 970.916320800781 974.755676269531 974.245056152344 983.317749023438 976.069458007812 974.742553710938 981.820129394531 980.732055664062 974.198120117188 974.938537597656 978.680297851562 984.591369628906 985.968444824219 996.795776367188 992.564697265625 994.618774414062 992.212585449219 988.965454101562 981.19384765625 977.516235351562 981.611572265625 980.468933105469 983.625305175781 988.61181640625 989.085571289062 981.630432128906 973.712219238281 972.286010742188 976.083251953125 978.273315429688 966.349304199219 976.576599121094 979.801208496094 978.7373046875 978.560241699219 979.714477539062 975.908752441406 968.499450683594 969.816284179688 975.468322753906 981.030700683594 973.984558105469 970.794616699219 969.560852050781 972.43603515625 971.776062011719 978.9580078125 980.466369628906 994.153930664062 998.907287597656 996.49609375 1003.22277832031 998.9892578125 987.176391601562 994.27099609375 995.294128417969 981.046691894531 977.6298828125 974.046508789062 972.901489257812 988.221313476562 991.1357421875 991.842834472656 991.887756347656 996.110961914062 997.703063964844 996.972412109375 997.230285644531 996.137023925781 1005.28344726562 996.293701171875 1006.40478515625 1001.37731933594 994.193725585938 1001.75555419922 994.990783691406 991.329040527344 987.309509277344 989.975891113281 989.067016601562 991.966735839844 993.239074707031 999.621704101562 1003.85919189453 1008.80596923828 995.442443847656 1002.3720703125 1001.75756835938 998.842590332031 997.766296386719 999.219604492188 997.602600097656 997.881774902344 994.411560058594 987.740539550781 991.555358886719 985.746215820312 985.283935546875 989.233154296875 988.259582519531 993.366088867188 987.549926757812 993.17431640625 991.198181152344 992.121337890625 994.71728515625 991.041931152344 987.572814941406 979.8583984375 980.182861328125 988.739807128906 1008.81359863281 1006.6806640625 997.972412109375 1004.48706054688 1002.95458984375 1011.62908935547 1006.30426025391 1012.51245117188 1007.17303466797 1009.86737060547 1015.68035888672 1015.33868408203 1010.87890625 1010.47534179688 1019.41070556641 1030.55651855469 1039.82653808594 1051.55603027344 1071.35815429688 1086.52856445312 1100.14147949219 1113.35522460938 1123.92211914062 1133.53955078125 1143.12512207031 1149.18054199219 1158.67199707031 1160.51489257812 1158.57897949219
958.446166992188 960.922302246094 972.365844726562 975.15478515625 970.092834472656 982.288879394531 975.327331542969 974.752197265625 978.2685546875 969.309631347656 966.740661621094 967.589172363281 966.688537597656 974.427917480469 979.835876464844 977.247680664062 973.373474121094 978.645202636719 976.369262695312 980.292541503906 975.990295410156 973.990966796875 976.955627441406 984.643920898438 996.372497558594 987.91552734375 980.904907226562 979.322204589844 984.534423828125 981.698425292969 977.759460449219 982.861633300781 983.325805664062 981.951721191406 990.200256347656 976.7958984375 982.900451660156 977.261413574219 975.525146484375 979.47119140625 973.276794433594 967.893798828125 978.420349121094 968.274963378906 979.061401367188 978.983581542969 975.107543945312 973.569091796875 973.585144042969 972.575378417969 974.389526367188 966.907287597656 970.744140625 972.253723144531 974.771057128906 977.277770996094 978.515075683594 986.00390625 992.476989746094 995.342346191406 1001.47534179688 999.624694824219 995.082946777344 989.289123535156 990.868103027344 989.451477050781 980.311096191406 977.214294433594 966.080688476562 972.3408203125 976.388671875 986.03759765625 989.595275878906 984.676696777344 992.144287109375 982.278564453125 986.046447753906 990.608825683594 996.19677734375 1002.28448486328 1001.88647460938 992.026123046875 997.484313964844 994.571838378906 999.099365234375 996.252563476562 994.471740722656 985.834716796875 987.598205566406 990.139221191406 990.367004394531 984.052001953125 994.923095703125 1010.77124023438 1002.21624755859 1004.37591552734 996.276550292969 991.896301269531 996.675964355469 994.39892578125 991.343933105469 987.486328125 989.531372070312 992.938842773438 991.666870117188 983.084289550781 989.380187988281 985.716003417969 990.080261230469 989.055297851562 987.517028808594 992.411499023438 997.378234863281 994.563171386719 991.848266601562 991.05029296875 993.583740234375 991.2978515625 996.449279785156 990.048278808594 987.758972167969 1003.36871337891 997.348754882812 991.830078125 1001.56329345703 1000.63708496094 1005.87738037109 1007.9365234375 1008.76550292969 1015.36602783203 1011.26141357422 1013.60693359375 1018.14215087891 1009.61804199219 1007.15313720703 1013.50280761719 1023.2939453125 1045.76135253906 1059.69543457031 1079.07849121094 1090.23291015625 1106.76794433594 1120.37951660156 1122.3701171875 1131.75708007812 1144.62609863281 1150.3935546875 1152.16394042969 1155.09777832031 1157.86743164062
960.358032226562 950.964416503906 963.646362304688 972.256713867188 976.387023925781 975.433471679688 974.625427246094 970.203735351562 973.816162109375 965.719604492188 970.561462402344 968.195556640625 973.946044921875 966.900695800781 973.103637695312 978.277526855469 974.002075195312 980.995788574219 975.247985839844 986.034729003906 979.175720214844 982.104370117188 973.1787109375 976.464660644531 982.255432128906 973.385925292969 972.142944335938 978.031005859375 984.38134765625 976.945922851562 978.451538085938 979.93994140625 979.078735351562 978.355712890625 988.88671875 985.950317382812 976.787841796875 975.417541503906 974.763244628906 980.27880859375 976.385681152344 970.792785644531 966.850708007812 961.913330078125 963.110290527344 971.309936523438 970.125854492188 969.404113769531 978.885803222656 976.253784179688 971.688354492188 967.437316894531 964.653991699219 967.38134765625 978.10302734375 972.773681640625 981.7373046875 984.648254394531 994.883605957031 1000.62176513672 997.52197265625 1001.07073974609 987.734741210938 990.495056152344 996.200256347656 989.190002441406 984.772583007812 982.851684570312 981.611389160156 981.326843261719 975.98876953125 973.473876953125 976.8798828125 985.216064453125 987.298095703125 985.44189453125 977.099426269531 991.956420898438 1003.11444091797 1001.50531005859 995.06591796875 993.94677734375 999.681579589844 999.37548828125 998.125122070312 998.854431152344 1000.27667236328 988.676635742188 989.477905273438 988.559326171875 990.072082519531 977.679870605469 984.268371582031 995.616943359375 1006.1015625 1007.791015625 997.439147949219 1000.3076171875 994.078308105469 988.015625 992.140991210938 978.634521484375 984.592468261719 990.285827636719 987.383605957031 990.538330078125 987.223571777344 1001.01312255859 995.303955078125 990.884582519531 989.343505859375 995.322387695312 998.930541992188 997.792602539062 998.382141113281 995.373046875 1002.06976318359 997.188232421875 1001.33801269531 987.758483886719 995.668395996094 999.585388183594 997.85693359375 1001.98669433594 1001.03430175781 999.344665527344 1006.53149414062 1013.25305175781 1014.78363037109 1016.84149169922 1017.69732666016 1021.79425048828 1019.91485595703 1018.30358886719 1010.42205810547 1020.26220703125 1030.14526367188 1051.37219238281 1057.13854980469 1078.45532226562 1091.62548828125 1114.9619140625 1126.51330566406 1133.99560546875 1140.67919921875 1151.18090820312 1156.41564941406 1150.67687988281 1159.30078125 1160.06481933594
959.30615234375 952.374877929688 954.935424804688 953.621887207031 964.340393066406 962.899780273438 963.364074707031 963.072021484375 972.906494140625 963.540283203125 981.341552734375 978.679626464844 983.232238769531 974.593872070312 968.390319824219 976.268310546875 974.968811035156 985.287109375 980.338439941406 978.257385253906 974.499267578125 980.755737304688 978.044921875 972.370239257812 970.731628417969 974.18701171875 976.810607910156 968.261474609375 968.7626953125 977.267456054688 972.523620605469 970.274536132812 982.234375 985.268676757812 985.10498046875 977.104736328125 986.09912109375 976.159912109375 973.197998046875 970.821350097656 975.320068359375 966.056945800781 958.861999511719 963.495727539062 959.623107910156 963.760192871094 968.609436035156 971.249450683594 982.2470703125 980.77880859375 965.527404785156 963.241271972656 964.738159179688 968.637634277344 977.767395019531 980.621337890625 980.033996582031 980.565307617188 974.792358398438 997.350219726562 995.198974609375 1001.67266845703 985.523864746094 990.635131835938 988.832397460938 983.119995117188 973.4609375 970.082275390625 974.796264648438 974.22802734375 964.091369628906 966.811767578125 971.8759765625 976.752746582031 984.798400878906 982.49609375 981.693908691406 992.200134277344 985.212829589844 987.888427734375 1001.14074707031 994.060913085938 993.421875 994.336486816406 1005.09692382812 1004.94659423828 994.125793457031 988.915100097656 987.367126464844 991.464050292969 991.946838378906 985.070617675781 986.675964355469 990.6455078125 999.360961914062 999.620422363281 998.02099609375 998.537353515625 996.266906738281 989.181823730469 988.886535644531 986.939270019531 985.535400390625 984.705932617188 976.837097167969 985.507019042969 987.900939941406 990.32958984375 993.994567871094 1000.87683105469 995.843566894531 997.893127441406 999.876586914062 992.846801757812 995.843017578125 997.872009277344 1000.78723144531 1001.27331542969 1001.27856445312 994.624145507812 996.776306152344 999.775512695312 1004.97509765625 1001.99432373047 1009.24224853516 1009.14117431641 1007.14813232422 1009.63995361328 1017.73052978516 1021.73852539062 1024.01013183594 1025.12634277344 1024.48413085938 1019.94781494141 1026.10668945312 1032.79956054688 1040.24279785156 1048.35083007812 1070.48010253906 1084.8095703125 1090.97839355469 1114.22888183594 1122.76806640625 1132.63928222656 1131.890625 1152.40368652344 1152.11328125 1159.65612792969 1167.01171875 1161.53942871094
958.912353515625 956.433532714844 954.780700683594 953.50146484375 958.951843261719 964.271362304688 963.587097167969 960.187805175781 959.875122070312 959.990539550781 965.153991699219 973.239440917969 973.01025390625 976.770690917969 977.579040527344 970.654541015625 980.424987792969 978.246887207031 969.872436523438 973.3837890625 978.044860839844 978.716064453125 979.504516601562 979.20947265625 973.255554199219 971.759887695312 970.019958496094 969.707885742188 968.29248046875 971.522583007812 967.978576660156 975.864135742188 977.192077636719 975.347961425781 986.560485839844 987.845275878906 994.632385253906 980.617309570312 975.494323730469 975.786254882812 961.898742675781 965.277526855469 967.249572753906 963.035766601562 956.017761230469 968.5732421875 966.597900390625 969.613037109375 980.167724609375 976.938537597656 976.094909667969 973.392822265625 973.12890625 970.448120117188 968.850463867188 977.028625488281 966.562866210938 971.187316894531 976.358215332031 994.116577148438 994.280456542969 994.08837890625 992.574951171875 989.468872070312 982.387756347656 977.528015136719 975.846862792969 973.94189453125 968.959289550781 977.614440917969 973.921447753906 969.834899902344 971.504943847656 979.502014160156 977.410583496094 985.843383789062 975.114624023438 976.954772949219 981.865905761719 985.82373046875 979.633850097656 986.461242675781 991.159729003906 994.70703125 994.090454101562 999.054504394531 992.105712890625 991.044494628906 983.755004882812 992.029602050781 996.58740234375 993.246643066406 997.871765136719 994.20947265625 989.114624023438 992.836669921875 999.83642578125 999.841735839844 991.065856933594 992.484497070312 986.741882324219 983.22607421875 991.164611816406 991.161682128906 981.228576660156 989.241760253906 980.261108398438 991.624267578125 1001.09088134766 998.349975585938 995.556884765625 995.022094726562 991.0830078125 995.499816894531 999.780212402344 994.673278808594 996.820251464844 1000.13214111328 1004.22198486328 994.599975585938 999.248779296875 1006.49072265625 992.659912109375 998.163818359375 1003.19128417969 1009.99597167969 1009.49829101562 1019.40130615234 1019.08581542969 1017.47863769531 1020.20452880859 1022.61431884766 1035.99035644531 1038.9716796875 1037.42077636719 1037.1318359375 1043.92114257812 1060.17932128906 1076.36437988281 1086.84399414062 1088.67126464844 1105.37829589844 1116.51586914062 1127.87670898438 1132.61364746094 1139.34399414062 1153.24108886719 1164.83874511719 1167.55883789062 1162.40368652344
962.348205566406 955.838684082031 957.923217773438 956.002807617188 964.089721679688 960.743286132812 956.286071777344 954.700012207031 958.925659179688 967.173034667969 965.73193359375 971.818908691406 965.405578613281 974.144470214844 972.033813476562 970.72607421875 975.054565429688 973.004150390625 973.498779296875 977.988342285156 981.929382324219 968.64990234375 978.618103027344 971.534057617188 967.401550292969 974.072631835938 966.221496582031 965.484069824219 964.5380859375 972.592163085938 970.802734375 979.612670898438 972.650756835938 980.239501953125 984.791442871094 988.309204101562 984.635925292969 979.109069824219 978.216430664062 968.502197265625 960.6650390625 957.607604980469 963.767944335938 962.239624023438 954.968627929688 961.915100097656 967.670349121094 964.88623046875 965.449768066406 975.607727050781 980.461242675781 971.863037109375 970.455200195312 963.077941894531 972.896240234375 971.964721679688 966.948303222656 978.17822265625 976.924011230469 992.491333007812 989.521728515625 995.196350097656 991.996398925781 992.082702636719 975.550415039062 970.360290527344 970.412475585938 969.165649414062 967.130798339844 973.5849609375 973.379821777344 964.700256347656 970.360168457031 970.577392578125 980.244445800781 973.886047363281 973.487854003906 977.65234375 979.10400390625 976.180480957031 983.118957519531 982.988891601562 982.475280761719 988.400634765625 990.482849121094 993.061340332031 992.343872070312 993.456665039062 993.290283203125 987.948486328125 991.398742675781 1000.07989501953 994.289672851562 990.545043945312 986.367309570312 991.337463378906 990.371276855469 989.893127441406 1005.23937988281 989.823120117188 988.663513183594 981.337158203125 983.882507324219 988.967529296875 983.16259765625 984.514709472656 978.697937011719 979.678344726562 987.687927246094 988.137878417969 990.908020019531 993.690002441406 991.131286621094 994.128295898438 993.440307617188 1001.0537109375 1000.29260253906 1003.21228027344 999.315551757812 998.320434570312 1001.28472900391 997.507873535156 992.215087890625 999.406188964844 1007.55505371094 1016.09552001953 1019.96594238281 1032.44714355469 1027.40185546875 1029.27978515625 1020.74914550781 1027.705078125 1029.32897949219 1041.68603515625 1048.75708007812 1049.33618164062 1057.66455078125 1067.35241699219 1077.27648925781 1089.04858398438 1105.16381835938 1106.69641113281 1113.41491699219 1123.13745117188 1125.69360351562 1140.10034179688 1153.43273925781 1163.16333007812 1163.23400878906 1162.2490234375
950.543090820312 953.1728515625 951.520080566406 948.551208496094 956.373962402344 959.732604980469 956.722961425781 948.917236328125 959.396118164062 965.465209960938 974.575256347656 972.789916992188 968.436645507812 976.863708496094 968.291687011719 965.525329589844 977.421936035156 974.585693359375 981.61474609375 983.739318847656 986.146606445312 976.547302246094 964.446166992188 975.537170410156 970.421630859375 964.934326171875 967.083801269531 962.6494140625 967.977966308594 967.780334472656 968.338012695312 978.224548339844 975.672424316406 978.73291015625 989.575378417969 983.764038085938 981.645080566406 980.543701171875 979.333801269531 972.037963867188 963.986511230469 970.109985351562 969.515258789062 961.679870605469 959.757019042969 960.59326171875 967.241455078125 957.90673828125 960.047607421875 965.963317871094 977.23291015625 970.444152832031 960.330078125 973.373046875 972.788818359375 966.678283691406 969.250366210938 969.294799804688 981.451904296875 984.683654785156 993.081604003906 1001.20135498047 991.566833496094 984.458618164062 974.432739257812 978.720336914062 978.386047363281 977.932312011719 980.379699707031 975.522766113281 971.043884277344 972.297485351562 966.668640136719 974.355529785156 967.323913574219 966.973693847656 965.473510742188 978.232727050781 980.822204589844 975.5654296875 980.968811035156 983.663635253906 984.447204589844 995.069091796875 990.835021972656 994.091552734375 985.4560546875 986.451843261719 987.916381835938 990.885803222656 988.665832519531 989.280944824219 997.877563476562 990.355285644531 979.993225097656 984.549865722656 992.693115234375 993.848937988281 997.41455078125 994.967956542969 984.4853515625 978.977233886719 981.560119628906 989.269897460938 982.832275390625 981.514465332031 973.095947265625 977.996826171875 991.084289550781 985.019714355469 991.130065917969 989.186279296875 996.321533203125 988.766784667969 985.362121582031 1003.36700439453 997.25390625 991.11279296875 995.971740722656 1003.65454101562 1004.26654052734 998.738342285156 999.852233886719 1000.78643798828 1008.791015625 1014.75213623047 1026.76916503906 1031.26123046875 1033.99353027344 1030.14099121094 1027.57849121094 1034.42919921875 1032.02709960938 1052.25854492188 1055.4541015625 1056.90075683594 1056.22326660156 1068.07995605469 1086.91564941406 1098.25610351562 1104.49780273438 1117.94970703125 1125.66662597656 1131.0087890625 1139.33996582031 1149.48120117188 1153.98168945312 1160.48364257812 1169.19738769531 1171.00708007812
947.09375 949.938598632812 953.079162597656 957.55224609375 952.724487304688 956.642333984375 956.721862792969 955.619201660156 965.346008300781 969.740356445312 972.358276367188 966.354248046875 965.703674316406 965.680297851562 969.787536621094 970.518371582031 975.966369628906 971.857666015625 977.75244140625 977.768981933594 974.824645996094 976.758544921875 969.670715332031 962.686462402344 961.241943359375 965.005676269531 965.615478515625 960.879028320312 973.381286621094 979.907165527344 978.904724121094 978.071411132812 979.628356933594 978.454162597656 983.357238769531 985.795532226562 987.099060058594 979.828735351562 969.457824707031 972.40673828125 965.896728515625 962.885437011719 969.029602050781 971.97265625 967.744750976562 968.7529296875 961.073120117188 965.280395507812 960.691589355469 963.916137695312 971.533020019531 969.382629394531 963.93017578125 971.857849121094 967.855712890625 969.302429199219 960.386047363281 966.416564941406 979.449523925781 978.967041015625 979.298706054688 987.541625976562 982.380004882812 977.757507324219 975.599670410156 979.69921875 980.404174804688 981.213623046875 978.9619140625 978.697387695312 972.822326660156 971.021362304688 973.185852050781 970.164184570312 968.586120605469 968.049194335938 971.041076660156 972.401977539062 974.763977050781 969.283264160156 970.8369140625 973.966369628906 986.746704101562 981.331970214844 988.148071289062 990.989196777344 984.142883300781 985.096496582031 983.858520507812 983.183715820312 985.459045410156 992.203979492188 991.270812988281 983.279846191406 983.783020019531 985.929321289062 991.907836914062 988.559326171875 986.581909179688 996.5751953125 992.714050292969 979.523376464844 973.424377441406 976.962097167969 981.693908691406 977.927612304688 977.0546875 981.937438964844 981.563232421875 983.489013671875 985.830322265625 990.568054199219 989.580627441406 992.479064941406 986.225769042969 994.918395996094 994.9892578125 996.184875488281 997.712585449219 1000.18572998047 1002.17077636719 999.149475097656 1006.69604492188 1002.78430175781 1006.40777587891 1011.02862548828 1016.60913085938 1026.59802246094 1031.49426269531 1027.75817871094 1031.82775878906 1030.89343261719 1050.02685546875 1053.94921875 1059.47485351562 1058.80297851562 1075.943359375 1081.52087402344 1091.90454101562 1110.06311035156 1112.63916015625 1124.46887207031 1136.14343261719 1138.05944824219 1147.35229492188 1144.27197265625 1158.8857421875 1167.11364746094 1171.17602539062 1184.70727539062
944.853271484375 948.103698730469 954.71337890625 948.19287109375 956.183532714844 962.851135253906 967.697631835938 960.870971679688 964.341918945312 969.137939453125 970.178955078125 967.260559082031 969.093322753906 964.692932128906 969.634948730469 974.344848632812 980.944519042969 976.477416992188 975.394165039062 973.964416503906 967.011657714844 967.357238769531 965.102111816406 965.590270996094 961.716735839844 964.223754882812 968.721313476562 968.111206054688 971.347900390625 976.377502441406 974.910461425781 982.197265625 979.042297363281 968.862426757812 974.505981445312 983.294006347656 978.500610351562 971.427001953125 973.477966308594 975.778503417969 971.503295898438 966.52880859375 970.273071289062 969.961791992188 964.088134765625 958.767883300781 966.8076171875 970.094848632812 964.107421875 963.831298828125 970.915100097656 967.353271484375 959.253784179688 967.008361816406 969.625 970.649719238281 965.555358886719 966.417419433594 976.268920898438 971.636413574219 969.203369140625 984.473205566406 977.854675292969 973.711730957031 975.846862792969 974.734313964844 974.497314453125 977.286254882812 973.28564453125 974.117248535156 974.599365234375 967.142028808594 967.654174804688 968.226928710938 955.281433105469 966.158813476562 972.205810546875 971.110595703125 969.360473632812 971.311401367188 966.058471679688 971.909973144531 983.531921386719 976.752990722656 980.990783691406 974.581298828125 986.299194335938 976.185791015625 985.317932128906 985.188293457031 978.565246582031 988.5068359375 979.984680175781 985.430603027344 982.035217285156 979.975341796875 982.396789550781 990.851623535156 988.490905761719 986.026611328125 986.200988769531 986.510925292969 980.159484863281 979.130798339844 974.60009765625 983.180847167969 980.788513183594 993.160522460938 990.518737792969 987.6796875 988.435546875 981.219055175781 980.851623535156 992.08154296875 998.509460449219 1002.95751953125 1003.77600097656 1000.29815673828 1005.99133300781 1002.73303222656 1010.43719482422 1005.51489257812 1011.40557861328 1009.90521240234 1006.44940185547 1019.87957763672 1022.43090820312 1025.02551269531 1028.88842773438 1032.79650878906 1042.51574707031 1048.39880371094 1049.4560546875 1054.25756835938 1067.03869628906 1078.27880859375 1089.20458984375 1093.39282226562 1106.50244140625 1115.19946289062 1114.8564453125 1120.65954589844 1125.74926757812 1137.755859375 1137.62646484375 1141.83837890625 1157.9951171875 1161.47241210938 1168.99157714844 1180.94128417969
948.113403320312 955.702758789062 966.587707519531 959.12890625 961.423706054688 971.332885742188 965.352233886719 971.484802246094 965.340270996094 967.555969238281 973.225341796875 976.888122558594 975.601501464844 966.487182617188 967.50537109375 971.863098144531 977.630310058594 978.673522949219 981.440795898438 968.056701660156 974.406433105469 966.27685546875 963.096557617188 965.406616210938 957.357299804688 954.224731445312 957.99853515625 958.925720214844 970.893859863281 972.807922363281 971.781982421875 970.734497070312 977.17626953125 980.088317871094 978.112915039062 980.23583984375 968.309326171875 966.088989257812 965.834594726562 968.209289550781 969.442321777344 975.496215820312 969.287475585938 962.110412597656 955.697387695312 957.310302734375 970.128845214844 975.901489257812 964.939331054688 968.7587890625 961.84375 970.4443359375 963.0576171875 954.429931640625 969.914672851562 971.854919433594 966.355590820312 966.95947265625 965.483825683594 963.061401367188 965.970458984375 979.18212890625 976.057006835938 965.967712402344 974.006225585938 974.589111328125 970.141052246094 963.704772949219 963.700500488281 964.01025390625 969.896057128906 963.272094726562 973.210388183594 961.869567871094 965.277709960938 965.959594726562 968.119812011719 969.434448242188 966.939575195312 974.746826171875 971.456726074219 968.674499511719 971.549377441406 964.458984375 973.408813476562 978.803405761719 979.212341308594 975.133728027344 983.641906738281 992.630310058594 972.059204101562 981.908142089844 984.568786621094 981.355102539062 973.811157226562 971.645324707031 980.901062011719 992.025085449219 987.746520996094 982.450378417969 991.617980957031 996.707580566406 991.360107421875 997.849060058594 989.440368652344 990.310180664062 989.891418457031 998.801330566406 998.236022949219 1002.63366699219 994.97216796875 989.631774902344 999.165466308594 1001.39099121094 998.02587890625 1003.45733642578 1001.82543945312 1003.65216064453 1017.33374023438 1015.01513671875 1023.68109130859 1018.74621582031 1014.27795410156 1009.78631591797 1007.09631347656 1015.38977050781 1023.49578857422 1027.41186523438 1034.80810546875 1035.91357421875 1044.65881347656 1050.75537109375 1054.6474609375 1069.65026855469 1065.20043945312 1070.99438476562 1091.41333007812 1096.65979003906 1109.23217773438 1117.12841796875 1115.47119140625 1121.75207519531 1121.15368652344 1133.06030273438 1146.48864746094 1153.75756835938 1162.849609375 1170.78308105469 1172.27587890625 1171.85925292969
956.766540527344 963.596618652344 965.805847167969 961.797790527344 961.881286621094 959.855895996094 962.11083984375 968.467102050781 973.173645019531 965.052978515625 966.190551757812 971.777648925781 971.79150390625 958.444763183594 957.746948242188 968.500122070312 973.053527832031 974.661743164062 972.651550292969 969.29833984375 970.952331542969 969.765014648438 964.506408691406 962.761169433594 961.758483886719 953.228149414062 958.640869140625 961.294616699219 966.506713867188 978.993103027344 972.324462890625 969.014099121094 970.002563476562 979.253845214844 978.440490722656 978.396789550781 965.390380859375 961.932922363281 958.432312011719 967.044311523438 967.491577148438 965.129943847656 968.587646484375 956.043518066406 957.57080078125 967.038391113281 969.726379394531 963.396301269531 968.715576171875 973.263977050781 978.255249023438 970.12841796875 952.97802734375 959.062927246094 969.71533203125 964.744934082031 971.362060546875 967.342468261719 966.39111328125 973.841918945312 971.625 976.043823242188 971.277587890625 968.243896484375 973.042419433594 967.319152832031 967.734558105469 965.534851074219 959.275573730469 968.224182128906 963.288513183594 965.374267578125 967.078674316406 965.75390625 962.612426757812 964.305358886719 972.436096191406 969.185852050781 970.541625976562 966.42919921875 971.795227050781 970.270751953125 972.18115234375 979.387756347656 978.949523925781 976.975158691406 977.483276367188 981.277893066406 979.866333007812 982.771240234375 976.119201660156 975.367126464844 975.008911132812 974.169555664062 976.437683105469 973.198974609375 984.1611328125 988.363220214844 980.593078613281 975.697998046875 987.892028808594 996.187072753906 988.853942871094 990.118469238281 994.613586425781 992.327453613281 993.715759277344 1000.55688476562 1005.01177978516 1007.39294433594 998.571472167969 996.019104003906 999.901611328125 1009.73168945312 1003.29736328125 1003.22772216797 999.657470703125 1013.10919189453 1022.43237304688 1019.62341308594 1027.55090332031 1023.83477783203 1019.04968261719 1015.20947265625 1009.78192138672 1015.82824707031 1025.02111816406 1032.3583984375 1041.56652832031 1050.12158203125 1053.63391113281 1057.41162109375 1059.92626953125 1068.810546875 1066.65991210938 1067.69445800781 1076.50500488281 1094.48986816406 1102.62109375 1107.65356445312 1113.45849609375 1121.33276367188 1128.296875 1127.61437988281 1136.04150390625 1149.53527832031 1159.94873046875 1164.96411132812 1170.56481933594 1168.27136230469
962.605407714844 965.091857910156 960.058044433594 957.664123535156 959.548767089844 967.432495117188 959.486083984375 969.978088378906 971.808654785156 962.12939453125 959.2783203125 955.704772949219 960.798156738281 965.817626953125 962.788146972656 966.749938964844 975.225280761719 977.78759765625 974.117858886719 970.937927246094 971.501281738281 964.977844238281 967.114929199219 965.251220703125 963.218566894531 955.750549316406 959.187072753906 962.902038574219 970.016052246094 965.710266113281 964.020202636719 973.361083984375 971.638427734375 974.192077636719 976.521118164062 971.317810058594 966.649597167969 968.721130371094 953.478454589844 962.743408203125 958.567993164062 962.819641113281 961.1416015625 961.811401367188 960.310974121094 967.369201660156 968.671813964844 972.959289550781 972.467590332031 972.238647460938 975.244140625 965.161315917969 966.697021484375 966.158386230469 970.152282714844 974.623229980469 969.795837402344 975.602416992188 977.109558105469 969.560668945312 971.265197753906 970.473876953125 971.542175292969 971.343444824219 968.374633789062 971.501403808594 974.74609375 965.178833007812 965.511596679688 964.272277832031 967.662231445312 964.733215332031 968.693176269531 962.064086914062 960.342468261719 972.398376464844 973.197814941406 965.124084472656 964.904602050781 963.578735351562 966.781982421875 966.871337890625 971.060546875 968.273986816406 977.059204101562 975.463134765625 977.491516113281 977.530822753906 980.267395019531 980.681518554688 983.057373046875 971.830932617188 969.464172363281 971.661437988281 972.450317382812 977.002746582031 985.599365234375 982.381042480469 978.710388183594 971.608276367188 978.562927246094 994.773681640625 983.404296875 990.223449707031 993.114624023438 995.535827636719 995.881042480469 1001.68884277344 1004.40899658203 1005.05944824219 1001.30218505859 996.559692382812 1003.29144287109 1009.99993896484 1007.54174804688 1003.53424072266 1001.26397705078 1020.23168945312 1020.88665771484 1023.96044921875 1019.77032470703 1029.16955566406 1020.27154541016 1021.63128662109 1010.79699707031 1013.12768554688 1021.40875244141 1034.06787109375 1041.19018554688 1044.51306152344 1052.28735351562 1055.45129394531 1059.14965820312 1066.82971191406 1070.85180664062 1068.55187988281 1084.85791015625 1095.38452148438 1111.02087402344 1109.21301269531 1113.36755371094 1116.13525390625 1123.16809082031 1129.34094238281 1136.28332519531 1139.63537597656 1148.07641601562 1151.28881835938 1160.46398925781 1161.81896972656
962.915466308594 956.453918457031 960.99853515625 958.993896484375 955.626586914062 968.11865234375 969.773986816406 965.943298339844 969.927673339844 974.867309570312 966.80908203125 964.390014648438 963.996948242188 966.9169921875 967.276550292969 968.547607421875 979.967529296875 975.598266601562 976.308410644531 967.482299804688 963.025756835938 967.625061035156 958.606994628906 953.666198730469 960.029907226562 966.939147949219 963.274291992188 959.647766113281 962.870239257812 972.774353027344 972.003356933594 980.339782714844 972.36767578125 975.0576171875 971.188354492188 967.310668945312 975.948364257812 959.523986816406 962.787475585938 957.062805175781 956.482727050781 952.348327636719 960.702087402344 955.757019042969 964.147033691406 969.085632324219 969.7177734375 977.495544433594 967.520568847656 961.660461425781 961.531311035156 966.794738769531 969.093017578125 971.946838378906 965.815124511719 967.283203125 963.066101074219 975.113220214844 976.397827148438 978.176635742188 971.980102539062 973.806579589844 966.863891601562 960.096374511719 965.068359375 967.786926269531 977.094421386719 968.340454101562 958.969970703125 958.569885253906 962.468811035156 962.22216796875 968.910278320312 961.460388183594 967.638977050781 967.555969238281 957.571166992188 962.089599609375 968.048950195312 972.014831542969 964.680908203125 967.552307128906 969.289855957031 964.065307617188 972.219116210938 968.0546875 966.194091796875 972.310241699219 981.348022460938 984.549377441406 977.520263671875 969.323364257812 966.673095703125 972.566284179688 974.618835449219 975.476379394531 977.703186035156 977.798706054688 981.339294433594 973.635925292969 981.937561035156 987.561584472656 985.113708496094 986.441223144531 985.1171875 986.900146484375 997.3896484375 1001.42553710938 998.388488769531 1008.53912353516 997.3349609375 1006.94561767578 1006.49371337891 1007.78717041016 1011.49340820312 1001.0234375 1009.92047119141 1016.5556640625 1029.36706542969 1027.90075683594 1015.91333007812 1021.29846191406 1024.09326171875 1022.42309570312 1016.10235595703 1016.43249511719 1026.04370117188 1030.88330078125 1052.56091308594 1050.07348632812 1053.23889160156 1059.26818847656 1060.64135742188 1066.337890625 1069.17797851562 1073.22863769531 1080.654296875 1091.91430664062 1102.09008789062 1098.12915039062 1112.89111328125 1120.62097167969 1120.91857910156 1127.9462890625 1134.51391601562 1136.19128417969 1149.09887695312 1158.658203125 1159.9453125 1151.0810546875
956.533813476562 956.458251953125 963.593872070312 962.256042480469 960.948120117188 963.399353027344 959.013305664062 966.652282714844 977.052368164062 978.640441894531 969.705871582031 969.558837890625 961.510070800781 967.6318359375 964.487060546875 964.1220703125 972.539672851562 976.275207519531 975.994567871094 977.083984375 968.692321777344 961.710388183594 967.16357421875 959.194641113281 962.764892578125 964.345703125 963.254333496094 967.35107421875 966.006225585938 970.4091796875 977.485046386719 975.817626953125 967.266662597656 966.503540039062 972.867614746094 970.841918945312 971.5341796875 968.950927734375 970.6015625 961.12109375 955.343505859375 951.382263183594 951.037414550781 952.082641601562 963.457763671875 971.2919921875 971.933166503906 974.305419921875 966.644836425781 965.645385742188 959.751281738281 971.444519042969 970.616455078125 966.649230957031 966.263427734375 962.269653320312 961.832702636719 974.094848632812 977.524230957031 967.577941894531 971.947692871094 977.332946777344 969.329345703125 958.446228027344 960.578491210938 966.906005859375 966.971862792969 964.483276367188 957.630981445312 955.183349609375 954.605651855469 965.384460449219 972.796997070312 970.822875976562 974.703186035156 965.356811523438 966.645385742188 958.638366699219 970.340759277344 966.110961914062 973.604736328125 964.505981445312 969.490356445312 966.120910644531 970.692565917969 974.016662597656 967.97607421875 965.343566894531 981.352783203125 984.469421386719 976.488220214844 969.263916015625 971.137512207031 977.316650390625 978.081176757812 979.576477050781 973.645202636719 977.643249511719 979.3115234375 976.855712890625 989.432434082031 981.4970703125 978.931335449219 980.747863769531 984.127075195312 984.349243164062 985.209106445312 1000.94519042969 1005.16418457031 1007.88031005859 996.924255371094 994.551147460938 1003.27606201172 1004.88635253906 998.479248046875 1003.98785400391 1008.51501464844 1010.27581787109 1024.52795410156 1021.53833007812 1016.26239013672 1019.66491699219 1020.17132568359 1027.81201171875 1023.787109375 1034.42126464844 1029.88391113281 1034.20617675781 1047.8134765625 1057.91455078125 1057.7626953125 1054.28112792969 1055.09643554688 1068.421875 1074.78015136719 1080.35546875 1086.20593261719 1094.02124023438 1101.82727050781 1096.16064453125 1102.94494628906 1115.23168945312 1115.91833496094 1118.73071289062 1118.87377929688 1122.2626953125 1130.50268554688 1150.98779296875 1144.73327636719 1137.1044921875
952.212463378906 961.951110839844 964.618469238281 965.868225097656 967.095947265625 963.392395019531 969.177795410156 969.754699707031 973.989318847656 974.38916015625 970.620910644531 966.848876953125 968.124877929688 972.06640625 967.214721679688 981.047912597656 973.794494628906 964.861999511719 976.67529296875 976.56005859375 971.49853515625 966.322143554688 968.602233886719 971.810791015625 959.001770019531 958.59228515625 961.884948730469 955.184814453125 960.185241699219 975.654724121094 972.138732910156 960.780456542969 964.080810546875 968.482055664062 973.799621582031 969.897705078125 973.992919921875 971.481689453125 970.557739257812 960.26708984375 959.653503417969 943.957641601562 952.226257324219 954.859619140625 970.466613769531 968.594360351562 973.801940917969 972.411437988281 967.057922363281 962.894897460938 969.282348632812 967.066101074219 966.138366699219 971.095031738281 972.119934082031 964.503845214844 967.353942871094 971.794982910156 967.730651855469 969.920349121094 974.798461914062 973.6845703125 963.188842773438 963.258972167969 955.834533691406 964.393432617188 968.665954589844 961.235900878906 963.722473144531 955.733337402344 961.684692382812 963.607543945312 976.112060546875 967.562927246094 972.638610839844 971.918395996094 977.789428710938 969.881713867188 968.628295898438 966.247985839844 957.941589355469 967.694702148438 973.177673339844 967.2294921875 963.68896484375 961.221374511719 964.005615234375 969.397277832031 973.744934082031 971.702453613281 965.509643554688 966.677673339844 977.325073242188 977.059753417969 976.61279296875 979.052673339844 974.230285644531 985.250122070312 978.142761230469 976.255920410156 975.393310546875 979.732971191406 976.178405761719 977.309509277344 983.379699707031 980.518371582031 991.687622070312 996.346374511719 1002.26306152344 996.521362304688 996.428894042969 992.029113769531 1000.3125 1004.18890380859 999.28369140625 1007.31689453125 1006.26391601562 1011.91839599609 1019.31115722656 1029.84155273438 1030.71069335938 1022.1904296875 1027.64916992188 1031.12414550781 1031.09289550781 1024.89233398438 1026.51428222656 1035.14074707031 1048.99145507812 1053.0810546875 1050.98864746094 1059.10095214844 1058.42785644531 1064.8740234375 1072.96545410156 1075.74658203125 1090.53454589844 1085.17687988281 1089.3759765625 1091.19262695312 1097.6708984375 1101.8828125 1108.60424804688 1103.29504394531 1109.43994140625 1115.54638671875 1123.67309570312 1132.76245117188 1136.70971679688 1128.375
953.182922363281 965.197509765625 971.16015625 967.44189453125 967.506774902344 966.756103515625 975.630310058594 971.495056152344 975.696838378906 970.268371582031 968.999450683594 970.635864257812 970.444946289062 976.551940917969 976.1005859375 975.989379882812 976.672485351562 973.599792480469 975.225158691406 970.074523925781 976.434997558594 966.440246582031 967.468322753906 971.220336914062 960.626586914062 948.619812011719 949.222839355469 956.075073242188 962.29296875 972.084594726562 970.804870605469 971.428955078125 970.517517089844 973.606201171875 974.399658203125 975.833129882812 967.151306152344 970.869506835938 965.284118652344 966.785583496094 954.334838867188 952.222229003906 951.527282714844 958.994079589844 960.416625976562 969.166137695312 965.391357421875 956.149963378906 963.564514160156 968.163757324219 969.403991699219 970.26025390625 965.318969726562 969.198181152344 974.355285644531 969.336120605469 962.500793457031 966.44287109375 974.680908203125 962.8916015625 961.612609863281 967.073974609375 954.413391113281 951.141784667969 950.011840820312 960.201904296875 959.41162109375 959.635498046875 960.444519042969 960.207214355469 964.161804199219 967.73486328125 968.056823730469 967.961547851562 966.080993652344 971.536926269531 965.763549804688 970.335510253906 964.19677734375 956.02099609375 956.835571289062 961.24951171875 969.004943847656 977.08056640625 970.886596679688 969.127014160156 976.365295410156 964.776550292969 967.456420898438 959.567016601562 965.088256835938 968.687255859375 971.092224121094 973.526733398438 975.587036132812 967.171691894531 978.321044921875 976.568176269531 974.14111328125 967.31005859375 967.920043945312 975.302490234375 981.661987304688 984.841125488281 983.389038085938 981.930969238281 981.716064453125 996.286560058594 990.0029296875 988.2236328125 990.793884277344 984.011474609375 989.297302246094 994.128295898438 1002.90313720703 1001.53515625 1006.52331542969 1006.37414550781 1015.21923828125 1025.50964355469 1029.96472167969 1022.68212890625 1027.07983398438 1029.69348144531 1030.41076660156 1022.99493408203 1018.22467041016 1030.4150390625 1042.98706054688 1052.9873046875 1059.26196289062 1056.45568847656 1054.03540039062 1073.76989746094 1076.19604492188 1081.91015625 1082.4560546875 1077.54772949219 1081.05822753906 1083.30029296875 1089.11083984375 1103.79187011719 1105.85827636719 1101.58679199219 1106.6142578125 1105.57946777344 1113.86303710938 1124.31896972656 1124.54736328125 1124.77282714844
957.544921875 965.652709960938 968.602661132812 972.132507324219 970.381958007812 969.194580078125 972.941040039062 971.120483398438 970.036804199219 976.705749511719 973.84619140625 972.730346679688 974.793518066406 977.1474609375 980.09814453125 972.502136230469 975.004516601562 972.524597167969 981.304077148438 968.583374023438 970.176391601562 970.928405761719 963.148315429688 961.552917480469 955.615478515625 942.924255371094 956.729125976562 955.076538085938 967.084777832031 965.863159179688 973.529907226562 969.396423339844 976.609680175781 987.806884765625 978.249084472656 965.451965332031 964.9580078125 961.37109375 961.164428710938 958.304748535156 959.828796386719 951.163696289062 952.563110351562 953.77197265625 955.602355957031 963.848999023438 963.581726074219 963.212890625 971.777038574219 974.487670898438 966.315490722656 967.085693359375 975.297485351562 968.721984863281 973.118591308594 967.371337890625 967.839294433594 966.090026855469 967.785766601562 955.576538085938 957.225891113281 961.778991699219 963.183166503906 959.245361328125 948.514343261719 944.444152832031 950.189208984375 951.752563476562 952.104125976562 958.370971679688 955.360595703125 958.648559570312 968.181762695312 965.225341796875 966.329406738281 968.919677734375 972.407836914062 964.330444335938 967.820434570312 962.181457519531 960.362854003906 962.893676757812 975.709716796875 973.108947753906 969.919921875 967.203857421875 968.654113769531 964.767944335938 965.147583007812 969.084838867188 968.037658691406 965.199462890625 974.227722167969 975.906433105469 976.1240234375 968.967712402344 973.473693847656 969.858032226562 974.015930175781 969.392700195312 968.715087890625 966.610290527344 978.983215332031 981.952880859375 979.70068359375 975.32080078125 974.723083496094 977.675842285156 989.037292480469 984.749450683594 987.793395996094 977.19580078125 980.251159667969 991.36083984375 997.0537109375 997.659301757812 996.169982910156 1003.47222900391 1008.11645507812 1023.14910888672 1031.03173828125 1024.45422363281 1020.09552001953 1030.89416503906 1034.92370605469 1017.57360839844 1028.26635742188 1027.69262695312 1036.56518554688 1040.81469726562 1046.72937011719 1049.38342285156 1054.32507324219 1074.88623046875 1073.25939941406 1084.65759277344 1082.31005859375 1082.43591308594 1078.04895019531 1079.24255371094 1087.46276855469 1087.92321777344 1094.84753417969 1096.20617675781 1100.5634765625 1107.14807128906 1108.69885253906 1103.94287109375 1111.61169433594 1120.23559570312
960.486572265625 966.526062011719 968.434753417969 975.863159179688 965.080810546875 967.314758300781 973.716430664062 970.274108886719 974.815795898438 970.155212402344 972.003295898438 978.034729003906 979.082397460938 972.005065917969 975.754272460938 970.583129882812 964.933837890625 977.21533203125 981.687683105469 970.499450683594 968.919067382812 965.448669433594 971.313781738281 952.116088867188 956.439819335938 954.39111328125 958.114624023438 957.214172363281 960.181762695312 973.221801757812 961.755004882812 973.435852050781 971.947998046875 977.103088378906 966.032409667969 965.319519042969 970.319396972656 966.469116210938 962.469299316406 959.502380371094 956.179016113281 949.673889160156 949.734191894531 954.312377929688 963.94287109375 961.346862792969 962.362121582031 967.460266113281 972.348754882812 974.237548828125 967.413757324219 970.831909179688 971.914001464844 965.877807617188 958.864013671875 963.210876464844 965.581848144531 959.740112304688 961.443359375 957.177734375 964.652404785156 962.1923828125 958.757385253906 958.784423828125 956.780822753906 949.307556152344 951.933837890625 956.073059082031 947.160705566406 959.3681640625 950.369934082031 962.592041015625 966.646606445312 959.016540527344 965.232543945312 965.135375976562 960.612426757812 965.285095214844 964.81640625 958.316955566406 963.855651855469 959.603576660156 965.53466796875 959.8623046875 966.239929199219 973.197692871094 962.077575683594 969.39892578125 971.0673828125 976.720336914062 974.272155761719 972.958984375 971.330017089844 967.602966308594 963.618041992188 970.402709960938 975.970825195312 973.76611328125 980.234924316406 974.091552734375 977.045654296875 973.0498046875 969.944763183594 979.381774902344 979.151123046875 972.010070800781 975.846313476562 983.4013671875 982.194763183594 991.069702148438 975.744140625 982.578369140625 982.525268554688 984.511474609375 993.209533691406 988.886047363281 1003.58782958984 1007.13946533203 1007.27453613281 1013.1845703125 1023.30236816406 1021.13262939453 1016.42559814453 1036.16821289062 1030.94311523438 1023.47125244141 1022.33099365234 1022.54071044922 1032.03088378906 1035.04138183594 1033.29711914062 1049.34240722656 1062.54443359375 1070.71765136719 1069.34191894531 1081.14050292969 1088.99365234375 1079.98461914062 1074.51745605469 1075.97802734375 1072.08142089844 1080.7197265625 1086.68151855469 1090.61193847656 1095.37915039062 1099.90307617188 1097.46594238281 1097.46105957031 1111.22583007812 1103.41979980469
963.021484375 968.323425292969 972.666564941406 971.520263671875 971.684997558594 971.239013671875 967.077087402344 967.03759765625 970.06787109375 971.833129882812 974.831481933594 977.976379394531 975.199279785156 976.231628417969 976.970703125 974.281860351562 968.7705078125 965.883056640625 969.715576171875 967.60205078125 969.884887695312 973.188842773438 963.154602050781 954.477905273438 951.795043945312 955.357482910156 955.490417480469 955.130249023438 959.46875 964.3173828125 965.467041015625 968.51953125 963.212829589844 962.776428222656 960.677124023438 966.88623046875 960.708312988281 964.077880859375 955.668090820312 952.911193847656 951.883361816406 959.631896972656 960.526306152344 960.771179199219 968.178405761719 970.39501953125 974.757995605469 982.550170898438 978.385192871094 979.316833496094 972.691040039062 971.892578125 975.777160644531 958.307922363281 954.013061523438 962.505798339844 952.848754882812 954.860473632812 956.738220214844 954.575134277344 951.587341308594 958.247741699219 959.192260742188 956.245056152344 964.805114746094 953.929809570312 950.505432128906 949.800659179688 958.512268066406 955.772277832031 960.801086425781 962.796020507812 957.753051757812 951.698852539062 962.824951171875 960.85107421875 964.846618652344 960.783264160156 956.816650390625 954.523620605469 965.90771484375 958.505310058594 960.860046386719 961.123291015625 969.419189453125 965.078857421875 953.91064453125 963.74755859375 967.486145019531 965.837890625 972.702026367188 973.595642089844 970.683837890625 965.213256835938 967.529357910156 968.544860839844 976.357055664062 967.027404785156 972.96044921875 978.305603027344 976.624084472656 966.509216308594 977.764221191406 975.490417480469 977.917053222656 972.687133789062 976.736572265625 987.348022460938 989.416320800781 983.784912109375 982.660766601562 982.209411621094 986.517883300781 981.792419433594 991.338928222656 994.501403808594 1000.359375 1001.47503662109 1007.59906005859 1015.56756591797 1018.53497314453 1024.041015625 1020.48150634766 1028.10375976562 1036.05090332031 1024.54895019531 1017.94360351562 1028.63903808594 1039.93420410156 1044.763671875 1045.28479003906 1054.30615234375 1061.05651855469 1065.22119140625 1075.30786132812 1083.64147949219 1084.94152832031 1089.19030761719 1079.03820800781 1079.25646972656 1085.85046386719 1078.40942382812 1081.67016601562 1084.30480957031 1089.27722167969 1089.50109863281 1088.49523925781 1095.31494140625 1098.2568359375 1100.36291503906
965.073486328125 965.611511230469 973.472717285156 976.388977050781 982.000061035156 968.635070800781 969.803344726562 973.334594726562 972.708312988281 971.626403808594 968.989929199219 972.834899902344 976.340698242188 978.933044433594 976.424377441406 971.962951660156 969.8330078125 968.825805664062 966.155090332031 966.4267578125 966.173522949219 965.486328125 962.645812988281 963.782409667969 951.263977050781 944.255187988281 951.865112304688 950.798767089844 952.64990234375 969.094421386719 966.790344238281 956.360595703125 954.78466796875 953.507751464844 961.730895996094 966.4677734375 966.303466796875 964.11767578125 958.765441894531 953.16064453125 957.966125488281 954.806091308594 963.205200195312 964.130432128906 966.681396484375 973.122375488281 963.796203613281 969.5634765625 968.050842285156 972.426452636719 970.372436523438 970.721740722656 966.637023925781 959.346069335938 951.826477050781 949.784545898438 949.267028808594 955.386535644531 953.353149414062 958.090942382812 957.345703125 960.71875 952.129455566406 959.527648925781 958.673950195312 956.769409179688 953.655029296875 946.3232421875 956.148254394531 962.617919921875 947.741271972656 960.953186035156 953.845397949219 944.813049316406 956.928344726562 960.273193359375 966.910949707031 969.768676757812 969.486572265625 964.380859375 961.708312988281 956.9912109375 964.119384765625 969.326538085938 969.010375976562 963.993286132812 963.158813476562 966.905029296875 961.840881347656 959.195495605469 965.812194824219 962.390747070312 967.330810546875 966.885192871094 969.048217773438 967.881164550781 973.670349121094 968.240661621094 975.975463867188 977.447570800781 982.21875 978.200561523438 976.208618164062 977.299560546875 974.306762695312 982.514587402344 987.986755371094 981.794555664062 991.888488769531 983.846984863281 984.381408691406 987.334899902344 985.480773925781 974.704345703125 984.663879394531 987.843322753906 990.6162109375 1005.30517578125 1006.51263427734 1014.06311035156 1020.9716796875 1023.3427734375 1024.11682128906 1023.06341552734 1026.72827148438 1031.92163085938 1033.12915039062 1042.25354003906 1044.04833984375 1052.50122070312 1046.40270996094 1059.71557617188 1061.8095703125 1059.98071289062 1067.97399902344 1077.5771484375 1087.6875 1087.22668457031 1080.33825683594 1073.13073730469 1071.16284179688 1074.09216308594 1073.4755859375 1075.17590332031 1086.64428710938 1086.365234375 1087.87316894531 1086.20361328125 1089.671875 1089.1806640625
966.453247070312 967.839111328125 970.305236816406 975.226867675781 981.536010742188 972.392578125 974.913513183594 970.840576171875 962.629089355469 963.528869628906 962.373352050781 977.226318359375 976.603332519531 983.002868652344 985.258728027344 982.479553222656 971.261291503906 974.689208984375 974.722778320312 968.389465332031 968.318359375 970.504760742188 965.960144042969 954.559753417969 958.849487304688 948.707946777344 949.333557128906 949.835571289062 949.700256347656 954.269653320312 965.86083984375 962.548461914062 957.044921875 958.508544921875 961.846313476562 961.809265136719 953.860717773438 962.064758300781 961.637329101562 955.398620605469 962.472839355469 960.0732421875 963.256958007812 965.46435546875 954.380126953125 959.800964355469 957.187561035156 965.965698242188 962.161071777344 963.764404296875 956.668823242188 959.72265625 956.764892578125 952.719909667969 951.969848632812 956.038879394531 951.78857421875 959.195251464844 954.260864257812 956.849731445312 951.689880371094 953.897155761719 956.0830078125 962.000427246094 962.436584472656 956.052368164062 958.608703613281 956.328674316406 964.811889648438 967.784790039062 967.437316894531 958.043518066406 953.284729003906 955.447204589844 957.614135742188 960.631469726562 968.175537109375 967.219970703125 962.306640625 960.010925292969 958.6826171875 960.015197753906 967.511901855469 968.792236328125 965.858337402344 967.260437011719 962.992309570312 970.707092285156 963.133361816406 953.231384277344 964.538208007812 968.955261230469 969.734313964844 970.545654296875 966.039245605469 969.81884765625 975.423583984375 975.255798339844 974.099792480469 976.669250488281 981.342834472656 983.487609863281 976.341491699219 980.054809570312 976.845397949219 973.983642578125 991.340393066406 990.57373046875 989.449951171875 988.654235839844 986.115966796875 994.002624511719 993.575622558594 985.849243164062 982.098510742188 988.845397949219 988.557861328125 996.726318359375 1002.869140625 1008.48602294922 1019.33001708984 1026.970703125 1023.76422119141 1025.42590332031 1020.14794921875 1027.75659179688 1031.6767578125 1042.34191894531 1044.05444335938 1046.81958007812 1053.72521972656 1065.42529296875 1055.56530761719 1067.55456542969 1071.87536621094 1088.12548828125 1090.43859863281 1085.58581542969 1077.44604492188 1069.61376953125 1070.86572265625 1066.38659667969 1063.18481445312 1064.01806640625 1067.16149902344 1083.603515625 1075.30358886719 1075.181640625 1067.27783203125 1082.35827636719
979.820129394531 970.051330566406 975.782653808594 969.017639160156 971.816162109375 973.906188964844 967.890625 971.7021484375 968.57763671875 963.300415039062 965.785583496094 973.37548828125 981.863525390625 989.732482910156 980.388488769531 978.123107910156 970.935180664062 973.283203125 967.518310546875 966.676513671875 972.308410644531 971.13671875 970.049133300781 967.455688476562 957.900573730469 952.640319824219 954.983154296875 956.595947265625 955.846984863281 957.572204589844 953.594970703125 964.951538085938 960.4599609375 967.026428222656 958.527770996094 965.823303222656 966.793151855469 963.343872070312 960.823547363281 959.258605957031 957.994262695312 960.981079101562 959.102722167969 958.319763183594 957.520202636719 957.439880371094 954.60498046875 955.66845703125 954.247131347656 954.176330566406 954.0419921875 948.879577636719 951.357788085938 949.626037597656 959.161071777344 950.77099609375 953.108581542969 953.1865234375 960.738464355469 961.546752929688 963.482421875 957.016357421875 959.142578125 958.590148925781 956.731628417969 959.260498046875 958.451232910156 967.06640625 972.634643554688 967.854187011719 960.104064941406 958.311828613281 961.689086914062 957.575500488281 960.216979980469 965.461791992188 968.666198730469 970.708129882812 965.488220214844 961.804870605469 964.049072265625 960.871887207031 971.517822265625 963.55029296875 966.913391113281 968.445922851562 964.445617675781 962.576843261719 964.353698730469 959.58251953125 968.917663574219 966.0166015625 968.495178222656 968.085388183594 978.66064453125 980.937866210938 980.540771484375 981.509948730469 983.553405761719 982.685852050781 978.889526367188 980.24853515625 979.601013183594 986.950805664062 981.825866699219 983.106628417969 995.108520507812 995.651916503906 992.274291992188 989.295043945312 989.4921875 1000.10711669922 1003.57647705078 998.626037597656 981.48828125 990.424560546875 995.169250488281 997.923095703125 1000.83239746094 1012.33190917969 1013.90356445312 1014.57452392578 1018.44897460938 1021.7861328125 1023.55889892578 1026.75573730469 1023.50128173828 1028.177734375 1044.98071289062 1040.96484375 1050.43664550781 1059.4990234375 1062.84875488281 1059.81066894531 1069.29760742188 1082.77941894531 1087.30285644531 1084.96008300781 1066.11926269531 1061.56030273438 1063.17993164062 1050.42883300781 1048.75610351562 1048.70910644531 1057.513671875 1059.05444335938 1061.169921875 1060.88464355469 1064.69262695312 1073.1083984375
