NCOLS 150
NROWS 38
XLLCORNER 7394249
YLLCORNER 4842119
CELLSIZE 30
NODATA_VALUE -9999
968.449645996094 969.822326660156 972.252807617188 966.344604492188 979.753356933594 970.937744140625 974.774108886719 969.942687988281 960.130676269531 961.734558105469 962.36181640625 965.953796386719 970.437194824219 966.212585449219 965.490295410156 967.622253417969 961.492309570312 962.033142089844 966.303833007812 965.200805664062 962.484313964844 945.403930664062 941.538391113281 940.413940429688 946.606079101562 947.165405273438 957.609130859375 948.63037109375 949.165161132812 945.252624511719 947.71484375 954.881958007812 954.675903320312 963.477294921875 949.788635253906 950.67529296875 954.364318847656 955.170837402344 954.596252441406 954.352905273438 949.680541992188 957.481323242188 954.699768066406 950.307800292969 944.267944335938 955.721496582031 945.299499511719 950.435852050781 951.3291015625 947.658325195312 939.472717285156 951.290649414062 958.331787109375 969.03076171875 963.872192382812 952.262145996094 953.252258300781 949.66796875 960.677673339844 957.56298828125 949.621154785156 961.708679199219 968.375183105469 964.107238769531 959.933898925781 961.791809082031 951.922180175781 955.610534667969 953.007873535156 958.685119628906 960.448486328125 964.568115234375 958.585998535156 959.693603515625 959.304748535156 963.220825195312 961.407775878906 958.736633300781 967.016418457031 963.723876953125 965.208129882812 963.10302734375 960.820983886719 968.992919921875 961.226440429688 974.688049316406 972.718200683594 974.528137207031 972.772644042969 980.415832519531 977.976745605469 978.946166992188 980.287902832031 984.993530273438 987.095764160156 977.684753417969 978.314758300781 974.781799316406 981.459045410156 983.992858886719 984.06201171875 983.651245117188 981.425415039062 978.978393554688 973.751159667969 979.853149414062 989.729248046875 986.133728027344 984.391052246094 991.718627929688 996.354248046875 1000.24847412109 1007.98040771484 992.553283691406 984.7216796875 984.89306640625 986.48876953125 988.41162109375 986.584411621094 993.532470703125 1005.23016357422 1006.904296875 1013.96801757812 1018.84729003906 1029.48303222656 1031.15588378906 1042.74645996094 1036.6337890625 1036.12646484375 1044.76123046875 1062.93078613281 1064.7177734375 1057.53393554688 1064.9560546875 1073.55505371094 1079.90563964844 1079.03698730469 1078.3720703125 1067.30981445312 1062.72131347656 1051.57897949219 1042.20043945312 1049.36584472656 1056.28112792969 1061.95642089844 1061.75402832031 1070.08898925781 1073.73413085938 1069.97924804688 1068.26867675781
967.314086914062 965.075988769531 964.541381835938 960.667175292969 971.05517578125 974.682373046875 975.440551757812 974.327880859375 966.495300292969 957.108093261719 962.843139648438 961.081420898438 962.851440429688 971.416625976562 970.724609375 972.687561035156 959.724975585938 956.890686035156 961.381958007812 967.316528320312 956.843017578125 952.897583007812 945.727111816406 938.806701660156 942.901916503906 944.891906738281 944.650207519531 945.91650390625 947.346496582031 952.0107421875 947.590515136719 961.107727050781 960.505676269531 958.654113769531 954.983032226562 958.464111328125 957.893371582031 954.8671875 955.862609863281 962.960021972656 950.508728027344 956.486633300781 953.501647949219 954.7802734375 948.944396972656 951.95654296875 950.16845703125 949.811950683594 952.783569335938 945.549499511719 941.253112792969 953.484741210938 956.48388671875 962.004150390625 962.495910644531 955.725524902344 945.754699707031 957.099792480469 960.223754882812 958.667785644531 953.728332519531 959.410827636719 961.526611328125 961.420776367188 960.457458496094 964.791687011719 961.879333496094 958.920043945312 960.056762695312 967.278564453125 967.130798339844 968.196716308594 962.323913574219 965.335754394531 963.32177734375 965.717651367188 958.247497558594 966.454895019531 962.729675292969 969.575012207031 972.260437011719 956.325012207031 964.258666992188 966.514465332031 968.840759277344 965.5986328125 967.330871582031 970.746276855469 970.955810546875 984.509399414062 982.875122070312 979.922668457031 973.236511230469 974.036193847656 973.822021484375 976.855712890625 968.642150878906 977.736206054688 985.892333984375 978.516784667969 980.642883300781 976.747619628906 981.930297851562 974.291809082031 979.319702148438 977.555541992188 987.814575195312 988.871826171875 993.177490234375 990.77783203125 1002.84503173828 991.537841796875 995.573303222656 995.747314453125 990.182312011719 987.781616210938 985.052185058594 981.151611328125 971.937622070312 987.4912109375 995.396545410156 1011.24261474609 1023.42663574219 1027.70886230469 1030.54382324219 1040.46862792969 1034.81433105469 1035.55505371094 1038.8759765625 1041.63977050781 1047.14135742188 1061.52514648438 1055.35693359375 1059.65539550781 1063.6025390625 1072.68786621094 1071.74951171875 1065.66674804688 1060.93090820312 1046.91455078125 1043.033203125 1035.71691894531 1032.3896484375 1046.01037597656 1055.66149902344 1050.5078125 1059.6533203125 1065.40490722656 1067.27294921875 1058.91687011719
962.404541015625 957.809753417969 964.762451171875 957.521118164062 971.047668457031 971.596069335938 966.373718261719 965.329650878906 968.020812988281 961.302185058594 955.823303222656 958.9296875 957.516906738281 954.530517578125 965.658874511719 965.920837402344 962.045227050781 962.431945800781 956.542663574219 963.615295410156 957.696411132812 942.569396972656 944.116577148438 934.314514160156 929.669372558594 940.789001464844 943.280822753906 945.976867675781 943.296752929688 944.825134277344 949.196228027344 953.197082519531 953.630432128906 954.214904785156 949.422058105469 951.154541015625 952.224914550781 956.701354980469 946.646789550781 952.976867675781 949.510070800781 954.158996582031 952.315063476562 953.403991699219 957.223205566406 955.1865234375 949.114074707031 949.498840332031 945.074157714844 949.201904296875 956.594116210938 947.891784667969 951.107788085938 959.918701171875 955.249084472656 947.671325683594 958.959777832031 960.274841308594 965.806335449219 962.864868164062 952.979431152344 948.802978515625 949.173461914062 955.127685546875 948.86962890625 960.270690917969 968.876953125 966.462280273438 971.620178222656 971.749572753906 967.915466308594 967.1298828125 965.611511230469 964.77685546875 974.820068359375 970.142211914062 966.248168945312 974.071899414062 966.51513671875 973.204956054688 971.52685546875 977.001647949219 965.636840820312 966.209838867188 971.567626953125 964.033142089844 963.4541015625 972.783569335938 978.237548828125 976.521118164062 975.021484375 974.75634765625 974.459289550781 968.234130859375 972.891967773438 971.944152832031 977.414306640625 980.068359375 982.056091308594 974.123107910156 975.147583007812 976.834228515625 979.512084960938 978.807983398438 979.650695800781 990.600708007812 988.185424804688 982.621948242188 988.732299804688 983.486572265625 990.181701660156 989.374328613281 989.733215332031 989.021118164062 992.250610351562 992.549011230469 991.201599121094 986.409240722656 987.177368164062 984.584350585938 997.640319824219 1008.46716308594 1017.74127197266 1029.71301269531 1034.3173828125 1029.419921875 1028.51696777344 1043.10083007812 1040.47839355469 1045.47180175781 1037.04345703125 1037.8154296875 1047.55114746094 1053.13659667969 1049.46997070312 1057.91625976562 1072.84362792969 1064.17822265625 1048.0546875 1045.79418945312 1038.61828613281 1037.255859375 1031.04931640625 1034.61291503906 1045.2119140625 1048.48901367188 1051.27514648438 1053.720703125 1050.5673828125 1048.10290527344
958.29345703125 963.209777832031 961.364379882812 959.736877441406 967.426696777344 968.419006347656 968.26708984375 972.65576171875 969.681396484375 965.02880859375 962.955810546875 958.365539550781 957.0283203125 956.710998535156 958.892761230469 958.407409667969 966.963684082031 972.580322265625 970.319641113281 963.537292480469 951.470947265625 944.481750488281 944.065979003906 944.316711425781 938.323425292969 938.335388183594 939.623779296875 949.825500488281 945.646057128906 936.751037597656 947.102844238281 957.060852050781 945.484436035156 947.792114257812 946.830993652344 945.551452636719 950.278381347656 952.148010253906 957.160583496094 952.641784667969 949.38671875 951.10400390625 953.0732421875 958.889343261719 959.01025390625 952.666076660156 947.820007324219 942.619934082031 950.646545410156 940.877502441406 952.518493652344 955.639221191406 958.701293945312 960.000854492188 958.784729003906 961.617614746094 960.851135253906 961.284545898438 964.817321777344 967.755187988281 960.567749023438 944.748046875 939.115539550781 945.407104492188 955.043395996094 961.554382324219 956.037719726562 967.003234863281 975.901000976562 973.43701171875 964.1357421875 966.768310546875 966.48583984375 960.431640625 968.766052246094 963.909790039062 961.424865722656 975.777221679688 968.526611328125 973.879455566406 982.196105957031 971.496520996094 971.290466308594 974.924987792969 970.810302734375 969.197143554688 965.458557128906 972.890319824219 976.763305664062 980.774597167969 971.82373046875 965.871337890625 961.001342773438 961.204956054688 969.343811035156 965.948852539062 972.638122558594 980.788391113281 986.025390625 973.26123046875 971.807434082031 975.71630859375 984.294982910156 981.939331054688 984.719055175781 987.771789550781 990.782958984375 985.579956054688 981.963256835938 994.8408203125 990.755798339844 992.775512695312 996.287170410156 992.813171386719 1001.18389892578 998.950134277344 996.083618164062 992.14404296875 991.197082519531 996.365417480469 999.635437011719 1010.30725097656 1014.34234619141 1017.59295654297 1025.32067871094 1024.53381347656 1022.67608642578 1040.67114257812 1038.98937988281 1038.44152832031 1034.79504394531 1029.05285644531 1041.87377929688 1042.9091796875 1050.30847167969 1051.60815429688 1056.47412109375 1053.23840332031 1046.87353515625 1046.10632324219 1043.75964355469 1032.240234375 1025.84167480469 1031.48388671875 1037.29309082031 1031.74096679688 1035.90673828125 1038.02783203125 1042.46948242188 1041.15783691406
960.023681640625 957.696411132812 961.072143554688 962.256408691406 965.906616210938 966.754943847656 962.956604003906 965.8173828125 966.721313476562 968.369873046875 959.404724121094 960.427795410156 950.507446289062 956.298034667969 958.978576660156 950.798767089844 963.1240234375 968.439331054688 962.033874511719 959.205200195312 948.012145996094 942.8984375 951.486328125 944.72802734375 934.043334960938 933.786254882812 933.438781738281 934.450134277344 943.227844238281 942.606262207031 960.294555664062 953.916748046875 951.18701171875 947.642333984375 939.91064453125 946.197692871094 946.144714355469 950.272583007812 949.943603515625 957.377868652344 952.711242675781 950.846923828125 952.427734375 949.627868652344 953.230102539062 948.372619628906 955.021789550781 950.774230957031 952.33349609375 957.596984863281 957.795471191406 956.566711425781 953.400268554688 959.256164550781 954.988525390625 960.052490234375 957.343566894531 959.170959472656 956.555236816406 962.767578125 953.521911621094 946.291198730469 940.606323242188 940.59912109375 951.764709472656 957.542175292969 962.606323242188 966.990905761719 972.655334472656 969.237487792969 968.87451171875 974.281494140625 970.785522460938 963.024536132812 965.568420410156 969.325805664062 968.687194824219 967.880249023438 968.915954589844 966.426513671875 972.441284179688 972.418090820312 969.970642089844 969.737487792969 971.276184082031 970.012756347656 975.366638183594 976.954284667969 972.008850097656 974.29931640625 970.05322265625 965.817199707031 968.228820800781 972.548278808594 972.316772460938 970.933044433594 977.353942871094 979.985473632812 993.53857421875 977.610595703125 981.642211914062 987.466369628906 984.853942871094 985.34375 993.272583007812 994.477416992188 990.942810058594 983.241943359375 989.614868164062 990.804565429688 991.184204101562 994.9267578125 990.131225585938 991.703796386719 1001.52239990234 1002.53210449219 988.56005859375 994.580871582031 1000.35321044922 995.984680175781 995.984619140625 1003.12371826172 1006.62213134766 1006.45709228516 1012.8232421875 1015.04663085938 1027.42211914062 1034.66918945312 1035.25134277344 1034.98950195312 1035.08190917969 1024.7939453125 1040.37768554688 1050.84680175781 1049.01574707031 1053.63647460938 1048.80639648438 1050.50146484375 1043.32263183594 1051.21447753906 1041.04809570312 1038.8349609375 1030.4658203125 1024.48864746094 1034.30114746094 1035.86486816406 1032.52307128906 1036.06188964844 1031.68823242188 1038.57312011719
949.3662109375 952.066345214844 952.954956054688 956.720153808594 959.699279785156 961.726440429688 964.696472167969 967.691772460938 963.145446777344 963.630920410156 960.056274414062 958.195007324219 956.979675292969 953.491760253906 951.778076171875 946.568115234375 959.433044433594 960.603637695312 955.844116210938 951.215209960938 947.709594726562 953.730163574219 948.892395019531 951.354614257812 942.274475097656 941.6669921875 936.313659667969 937.490844726562 944.603637695312 943.559204101562 948.523193359375 948.683532714844 946.210876464844 944.822509765625 944.127807617188 952.682312011719 955.708251953125 945.219543457031 943.709350585938 951.643737792969 962.690734863281 959.386840820312 953.71728515625 947.436767578125 947.040344238281 949.712097167969 960.890747070312 959.375671386719 959.059509277344 958.613586425781 963.672058105469 953.424072265625 949.491455078125 962.013977050781 966.886169433594 961.898254394531 963.723205566406 961.709838867188 958.751647949219 964.676391601562 959.154724121094 960.058898925781 950.588012695312 951.506103515625 952.581359863281 958.489013671875 970.211730957031 974.134643554688 974.474670410156 971.374938964844 970.919189453125 972.636962890625 971.259094238281 964.217102050781 973.88818359375 966.876586914062 969.468627929688 967.544555664062 963.087768554688 966.80322265625 968.438232421875 974.484130859375 970.922241210938 970.190490722656 973.569641113281 977.638977050781 977.100891113281 979.955810546875 979.486999511719 979.6142578125 972.540954589844 965.576171875 959.918212890625 967.101684570312 975.729187011719 978.272094726562 977.767456054688 985.740051269531 984.381469726562 993.316772460938 982.711181640625 975.501953125 987.237243652344 987.741821289062 988.984069824219 991.056945800781 987.672241210938 991.691284179688 991.44482421875 988.257934570312 996.2353515625 996.412109375 1004.28033447266 998.871765136719 1000.59490966797 996.418701171875 994.002197265625 998.652770996094 1001.56213378906 996.634948730469 999.339538574219 1004.8857421875 1009.69116210938 1009.61627197266 1011.51647949219 1014.39996337891 1033.93420410156 1031.5673828125 1034.04602050781 1042.99304199219 1032.92041015625 1035.91369628906 1032.16015625 1038.85327148438 1046.27307128906 1045.84594726562 1039.4833984375 1045.14245605469 1045.49255371094 1044.9150390625 1036.49133300781 1036.56396484375 1033.83020019531 1024.72265625 1029.37048339844 1034.27600097656 1031.55981445312 1024.88439941406 1028.9267578125 1027.99096679688
947.480041503906 956.657287597656 953.714172363281 952.935363769531 952.749084472656 956.544921875 961.516357421875 966.274536132812 966.808227539062 961.04443359375 958.538391113281 949.704895019531 944.699951171875 955.968811035156 951.251098632812 942.889038085938 946.253723144531 950.827087402344 960.092468261719 953.670288085938 945.956909179688 944.499877929688 951.730529785156 946.298583984375 942.511596679688 929.252685546875 943.594543457031 939.295654296875 944.495544433594 945.192199707031 946.2431640625 946.817016601562 941.783203125 945.914184570312 944.543701171875 950.213745117188 949.681884765625 943.730102539062 944.255004882812 944.9130859375 952.33984375 951.647155761719 959.88818359375 956.52783203125 949.223876953125 954.148559570312 958.471618652344 964.158752441406 958.364685058594 964.130126953125 972.049865722656 964.914001464844 960.47216796875 959.335998535156 965.328796386719 971.301391601562 974.255432128906 972.719055175781 965.5556640625 967.550659179688 960.5390625 958.182373046875 952.7626953125 949.796813964844 958.453186035156 960.702392578125 973.434326171875 973.108154296875 973.543151855469 970.9873046875 968.096374511719 970.320373535156 975.439331054688 975.798400878906 978.386901855469 968.77001953125 973.317810058594 973.956298828125 970.399963378906 961.182983398438 965.110473632812 972.61767578125 977.955505371094 975.726623535156 979.228210449219 978.305236816406 976.83203125 978.658264160156 980.899658203125 977.133483886719 976.883605957031 972.398376464844 967.901306152344 965.838684082031 975.092041015625 981.641418457031 978.973937988281 979.843444824219 977.498840332031 986.224792480469 987.629699707031 983.209167480469 987.661254882812 987.721252441406 985.237731933594 988.347839355469 989.349914550781 997.992370605469 993.65283203125 992.657775878906 1000.8740234375 1006.25714111328 1006.36181640625 1004.02355957031 1008.8408203125 995.292297363281 999.841796875 1005.2236328125 1006.98229980469 1009.46447753906 1007.38104248047 1017.54919433594 1020.87408447266 1019.064453125 1020.15008544922 1022.35949707031 1024.88952636719 1036.18884277344 1032.69604492188 1034.18933105469 1028.25561523438 1025.39636230469 1032.1513671875 1036.6435546875 1030.86071777344 1032.64978027344 1036.01733398438 1042.02111816406 1032.54345703125 1037.64624023438 1030.26867675781 1024.92907714844 1028.62170410156 1015.78900146484 1025.07397460938 1025.26928710938 1026.55517578125 1018.65606689453 1017.87829589844 1014.40075683594
955.33203125 961.312316894531 949.13525390625 952.944641113281 953.012268066406 960.767395019531 961.78369140625 961.38623046875 964.060302734375 956.911987304688 952.76025390625 951.887145996094 941.822448730469 947.36669921875 936.584045410156 938.497192382812 938.133544921875 943.729064941406 951.192199707031 951.671203613281 947.710327148438 943.022216796875 942.869689941406 944.20166015625 950.333068847656 940.159301757812 950.252380371094 938.856872558594 942.87744140625 941.301696777344 952.414489746094 944.15869140625 944.110900878906 947.775207519531 954.851867675781 957.305908203125 955.002319335938 948.799255371094 945.867858886719 942.539611816406 950.973266601562 952.081726074219 958.55029296875 957.738952636719 962.714599609375 956.604675292969 957.932678222656 973.574829101562 964.765747070312 969.647705078125 971.648376464844 971.372375488281 967.934326171875 970.861389160156 965.324768066406 978.15087890625 983.130859375 973.115112304688 967.7548828125 964.150817871094 962.21875 959.770690917969 950.802856445312 957.485473632812 964.697143554688 962.913635253906 965.482788085938 972.582397460938 971.014953613281 977.015502929688 973.639343261719 974.2265625 970.708618164062 969.624877929688 976.109008789062 979.1962890625 979.796630859375 974.36083984375 964.0078125 960.435729980469 956.516662597656 971.713439941406 972.41796875 971.928527832031 978.901000976562 980.859313964844 980.9296875 982.915222167969 976.439636230469 975.577514648438 973.212829589844 972.819458007812 970.072998046875 971.07470703125 977.055908203125 984.709411621094 978.540283203125 983.444580078125 980.270263671875 983.421569824219 987.814636230469 994.749328613281 987.500427246094 979.240051269531 978.423034667969 984.518188476562 991.953308105469 997.089477539062 992.628601074219 998.299621582031 1003.34106445312 1009.86395263672 1015.62353515625 1015.88629150391 1013.15911865234 1002.09594726562 1010.56774902344 1017.53430175781 1026.3359375 1024.27014160156 1021.27465820312 1020.53704833984 1022.83959960938 1026.13220214844 1022.75408935547 1022.97680664062 1036.00939941406 1031.61474609375 1029.1142578125 1023.36700439453 1028.75317382812 1029.23754882812 1025.88391113281 1022.80560302734 1020.24456787109 1025.296875 1030.32861328125 1040.5732421875 1031.71130371094 1034.57861328125 1029.29138183594 1026.09655761719 1026.40173339844 1021.38470458984 1021.72631835938 1016.58471679688 1021.39947509766 1020.3857421875 1017.91882324219 1013.40911865234
954.17333984375 958.799926757812 962.039428710938 961.173461914062 957.662536621094 964.550659179688 959.486999511719 952.949951171875 952.410095214844 949.044067382812 949.18896484375 949.43408203125 948.725219726562 940.49169921875 937.599609375 933.653503417969 944.167297363281 949.217407226562 946.559631347656 948.978698730469 941.19873046875 944.146789550781 946.703552246094 946.115356445312 947.238525390625 950.507995605469 946.052551269531 951.409118652344 944.53662109375 944.70703125 954.375610351562 945.235534667969 938.961364746094 939.622863769531 947.614807128906 949.428405761719 958.26513671875 951.496215820312 944.514404296875 947.125549316406 953.8173828125 956.4462890625 959.323974609375 962.510620117188 977.52099609375 964.861328125 967.244812011719 977.745422363281 974.767883300781 979.074890136719 978.447082519531 977.22216796875 975.208251953125 977.732482910156 975.661926269531 967.69189453125 984.599853515625 980.7998046875 976.004821777344 963.077575683594 965.170532226562 968.544982910156 962.41552734375 963.637451171875 963.453308105469 967.606079101562 966.0537109375 968.980529785156 973.615173339844 975.216064453125 978.524841308594 972.447326660156 967.723693847656 966.450256347656 970.49365234375 985.387451171875 981.988464355469 984.492980957031 974.340576171875 970.1181640625 969.47509765625 981.168151855469 974.740478515625 973.933776855469 974.080078125 974.605102539062 976.911499023438 976.18994140625 975.780029296875 976.077087402344 971.681457519531 971.419921875 970.347106933594 979.533752441406 979.594360351562 984.445495605469 987.001953125 987.890014648438 984.241638183594 984.671203613281 991.830017089844 996.218139648438 998.737670898438 986.545837402344 980.859375 986.198852539062 998.172729492188 1004.19677734375 1004.70709228516 999.787780761719 1006.69635009766 1007.65618896484 1018.03479003906 1012.16955566406 1012.62335205078 1023.91009521484 1023.91644287109 1019.37744140625 1039.05859375 1046.61279296875 1035.3974609375 1023.36492919922 1020.38195800781 1028.13122558594 1031.59216308594 1030.69482421875 1028.42114257812 1024.08630371094 1029.32592773438 1035.85034179688 1026.84143066406 1029.82446289062 1021.52862548828 1021.77770996094 1022.72296142578 1021.4521484375 1027.26123046875 1027.63122558594 1026.30200195312 1033.20166015625 1031.77612304688 1022.47760009766 1015.37805175781 1018.16625976562 1007.82641601562 1012.17974853516 1019.71264648438 1025.29602050781 1024.63610839844 1022.49127197266
955.071899414062 957.673889160156 959.660827636719 958.242858886719 949.974670410156 951.696655273438 944.004577636719 952.039733886719 943.812927246094 943.6259765625 942.337524414062 950.609924316406 956.463073730469 946.12158203125 935.562561035156 929.679809570312 944.024841308594 947.380554199219 949.914001464844 949.995300292969 946.804443359375 945.053649902344 954.648254394531 957.694274902344 961.928771972656 954.713195800781 956.820983886719 956.151489257812 944.778259277344 949.246948242188 950.063049316406 953.541809082031 952.450561523438 940.533020019531 954.018737792969 958.713928222656 960.584045410156 956.908325195312 950.553405761719 955.294189453125 958.535400390625 958.4765625 964.389526367188 968.378540039062 969.706604003906 975.047058105469 983.637878417969 978.875 971.261169433594 981.396118164062 977.901977539062 986.249633789062 982.790710449219 983.802124023438 971.705871582031 969.648620605469 972.706115722656 974.33544921875 973.182373046875 975.899841308594 972.679748535156 972.073120117188 972.476989746094 971.832153320312 972.523254394531 968.470947265625 973.79296875 974.059814453125 974.702453613281 978.350158691406 974.515930175781 971.092529296875 959.047729492188 968.135498046875 976.798767089844 987.68603515625 980.919128417969 978.633972167969 985.140808105469 980.650268554688 978.6806640625 976.078430175781 980.001342773438 974.956665039062 985.525573730469 976.023132324219 980.185546875 978.526550292969 973.102478027344 980.257202148438 977.163452148438 972.62060546875 979.61083984375 978.225769042969 979.91259765625 981.580017089844 988.617736816406 992.15966796875 992.892333984375 994.399780273438 993.226989746094 995.629699707031 996.096618652344 994.170227050781 988.198669433594 991.382141113281 997.623291015625 1003.73205566406 1012.63269042969 1012.09234619141 1013.96325683594 1011.60510253906 1012.67547607422 1013.03784179688 1022.14562988281 1023.17907714844 1018.18237304688 1021.4033203125 1035.89306640625 1043.46545410156 1041.19909667969 1031.6640625 1029.87915039062 1032.3037109375 1037.3564453125 1032.79187011719 1018.17944335938 1022.66772460938 1020.90826416016 1026.87780761719 1022.75848388672 1023.17205810547 1015.40954589844 1011.81604003906 1010.72576904297 1017.35803222656 1024.91027832031 1024.67895507812 1020.58917236328 1026.53344726562 1034.7685546875 1028.3564453125 1020.60394287109 1010.35473632812 1011.95654296875 1013.75177001953 1014.70715332031 1025.84594726562 1028.2060546875 1021.32525634766
947.342651367188 955.317321777344 960.12646484375 944.231811523438 943.692077636719 930.829956054688 933.449035644531 946.265563964844 939.123107910156 944.070068359375 948.188903808594 953.346801757812 954.886840820312 957.268737792969 945.858154296875 931.078491210938 948.06103515625 943.582397460938 954.438049316406 953.203735351562 955.938720703125 954.143127441406 963.103820800781 967.991943359375 965.197387695312 966.746887207031 972.636657714844 972.255187988281 956.42431640625 945.773010253906 951.888000488281 954.93017578125 947.172912597656 943.808532714844 950.065490722656 955.312805175781 963.253967285156 966.685791015625 967.102172851562 968.531311035156 970.994262695312 964.732299804688 960.863403320312 973.311157226562 984.198364257812 983.316162109375 972.846740722656 975.159973144531 972.983276367188 975.802551269531 986.089904785156 978.691589355469 986.138244628906 983.891723632812 972.657897949219 971.053283691406 972.474426269531 978.492370605469 977.617919921875 978.09716796875 972.419006347656 968.111083984375 982.478088378906 982.382202148438 976.359802246094 970.9873046875 969.308349609375 973.830993652344 981.330261230469 983.177917480469 978.737121582031 975.7021484375 973.2216796875 975.6962890625 974.821716308594 984.657592773438 981.72314453125 974.61328125 977.035827636719 981.90234375 976.375732421875 978.682434082031 972.660461425781 983.804626464844 982.293151855469 977.143249511719 982.068725585938 982.752563476562 978.48486328125 979.635559082031 982.390319824219 982.096435546875 984.136779785156 986.315246582031 991.31884765625 990.78662109375 991.09716796875 994.351379394531 995.465087890625 992.817138671875 1004.89105224609 1008.89495849609 1005.46118164062 1000.11010742188 996.533508300781 1002.67626953125 1002.615234375 1005.85729980469 1005.44708251953 1013.56274414062 1013.26934814453 1018.66156005859 1013.91271972656 1021.30474853516 1024.03186035156 1032.52551269531 1024.43127441406 1023.04083251953 1036.26599121094 1043.47570800781 1038.26330566406 1031.38793945312 1039.10583496094 1036.64074707031 1040.68469238281 1042.05627441406 1026.92749023438 1024.56567382812 1015.42346191406 1013.85144042969 1022.79815673828 1018.24383544922 1012.61853027344 1013.44049072266 1010.74700927734 1018.03289794922 1028.62329101562 1021.84228515625 1019.32293701172 1014.98614501953 1020.95861816406 1017.79913330078 1022.99645996094 1014.79211425781 1012.05841064453 1010.29846191406 1018.6845703125 1017.59063720703 1019.96936035156 1015.17474365234
945.405029296875 947.907958984375 953.608764648438 949.411315917969 938.157897949219 932.074340820312 937.533935546875 934.774963378906 937.370666503906 952.579345703125 949.530395507812 955.720581054688 958.039489746094 951.5283203125 954.291442871094 953.32470703125 947.783569335938 960.12890625 961.309814453125 956.496704101562 958.129821777344 962.962036132812 969.386657714844 976.135864257812 964.500671386719 964.120666503906 972.77734375 969.6044921875 959.235107421875 954.504455566406 961.708740234375 957.425720214844 949.754760742188 956.035400390625 960.4287109375 970.078674316406 973.395446777344 971.271728515625 968.499450683594 968.698913574219 969.306579589844 970.921691894531 970.486633300781 977.419372558594 978.566040039062 983.644653320312 985.855041503906 987.764587402344 994.999633789062 984.077331542969 982.1943359375 976.53857421875 977.953308105469 977.509399414062 971.728149414062 971.779602050781 978.919372558594 972.986450195312 977.501586914062 971.32080078125 975.810607910156 970.19091796875 980.490356445312 976.903442382812 976.459228515625 970.443725585938 970.12890625 971.142456054688 965.126525878906 978.044067382812 974.955383300781 973.456481933594 979.344543457031 982.932312011719 984.503723144531 980.515441894531 983.240417480469 981.766479492188 982.968566894531 978.417236328125 980.362731933594 981.108093261719 986.60205078125 979.132568359375 987.673889160156 986.46142578125 981.285522460938 980.356750488281 982.482604980469 978.898986816406 983.967590332031 976.259582519531 983.005310058594 985.090087890625 989.822570800781 992.769165039062 990.439208984375 993.032043457031 998.968688964844 998.186401367188 1013.65228271484 1021.00341796875 1018.61907958984 1013.16833496094 1003.578125 1004.51745605469 1008.40161132812 1004.68579101562 1005.98565673828 1016.27661132812 1020.16888427734 1014.59997558594 1015.06390380859 1016.80877685547 1021.82263183594 1028.55053710938 1024.28051757812 1032.48608398438 1041.80578613281 1046.14794921875 1052.09350585938 1036.6279296875 1040.49096679688 1040.63952636719 1042.67297363281 1039.07397460938 1032.79162597656 1025.16564941406 1017.3388671875 1019.03729248047 1013.85986328125 1009.43347167969 1023.47912597656 1014.28240966797 1020.66033935547 1021.72564697266 1021.28594970703 1017.00494384766 1015.2880859375 1016.99237060547 1020.70849609375 1020.18493652344 1024.79919433594 1020.31890869141 1018.12628173828 1019.98034667969 1007.97741699219 1008.23028564453 1014.015625 1017.21331787109
952.2900390625 953.436889648438 954.783264160156 952.58154296875 944.980895996094 941.712097167969 945.201049804688 935.989379882812 939.889831542969 937.664306640625 946.713134765625 957.843933105469 958.194030761719 964.278564453125 970.449340820312 964.93212890625 968.397766113281 965.320739746094 970.8271484375 970.318725585938 971.1455078125 977.200805664062 990.324829101562 973.095153808594 965.488403320312 962.982238769531 967.622253417969 968.719360351562 966.745849609375 961.007568359375 960.839660644531 956.132019042969 954.113891601562 956.35986328125 958.104309082031 966.10791015625 976.988098144531 974.250732421875 966.937805175781 974.14697265625 971.0732421875 967.181701660156 978.678894042969 978.664001464844 985.7783203125 993.272521972656 998.663452148438 989.733093261719 998.462036132812 992.516784667969 991.431579589844 991.794006347656 981.130249023438 979.252258300781 968.625183105469 976.299377441406 981.4296875 972.223754882812 973.337585449219 970.299377441406 968.529663085938 974.042419433594 973.792053222656 971.550598144531 967.86279296875 968.201721191406 976.048950195312 978.977478027344 977.958435058594 972.194641113281 968.174255371094 973.590759277344 986.841125488281 983.8056640625 987.990234375 982.117797851562 980.426147460938 986.181396484375 984.720458984375 980.787109375 977.765625 979.392639160156 985.698669433594 986.7001953125 984.5859375 986.548095703125 975.178283691406 980.1689453125 980.832092285156 976.0771484375 972.567687988281 974.819946289062 983.908020019531 988.486389160156 986.636474609375 992.914489746094 995.542175292969 988.967346191406 994.81201171875 1001.45367431641 1012.88562011719 1015.34252929688 1021.08087158203 1013.16015625 1005.23425292969 1007.11590576172 1007.15930175781 1016.97155761719 1013.40319824219 1005.86090087891 1020.03466796875 1022.74084472656 1021.53985595703 1033.05383300781 1031.29333496094 1036.46374511719 1031.25854492188 1032.84313964844 1039.02978515625 1043.91271972656 1052.53662109375 1046.36328125 1038.44714355469 1044.69567871094 1034.19006347656 1034.47521972656 1029.48034667969 1018.26934814453 1013.4365234375 1011.21997070312 1009.08856201172 1008.00219726562 1020.85858154297 1014.88732910156 1021.92114257812 1023.77606201172 1018.03411865234 1015.52258300781 1013.01141357422 1009.00793457031 1016.24359130859 1016.38232421875 1007.38562011719 1013.72009277344 1013.185546875 1016.11590576172 1005.14184570312 999.146667480469 1001.25744628906 1012.75701904297
957.255676269531 949.650939941406 951.534057617188 948.961120605469 939.170043945312 938.674865722656 943.080078125 946.93115234375 936.662170410156 933.986877441406 950.514770507812 955.978271484375 970.388061523438 974.629516601562 983.134582519531 982.328063964844 975.457824707031 974.322570800781 973.630859375 965.066345214844 970.801086425781 977.403930664062 981.508544921875 968.846862792969 969.928649902344 964.509399414062 959.765197753906 956.795471191406 961.50927734375 956.175109863281 958.935363769531 961.601440429688 951.626586914062 954.757080078125 955.9033203125 966.882202148438 975.9990234375 980.347351074219 979.811096191406 969.02587890625 970.938110351562 975.602661132812 984.005676269531 990.595458984375 988.225158691406 992.302795410156 996.885009765625 993.547973632812 1003.99420166016 998.75341796875 998.263000488281 996.385864257812 987.636840820312 985.055725097656 984.249084472656 986.99365234375 978.23193359375 980.565856933594 971.814392089844 973.155639648438 977.951293945312 973.631591796875 969.113586425781 969.447509765625 969.777099609375 965.591674804688 986.685729980469 980.428588867188 977.220642089844 974.721008300781 976.061706542969 981.919006347656 986.812255859375 980.532531738281 984.293701171875 985.007202148438 987.723327636719 984.988891601562 989.156860351562 991.240295410156 984.949096679688 986.77587890625 986.362609863281 985.303771972656 991.29248046875 983.110290527344 969.454833984375 974.421630859375 974.574523925781 977.864624023438 968.600708007812 982.143005371094 976.108337402344 984.082702636719 991.051818847656 1000.31579589844 994.824462890625 999.763061523438 996.560729980469 1009.55749511719 1023.26928710938 1019.546875 1014.51403808594 1020.791015625 1013.24505615234 1018.01940917969 1015.57098388672 1018.27233886719 1016.44256591797 1010.21057128906 1011.94732666016 1012.40795898438 1021.73699951172 1025.0087890625 1033.46276855469 1028.82397460938 1031.11645507812 1044.35375976562 1038.34399414062 1036.1064453125 1042.443359375 1041.11645507812 1037.83581542969 1046.50231933594 1031.93469238281 1030.62463378906 1025.98193359375 1014.34790039062 1012.89971923828 1006.18585205078 1005.662109375 1015.87280273438 1016.56091308594 1014.79162597656 1025.11657714844 1030.21667480469 1019.79760742188 1014.09783935547 1012.46667480469 1009.05987548828 1003.56115722656 1009.08044433594 1008.07049560547 1003.16687011719 1006.38970947266 1013.34216308594 1002.16613769531 997.015747070312 989.720703125 1003.87182617188
967.089111328125 960.91552734375 954.62060546875 936.210327148438 935.900390625 937.740844726562 944.127136230469 945.054443359375 936.305786132812 941.552185058594 955.811645507812 963.340759277344 975.615478515625 982.686279296875 985.703918457031 978.781860351562 975.162414550781 973.4677734375 975.213928222656 973.109741210938 968.990844726562 972.631774902344 985.53466796875 966.203796386719 951.994750976562 954.43017578125 959.795043945312 964.546936035156 962.67626953125 958.971984863281 962.725830078125 965.833801269531 964.718688964844 974.620056152344 965.497375488281 976.710571289062 979.037902832031 986.370971679688 979.664428710938 976.226806640625 980.606994628906 984.205383300781 980.571472167969 987.665161132812 991.403137207031 994.162719726562 997.677673339844 998.016540527344 1002.88488769531 999.540222167969 998.007995605469 996.8408203125 991.786254882812 984.943420410156 986.341430664062 992.783996582031 981.631774902344 980.224670410156 979.852416992188 977.003723144531 977.36669921875 977.6572265625 967.969177246094 969.373046875 962.571411132812 957.611389160156 969.847106933594 977.46533203125 977.295349121094 977.7451171875 979.967163085938 971.738403320312 983.157165527344 977.9130859375 984.44873046875 980.956665039062 982.019714355469 987.782104492188 991.50341796875 992.117248535156 994.365783691406 990.411804199219 989.9482421875 985.928283691406 985.069152832031 970.375671386719 970.254699707031 980.3525390625 976.809997558594 966.467468261719 971.873474121094 976.867065429688 978.474792480469 980.057983398438 990.969299316406 998.3427734375 1002.36895751953 999.873718261719 1004.74841308594 1005.6240234375 1020.01599121094 1023.64105224609 1013.30700683594 1017.13006591797 1032.22546386719 1021.51995849609 1016.45544433594 1017.07794189453 1018.64306640625 1016.97985839844 1015.99194335938 1019.72058105469 1017.79187011719 1021.18426513672 1033.26647949219 1032.07104492188 1042.76647949219 1039.41284179688 1037.23413085938 1027.7412109375 1026.90270996094 1030.33850097656 1036.62438964844 1035.59814453125 1027.78503417969 1030.07531738281 1014.87280273438 1013.89184570312 1009.41815185547 1012.44793701172 1012.83489990234 1018.26281738281 1015.80584716797 1015.61987304688 1019.91015625 1029.91381835938 1025.08837890625 1025.68884277344 1016.92419433594 1010.43109130859 1000.72515869141 1004.96453857422 1003.90942382812 1007.33502197266 1001.53350830078 1008.71264648438 1001.16412353516 992.820678710938 987.318115234375 999.601135253906
965.395141601562 952.801086425781 944.102172851562 934.982299804688 934.728698730469 937.724731445312 939.060791015625 935.640014648438 940.182800292969 947.411376953125 961.911682128906 966.239074707031 982.670471191406 982.25537109375 978.906066894531 977.056701660156 969.057067871094 972.125549316406 978.682922363281 972.587219238281 970.654968261719 967.856811523438 974.007141113281 967.65234375 962.375244140625 952.213684082031 962.92333984375 962.630187988281 966.50927734375 964.825439453125 973.94921875 970.909973144531 965.826477050781 975.5322265625 966.061828613281 976.939819335938 983.198791503906 988.964782714844 987.551818847656 984.700073242188 984.6259765625 983.256103515625 986.936889648438 982.199829101562 992.130004882812 994.816528320312 999.655456542969 1002.89874267578 998.855407714844 1002.81671142578 995.694152832031 996.990295410156 996.625183105469 991.594970703125 992.431213378906 992.26611328125 986.032104492188 980.328247070312 982.737182617188 983.178527832031 978.5703125 968.380004882812 967.374450683594 966.553833007812 969.329406738281 966.569091796875 966.079650878906 978.905700683594 979.914184570312 983.635925292969 982.01025390625 979.490478515625 980.593566894531 976.863464355469 981.014831542969 985.660400390625 983.1328125 992.509521484375 989.459228515625 988.134521484375 989.798522949219 992.532104492188 993.757507324219 985.2509765625 985.465881347656 972.757568359375 979.597045898438 982.767333984375 978.886352539062 974.549072265625 974.453125 974.412231445312 981.322814941406 980.846618652344 987.5986328125 994.59912109375 1000.1767578125 1003.87683105469 1005.13848876953 1015.48358154297 1017.45941162109 1028.8115234375 1014.84875488281 1019.60498046875 1016.57275390625 1019.16357421875 1022.18121337891 1017.43731689453 1018.17620849609 1028.07666015625 1023.01257324219 1017.173828125 1025.47119140625 1034.78430175781 1031.3583984375 1030.44738769531 1038.9375 1030.00610351562 1029.24291992188 1027.85668945312 1018.62506103516 1020.47320556641 1031.95251464844 1036.22924804688 1027.40258789062 1018.24194335938 1012.99700927734 1006.12493896484 1008.92059326172 1009.72302246094 1013.08795166016 1018.02410888672 1007.5556640625 1018.58654785156 1016.06475830078 1018.265625 1032.203125 1024.60778808594 1019.16870117188 1009.77062988281 1003.41656494141 995.302429199219 995.550537109375 999.039611816406 1000.88714599609 1005.06719970703 999.282653808594 994.764282226562 993.765869140625 988.532897949219
963.078002929688 953.906494140625 935.954528808594 937.082214355469 933.289978027344 935.068054199219 937.257446289062 933.713256835938 940.298950195312 949.180236816406 959.875061035156 962.47705078125 973.267272949219 978.560668945312 973.491577148438 966.020935058594 966.043212890625 978.322509765625 978.304626464844 976.141967773438 973.19384765625 973.1796875 966.144958496094 964.719482421875 958.986572265625 955.482543945312 966.683837890625 963.675170898438 966.2568359375 969.359313964844 979.72412109375 981.247680664062 969.340393066406 975.822082519531 974.093994140625 976.248291015625 990.635681152344 992.089660644531 985.214599609375 983.183654785156 985.88818359375 980.45556640625 984.538024902344 991.508728027344 991.887512207031 997.74853515625 1000.99468994141 1001.41400146484 1011.04620361328 1005.45568847656 998.219360351562 993.590209960938 998.296569824219 989.116821289062 991.664916992188 982.244812011719 983.592346191406 980.506774902344 975.3544921875 984.712463378906 978.61376953125 969.686462402344 971.356506347656 969.473937988281 966.909851074219 968.677307128906 971.772888183594 975.714538574219 984.833374023438 980.232543945312 983.192565917969 985.64697265625 987.676635742188 992.162414550781 984.010803222656 984.970764160156 995.602966308594 988.511779785156 980.855163574219 984.780700683594 981.948059082031 993.1923828125 999.485900878906 995.962280273438 985.591552734375 982.734985351562 979.943908691406 991.092651367188 987.620056152344 984.332214355469 988.407836914062 980.765930175781 985.078125 980.824035644531 985.063049316406 989.957580566406 1001.88940429688 998.578247070312 1009.31872558594 1010.52905273438 1014.05804443359 1019.30975341797 1007.59423828125 1014.23333740234 1016.01617431641 1008.18499755859 1014.11804199219 1019.79742431641 1016.92864990234 1023.931640625 1027.56164550781 1022.73571777344 1031.09851074219 1027.81848144531 1028.33911132812 1029.74731445312 1029.23413085938 1029.68188476562 1026.95629882812 1018.36358642578 1019.30743408203 1024.19909667969 1029.77526855469 1030.22448730469 1020.88464355469 1020.50750732422 1011.02270507812 1010.70458984375 1007.06628417969 1002.93878173828 1007.52868652344 1016.21734619141 1011.31811523438 1015.20288085938 1013.21569824219 1016.171875 1012.99133300781 1007.79724121094 1011.25695800781 1004.05285644531 997.418701171875 992.79345703125 999.142211914062 998.099487304688 1002.09582519531 1002.82983398438 996.801513671875 994.130187988281 999.697326660156 1002.80529785156
943.670043945312 941.38671875 941.879943847656 931.513244628906 939.321228027344 935.871887207031 928.608703613281 928.854370117188 929.533630371094 944.216003417969 955.071716308594 962.330993652344 962.744262695312 975.189331054688 978.602478027344 977.85107421875 969.425476074219 976.076416015625 976.43701171875 987.168823242188 976.309814453125 977.651977539062 975.139099121094 974.057556152344 960.911437988281 960.704711914062 971.473449707031 971.697937011719 972.77001953125 970.396606445312 984.02001953125 983.865356445312 981.100158691406 978.726257324219 976.23193359375 974.791259765625 989.640441894531 989.8232421875 992.414184570312 984.481506347656 979.047607421875 987.670104980469 994.432434082031 995.306640625 993.990112304688 998.596069335938 1005.96484375 1012.18994140625 1014.88702392578 1013.96618652344 1004.93762207031 1002.14886474609 998.236572265625 990.828308105469 986.736450195312 983.545288085938 970.807067871094 967.7021484375 971.20263671875 974.459167480469 981.901000976562 972.300842285156 966.628662109375 971.915283203125 973.547546386719 978.0947265625 970.912719726562 973.639892578125 983.942016601562 989.114685058594 981.860107421875 985.348022460938 991.42578125 990.273193359375 993.935668945312 991.863586425781 1000.99914550781 994.623352050781 984.267639160156 981.930480957031 983.243713378906 996.853515625 990.892822265625 994.1435546875 990.062133789062 975.716796875 977.617065429688 987.734741210938 992.281799316406 985.3837890625 982.643432617188 979.737609863281 990.689086914062 983.927124023438 986.206237792969 993.677978515625 998.360717773438 1003.56225585938 1000.97064208984 1008.35614013672 1007.69848632812 1007.00628662109 1015.32397460938 1016.90643310547 1018.16259765625 1014.28094482422 1014.0029296875 1022.67498779297 1020.11145019531 1030.19287109375 1031.84387207031 1024.8525390625 1030.63366699219 1028.90930175781 1026.39831542969 1030.22265625 1027.77185058594 1026.45166015625 1021.46551513672 1018.38360595703 1018.46136474609 1019.00689697266 1011.93896484375 1018.15765380859 1017.71856689453 1022.15142822266 1016.0830078125 1017.21398925781 1009.23718261719 1003.0205078125 1005.23364257812 1005.95141601562 1003.82745361328 1005.43542480469 1009.63061523438 1017.70703125 1017.50012207031 1006.58618164062 994.073669433594 999.071960449219 998.614990234375 992.884704589844 990.895629882812 998.546936035156 997.251892089844 993.841430664062 988.791381835938 993.206481933594 1004.97137451172 1003.34698486328
950.752807617188 936.557861328125 931.103210449219 938.632629394531 926.737731933594 928.972351074219 935.639465332031 933.971374511719 936.250549316406 939.765930175781 950.210205078125 963.125183105469 963.685729980469 972.472839355469 979.560852050781 980.364318847656 976.486938476562 975.633972167969 980.080322265625 990.366271972656 993.292541503906 987.861511230469 984.197204589844 981.943420410156 975.487548828125 969.003356933594 970.491333007812 979.953186035156 985.546020507812 984.115051269531 983.425964355469 982.597778320312 981.309387207031 981.115966796875 983.600891113281 980.355651855469 990.089782714844 984.015502929688 981.973876953125 976.950805664062 980.363708496094 992.624694824219 1006.15655517578 1003.59130859375 1003.03314208984 1011.26672363281 1010.42395019531 1012.70922851562 1012.54449462891 1013.54132080078 1000.71862792969 1005.82513427734 986.699035644531 987.817749023438 981.245849609375 981.492980957031 977.700988769531 974.29443359375 977.517883300781 982.037353515625 987.290832519531 971.343872070312 973.174926757812 979.872741699219 977.252380371094 975.608459472656 989.488098144531 980.905090332031 985.33203125 989.19970703125 992.395263671875 992.12353515625 988.615478515625 986.352600097656 993.977661132812 996.143798828125 1001.7529296875 1002.046875 986.994079589844 986.82763671875 992.515991210938 998.097778320312 990.594787597656 995.301940917969 990.208679199219 984.274719238281 971.284851074219 977.519958496094 989.227172851562 985.012573242188 987.821716308594 984.289672851562 983.319580078125 982.77587890625 988.162963867188 998.437377929688 998.380126953125 1000.62060546875 1000.35980224609 994.938171386719 1006.04138183594 1004.15173339844 1004.29486083984 1007.76348876953 1007.61956787109 1007.60217285156 1014.77331542969 1020.66839599609 1023.97546386719 1019.4609375 1026.64538574219 1039.1005859375 1035.57238769531 1037.8544921875 1037.01904296875 1034.2958984375 1035.26000976562 1020.77984619141 1020.94445800781 1024.79907226562 1027.06103515625 1019.6123046875 1014.60125732422 1011.29412841797 1019.97100830078 1016.01232910156 1016.64654541016 1006.52349853516 1001.59155273438 1005.36584472656 1003.87805175781 1009.06109619141 999.591491699219 1003.32733154297 1004.06823730469 1012.19720458984 1009.49456787109 1003.13330078125 995.407836914062 997.373229980469 998.9990234375 988.940307617188 989.106262207031 988.775207519531 992.080261230469 993.490600585938 987.82666015625 992.999389648438 991.049011230469 998.57666015625
948.648254394531 942.712646484375 934.351928710938 929.711730957031 926.42578125 934.066589355469 935.992431640625 943.959777832031 938.282592773438 946.911987304688 960.609985351562 957.887634277344 965.887939453125 977.4814453125 984.483947753906 982.624450683594 974.295715332031 969.701477050781 981.976318359375 994.866577148438 990.287170410156 994.69873046875 993.074768066406 991.423950195312 973.566162109375 970.93896484375 967.130493164062 968.041748046875 984.064819335938 989.324584960938 988.120544433594 991.663513183594 983.107543945312 981.520446777344 977.844604492188 981.510192871094 986.712158203125 982.823181152344 977.468811035156 979.703308105469 979.64208984375 985.660827636719 994.357604980469 1012.78485107422 1004.65893554688 1007.00274658203 1018.50268554688 1018.57904052734 1014.05621337891 1011.07360839844 997.322448730469 998.40234375 989.7236328125 988.743530273438 981.997680664062 986.757629394531 982.501403808594 979.679504394531 978.760375976562 981.381530761719 983.786682128906 977.862670898438 976.585876464844 983.145446777344 977.26611328125 973.119445800781 977.315063476562 979.631713867188 984.110290527344 987.275695800781 992.557434082031 996.084899902344 984.830871582031 994.061462402344 995.856506347656 1002.58605957031 1008.44671630859 1013.80407714844 997.659362792969 1001.21960449219 1002.46826171875 1000.0810546875 994.908508300781 995.510070800781 988.682678222656 992.718200683594 980.955139160156 983.4619140625 989.113525390625 990.765563964844 990.379943847656 995.441162109375 983.29052734375 980.674438476562 993.886047363281 994.43505859375 993.022277832031 995.402160644531 997.936706542969 1002.46520996094 1003.67950439453 1008.76440429688 1005.18218994141 1017.11145019531 1009.24780273438 1008.70245361328 1010.82263183594 1018.47222900391 1027.77746582031 1020.21929931641 1027.32958984375 1034.26635742188 1035.59643554688 1048.60705566406 1040.78234863281 1039.75866699219 1035.70288085938 1030.798828125 1034.14697265625 1035.30883789062 1032.59948730469 1022.42724609375 1018.00128173828 1018.96838378906 1018.10089111328 1010.23541259766 1015.49481201172 1001.58966064453 1006.56860351562 1006.29766845703 1006.4345703125 1009.32208251953 998.455322265625 998.88232421875 1009.23315429688 1015.78796386719 1008.26092529297 1006.75787353516 996.363891601562 997.000732421875 988.177062988281 979.403747558594 979.0126953125 978.531677246094 993.176208496094 985.885314941406 980.356872558594 981.340759277344 986.336608886719 992.255920410156
945.288330078125 930.527282714844 926.992309570312 928.330688476562 929.091674804688 931.144897460938 936.127319335938 939.738098144531 937.888916015625 956.475158691406 961.250183105469 967.183288574219 962.378356933594 981.906005859375 989.494506835938 978.444946289062 973.856079101562 981.594543457031 976.111450195312 987.988342285156 983.407348632812 983.237670898438 978.350891113281 979.090148925781 972.546142578125 976.7626953125 978.211975097656 980.697326660156 988.216613769531 985.697631835938 986.364379882812 981.765014648438 983.718139648438 977.657104492188 993.26708984375 984.080627441406 992.672973632812 986.330505371094 982.879638671875 981.577270507812 987.003723144531 985.990478515625 993.67822265625 1003.55072021484 1010.63745117188 1012.91027832031 1011.83227539062 1019.00115966797 1013.04534912109 1010.69744873047 1008.96704101562 1000.6796875 996.042358398438 990.643310546875 991.968017578125 987.620727539062 978.971069335938 975.51318359375 983.928283691406 972.158081054688 979.119995117188 975.240112304688 971.669250488281 970.898742675781 972.222351074219 970.914733886719 976.87841796875 976.447937011719 969.883972167969 988.59912109375 996.744934082031 997.913696289062 996.08056640625 999.4140625 999.779968261719 995.770629882812 1019.00408935547 1009.04632568359 1003.09521484375 1006.52032470703 999.949829101562 997.685607910156 1003.35443115234 996.025817871094 993.7255859375 1002.451171875 1001.67333984375 991.181091308594 996.865234375 991.957824707031 999.929016113281 993.265075683594 995.970031738281 986.052795410156 989.468505859375 999.475280761719 998.089599609375 995.127807617188 1004.63793945312 1011.69232177734 1011.123046875 1011.90515136719 1013.35333251953 1014.99438476562 1006.58123779297 1007.80279541016 1006.61962890625 1012.63824462891 1015.66815185547 1023.93536376953 1029.81359863281 1033.47827148438 1039.04565429688 1036.32556152344 1037.96740722656 1029.4150390625 1034.67004394531 1029.4794921875 1036.35974121094 1036.80993652344 1027.6767578125 1026.55053710938 1014.96887207031 1021.42102050781 1017.00445556641 1010.47882080078 1008.42321777344 1004.52575683594 1003.48083496094 1005.40679931641 999.122619628906 999.001403808594 1003.82208251953 1009.22894287109 1008.46551513672 1008.63372802734 1007.70532226562 999.834106445312 996.118713378906 993.240844726562 986.222717285156 982.648010253906 982.569274902344 979.191650390625 983.411865234375 969.405395507812 973.365478515625 967.992248535156 972.497314453125 980.552185058594
946.582336425781 934.636657714844 925.463745117188 931.04443359375 924.109069824219 934.759033203125 937.010681152344 942.025024414062 943.763549804688 959.957336425781 954.039123535156 953.22509765625 960.749206542969 974.459899902344 969.733459472656 970.594116210938 969.90283203125 968.013916015625 976.343017578125 978.209228515625 978.173217773438 976.300964355469 978.869140625 972.648803710938 974.204040527344 970.402526855469 988.613586425781 984.487365722656 983.957824707031 990.501647949219 979.669250488281 983.581787109375 989.086303710938 985.176513671875 991.697387695312 986.385620117188 988.8232421875 990.467224121094 991.942199707031 985.406066894531 985.049560546875 993.719665527344 1001.1884765625 997.014953613281 1001.29302978516 1010.78637695312 1009.78479003906 1008.77746582031 1003.37487792969 1002.33172607422 1003.76025390625 1006.330078125 992.585021972656 996.049255371094 994.611572265625 986.79931640625 983.403198242188 990.291748046875 988.858337402344 974.698608398438 979.582946777344 972.339111328125 967.062194824219 969.967712402344 970.258544921875 976.234130859375 982.568054199219 984.554748535156 971.08935546875 981.475524902344 996.753295898438 998.920776367188 994.089294433594 999.5947265625 998.222351074219 999.909545898438 1003.68566894531 998.630615234375 1000.80303955078 1002.56018066406 1000.02038574219 1006.326171875 1013.08288574219 1004.34649658203 1002.53369140625 1000.54620361328 999.3271484375 1002.63916015625 988.436279296875 994.834594726562 990.625732421875 990.636657714844 987.499938964844 984.337951660156 985.9580078125 989.293823242188 998.3271484375 994.806396484375 1008.79705810547 1012.50604248047 1005.93701171875 1007.14270019531 1007.87182617188 1006.23132324219 1000.54669189453 1010.85607910156 1009.83123779297 1007.48834228516 1017.47967529297 1030.12939453125 1036.4072265625 1029.85729980469 1037.23620605469 1039.20092773438 1038.00915527344 1039.39819335938 1031.08020019531 1035.49182128906 1041.09362792969 1029.23303222656 1031.94580078125 1025.78784179688 1027.53259277344 1015.32354736328 1007.65673828125 1003.14398193359 1007.1494140625 1005.27777099609 1001.52471923828 997.707885742188 1001.23333740234 1008.37255859375 1009.66174316406 1001.02734375 1004.90490722656 996.239196777344 1001.56146240234 995.955200195312 992.216003417969 985.076110839844 989.532470703125 986.489379882812 983.364135742188 976.163269042969 978.388488769531 968.183898925781 971.319396972656 971.075439453125 973.15869140625 976.511108398438
940.953369140625 932.44580078125 932.776550292969 933.373901367188 933.485595703125 938.877014160156 937.364379882812 945.034423828125 945.803527832031 949.610778808594 951.809936523438 955.207214355469 973.212280273438 974.841979980469 976.187622070312 975.415100097656 977.535034179688 966.415100097656 979.930053710938 977.330932617188 974.8408203125 964.698913574219 967.637939453125 975.813781738281 971.189880371094 984.458435058594 984.6826171875 984.83056640625 980.501342773438 980.831481933594 979.389831542969 986.486572265625 982.318725585938 982.226745605469 989.878845214844 989.240417480469 986.720703125 993.741333007812 995.3427734375 990.313842773438 992.475036621094 993.252563476562 1000.75634765625 995.112060546875 998.116333007812 1004.89697265625 1004.5478515625 997.221557617188 1004.97839355469 1015.69714355469 1007.64996337891 1001.41180419922 998.428039550781 995.233642578125 990.784790039062 985.508239746094 990.824096679688 991.409790039062 983.393737792969 980.438171386719 980.492004394531 973.095275878906 972.108093261719 971.891235351562 977.652099609375 980.605224609375 978.295715332031 984.299438476562 974.562683105469 981.212829589844 995.24609375 988.25341796875 988.242126464844 990.471923828125 1000.03619384766 1000.10308837891 989.019348144531 991.866943359375 995.950317382812 1003.93890380859 998.037780761719 1006.21917724609 1013.22369384766 1010.06854248047 1007.88354492188 999.599426269531 1001.68859863281 999.071655273438 990.949462890625 996.497497558594 991.904296875 992.1201171875 989.396789550781 986.681823730469 992.401000976562 992.929016113281 992.720520019531 998.0546875 1006.76647949219 1008.13055419922 1004.11083984375 1009.16198730469 1004.80181884766 1018.90960693359 1012.97985839844 1019.02526855469 1016.56256103516 1016.91851806641 1029.8232421875 1030.65319824219 1030.14221191406 1038.70654296875 1034.78234863281 1036.32678222656 1044.15368652344 1049.00708007812 1047.49230957031 1032.54943847656 1033.92053222656 1027.013671875 1019.67639160156 1023.63549804688 1013.58636474609 1006.408203125 1009.71746826172 1006.88238525391 1004.38372802734 998.216491699219 1003.58013916016 1000.92279052734 1006.97869873047 1011.9482421875 1019.39855957031 1013.09869384766 1005.47631835938 995.680236816406 996.827331542969 994.442993164062 995.394287109375 991.570983886719 996.665100097656 983.787109375 983.72119140625 980.358276367188 976.732604980469 967.920715332031 973.057678222656 974.554321289062 980.921997070312 976.995056152344
943.760437011719 936.838439941406 939.553466796875 932.361755371094 934.62353515625 927.010314941406 941.653564453125 947.323669433594 950.288146972656 959.7373046875 962.057189941406 959.236206054688 972.734191894531 973.918334960938 967.327758789062 970.8271484375 970.769958496094 975.328247070312 983.910705566406 983.986083984375 975.524841308594 960.127868652344 967.2587890625 977.598205566406 983.452697753906 982.827758789062 984.840454101562 984.076965332031 985.213928222656 987.845520019531 988.188293457031 978.887878417969 981.140869140625 991.829467773438 1002.15283203125 995.6689453125 991.936157226562 986.759521484375 992.162719726562 984.852111816406 992.928283691406 995.628173828125 995.86962890625 1004.90460205078 1006.18316650391 1005.1328125 999.630249023438 1004.95129394531 1010.49572753906 1014.248046875 1015.41613769531 1010.20806884766 1006.15539550781 996.7978515625 999.705383300781 986.385803222656 990.437866210938 994.46142578125 985.39404296875 983.543090820312 980.915161132812 981.681274414062 981.387939453125 981.980895996094 989.8681640625 982.094360351562 975.371154785156 973.111022949219 981.839721679688 989.216003417969 983.950012207031 983.539916992188 996.815124511719 992.800598144531 997.105346679688 991.048889160156 986.572143554688 985.367431640625 997.898193359375 999.200805664062 1004.47534179688 1003.77716064453 1002.74176025391 1009.25958251953 1005.94970703125 1007.59051513672 1004.21063232422 992.091735839844 992.5146484375 994.307434082031 997.856506347656 991.042541503906 987.943603515625 978.245361328125 990.442260742188 993.8154296875 995.561462402344 1002.40844726562 1005.41455078125 1016.06268310547 1002.408203125 1010.04248046875 1003.31158447266 1013.18383789062 1024.21337890625 1034.9755859375 1029.8095703125 1019.77697753906 1037.87878417969 1041.30725097656 1036.32873535156 1039.8896484375 1044.00268554688 1048.08288574219 1049.56018066406 1041.37365722656 1040.20397949219 1029.70642089844 1027.27978515625 1025.39611816406 1022.04284667969 1018.19189453125 1007.19781494141 992.937255859375 994.904113769531 995.002014160156 991.342407226562 997.467895507812 998.006286621094 1005.94488525391 1000.49932861328 1007.654296875 1018.74926757812 1011.79650878906 1001.32958984375 1002.51007080078 998.529663085938 989.245971679688 992.809875488281 999.789672851562 991.497497558594 992.144287109375 979.643188476562 979.980224609375 978.923645019531 971.263305664062 974.475280761719 982.007568359375 977.407653808594 976.990661621094
945.889892578125 940.2275390625 936.296264648438 941.523071289062 940.078918457031 938.794189453125 938.27783203125 935.577880859375 940.850036621094 953.439636230469 961.40576171875 965.566162109375 974.484497070312 975.165893554688 970.723510742188 966.336242675781 975.710876464844 972.775695800781 975.277160644531 974.906066894531 963.135437011719 962.966369628906 961.360595703125 977.227172851562 982.708557128906 984.549255371094 980.867614746094 979.905822753906 978.652709960938 986.919616699219 986.714904785156 988.653381347656 988.403076171875 990.906127929688 993.685852050781 985.911376953125 989.751525878906 995.983093261719 994.231323242188 982.120788574219 987.097534179688 994.462646484375 1000.27288818359 1005.85632324219 1009.40795898438 1005.27966308594 1008.59271240234 1007.85882568359 1013.73297119141 1012.66418457031 1009.11895751953 1013.38214111328 1016.98864746094 1014.36022949219 996.398132324219 992.964599609375 984.287353515625 991.178588867188 983.9951171875 983.534912109375 977.939025878906 982.478881835938 987.567260742188 994.630065917969 987.311706542969 978.957275390625 980.691040039062 977.668701171875 989.945190429688 988.020629882812 989.560791015625 981.622924804688 981.639770507812 987.200622558594 988.865112304688 988.263854980469 981.045227050781 1000.21826171875 993.126892089844 993.675964355469 1014.00714111328 1005.52661132812 1014.24200439453 1002.91296386719 1002.55511474609 1006.88079833984 998.728210449219 991.339172363281 984.72119140625 990.187866210938 999.966003417969 993.234191894531 990.552062988281 995.468933105469 1000.79956054688 1000.57745361328 991.333862304688 993.479370117188 1004.04974365234 1009.77484130859 1002.39385986328 1005.04449462891 1009.95886230469 1012.44299316406 1018.39404296875 1025.28759765625 1030.14306640625 1025.2880859375 1032.16967773438 1037.32055664062 1045.98706054688 1058.28210449219 1053.20227050781 1042.27685546875 1047.10461425781 1051.71728515625 1042.80224609375 1033.8046875 1032.13342285156 1021.07916259766 1021.06506347656 1016.14044189453 1006.75665283203 991.248229980469 991.693542480469 986.377807617188 993.486511230469 1000.56842041016 993.961120605469 995.263122558594 995.7958984375 994.26904296875 1009.15582275391 1002.94921875 1001.89471435547 994.817810058594 993.871337890625 987.266479492188 982.643737792969 986.381713867188 984.849914550781 982.473022460938 980.879211425781 973.976989746094 972.2275390625 970.455261230469 977.561584472656 982.945251464844 976.802612304688 977.975341796875
948.143249511719 942.70703125 944.021423339844 940.927368164062 940.093505859375 930.396606445312 941.640441894531 940.45166015625 946.418151855469 951.897277832031 970.480529785156 976.941345214844 974.850036621094 975.496826171875 968.865905761719 969.492126464844 968.59326171875 960.368408203125 967.792602539062 966.152221679688 954.256103515625 951.5859375 960.059020996094 961.256103515625 973.450134277344 979.475708007812 971.754272460938 972.618103027344 968.091186523438 978.570983886719 976.214782714844 981.099609375 976.171142578125 980.950012207031 977.804626464844 974.480773925781 971.971130371094 977.268249511719 987.21923828125 985.873413085938 988.752990722656 990.704528808594 1000.00115966797 1000.20086669922 999.10546875 1004.13739013672 1002.98028564453 1006.48046875 1012.30828857422 1011.48748779297 1012.65826416016 1014.18341064453 1016.08587646484 1006.38812255859 998.83642578125 995.693542480469 993.115417480469 989.309936523438 987.126098632812 983.372863769531 985.175537109375 984.810668945312 989.170776367188 984.589477539062 978.911437988281 981.361450195312 983.967956542969 979.592956542969 992.628540039062 992.776672363281 981.757568359375 981.855102539062 985.835388183594 986.961486816406 989.270202636719 986.585083007812 981.384338378906 991.247253417969 997.444152832031 1001.71313476562 1006.63818359375 1003.11199951172 1004.92297363281 1001.93225097656 1000.45361328125 1005.15002441406 1000.39984130859 998.79345703125 993.109436035156 995.28955078125 999.015075683594 1001.45294189453 1003.32580566406 1005.35662841797 1013.38891601562 1013.50439453125 998.959777832031 992.913269042969 998.542419433594 1004.62396240234 1001.21850585938 1007.61865234375 1008.41223144531 1012.11047363281 1019.05053710938 1021.75665283203 1020.70098876953 1024.08544921875 1029.1591796875 1037.57507324219 1053.767578125 1052.82580566406 1053.45483398438 1054.70263671875 1048.95336914062 1055.13598632812 1042.98291015625 1036.73181152344 1028.09680175781 1031.08239746094 1026.87426757812 1016.65563964844 997.98486328125 988.817321777344 991.302307128906 992.228515625 989.906982421875 992.824951171875 988.789367675781 991.084167480469 1001.62158203125 991.558532714844 992.915954589844 988.961791992188 986.375671386719 985.10400390625 986.335754394531 980.872985839844 978.173583984375 980.048645019531 982.7216796875 974.558959960938 972.114929199219 974.562866210938 971.425170898438 973.762878417969 975.793579101562 979.854187011719 982.09130859375 986.789611816406
946.971130371094 940.940979003906 943.781921386719 945.396606445312 940.173278808594 922.552307128906 934.154541015625 940.4990234375 938.538269042969 945.481567382812 960.957702636719 970.96484375 971.223693847656 965.92138671875 966.319274902344 963.276672363281 960.349365234375 958.485229492188 963.489807128906 959.782287597656 943.85986328125 944.666015625 952.408081054688 957.005554199219 965.043395996094 960.514099121094 967.498840332031 966.646179199219 967.095031738281 958.1982421875 965.951293945312 974.428527832031 981.289672851562 976.616577148438 972.176696777344 977.326232910156 973.236206054688 983.15478515625 985.275146484375 982.334594726562 979.371398925781 990.418090820312 992.6630859375 983.064697265625 985.995971679688 996.719116210938 997.263061523438 1003.52355957031 1015.58203125 1009.38305664062 1004.08020019531 1007.40570068359 1008.42205810547 1010.37261962891 1004.15667724609 997.700744628906 1005.19250488281 991.495544433594 998.356262207031 995.254577636719 985.578918457031 986.290771484375 993.275573730469 984.89501953125 984.4755859375 986.629211425781 983.6572265625 980.356140136719 979.44580078125 986.94921875 979.808532714844 975.522033691406 980.554382324219 989.766479492188 986.020874023438 992.168579101562 986.934936523438 990.062622070312 995.416015625 996.306762695312 1007.08795166016 1009.58666992188 1006.94177246094 1011.94262695312 1004.19702148438 1011.28979492188 1006.61102294922 997.314025878906 994.701904296875 1004.99682617188 1002.34759521484 1003.60894775391 1012.53717041016 1009.60913085938 1007.57629394531 1009.10876464844 997.237670898438 998.119689941406 1003.02087402344 1008.97174072266 999.986450195312 1008.50726318359 1004.34313964844 1006.84039306641 1012.28625488281 1015.41442871094 1024.26574707031 1034.2412109375 1041.05065917969 1036.72424316406 1052.83154296875 1046.66748046875 1054.28503417969 1055.99499511719 1058.77380371094 1063.71655273438 1046.29431152344 1034.8759765625 1037.96728515625 1040.19897460938 1035.55529785156 1024.18212890625 1007.08862304688 998.207214355469 992.565551757812 995.7724609375 986.072021484375 988.909851074219 982.784118652344 986.206787109375 996.666442871094 988.372619628906 987.048583984375 994.386596679688 986.520629882812 977.730407714844 978.684204101562 976.087951660156 987.307983398438 977.249145507812 975.246643066406 973.456420898438 967.866760253906 965.097595214844 970.196228027344 966.852416992188 968.636901855469 976.718933105469 979.342346191406 985.014099121094
947.041381835938 941.003234863281 953.951354980469 938.69189453125 938.080017089844 936.788024902344 935.790466308594 935.714721679688 943.549011230469 948.796447753906 953.072631835938 964.56494140625 963.3212890625 963.168884277344 970.032470703125 966.89599609375 959.544189453125 957.510986328125 957.108764648438 948.605529785156 942.754272460938 952.841613769531 947.459106445312 952.10693359375 959.066650390625 961.9765625 965.478881835938 968.697326660156 965.347045898438 959.583984375 964.244445800781 970.393005371094 979.109924316406 981.66015625 973.510620117188 985.737121582031 967.960327148438 973.885864257812 975.6669921875 980.280700683594 979.61083984375 981.527099609375 987.150695800781 978.152709960938 986.166320800781 987.998596191406 994.649353027344 1002.39086914062 1004.22381591797 1000.90386962891 1003.15374755859 1003.09576416016 1000.17993164062 994.864013671875 997.532348632812 992.294921875 997.913879394531 996.589172363281 992.697326660156 994.9697265625 986.480590820312 986.751281738281 993.1455078125 973.592041015625 981.578796386719 982.628784179688 988.585144042969 986.408874511719 982.558776855469 981.445983886719 976.696411132812 976.285949707031 985.188598632812 989.081359863281 990.741638183594 995.194885253906 998.478393554688 997.110473632812 988.693542480469 994.236877441406 1005.37420654297 1005.08068847656 1008.49719238281 1012.76037597656 1007.24957275391 1009.38763427734 1006.72515869141 1001.82421875 999.665832519531 1002.8271484375 1007.89599609375 1006.55291748047 1003.35919189453 1003.88885498047 1006.28131103516 1011.12426757812 997.771545410156 1007.08026123047 1006.77960205078 1006.58062744141 1007.6806640625 1018.19091796875 1014.34301757812 1012.69873046875 1007.48040771484 1013.97106933594 1025.02868652344 1028.91796875 1038.85412597656 1049.6474609375 1043.9755859375 1055.5107421875 1058.90893554688 1055.76940917969 1063.86975097656 1067.70483398438 1059.08337402344 1048.32067871094 1044.30444335938 1040.53955078125 1034.45727539062 1021.15869140625 1010.68957519531 1009.88592529297 995.487182617188 992.610290527344 996.050048828125 991.8369140625 983.891784667969 973.290100097656 985.138305664062 987.180114746094 977.324279785156 986.082885742188 982.521301269531 976.472351074219 975.944580078125 966.569702148438 970.804321289062 973.787658691406 970.444091796875 972.974060058594 975.987365722656 974.234130859375 967.986145019531 973.546508789062 979.761108398438 979.862243652344 986.234985351562 978.057373046875
952.321350097656 955.417602539062 953.924560546875 950.044555664062 943.953002929688 938.301391601562 939.543273925781 939.971069335938 944.514099121094 947.911926269531 956.023376464844 963.684448242188 957.007995605469 958.607849121094 961.674865722656 962.944274902344 952.203552246094 954.99560546875 949.358032226562 946.0244140625 948.180908203125 954.5361328125 953.044067382812 950.313293457031 958.158264160156 964.472229003906 956.869567871094 961.775329589844 962.016479492188 957.149047851562 961.647583007812 957.290283203125 967.946044921875 968.021240234375 970.604431152344 964.113220214844 959.544067382812 973.116943359375 975.680114746094 975.951293945312 973.653076171875 975.005920410156 980.846984863281 979.694152832031 992.984130859375 992.690063476562 991.567016601562 987.504455566406 992.892150878906 986.480224609375 994.986083984375 996.217224121094 997.654479980469 989.119873046875 1000.27856445312 990.779113769531 991.857421875 993.447265625 995.756713867188 992.276794433594 996.937438964844 990.205444335938 981.307067871094 978.119140625 985.989562988281 981.345153808594 982.29296875 989.6025390625 980.227478027344 988.194152832031 985.638793945312 990.622802734375 985.024841308594 993.586853027344 992.502807617188 997.09423828125 998.495971679688 995.307495117188 989.185729980469 994.011474609375 994.222290039062 1003.58728027344 993.297912597656 1004.23583984375 1008.29339599609 1001.24774169922 1003.20483398438 1003.09521484375 998.850463867188 1003.55877685547 1001.93920898438 1000.0185546875 1000.30163574219 1011.45355224609 1010.98480224609 1003.15832519531 1004.08233642578 1008.2333984375 1013.9970703125 1012.2060546875 1016.4208984375 1016.55822753906 1016.91430664062 1015.556640625 1008.49200439453 1020.20623779297 1023.14447021484 1023.47113037109 1042.37414550781 1046.50659179688 1044.21801757812 1050.67456054688 1056.59838867188 1070.25720214844 1067.15258789062 1063.4482421875 1062.06604003906 1057.4501953125 1049.75939941406 1045.62658691406 1039.37316894531 1025.16821289062 1012.47052001953 1005.2880859375 1004.09893798828 999.666931152344 997.02587890625 987.926818847656 982.989379882812 976.951599121094 978.169311523438 967.231872558594 974.067321777344 973.360534667969 990.384765625 985.125732421875 966.899169921875 970.216552734375 970.997985839844 970.057189941406 974.773803710938 966.87646484375 968.795104980469 963.178955078125 967.994567871094 974.242614746094 973.578247070312 980.477294921875 980.326477050781 969.529602050781
951.22216796875 954.282348632812 949.918273925781 954.369079589844 945.721252441406 946.951171875 942.4765625 946.568054199219 947.526245117188 952.070983886719 946.665954589844 953.762390136719 956.935424804688 944.272888183594 953.46142578125 953.544372558594 956.621337890625 948.776000976562 958.578491210938 956.085693359375 952.3681640625 948.764221191406 950.493469238281 949.550415039062 948.932067871094 962.729431152344 963.282287597656 965.497985839844 966.316345214844 966.5556640625 963.291564941406 960.404235839844 972.930603027344 971.47314453125 964.667602539062 966.927124023438 964.477233886719 971.063232421875 970.191101074219 969.01416015625 967.927429199219 968.555480957031 976.17822265625 974.438903808594 992.233947753906 993.640563964844 991.789611816406 995.336486816406 987.65966796875 984.880310058594 991.3408203125 998.781982421875 1001.3046875 1002.15405273438 996.065490722656 990.074768066406 993.963745117188 996.309936523438 999.379089355469 998.182495117188 998.29833984375 984.893188476562 985.218505859375 977.245056152344 987.237487792969 985.113220214844 989.595886230469 994.241516113281 991.665954589844 980.410278320312 983.87060546875 993.252563476562 995.112976074219 987.877319335938 992.602783203125 994.33251953125 988.88671875 998.67626953125 995.169677734375 997.464477539062 992.745361328125 1001.64312744141 1000.56378173828 997.309448242188 997.340270996094 1007.35931396484 1010.95989990234 1012.13275146484 1002.40789794922 1004.17211914062 1017.69122314453 1003.41229248047 1005.74444580078 1013.85955810547 1016.11383056641 1009.05389404297 1012.07641601562 1018.46832275391 1016.56304931641 1017.73022460938 1017.28802490234 1016.90972900391 1024.09582519531 1020.11462402344 1022.51135253906 1020.81323242188 1027.67053222656 1034.64733886719 1047.091796875 1049.30822753906 1051.34741210938 1055.17980957031 1065.79870605469 1064.55700683594 1071.40856933594 1062.70812988281 1063.13159179688 1062.32775878906 1055.64453125 1052.28466796875 1036.47521972656 1034.50219726562 1025.61364746094 1009.15777587891 1006.44311523438 1008.53686523438 1005.37329101562 996.650085449219 980.459777832031 977.700622558594 976.514709472656 971.781982421875 981.872619628906 980.494445800781 989.479125976562 983.368347167969 978.179321289062 973.663879394531 971.000854492188 969.955932617188 965.977722167969 960.879577636719 961.216674804688 969.475708007812 977.497009277344 974.256042480469 970.345397949219 978.536865234375 969.896728515625 966.940795898438
955.641723632812 950.414611816406 950.159484863281 950.334716796875 950.781311035156 943.676391601562 941.20947265625 943.19921875 949.509094238281 942.742736816406 935.407775878906 949.805725097656 954.468627929688 951.01416015625 948.857421875 951.112548828125 954.1611328125 958.663330078125 960.533020019531 963.434143066406 954.76953125 950.618957519531 958.992309570312 958.066345214844 957.926391601562 963.635375976562 962.907836914062 956.362854003906 965.964050292969 959.084350585938 958.696655273438 961.66357421875 961.879028320312 964.543762207031 972.148559570312 972.906982421875 968.284729003906 963.8564453125 964.047180175781 974.895080566406 976.398986816406 971.187377929688 972.204345703125 984.353332519531 984.400695800781 980.271362304688 982.976989746094 983.32666015625 985.120239257812 986.457824707031 989.811584472656 986.732238769531 997.102478027344 1002.17700195312 997.895935058594 989.472351074219 990.53076171875 1001.54846191406 1003.63208007812 1000.42706298828 994.066528320312 990.161071777344 997.338134765625 998.174560546875 993.265930175781 995.602661132812 993.936157226562 994.6953125 997.2724609375 991.008178710938 986.892944335938 994.133178710938 994.978149414062 985.604064941406 994.657836914062 997.989807128906 996.897766113281 1003.52526855469 1000.88073730469 990.474182128906 997.038269042969 995.060180664062 997.210693359375 992.351989746094 995.915405273438 1009.82983398438 1010.82727050781 1011.81842041016 1004.28857421875 1005.67523193359 1014.33868408203 1014.95471191406 1015.57897949219 1012.12255859375 1013.84411621094 1009.12481689453 1011.79296875 1016.92004394531 1014.17694091797 1011.72772216797 1018.53533935547 1016.03887939453 1027.36389160156 1036.22290039062 1029.75317382812 1019.63818359375 1027.64807128906 1035.01708984375 1041.78515625 1051.20349121094 1056.55871582031 1046.99462890625 1053.75024414062 1059.40124511719 1061.85107421875 1068.53381347656 1069.90942382812 1065.12902832031 1058.4326171875 1056.26989746094 1039.82189941406 1030.71301269531 1025.95666503906 1015.88012695312 1008.47418212891 1010.22259521484 999.93798828125 995.770324707031 987.298217773438 984.755981445312 973.838623046875 981.537536621094 982.10107421875 983.880493164062 982.402770996094 980.911193847656 974.713989257812 972.999816894531 966.385070800781 969.335388183594 964.230346679688 958.448425292969 963.587707519531 969.094665527344 970.571166992188 973.806640625 966.029541015625 966.773620605469 969.040588378906 961.05517578125
964.224914550781 956.102600097656 953.459777832031 957.385986328125 954.626220703125 950.672485351562 947.981628417969 947.631958007812 942.990112304688 942.931945800781 936.568664550781 942.124328613281 954.268005371094 954.193420410156 945.177551269531 947.990173339844 940.293823242188 960.324462890625 960.568176269531 956.458618164062 948.345031738281 959.578918457031 958.973815917969 955.377868652344 959.725158691406 959.307189941406 958.181701660156 964.1650390625 963.273559570312 969.049255371094 962.382934570312 954.072509765625 965.576171875 972.487976074219 972.019104003906 974.2373046875 969.754943847656 963.1982421875 959.447631835938 962.095764160156 967.054138183594 976.723510742188 970.631042480469 982.472717285156 986.282348632812 984.693542480469 969.633605957031 980.064147949219 986.644409179688 983.386047363281 996.994079589844 996.038208007812 988.415893554688 1000.03179931641 995.387084960938 991.222839355469 993.467834472656 1011.09533691406 1017.18743896484 1015.92718505859 1005.1865234375 996.143188476562 999.583923339844 997.555236816406 992.157897949219 997.508911132812 991.370239257812 998.984680175781 999.565551757812 988.75048828125 991.494689941406 992.626770019531 990.095336914062 990.252746582031 997.282836914062 997.948486328125 992.98046875 1002.10882568359 1002.29144287109 992.912963867188 990.801940917969 991.093505859375 988.908020019531 987.609069824219 997.732788085938 1002.83190917969 1006.115234375 1011.021484375 1009.38745117188 1006.7490234375 1008.07550048828 1015.48474121094 1005.07263183594 1011.65118408203 1009.31341552734 1001.50531005859 1005.18054199219 1011.41522216797 1019.78594970703 1020.78308105469 1011.43115234375 1012.40606689453 1024.03942871094 1033.61669921875 1027.0400390625 1031.82690429688 1030.65161132812 1028.57800292969 1036.3076171875 1040.84558105469 1043.80908203125 1043.6591796875 1051.4814453125 1051.86108398438 1059.3330078125 1055.56213378906 1064.50927734375 1066.11804199219 1059.70129394531 1050.54223632812 1050.66052246094 1039.9267578125 1024.37023925781 1013.0732421875 1009.96813964844 1007.98419189453 1009.76373291016 989.532653808594 993.354309082031 996.263000488281 979.387268066406 981.802673339844 973.717712402344 987.151123046875 983.041931152344 980.723876953125 973.359191894531 964.9501953125 971.212158203125 971.114318847656 958.541076660156 959.501831054688 961.207885742188 963.536560058594 973.342468261719 970.455322265625 964.033264160156 957.025085449219 958.513793945312 952.347473144531
966.88232421875 965.504211425781 965.523193359375 951.893798828125 946.832458496094 959.874267578125 957.260925292969 951.891479492188 953.410949707031 958.083557128906 952.503845214844 957.436584472656 960.335327148438 960.52978515625 941.6455078125 948.413879394531 950.586120605469 956.538269042969 963.326477050781 969.705688476562 958.6484375 955.755798339844 946.594116210938 956.829345703125 956.940979003906 965.850341796875 974.56689453125 977.592590332031 965.917785644531 961.634338378906 960.334411621094 958.686401367188 965.286499023438 975.112243652344 970.181335449219 965.807983398438 972.885620117188 965.019714355469 959.983215332031 960.132690429688 975.532348632812 973.436706542969 969.068664550781 981.450561523438 983.046691894531 984.277893066406 977.799072265625 972.407897949219 973.313293457031 983.193542480469 990.188903808594 990.017456054688 994.3408203125 999.832641601562 994.993408203125 995.720336914062 1008.26232910156 1009.90521240234 1023.86163330078 1015.00378417969 1010.01458740234 1007.33221435547 1003.12878417969 1017.65869140625 1003.82403564453 1001.98779296875 994.674926757812 993.440856933594 989.480285644531 990.668273925781 994.415649414062 997.374755859375 989.852661132812 985.117858886719 992.03515625 998.473510742188 993.175964355469 995.350830078125 1001.62811279297 992.25830078125 988.361999511719 994.852783203125 986.824829101562 984.530151367188 1002.10614013672 1004.111328125 1004.21069335938 1009.58251953125 1010.93634033203 1006.513671875 1001.88714599609 1006.90081787109 1006.29406738281 1011.91815185547 1013.42999267578 1011.89392089844 1014.54510498047 1016.08245849609 1013.46820068359 1014.99084472656 1013.63519287109 1012.10546875 1014.66040039062 1021.28759765625 1024.40185546875 1039.97180175781 1030.44262695312 1029.99084472656 1031.24719238281 1033.92346191406 1040.35278320312 1039.7216796875 1044.08996582031 1055.69787597656 1057.19555664062 1053.07543945312 1055.99365234375 1055.6875 1056.42163085938 1053.53625488281 1055.1591796875 1040.59436035156 1028.17919921875 1015.38916015625 1013.81060791016 1007.26776123047 1011.81921386719 1004.1572265625 994.780151367188 987.984802246094 988.512145996094 988.20751953125 983.782958984375 982.731567382812 989.047668457031 981.003845214844 971.623413085938 967.102722167969 969.916198730469 966.076965332031 962.547180175781 961.836364746094 961.498779296875 958.899291992188 966.384521484375 981.370666503906 970.763549804688 966.884399414062 958.277221679688 968.474792480469
973.225891113281 969.947143554688 963.782104492188 955.741394042969 957.973937988281 956.54931640625 958.567504882812 955.445190429688 954.798278808594 956.856872558594 957.718627929688 966.919555664062 967.222595214844 968.035217285156 959.722839355469 964.098083496094 965.221862792969 961.763122558594 963.179138183594 964.942687988281 968.612976074219 961.540161132812 960.899536132812 966.051879882812 965.228271484375 965.599548339844 968.195678710938 966.119201660156 968.265197753906 955.850646972656 954.797119140625 964.508605957031 964.911437988281 972.787048339844 970.479919433594 971.976013183594 971.481994628906 976.828796386719 966.533752441406 962.458374023438 968.737670898438 975.405395507812 973.25341796875 975.272583007812 980.711120605469 979.568542480469 977.367126464844 973.068908691406 983.497985839844 984.673278808594 989.414733886719 989.495727539062 999.672729492188 1009.72515869141 1001.51257324219 1003.94146728516 1014.30059814453 1013.50396728516 1024.03955078125 1025.38366699219 1019.37683105469 1015.97717285156 1013.41021728516 1012.02624511719 1006.48974609375 1008.55090332031 993.994567871094 994.832153320312 999.596862792969 992.967468261719 997.947631835938 997.157958984375 989.855285644531 987.723999023438 992.148559570312 993.783203125 992.37890625 999.995300292969 1003.31817626953 994.258605957031 991.816101074219 996.329650878906 1000.20440673828 993.150268554688 1002.61846923828 996.872192382812 1004.70989990234 1009.96795654297 1009.68444824219 1014.67364501953 1013.91375732422 1011.70788574219 1008.86444091797 1012.33666992188 1007.38037109375 1015.12414550781 1010.94500732422 1023.20416259766 1020.94885253906 1022.25537109375 1016.17681884766 1013.12432861328 1019.18988037109 1024.92541503906 1032.859375 1029.39538574219 1027.01281738281 1035.60766601562 1035.7275390625 1035.22229003906 1041.55480957031 1036.86633300781 1045.34802246094 1055.86267089844 1053.69995117188 1048.57495117188 1055.58679199219 1053.23852539062 1053.76379394531 1060.89038085938 1053.69897460938 1044.57995605469 1028.62451171875 1027.31262207031 1018.2080078125 1014.04724121094 1011.44573974609 1010.29235839844 1004.74871826172 998.458618164062 991.36181640625 984.473022460938 986.244689941406 983.121032714844 984.718139648438 976.556518554688 980.071533203125 969.96533203125 963.122009277344 967.249145507812 961.695739746094 957.487854003906 964.266479492188 967.986755371094 963.018615722656 978.1787109375 970.516174316406 967.51025390625 958.820861816406 955.46923828125
971.759826660156 963.936401367188 964.416809082031 963.284240722656 960.878784179688 964.714416503906 960.307800292969 958.523559570312 962.779235839844 954.950500488281 955.449096679688 956.702392578125 962.12548828125 965.672058105469 973.661560058594 969.892456054688 972.547058105469 965.386779785156 968.922485351562 968.623168945312 975.99853515625 962.0751953125 966.538513183594 967.98486328125 960.962890625 972.175598144531 972.181335449219 966.710266113281 968.078186035156 965.961853027344 957.746704101562 959.910217285156 966.408203125 968.311889648438 980.877563476562 978.488891601562 972.32421875 979.614379882812 976.908020019531 974.927673339844 983.72607421875 966.390869140625 961.024169921875 968.486755371094 975.477233886719 977.793884277344 978.058898925781 973.699462890625 994.965148925781 995.7431640625 994.484619140625 986.086059570312 994.28271484375 1005.97021484375 1005.12860107422 1007.45812988281 1011.50091552734 1011.55908203125 1014.4140625 1022.69763183594 1020.00677490234 1019.29302978516 1018.109375 1012.32275390625 1015.80480957031 1013.44110107422 997.776672363281 996.533142089844 996.312866210938 997.559326171875 1000.54296875 994.818542480469 998.213928222656 988.514404296875 993.832397460938 991.058715820312 995.9306640625 1010.46624755859 1002.69232177734 1000.30682373047 994.972106933594 999.997924804688 993.849243164062 995.007629394531 1002.47375488281 1002.12634277344 1007.69525146484 1006.60906982422 1012.06896972656 1013.77502441406 1011.80889892578 1010.01379394531 1015.13269042969 1019.09210205078 1017.66662597656 1016.76361083984 1017.29290771484 1016.48059082031 1026.64538574219 1022.25378417969 1024.19519042969 1028.43103027344 1022.87927246094 1030.64855957031 1042.35388183594 1035.4755859375 1034.17456054688 1036.77624511719 1043.83581542969 1039.29113769531 1039.92956542969 1032.20422363281 1043.66809082031 1050.23559570312 1051.89294433594 1050.08190917969 1037.90270996094 1045.99719238281 1044.81945800781 1053.65173339844 1051.56396484375 1042.13073730469 1025.74084472656 1028.38952636719 1027.23095703125 1015.46087646484 1009.21197509766 1004.55389404297 1000.95690917969 995.290466308594 986.243835449219 986.960632324219 985.146240234375 972.472412109375 979.87451171875 973.434997558594 969.341369628906 967.917297363281 966.4443359375 964.821411132812 957.271484375 951.979797363281 961.02880859375 964.262878417969 960.333740234375 962.4267578125 957.282287597656 956.781494140625 956.485473632812 951.419494628906
970.623840332031 962.700012207031 964.9130859375 960.496704101562 955.535278320312 963.455810546875 957.743469238281 963.435607910156 965.572998046875 970.606140136719 961.033996582031 957.614929199219 954.774536132812 969.625183105469 973.466125488281 980.101318359375 968.766540527344 974.192199707031 972.450500488281 975.183776855469 970.712524414062 966.898620605469 959.03466796875 964.636657714844 966.919921875 968.69921875 972.353515625 969.348510742188 955.886901855469 957.068542480469 965.700073242188 962.917907714844 967.424072265625 970.585815429688 974.702575683594 970.886291503906 976.513061523438 973.642822265625 980.397766113281 982.634521484375 980.557434082031 970.433044433594 967.447570800781 973.015441894531 978.185974121094 969.629028320312 975.074645996094 977.239013671875 990.653686523438 988.762634277344 989.609924316406 993.520874023438 998.977905273438 997.725280761719 1005.05029296875 1007.19030761719 1005.94067382812 1007.400390625 1021.22003173828 1021.42370605469 1023.29827880859 1023.12670898438 1020.14410400391 1015.36712646484 1009.78344726562 1011.18658447266 990.620788574219 994.751159667969 995.783569335938 992.970764160156 996.710815429688 1003.08367919922 1001.75329589844 990.395141601562 996.957824707031 992.379577636719 989.726257324219 998.215393066406 997.599914550781 1002.18292236328 994.758239746094 995.146240234375 1000.78924560547 1002.87469482422 1000.50042724609 998.057800292969 997.778076171875 1004.15710449219 1005.54046630859 1013.40673828125 1012.67901611328 1013.52709960938 1019.02136230469 1020.41180419922 1025.10217285156 1021.50366210938 1019.81921386719 1023.84796142578 1031.66748046875 1028.55505371094 1031.02880859375 1026.45239257812 1034.23510742188 1039.54187011719 1035.7109375 1032.17150878906 1033.18103027344 1037.87341308594 1033.8203125 1044.93676757812 1044.98010253906 1032.50451660156 1035.03820800781 1043.9609375 1047.97009277344 1040.02416992188 1039.13342285156 1033.09838867188 1044.93249511719 1043.25842285156 1035.60534667969 1034.05969238281 1025.91162109375 1021.52398681641 1024.98767089844 1016.31335449219 1010.95440673828 1007.97143554688 1000.78210449219 994.277954101562 985.153625488281 987.775756835938 984.502624511719 969.988830566406 967.899047851562 969.042663574219 977.41845703125 969.096984863281 967.933532714844 957.643676757812 957.206420898438 962.12841796875 957.881958007812 964.271362304688 964.472473144531 960.985473632812 955.430236816406 952.464111328125 952.853210449219 954.217834472656
968.0732421875 963.170776367188 963.285888671875 957.390991210938 961.701782226562 965.212341308594 962.53759765625 952.806762695312 962.480895996094 961.722045898438 956.970581054688 957.906005859375 963.68212890625 974.939514160156 977.118957519531 986.337951660156 981.080932617188 976.382751464844 971.266540527344 972.649719238281 969.246520996094 966.15185546875 970.983276367188 965.320129394531 968.375122070312 964.028503417969 963.403442382812 966.630676269531 950.85302734375 958.344787597656 966.159240722656 958.979431152344 960.343017578125 967.393737792969 967.28662109375 965.778015136719 979.256774902344 985.998168945312 982.57421875 980.898803710938 994.34912109375 978.256652832031 973.890625 983.353088378906 979.791137695312 973.953491210938 968.93994140625 974.728149414062 986.874877929688 991.319580078125 984.198547363281 995.240234375 997.463806152344 996.499450683594 1001.28271484375 996.241149902344 1000.58673095703 1011.34967041016 1012.47344970703 1020.29357910156 1018.49481201172 1018.75317382812 1022.46478271484 1015.70513916016 1016.89691162109 1007.68383789062 1000.19805908203 998.962951660156 998.578308105469 996.306091308594 1002.55682373047 1003.88641357422 1010.64477539062 998.729858398438 1009.12890625 996.646484375 992.7275390625 995.908874511719 999.081176757812 1000.89489746094 995.714538574219 994.489807128906 997.286193847656 999.577758789062 998.326904296875 1002.80963134766 1006.06652832031 1005.88323974609 996.007629394531 1003.13140869141 1006.38677978516 1012.41668701172 1020.2041015625 1025.99304199219 1034.60925292969 1023.43963623047 1023.93389892578 1023.40393066406 1033.96691894531 1034.51257324219 1038.39123535156 1024.662109375 1028.62536621094 1031.05261230469 1030.5107421875 1032.63427734375 1037.17358398438 1039.51379394531 1037.81091308594 1027.6748046875 1030.09887695312 1037.7294921875 1036.54260253906 1038.52429199219 1034.86279296875 1040.23266601562 1033.44848632812 1024.80090332031 1031.26037597656 1035.42358398438 1027.56005859375 1031.62109375 1016.74450683594 1015.4619140625 1013.70098876953 1012.94091796875 1007.00439453125 1004.26483154297 1003.76434326172 995.39697265625 995.969787597656 987.548645019531 984.417724609375 970.269897460938 976.841369628906 981.492919921875 971.628601074219 972.377136230469 968.685913085938 965.819458007812 961.115173339844 964.534606933594 961.192932128906 962.315612792969 957.196166992188 949.349914550781 960.012939453125 961.16845703125 959.137023925781 953.573303222656
962.897277832031 967.267883300781 971.9228515625 965.959228515625 967.01806640625 954.22900390625 955.254638671875 943.72314453125 951.314636230469 960.608764648438 956.54833984375 963.604614257812 968.844360351562 972.026672363281 985.018615722656 984.034851074219 976.314331054688 971.750915527344 967.116394042969 970.670593261719 970.855895996094 974.682983398438 970.543395996094 969.536376953125 970.18603515625 966.441955566406 966.854125976562 966.587158203125 960.570068359375 952.683044433594 962.066101074219 962.478759765625 969.190734863281 969.454162597656 976.305603027344 976.830139160156 985.347534179688 985.408264160156 980.971374511719 983.066467285156 983.024291992188 979.91064453125 972.483825683594 984.527282714844 978.887023925781 972.926940917969 971.852478027344 980.099304199219 983.693542480469 982.217895507812 978.597961425781 982.04296875 990.357604980469 984.470825195312 988.031127929688 992.023498535156 997.097351074219 1005.93524169922 1009.08532714844 1015.07702636719 1021.90954589844 1016.88989257812 1023.14056396484 1021.95910644531 1020.44305419922 1013.90795898438 1012.30859375 1011.5419921875 998.320922851562 997.157836914062 1001.0302734375 1007.14624023438 1009.63433837891 1009.76293945312 1005.70367431641 1005.17895507812 995.981872558594 1003.23376464844 1000.14349365234 999.367980957031 1005.22155761719 993.164245605469 992.683410644531 997.782470703125 998.726135253906 999.956420898438 1000.94409179688 1002.88208007812 1001.34094238281 1007.39312744141 1009.43371582031 1010.06646728516 1019.97955322266 1027.11840820312 1027.31665039062 1036.01135253906 1028.49914550781 1027.95434570312 1029.51672363281 1043.42895507812 1034.45703125 1029.93090820312 1032.17614746094 1029.55895996094 1029.59594726562 1028.77453613281 1029.18139648438 1033.30541992188 1032.27526855469 1027.48193359375 1025.50207519531 1024.66479492188 1037.341796875 1035.85705566406 1020.95288085938 1026.62255859375 1033.38879394531 1032.28430175781 1032.58764648438 1031.39233398438 1031.36450195312 1032.19348144531 1016.83258056641 1013.17498779297 1017.93048095703 1013.97442626953 1006.23248291016 1003.498046875 1006.75787353516 991.928833007812 988.803955078125 977.031127929688 978.076904296875 964.192077636719 963.833923339844 971.709350585938 974.29052734375 967.753601074219 969.335388183594 964.323120117188 966.56787109375 967.243225097656 955.807800292969 955.435485839844 957.486877441406 952.096984863281 958.697692871094 963.55419921875 955.026794433594 952.912475585938
