NCOLS 150
NROWS 37
XLLCORNER 7394249
YLLCORNER 4843379
CELLSIZE 30
NODATA_VALUE -9999
976.42333984375 978.136108398438 983.4248046875 986.858154296875 985.409912109375 983.947692871094 978.585754394531 988.345153808594 988.03173828125 987.497924804688 969.750122070312 963.419921875 967.959045410156 971.181640625 973.251159667969 971.12744140625 973.992492675781 977.643981933594 970.275146484375 969.684326171875 966.481689453125 964.86767578125 976.126281738281 976.807250976562 990.332153320312 996.586669921875 998.184143066406 1010.17102050781 1015.38439941406 1025.28015136719 1020.77185058594 1026.30554199219 1021.90478515625 1019.34228515625 1007.86840820312 1012.65710449219 1018.27972412109 1027.45129394531 1030.52575683594 1040.7236328125 1046.767578125 1040.89306640625 1034.14489746094 1031.31372070312 1016.20416259766 1004.62548828125 1008.51013183594 1009.56976318359 1012.07183837891 1006.23187255859 996.254760742188 1001.83770751953 1000.91583251953 1006.16027832031 1008.48199462891 1003.69366455078 1011.97583007812 1022.86871337891 1022.46759033203 1028.6962890625 1019.75939941406 1029.63623046875 1026.20825195312 1030.39819335938 1025.18872070312 1028.16772460938 1020.193359375 1011.77581787109 1012.82305908203 1013.58361816406 1021.50909423828 1020.02606201172 1022.53082275391 1013.91046142578 1016.86120605469 1013.79431152344 1020.07409667969 1020.83795166016 1031.5654296875 1034.95556640625 1032.75915527344 1030.21008300781 1038.46057128906 1033.90893554688 1021.21813964844 1008.32073974609 1003.13812255859 1000.38537597656 984.492919921875 978.2470703125 970.698181152344 967.69970703125 970.1181640625 968.958251953125 977.947875976562 980.977600097656 990.605346679688 997.8125 993.580200195312 979.237915039062 992.322265625 993.99267578125 990.70068359375 990.744384765625 987.665588378906 981.226013183594 992.921752929688 979.829650878906 976.478271484375 975.987365722656 972.385620117188 965.374755859375 964.453979492188 947.042419433594 936.639038085938 928.143432617188 918.184936523438 927.971313476562 936.764526367188 955.512145996094 968.971984863281 978.012084960938 982.349243164062 997.519714355469 997.051574707031 1004.55108642578 1010.98474121094 1012.97491455078 1014.61517333984 1021.13684082031 1033.72290039062 1036.86608886719 1042.41223144531 1043.30419921875 1050.05993652344 1059.76940917969 1065.76611328125 1062.732421875 1069.296875 1085.72143554688 1088.66442871094 1093.33349609375 1094.35974121094 1098.7314453125 1106.86950683594 1109.3984375 1120.625 1114.35192871094 1114.04821777344 1104.7060546875
972.404357910156 973.128662109375 980.146118164062 976.893737792969 969.115661621094 971.22607421875 971.648498535156 978.108093261719 979.038208007812 977.388854980469 968.31201171875 958.720336914062 952.500366210938 955.538024902344 970.482727050781 978.087341308594 971.703430175781 964.749450683594 967.010925292969 960.649597167969 964.503479003906 974.978576660156 979.236145019531 985.212890625 989.599731445312 997.858215332031 1005.94763183594 1019.15325927734 1016.80328369141 1020.36218261719 1020.31085205078 1030.892578125 1026.78601074219 1012.72857666016 1013.15869140625 1014.44549560547 1021.95092773438 1041.50170898438 1028.48486328125 1041.86584472656 1046.72229003906 1044.58666992188 1038.7646484375 1029.16760253906 1023.37170410156 1014.66821289062 1013.00933837891 1014.49322509766 1011.37145996094 1012.95709228516 1002.49060058594 1006.13677978516 1008.0029296875 1007.31072998047 1011.3251953125 1008.30969238281 1012.52722167969 1016.40203857422 1016.51849365234 1015.74011230469 1011.79309082031 1019.81304931641 1020.28112792969 1021.58782958984 1022.71752929688 1024.10632324219 1025.87390136719 1023.09088134766 1030.05603027344 1019.33343505859 1022.67498779297 1017.94439697266 1018.62841796875 1022.39624023438 1019.02233886719 1011.93041992188 1016.85278320312 1011.43450927734 1031.484375 1027.64123535156 1035.58923339844 1024.76501464844 1026.95227050781 1027.470703125 1018.81030273438 1012.86279296875 998.677734375 998.444274902344 988.045349121094 981.380187988281 977.924011230469 975.31982421875 989.869995117188 972.611694335938 984.529174804688 997.211730957031 1003.22973632812 996.206848144531 994.971313476562 987.172241210938 991.755920410156 998.614135742188 1000.8408203125 992.633544921875 993.292175292969 995.672668457031 995.910339355469 982.881164550781 977.914001464844 968.655883789062 966.528198242188 964.666931152344 965.293518066406 951.779296875 934.247253417969 933.740478515625 931.231262207031 935.253234863281 938.152221679688 955.773681640625 964.059265136719 972.927673339844 992.95458984375 993.862060546875 1007.63830566406 1005.65716552734 1015.5830078125 1018.43438720703 1016.21197509766 1026.38928222656 1033.4365234375 1041.87182617188 1045.58276367188 1047.13452148438 1047.67163085938 1059.59436035156 1065.55810546875 1061.78491210938 1075.28430175781 1084.16162109375 1083.24243164062 1084.65551757812 1096.52978515625 1098.70227050781 1102.61181640625 1104.61743164062 1122.82067871094 1120.97766113281 1118.39465332031 1116.27685546875
966.210815429688 976.952331542969 977.87255859375 964.851684570312 961.027404785156 954.254760742188 960.62158203125 964.781188964844 957.680114746094 963.975952148438 959.674499511719 960.126281738281 951.238891601562 958.797546386719 958.75537109375 967.695007324219 972.505554199219 967.788757324219 965.375671386719 963.072875976562 955.131652832031 969.867309570312 970.678771972656 975.146301269531 987.636596679688 998.965515136719 1004.51696777344 1011.67919921875 1006.02307128906 1015.2451171875 1017.99871826172 1019.75610351562 1024.57983398438 1019.15393066406 1024.47521972656 1030.51708984375 1032.93627929688 1035.90661621094 1031.73608398438 1031.3291015625 1038.21203613281 1039.05517578125 1038.88342285156 1030.35974121094 1018.68054199219 1013.38092041016 1010.46197509766 1005.12780761719 1012.11657714844 1005.71105957031 1000.19097900391 998.8369140625 1014.37054443359 1010.06451416016 1004.66088867188 1001.46862792969 1001.68444824219 1009.20635986328 1007.44384765625 1011.08966064453 1012.14788818359 1014.39898681641 1017.72021484375 1017.77191162109 1022.97131347656 1021.22015380859 1026.318359375 1027.24645996094 1030.20092773438 1021.61401367188 1018.38134765625 1026.13354492188 1024.708984375 1021.06463623047 1014.8134765625 1010.78552246094 1016.61016845703 1011.60992431641 1012.50256347656 1013.03930664062 1024.24035644531 1026.02502441406 1029.39392089844 1020.71148681641 1010.31890869141 1016.16632080078 1006.29705810547 992.35546875 991.950134277344 986.179870605469 987.353210449219 991.716613769531 981.710632324219 987.51904296875 988.77587890625 995.39013671875 1004.15277099609 996.7529296875 1007.00433349609 994.029235839844 998.281677246094 999.589111328125 1000.9287109375 998.669860839844 997.600952148438 1001.20281982422 989.798461914062 989.334533691406 980.978210449219 969.406616210938 968.3857421875 973.429260253906 956.054260253906 946.738342285156 935.305419921875 942.821960449219 936.124145507812 921.857604980469 935.848876953125 951.689636230469 965.376892089844 977.67626953125 989.46533203125 999.017211914062 1013.29241943359 1017.0185546875 1018.30200195312 1023.67022705078 1025.71936035156 1029.62036132812 1029.69177246094 1040.73693847656 1049.96044921875 1051.35290527344 1058.72033691406 1064.86840820312 1064.55285644531 1069.3359375 1081.78393554688 1082.49584960938 1080.41125488281 1083.28210449219 1100.25341796875 1105.22155761719 1100.34741210938 1092.84387207031 1103.8232421875 1113.36010742188 1124.87048339844 1125.63293457031
955.66845703125 963.67138671875 971.227844238281 962.2607421875 956.255737304688 947.004150390625 948.943176269531 948.860290527344 958.552734375 955.992248535156 958.722045898438 959.388916015625 958.093017578125 959.585693359375 952.798461914062 958.420837402344 965.178771972656 969.769226074219 968.994201660156 964.0830078125 955.807495117188 967.122680664062 973.780090332031 978.026611328125 991.692504882812 1005.72100830078 1008.86645507812 1015.24163818359 1010.61987304688 1012.65008544922 1017.68896484375 1019.69293212891 1013.3388671875 1018.73101806641 1021.34844970703 1028.60278320312 1030.6142578125 1034.40747070312 1028.47888183594 1036.86987304688 1035.30981445312 1035.32885742188 1034.37292480469 1023.44421386719 1012.10040283203 1006.35229492188 1009.32110595703 1008.30792236328 1007.9990234375 1005.1015625 1005.68585205078 998.8505859375 1015.55285644531 1013.88458251953 1009.71716308594 1010.66387939453 1013.10992431641 1010.10363769531 1009.01330566406 1008.51568603516 1011.03741455078 1019.67224121094 1016.17199707031 1019.19793701172 1024.04406738281 1018.28625488281 1025.50671386719 1027.21813964844 1026.12280273438 1023.84753417969 1019.23889160156 1020.87969970703 1019.83502197266 1016.46575927734 1012.30920410156 1006.03240966797 1013.07147216797 1022.65728759766 1013.02783203125 1019.56622314453 1022.44604492188 1019.48120117188 1025.2392578125 1012.98974609375 1010.51959228516 1013.4990234375 997.69384765625 1003.66497802734 1000.94647216797 997.232482910156 1003.53961181641 1002.83416748047 999.684387207031 992.331726074219 999.24951171875 1012.15667724609 1008.59649658203 1008.02716064453 1013.16741943359 1004.47668457031 1000.2275390625 998.800170898438 1010.70434570312 998.816589355469 1000.42510986328 995.418212890625 990.359436035156 983.399353027344 975.8857421875 966.610595703125 965.283142089844 965.839477539062 960.607055664062 940.59423828125 945.165344238281 941.8359375 931.38232421875 931.420227050781 940.937866210938 951.660095214844 966.2744140625 977.610229492188 994.450378417969 1007.17315673828 1013.76568603516 1027.41662597656 1026.2841796875 1029.4345703125 1030.40124511719 1029.75561523438 1031.15832519531 1039.09826660156 1049.15283203125 1065.65051269531 1070.41101074219 1067.43896484375 1063.52136230469 1068.28759765625 1078.69384765625 1075.28894042969 1084.25964355469 1094.20007324219 1102.21008300781 1095.48937988281 1092.46252441406 1094.59643554688 1103.32653808594 1101.45178222656 1111.57861328125 1117.38305664062
953.073303222656 950.069030761719 956.342163085938 952.381530761719 947.063537597656 947.788635253906 945.434448242188 942.933898925781 951.821655273438 952.234008789062 949.345092773438 949.387084960938 959.371215820312 957.61572265625 954.267639160156 958.818054199219 972.555541992188 964.19677734375 963.007385253906 972.725036621094 963.145141601562 965.877014160156 974.043151855469 977.990112304688 991.336791992188 999.016967773438 1002.58502197266 1001.41333007812 1009.45330810547 1011.27252197266 1012.89526367188 1011.91088867188 1009.88861083984 1016.38806152344 1023.36474609375 1025.18566894531 1028.07116699219 1020.99688720703 1026.69189453125 1026.58666992188 1032.62145996094 1039.31188964844 1033.05139160156 1026.91760253906 1015.59069824219 998.613403320312 1006.17614746094 1006.52807617188 1015.54650878906 1004.27520751953 1001.62561035156 1005.69317626953 1017.18133544922 1024.60986328125 1021.66442871094 1019.94921875 1018.46850585938 1011.91265869141 1011.15509033203 1012.15380859375 1017.37554931641 1015.20404052734 1014.54089355469 1019.62017822266 1027.81506347656 1025.00170898438 1033.47265625 1028.51928710938 1020.74536132812 1023.68969726562 1022.73956298828 1018.07122802734 1022.44396972656 1014.23895263672 1007.51788330078 1009.53466796875 1013.20013427734 1011.80798339844 1016.06469726562 1013.1884765625 1027.03161621094 1018.93499755859 1013.81573486328 1012.74157714844 1012.29638671875 1005.84918212891 1002.09716796875 1003.30426025391 1000.74133300781 1008.04766845703 1011.15985107422 1015.99322509766 1013.30847167969 1009.95568847656 1016.08355712891 1018.43243408203 1011.60882568359 1011.50164794922 1020.05718994141 1007.39007568359 1004.63299560547 1012.63348388672 996.275939941406 1002.7626953125 995.357421875 996.2822265625 989.156188964844 980.28564453125 981.254272460938 976.486999511719 972.342041015625 959.844909667969 950.322570800781 953.200622558594 943.169616699219 942.866149902344 939.93505859375 940.062133789062 953.454711914062 959.884033203125 976.340942382812 985.408203125 1005.93731689453 1011.51251220703 1011.60772705078 1021.32165527344 1026.2158203125 1034.11413574219 1034.56469726562 1033.20703125 1032.85095214844 1041.24584960938 1046.94653320312 1050.52551269531 1055.46459960938 1061.16418457031 1064.04956054688 1068.16528320312 1071.9599609375 1071.99841308594 1084.73083496094 1087.98986816406 1093.30151367188 1090.58276367188 1088.37963867188 1089.69079589844 1085.56726074219 1094.07556152344 1096.50927734375 1101.29235839844
957.431945800781 947.084899902344 944.336364746094 945.42626953125 944.185241699219 946.571716308594 943.72314453125 938.589599609375 952.34765625 947.549194335938 943.5791015625 951.842834472656 960.223999023438 957.208312988281 957.655090332031 953.69970703125 963.466369628906 963.340270996094 957.893676757812 971.730529785156 965.684020996094 967.532592773438 975.133850097656 977.241577148438 989.814331054688 990.653930664062 994.445739746094 1004.71441650391 1009.83386230469 997.184265136719 997.208618164062 996.059814453125 1006.70874023438 1003.86157226562 1015.15472412109 1018.72204589844 1025.15246582031 1016.50207519531 1016.62750244141 1019.21215820312 1034.0947265625 1034.22631835938 1030.95947265625 1027.9990234375 1018.49182128906 1011.20495605469 1006.33990478516 1006.01171875 1010.63452148438 1013.28411865234 1002.92315673828 1003.30322265625 1018.90277099609 1021.72521972656 1013.21429443359 1014.38073730469 1025.00598144531 1016.51037597656 1005.27380371094 1013.32037353516 1008.28515625 1002.64398193359 1005.89025878906 1015.27386474609 1024.38232421875 1025.66552734375 1032.49194335938 1032.49719238281 1010.85461425781 1021.5244140625 1023.36877441406 1024.04431152344 1026.57373046875 1016.63073730469 1012.05749511719 1012.83221435547 1012.931640625 1011.93981933594 1013.71813964844 1010.56018066406 1016.15655517578 1020.43023681641 1009.98944091797 1012.52514648438 1011.27209472656 1010.47198486328 998.511474609375 1006.38330078125 994.606384277344 1000.58032226562 1009.85260009766 1015.44464111328 1015.64398193359 1018.69519042969 1028.30981445312 1023.84637451172 1023.78594970703 1020.44262695312 1014.51818847656 1013.96112060547 1011.86962890625 1011.71380615234 1005.15655517578 1001.76617431641 998.424865722656 995.033508300781 994.726806640625 981.601989746094 982.886352539062 976.298095703125 968.311218261719 955.009582519531 955.705200195312 950.134094238281 942.575744628906 935.124084472656 939.708129882812 945.273498535156 957.165283203125 968.432189941406 983.615051269531 993.292114257812 1006.86712646484 1010.32086181641 1015.01495361328 1024.15673828125 1030.44396972656 1041.01428222656 1041.34655761719 1037.80908203125 1038.59130859375 1047.34289550781 1048.05407714844 1056.6552734375 1047.54711914062 1050.62463378906 1058.68359375 1066.15222167969 1063.42541503906 1072.74914550781 1075.16674804688 1081.30871582031 1084.25158691406 1087.56396484375 1082.93762207031 1080.81921386719 1086.9140625 1086.41052246094 1089.64465332031 1099.64697265625
947.553466796875 948.179626464844 940.375366210938 946.441955566406 948.181030273438 945.285339355469 943.679748535156 943.723266601562 951.1416015625 947.504516601562 942.278747558594 946.422607421875 949.902221679688 948.966003417969 951.079223632812 959.329467773438 968.793579101562 963.807983398438 963.617614746094 973.552124023438 971.618347167969 976.775695800781 982.7802734375 993.761535644531 989.700561523438 995.794555664062 996.151916503906 999.85693359375 998.392028808594 990.960083007812 990.652221679688 992.853088378906 1003.38269042969 1005.52136230469 1014.37335205078 1014.90185546875 1012.23217773438 1006.15533447266 1013.3388671875 1027.57104492188 1028.63940429688 1024.94763183594 1031.80969238281 1028.31457519531 1023.33197021484 1015.59661865234 1015.13763427734 1006.05218505859 1009.05975341797 997.674499511719 1004.09484863281 1009.68627929688 1011.39074707031 1011.81878662109 1003.01580810547 1015.65393066406 1017.51831054688 1010.66534423828 1010.37432861328 1020.97119140625 1013.51684570312 1012.51361083984 1007.74194335938 1021.34722900391 1020.27117919922 1023.49468994141 1022.64019775391 1027.26489257812 1023.28851318359 1018.85302734375 1014.70416259766 1017.98785400391 1013.71337890625 1004.87145996094 1010.33795166016 1007.22100830078 1005.23834228516 1005.96826171875 1008.609375 1017.37835693359 1013.51910400391 1020.59698486328 1011.69195556641 1017.32525634766 1015.91424560547 1010.84753417969 1007.63073730469 1010.20379638672 1007.33056640625 1007.84777832031 1006.02734375 1014.12658691406 1016.41644287109 1015.36456298828 1023.92864990234 1019.05102539062 1019.98370361328 1020.73986816406 1028.62707519531 1023.79272460938 1018.38018798828 1014.38598632812 1012.55834960938 1001.86413574219 1000.55609130859 998.658874511719 995.955139160156 990.607666015625 982.7373046875 974.842712402344 971.328186035156 960.564880371094 951.61279296875 949.529296875 939.826171875 937.277648925781 951.530639648438 965.926635742188 972.123291015625 972.223754882812 994.029052734375 996.9443359375 1022.29986572266 1018.42401123047 1023.73492431641 1029.23828125 1029.42578125 1037.17907714844 1033.97497558594 1032.63732910156 1043.90808105469 1048.35046386719 1050.22338867188 1045.36950683594 1044.01672363281 1046.62585449219 1047.02612304688 1058.67956542969 1061.79077148438 1061.59521484375 1069.60876464844 1077.52722167969 1070.95703125 1070.35791015625 1076.52197265625 1071.77172851562 1072.3115234375 1092.45251464844 1094.25183105469 1091.65905761719
952.015747070312 943.458129882812 948.044982910156 943.732421875 951.106689453125 958.369445800781 951.195251464844 952.088684082031 948.612915039062 954.099487304688 947.015686035156 947.538757324219 944.128173828125 944.303955078125 954.494262695312 958.026489257812 965.281005859375 972.899719238281 969.860595703125 973.072570800781 973.511840820312 987.692810058594 987.870483398438 986.110229492188 989.818664550781 992.923767089844 998.000122070312 992.256408691406 993.698791503906 995.00927734375 993.353881835938 994.666442871094 1000.40411376953 1005.98675537109 1010.95367431641 1010.25 1004.662109375 1018.94189453125 1019.59301757812 1025.40551757812 1034.50256347656 1023.39868164062 1021.88055419922 1030.40637207031 1026.16040039062 1014.03204345703 1010.25048828125 1011.90417480469 992.586975097656 991.769165039062 1002.78796386719 1008.1484375 1005.70642089844 1000.34680175781 998.4755859375 1008.91784667969 1009.24468994141 1014.26428222656 1009.10974121094 1016.50085449219 1021.85095214844 1006.72076416016 1015.328125 1017.87591552734 1019.90875244141 1021.46173095703 1022.49066162109 1017.2333984375 1021.93743896484 1020.91955566406 1012.05236816406 1010.66479492188 1008.52520751953 1004.35247802734 995.639770507812 1002.38458251953 992.549194335938 1004.77276611328 1006.51226806641 1009.05267333984 1001.68591308594 1011.0908203125 1012.36297607422 1005.28216552734 1004.40698242188 1009.04626464844 1004.31713867188 1013.45220947266 1017.08392333984 1016.30200195312 1026.61511230469 1020.72991943359 1022.59008789062 1019.53558349609 1025.75012207031 1026.85485839844 1021.24212646484 1028.61181640625 1039.95874023438 1028.2333984375 1021.2333984375 1015.51428222656 1005.27728271484 1011.72436523438 1009.40185546875 1011.60455322266 1008.73992919922 993.339660644531 987.128784179688 971.296508789062 966.154479980469 954.102905273438 956.0810546875 948.26171875 947.260070800781 940.906616210938 948.736694335938 960.311340332031 970.210998535156 981.591857910156 1000.93536376953 1012.6552734375 1022.8447265625 1026.60131835938 1023.49328613281 1027.40515136719 1028.99926757812 1034.7353515625 1032.3291015625 1037.5390625 1045.20202636719 1046.1240234375 1043.22082519531 1046.39416503906 1054.68811035156 1050.52233886719 1054.5224609375 1065.51062011719 1064.36096191406 1064.48364257812 1063.01647949219 1064.61877441406 1076.09069824219 1075.81188964844 1078.95849609375 1069.06066894531 1074.02697753906 1088.82470703125 1087.92150878906 1099.47351074219
954.665832519531 942.605773925781 948.404357910156 951.982666015625 959.909790039062 957.319030761719 957.50927734375 956.013244628906 950.648681640625 952.147399902344 955.620544433594 961.880676269531 953.357421875 950.697021484375 959.156494140625 960.725280761719 961.442443847656 971.935180664062 963.704833984375 976.473937988281 977.523681640625 983.098693847656 987.460632324219 984.383666992188 987.690185546875 990.171142578125 992.419860839844 991.144226074219 989.379760742188 992.350158691406 997.652282714844 995.233581542969 1004.65087890625 1000.33795166016 1008.23876953125 1011.37408447266 1017.71197509766 1025.3818359375 1017.21990966797 1020.59893798828 1031.53845214844 1025.39721679688 1024.08349609375 1022.96044921875 1021.52532958984 1014.57965087891 1005.16741943359 1004.27734375 998.470458984375 993.529113769531 988.369140625 987.396606445312 993.258117675781 987.555297851562 1003.185546875 1003.33605957031 996.411560058594 996.915832519531 1008.65209960938 1011.70678710938 1013.27124023438 1014.28833007812 1015.10498046875 1019.68383789062 1017.59844970703 1021.21331787109 1014.60949707031 1013.04968261719 1006.67926025391 1012.40155029297 1016.55279541016 1017.56512451172 1011.33520507812 997.531616210938 997.127197265625 996.192565917969 990.558410644531 1004.06756591797 1008.10137939453 1006.21545410156 994.098205566406 995.936157226562 1008.66302490234 998.806518554688 995.532104492188 1011.42388916016 1005.07897949219 1015.43249511719 1013.16534423828 1018.98193359375 1022.65594482422 1032.89624023438 1030.63159179688 1013.43048095703 1023.23931884766 1028.61267089844 1027.7724609375 1030.61242675781 1036.79870605469 1036.46691894531 1021.05218505859 1012.41595458984 1007.33575439453 1010.05938720703 1015.07971191406 1009.35943603516 1005.22845458984 1001.50891113281 980.463806152344 967.039489746094 962.20556640625 961.318481445312 956.217712402344 944.377502441406 947.334716796875 941.395446777344 950.762817382812 961.105651855469 970.850036621094 986.71923828125 999.736083984375 1016.8515625 1019.48199462891 1022.90173339844 1031.27429199219 1022.94500732422 1027.39221191406 1025.74145507812 1030.2666015625 1036.58911132812 1045.57641601562 1045.38842773438 1045.45959472656 1036.89733886719 1040.43481445312 1052.89990234375 1052.29626464844 1062.41088867188 1064.49243164062 1055.26574707031 1065.83422851562 1066.70825195312 1066.40222167969 1073.02465820312 1077.44604492188 1083.27685546875 1083.55615234375 1084.15966796875 1095.07958984375 1098.23449707031
952.139587402344 948.572326660156 953.316772460938 957.893188476562 957.851806640625 966.320190429688 956.635620117188 955.603698730469 965.314331054688 959.48681640625 957.54541015625 961.559448242188 964.039978027344 970.958862304688 970.362060546875 964.104858398438 968.763061523438 976.435546875 974.061767578125 976.319091796875 983.021545410156 978.450134277344 979.691772460938 981.059753417969 974.60888671875 980.796264648438 983.125610351562 988.216430664062 996.544067382812 995.701843261719 996.526000976562 994.88427734375 999.678649902344 1000.81689453125 1009.87536621094 1015.89044189453 1022.40740966797 1014.95568847656 1016.57122802734 1016.73291015625 1019.23913574219 1025.82495117188 1024.3564453125 1016.08630371094 1010.68682861328 1001.85717773438 1002.32574462891 996.706298828125 994.518371582031 991.814575195312 982.314208984375 975.0849609375 983.718505859375 984.598205566406 986.734558105469 986.222534179688 989.05126953125 993.492797851562 994.532043457031 999.241333007812 1004.39245605469 1007.50177001953 1017.95989990234 1013.25756835938 1012.01788330078 1013.41394042969 1010.94189453125 1005.81329345703 1010.05432128906 1012.81396484375 1011.71459960938 1005.30615234375 1001.09661865234 994.972595214844 996.268615722656 999.833312988281 996.708374023438 994.904907226562 997.730712890625 999.292724609375 994.754333496094 986.979370117188 991.357360839844 998.723876953125 997.700622558594 1002.04217529297 1006.26635742188 1011.31701660156 1014.9755859375 1016.95355224609 1025.72485351562 1028.09411621094 1029.47229003906 1020.74053955078 1018.45123291016 1025.02453613281 1025.25122070312 1033.57434082031 1032.46875 1032.74279785156 1020.88537597656 1011.67614746094 1005.95300292969 1005.18408203125 1014.65771484375 1001.80834960938 1000.88439941406 995.511596679688 972.193786621094 960.779541015625 955.589721679688 957.184753417969 952.559997558594 948.895202636719 940.455200195312 944.0458984375 950.482788085938 961.811340332031 968.899963378906 988.9072265625 1003.1064453125 1014.40899658203 1018.97564697266 1034.04919433594 1034.00061035156 1021.36553955078 1024.31750488281 1029.19360351562 1032.22143554688 1040.99914550781 1044.81750488281 1038.5966796875 1047.13122558594 1042.67297363281 1051.02954101562 1052.20324707031 1057.52978515625 1054.50146484375 1057.49304199219 1061.42358398438 1066.44799804688 1069.55358886719 1072.96606445312 1079.08215332031 1075.25708007812 1084.78369140625 1077.63452148438 1087.57934570312 1092.52233886719 1100.43310546875
945.728393554688 952.137268066406 959.978515625 958.242858886719 954.689880371094 956.724853515625 961.783569335938 961.463256835938 957.091918945312 964.531433105469 966.684143066406 978.465270996094 966.385314941406 971.153503417969 974.439025878906 973.425476074219 965.591125488281 970.9033203125 969.094909667969 979.642150878906 982.011474609375 982.083557128906 989.631591796875 982.6875 977.213562011719 986.129638671875 985.682739257812 987.469848632812 989.581298828125 991.828735351562 995.318603515625 994.773620605469 997.883666992188 992.169982910156 1011.08752441406 1015.35095214844 1020.45190429688 1015.91809082031 1008.88488769531 1008.1015625 1004.83325195312 1008.95855712891 1010.36907958984 1009.77990722656 1001.57586669922 994.308654785156 1000.83459472656 989.880004882812 998.762817382812 991.432250976562 993.188049316406 977.321533203125 985.215698242188 985.656494140625 985.669982910156 993.62353515625 997.383728027344 993.996948242188 998.397155761719 1005.19360351562 996.610778808594 999.410583496094 1007.59295654297 1014.31860351562 1002.72619628906 1002.37915039062 1001.50366210938 1006.89807128906 1012.96887207031 1006.17901611328 1005.14556884766 1005.31176757812 1000.55413818359 1002.28649902344 1000.6201171875 994.175048828125 1002.78118896484 1002.37017822266 995.425537109375 993.832092285156 988.141052246094 989.896667480469 993.403076171875 996.361022949219 1004.64935302734 1006.39642333984 1007.69622802734 1005.37634277344 1019.38250732422 1027.50305175781 1030.87158203125 1025.93286132812 1021.70727539062 1016.19836425781 1019.56597900391 1026.69470214844 1022.47485351562 1025.236328125 1029.71911621094 1037.54382324219 1036.01940917969 1013.88513183594 1013.302734375 1003.89208984375 1006.28070068359 1000.53814697266 997.426086425781 991.368896484375 979.279418945312 968.809387207031 959.381774902344 954.795532226562 955.568725585938 952.165771484375 947.939086914062 946.358154296875 949.795471191406 959.523681640625 963.720397949219 984.38623046875 996.955078125 1017.3017578125 1024.07373046875 1024.72680664062 1020.732421875 1024.52502441406 1019.36364746094 1023.08312988281 1029.59875488281 1042.96813964844 1039.86047363281 1038.13366699219 1038.59729003906 1050.76843261719 1055.22058105469 1052.86547851562 1054.19750976562 1049.09350585938 1050.34387207031 1057.57934570312 1058.44348144531 1071.43176269531 1075.47204589844 1077.77746582031 1085.08471679688 1076.21826171875 1085.83850097656 1085.69982910156 1093.06799316406 1093.33654785156
955.02392578125 961.025756835938 959.26904296875 951.945495605469 953.751831054688 955.376281738281 964.442504882812 955.388732910156 968.095764160156 962.409851074219 965.068054199219 980.770812988281 969.167114257812 972.123229980469 974.434814453125 973.932556152344 972.628845214844 976.234924316406 978.048278808594 982.228393554688 978.468444824219 982.90283203125 989.252746582031 995.190551757812 996.280700683594 991.778259277344 991.398010253906 988.991516113281 989.959350585938 980.841064453125 989.346496582031 982.624755859375 992.967102050781 990.6376953125 1003.99890136719 1015.80377197266 1008.70953369141 1013.18798828125 1007.66375732422 1005.57568359375 1001.9658203125 1004.35430908203 1002.38452148438 1004.36303710938 1001.92260742188 995.740539550781 990.813049316406 990.212036132812 986.358093261719 991.803527832031 991.0595703125 988.436462402344 987.441589355469 988.587707519531 995.452880859375 991.592102050781 992.022033691406 992.388732910156 996.422790527344 1003.08831787109 998.746276855469 1005.03881835938 1003.31774902344 1001.1328125 998.784240722656 1000.27911376953 994.76806640625 1000.16101074219 1010.74822998047 1002.07641601562 999.979614257812 992.398498535156 1003.79565429688 999.431091308594 999.294738769531 995.840087890625 995.512268066406 1003.66595458984 999.301513671875 988.717529296875 990.178161621094 988.475646972656 1000.67425537109 997.742919921875 1001.15612792969 1009.52996826172 1005.72845458984 1012.50396728516 1023.54315185547 1025.87255859375 1025.24829101562 1033.99621582031 1019.82275390625 1010.79425048828 1012.18872070312 1021.42553710938 1026.17224121094 1022.31976318359 1029.57751464844 1030.11779785156 1030.81884765625 1021.48406982422 1012.56433105469 1003.92150878906 1007.26525878906 1002.20977783203 991.820007324219 994.128112792969 973.104187011719 963.949096679688 963.0703125 955.573486328125 954.271301269531 956.721923828125 957.041564941406 947.316955566406 955.635620117188 960.621704101562 973.502197265625 982.297180175781 992.287536621094 1002.86657714844 1009.03582763672 1017.10565185547 1028.14428710938 1024.81298828125 1036.38012695312 1025.68542480469 1035.48937988281 1038.83764648438 1043.93078613281 1036.89233398438 1039.11901855469 1048.60424804688 1049.07580566406 1050.63793945312 1047.03649902344 1057.38134765625 1055.17565917969 1058.89050292969 1057.62829589844 1067.19165039062 1079.03259277344 1085.73168945312 1091.06677246094 1086.31469726562 1094.12890625 1091.92541503906 1088.12512207031 1095.29553222656
960.486083984375 961.448852539062 961.129638671875 957.148010253906 957.735168457031 958.906066894531 956.698913574219 956.776977539062 963.1455078125 969.745544433594 968.492980957031 964.494079589844 971.501953125 969.121704101562 971.471496582031 971.443359375 976.1357421875 979.920104980469 970.015808105469 973.505859375 977.76953125 990.132446289062 994.319885253906 994.520568847656 991.785827636719 989.51123046875 992.134704589844 984.646789550781 979.86181640625 985.090209960938 984.467041015625 985.557067871094 984.031066894531 988.62451171875 1002.11663818359 1002.48645019531 999.131103515625 1004.11407470703 998.570007324219 1000.30322265625 998.576782226562 991.798156738281 993.714782714844 996.645080566406 986.755432128906 987.269165039062 992.105041503906 986.709655761719 986.012023925781 984.737365722656 985.428039550781 992.900390625 982.601684570312 979.435485839844 987.270080566406 989.4833984375 998.45556640625 989.774291992188 995.808166503906 995.793395996094 999.372009277344 1003.01916503906 1004.99346923828 991.7861328125 997.356811523438 1007.48724365234 993.120666503906 997.071411132812 995.935668945312 1002.02966308594 999.289367675781 997.405090332031 996.867492675781 1000.87518310547 1000.79632568359 994.344116210938 993.653930664062 994.781188964844 980.45751953125 992.083068847656 995.423278808594 987.12939453125 994.256164550781 990.635620117188 992.759704589844 1000.48565673828 996.6298828125 1006.55548095703 1021.16772460938 1026.69226074219 1030.41015625 1028.93432617188 1021.31170654297 1014.76092529297 1017.81604003906 1025.27307128906 1031.12426757812 1028.71789550781 1022.37670898438 1028.4130859375 1025.79431152344 1026.26257324219 1020.12744140625 1010.75537109375 1009.19903564453 1006.25457763672 996.51025390625 985.380004882812 980.113098144531 981.503112792969 965.69580078125 955.264831542969 948.973327636719 944.410278320312 942.025146484375 948.590637207031 955.015930175781 967.789306640625 971.389343261719 972.511047363281 980.905212402344 996.730773925781 1008.09460449219 1007.91748046875 1025.49328613281 1031.74938964844 1038.060546875 1029.52136230469 1027.1796875 1030.75219726562 1031.71545410156 1038.57153320312 1035.28735351562 1043.439453125 1043.84167480469 1045.51196289062 1045.52062988281 1054.50744628906 1061.38977050781 1056.67822265625 1056.84765625 1069.05480957031 1084.84033203125 1080.5771484375 1088.69580078125 1089.42260742188 1099.51892089844 1097.21435546875 1097.09118652344 1102.15844726562
962.850341796875 955.412353515625 962.824523925781 965.252685546875 970.677368164062 962.505920410156 958.035034179688 960.562255859375 967.281311035156 970.620056152344 977.825622558594 976.146240234375 969.892517089844 970.864379882812 974.90625 973.024047851562 970.75830078125 983.597229003906 976.737976074219 977.181640625 990.233093261719 988.881042480469 986.724548339844 987.844970703125 986.787963867188 982.200744628906 980.85791015625 982.717590332031 982.297424316406 990.487609863281 987.928527832031 983.395629882812 987.16552734375 993.224853515625 992.338623046875 994.969787597656 994.345397949219 1001.72534179688 999.358642578125 991.799194335938 993.542114257812 985.336242675781 991.48876953125 990.926208496094 987.54833984375 973.865417480469 981.425659179688 983.91748046875 983.364685058594 986.378723144531 988.753601074219 988.472473144531 983.3408203125 988.080810546875 979.670837402344 984.198547363281 992.977478027344 994.788330078125 993.90869140625 997.529052734375 992.948181152344 995.064270019531 1002.49377441406 995.198913574219 996.567749023438 1000.63391113281 992.991943359375 994.369934082031 999.239074707031 1002.94549560547 994.982666015625 992.063110351562 988.324157714844 992.216552734375 994.239440917969 992.782958984375 991.814636230469 988.708557128906 987.52685546875 985.688110351562 989.084777832031 988.630004882812 991.046569824219 994.59521484375 992.834289550781 991.810791015625 1001.29895019531 1012.55816650391 1019.97534179688 1024.67626953125 1031.08874511719 1025.66174316406 1027.40185546875 1022.74945068359 1025.92358398438 1028.27026367188 1026.89404296875 1018.44891357422 1015.80871582031 1022.59344482422 1014.03070068359 1020.69842529297 1016.95782470703 1018.26257324219 1010.14117431641 1010.556640625 996.076721191406 986.227661132812 977.371459960938 973.239196777344 970.127075195312 959.441040039062 945.378540039062 945.266784667969 938.359741210938 939.863647460938 960.051635742188 966.875 961.933471679688 974.655883789062 980.373291015625 984.981750488281 996.032348632812 1004.71020507812 1015.06988525391 1022.23541259766 1027.787109375 1027.49682617188 1023.69934082031 1025.25720214844 1035.64672851562 1037.63977050781 1034.95446777344 1037.5029296875 1035.12963867188 1037.24658203125 1043.64660644531 1054.33288574219 1059.18176269531 1054.16857910156 1055.55908203125 1076.69909667969 1085.18298339844 1084.20520019531 1083.05407714844 1085.41479492188 1097.12353515625 1096.06921386719 1090.87866210938 1103.32434082031
957.976745605469 961.263549804688 965.126770019531 968.766967773438 965.331909179688 968.072875976562 969.253723144531 970.308471679688 972.51904296875 978.289489746094 975.304565429688 976.575622558594 978.569519042969 970.865539550781 972.254455566406 975.243408203125 980.006469726562 979.185607910156 986.050720214844 980.982543945312 977.884643554688 979.328186035156 984.620727539062 985.832763671875 985.912170410156 989.215637207031 973.237915039062 989.544128417969 992.094360351562 989.24169921875 986.65283203125 979.198669433594 977.543212890625 979.684692382812 986.176330566406 988.950927734375 981.27685546875 994.391052246094 986.591003417969 983.255676269531 991.570556640625 984.4423828125 991.486267089844 996.174743652344 995.52001953125 979.285583496094 984.746520996094 986.317993164062 983.101196289062 987.602478027344 979.98388671875 981.532409667969 979.463073730469 973.610046386719 972.368347167969 975.505676269531 985.238342285156 988.35546875 988.392761230469 984.646484375 979.660095214844 990.335632324219 995.769592285156 995.590393066406 997.251098632812 1000.09429931641 992.748352050781 994.754211425781 999.351379394531 996.234252929688 993.040649414062 985.884216308594 985.149047851562 987.904479980469 991.860107421875 989.464782714844 989.738037109375 997.090393066406 988.773620605469 986.075805664062 979.601318359375 988.562805175781 987.555480957031 1000.40582275391 995.420104980469 1005.10632324219 1005.40148925781 1014.45056152344 1015.54254150391 1013.55834960938 1019.46032714844 1022.46838378906 1012.99194335938 1018.21563720703 1011.78308105469 1014.3671875 1021.85894775391 1012.06402587891 1002.74768066406 1016.01116943359 1017.21453857422 1012.68811035156 1012.69683837891 1013.36871337891 1009.47772216797 1005.12017822266 991.466857910156 983.928344726562 979.979797363281 973.883911132812 966.73974609375 957.997009277344 955.197204589844 948.226379394531 953.776123046875 950.067993164062 962.067077636719 969.794311523438 976.896118164062 969.941040039062 977.46923828125 987.255126953125 988.176086425781 1001.25152587891 1010.91186523438 1022.66217041016 1023.27795410156 1025.07177734375 1020.47186279297 1038.36889648438 1034.8359375 1032.12072753906 1034.73754882812 1038.08642578125 1037.16430664062 1027.71936035156 1039.27319335938 1034.63635253906 1049.5224609375 1059.13391113281 1061.09313964844 1076.86950683594 1082.98193359375 1074.85510253906 1081.45227050781 1090.17309570312 1098.75061035156 1090.30993652344 1091.26708984375 1095.33227539062
965.2021484375 962.973571777344 964.73388671875 960.967407226562 955.752990722656 960.375610351562 963.975341796875 971.596557617188 972.602294921875 975.974792480469 979.445983886719 977.749877929688 978.08056640625 966.9814453125 968.601013183594 975.419555664062 978.256652832031 975.488891601562 973.632995605469 981.945556640625 975.612976074219 977.608154296875 984.04052734375 988.199768066406 984.233154296875 983.534362792969 982.316772460938 986.217346191406 982.850708007812 989.457092285156 986.732604980469 981.644897460938 979.524047851562 979.229431152344 986.143920898438 983.274047851562 983.85791015625 984.994750976562 978.116760253906 980.53955078125 990.383178710938 992.642211914062 992.548767089844 991.202941894531 988.493041992188 984.812927246094 985.887756347656 979.150817871094 974.981262207031 973.640319824219 980.406555175781 981.433837890625 978.653625488281 975.324829101562 972.900695800781 973.193359375 976.20947265625 981.914001464844 981.851013183594 984.51171875 981.9169921875 983.348327636719 985.929016113281 993.288452148438 998.789001464844 1001.23419189453 993.242553710938 992.148986816406 994.522521972656 991.48388671875 989.880676269531 989.828063964844 981.068298339844 980.061584472656 992.591186523438 989.506286621094 994.369262695312 986.515258789062 989.835083007812 985.339416503906 990.283874511719 991.031311035156 992.76513671875 996.4599609375 1004.58953857422 1001.228515625 1010.52874755859 1001.38897705078 1008.40747070312 1010.39526367188 1015.09906005859 1021.93890380859 1018.07897949219 1020.22161865234 1015.74877929688 1013.54400634766 1012.75030517578 1006.31335449219 1004.83044433594 1004.12280273438 1007.97430419922 1009.96405029297 1016.53802490234 1012.98590087891 1006.14416503906 1001.78387451172 994.034545898438 988.013366699219 984.62939453125 979.378967285156 971.06982421875 972.017700195312 961.91357421875 957.661010742188 951.632690429688 955.471130371094 962.008850097656 966.16015625 967.050964355469 975.908142089844 981.569946289062 982.217529296875 984.805908203125 1000.21820068359 1009.56439208984 1018.82135009766 1018.59710693359 1008.5859375 1023.15997314453 1027.35827636719 1022.49389648438 1016.96740722656 1023.83807373047 1028.46435546875 1034.94921875 1031.70202636719 1022.30072021484 1028.35314941406 1043.169921875 1053.64501953125 1065.89050292969 1077.76770019531 1070.06127929688 1072.1318359375 1081.06640625 1095.86010742188 1092.93969726562 1090.08740234375 1089.39770507812 1087.48510742188
961.124816894531 964.463439941406 954.864562988281 955.787719726562 956.595886230469 966.473571777344 976.858642578125 970.337768554688 971.779968261719 970.391967773438 976.106689453125 982.70263671875 973.18896484375 970.425659179688 972.877014160156 967.040466308594 974.961547851562 970.257934570312 973.486389160156 973.129089355469 982.690734863281 979.332946777344 977.689270019531 972.417785644531 972.597534179688 980.675598144531 984.921142578125 988.058776855469 979.963806152344 988.66796875 980.255004882812 989.52392578125 984.857666015625 985.358215332031 983.245910644531 975.923889160156 981.941345214844 972.848388671875 972.326110839844 975.584289550781 984.047912597656 981.286987304688 995.733154296875 997.489685058594 988.648010253906 981.475769042969 975.005249023438 975.364807128906 967.817016601562 976.534301757812 975.680786132812 972.133911132812 967.378540039062 971.49072265625 967.990600585938 966.938293457031 968.539794921875 976.317626953125 977.897583007812 979.177185058594 981.998352050781 981.73779296875 988.221008300781 990.182556152344 1005.05590820312 987.312744140625 984.103332519531 975.48291015625 981.859130859375 976.916870117188 977.405456542969 982.619934082031 977.126281738281 983.932373046875 986.872192382812 995.623291015625 994.781127929688 988.933715820312 985.689880371094 984.102294921875 990.44482421875 1002.93103027344 1005.02203369141 1003.71398925781 1003.39239501953 1011.30395507812 1009.77740478516 998.962219238281 997.152404785156 1016.05407714844 1016.81469726562 1019.73059082031 1024.87182617188 1023.87390136719 1020.31884765625 1015.23449707031 1001.88781738281 1006.54608154297 1005.85314941406 1001.29663085938 1007.44329833984 1016.81353759766 1021.49291992188 1012.71832275391 1004.19091796875 1001.06158447266 1004.32232666016 993.541381835938 991.191467285156 986.059631347656 984.61474609375 976.33984375 974.306884765625 966.600402832031 963.337219238281 962.237731933594 964.577453613281 969.273010253906 966.643798828125 976.615173339844 978.699951171875 990.398498535156 985.91259765625 1003.20050048828 1007.64978027344 1014.67028808594 1009.10003662109 1011.85656738281 1015.91430664062 1014.70373535156 1022.95648193359 1016.38537597656 1017.958984375 1017.40020751953 1023.18377685547 1022.90283203125 1023.06536865234 1027.56005859375 1038.05004882812 1051.25439453125 1053.95251464844 1063.91577148438 1068.90905761719 1066.26965332031 1081.68286132812 1092.37829589844 1099.00390625 1098.85498046875 1087.08862304688 1086.38415527344
957.285705566406 959.75146484375 955.003051757812 959.441101074219 957.110107421875 967.023803710938 972.552551269531 970.767578125 969.424072265625 970.935180664062 973.977111816406 978.493347167969 982.5947265625 978.546813964844 977.571716308594 979.770935058594 975.630004882812 973.430480957031 971.588134765625 984.175170898438 982.314208984375 976.823608398438 971.605590820312 973.465576171875 980.111083984375 971.243347167969 976.89501953125 983.621520996094 986.403442382812 979.471801757812 985.174499511719 984.343933105469 988.525329589844 977.708190917969 979.587280273438 972.901916503906 980.0341796875 971.80029296875 969.492370605469 974.261535644531 981.947387695312 988.021362304688 991.101806640625 984.092346191406 981.691101074219 978.915771484375 968.966735839844 970.551086425781 970.808959960938 978.1220703125 977.969482421875 974.369873046875 970.928894042969 974.247131347656 968.849304199219 960.194763183594 967.8583984375 975.322143554688 979.397277832031 980.240234375 985.564758300781 984.341186523438 991.076904296875 988.577453613281 992.460083007812 979.446228027344 981.890014648438 973.861633300781 968.989501953125 972.842651367188 980.31640625 983.434753417969 982.393005371094 981.571655273438 978.342224121094 994.660827636719 994.735961914062 989.515625 980.620361328125 992.497436523438 1001.12622070312 1004.51519775391 1004.21789550781 1011.98425292969 1003.83532714844 1010.76086425781 1009.34204101562 1004.49542236328 996.618896484375 1006.20806884766 1017.92779541016 1017.2900390625 1016.23809814453 1006.42840576172 1007.92858886719 1005.93109130859 998.733947753906 998.707397460938 999.234313964844 993.250061035156 1003.39190673828 1015.78796386719 1013.28271484375 1007.91412353516 1003.81225585938 1002.94244384766 1000.28851318359 996.804626464844 996.315856933594 984.07177734375 993.777770996094 987.698120117188 983.110778808594 990.267639160156 979.660278320312 972.062744140625 973.316955566406 973.363647460938 980.613464355469 985.920227050781 990.409423828125 993.228088378906 1002.60107421875 1013.94110107422 1009.56707763672 1016.05999755859 1020.55474853516 1017.759765625 1020.92456054688 1021.54431152344 1018.01861572266 1015.35235595703 1014.17047119141 1009.83270263672 1015.36614990234 1013.47186279297 1007.54742431641 1023.98431396484 1035.84875488281 1040.37683105469 1052.99462890625 1060.13427734375 1069.10876464844 1072.26635742188 1083.63732910156 1088.58935546875 1097.513671875 1102.22314453125 1099.36926269531 1097.37341308594
947.364562988281 955.902954101562 960.005493164062 963.200134277344 958.701354980469 970.044494628906 970.759582519531 967.799255371094 967.530456542969 972.400939941406 976.820007324219 981.714538574219 983.640014648438 974.779602050781 982.920532226562 964.053283691406 974.356140136719 982.620727539062 982.914855957031 980.593811035156 982.607971191406 987.385375976562 973.540405273438 961.418518066406 970.770080566406 975.023681640625 973.9111328125 977.265380859375 980.472839355469 983.574645996094 977.00146484375 978.136901855469 984.451049804688 982.380554199219 987.429504394531 983.7998046875 982.69140625 971.109558105469 973.99072265625 976.855529785156 976.854187011719 988.355102539062 986.555908203125 986.652587890625 976.834838867188 969.185546875 979.682373046875 972.219787597656 970.492614746094 982.181030273438 980.818115234375 971.179443359375 974.643981933594 974.379943847656 970.603942871094 963.355773925781 970.633666992188 973.246643066406 974.478942871094 971.98876953125 972.101196289062 987.856506347656 976.097290039062 985.199951171875 990.096374511719 978.555908203125 977.241516113281 988.169311523438 984.512084960938 990.071472167969 983.148559570312 978.873107910156 981.708984375 982.523986816406 987.485473632812 984.408996582031 990.43017578125 990.519470214844 989.099426269531 999.979125976562 994.327087402344 996.789794921875 1001.84948730469 997.456237792969 1004.20532226562 1016.56652832031 1007.36047363281 1003.74761962891 1004.29772949219 1007.79840087891 1012.54254150391 1019.86840820312 1010.51647949219 1001.00793457031 1003.96343994141 1002.48992919922 993.428649902344 991.322143554688 992.49658203125 992.490295410156 986.90771484375 1000.44097900391 1006.12982177734 1008.90313720703 1002.55682373047 1006.73278808594 1006.80401611328 1004.75036621094 996.011352539062 986.427124023438 989.421569824219 985.9248046875 981.58642578125 991.126403808594 991.168151855469 992.182495117188 992.63720703125 986.406555175781 992.535034179688 996.249633789062 1000.01867675781 1003.26470947266 1008.41613769531 1020.94781494141 1014.61083984375 1013.79437255859 1018.10986328125 1021.52532958984 1016.84613037109 1014.16314697266 1010.59307861328 1014.63842773438 1011.330078125 1011.76397705078 1015.04565429688 1012.36566162109 1011.59857177734 1023.31884765625 1030.97021484375 1037.48132324219 1044.41796875 1063.57275390625 1077.04113769531 1077.84094238281 1087.58666992188 1089.46826171875 1092.43115234375 1106.45288085938 1108.76538085938 1095.177734375
948.140441894531 955.722900390625 955.930847167969 957.13916015625 958.976806640625 964.997436523438 968.717529296875 979.687866210938 972.472106933594 978.41650390625 978.056945800781 980.001770019531 979.457397460938 980.072082519531 974.824340820312 970.969177246094 966.971862792969 973.120727539062 976.365905761719 978.644653320312 975.089965820312 990.10791015625 977.332824707031 976.00439453125 967.300170898438 968.474609375 975.870361328125 973.892822265625 969.120422363281 966.1494140625 971.980102539062 978.696350097656 977.464416503906 984.631591796875 984.2314453125 984.984680175781 988.592529296875 982.077575683594 987.869934082031 979.6201171875 982.448303222656 984.584228515625 986.111145019531 977.51123046875 977.840393066406 969.015441894531 980.093139648438 981.145202636719 979.142883300781 976.907104492188 972.300720214844 968.189514160156 970.061706542969 985.241882324219 976.276489257812 975.705017089844 973.697387695312 973.570617675781 972.729370117188 971.699645996094 982.744750976562 976.661560058594 977.409545898438 988.590942382812 989.180053710938 986.228820800781 992.848876953125 988.881225585938 978.098205566406 979.71484375 985.447082519531 971.777465820312 970.107299804688 980.828125 983.20361328125 980.315673828125 986.757934570312 987.985412597656 994.657165527344 1000.62408447266 995.477844238281 993.730529785156 991.225341796875 1001.95239257812 1000.08703613281 1002.69274902344 997.513671875 996.892822265625 1000.24761962891 998.564208984375 1006.59808349609 1008.15142822266 1008.48065185547 1006.00177001953 998.329711914062 990.041259765625 992.796203613281 990.264526367188 992.358459472656 989.912475585938 992.241088867188 992.012512207031 1004.23071289062 997.551086425781 993.849243164062 1002.26184082031 1001.21813964844 1002.19226074219 986.728088378906 994.818542480469 999.621154785156 987.632629394531 980.620910644531 1000.13348388672 999.667663574219 993.038940429688 994.8056640625 991.145690917969 998.213012695312 990.872009277344 1009.86639404297 1013.77478027344 1019.55889892578 1016.92150878906 1009.99108886719 1022.23773193359 1019.47680664062 1018.77465820312 1013.32958984375 1007.99340820312 1006.55920410156 1009.77752685547 1008.78192138672 1012.69793701172 1015.18249511719 1022.83679199219 1024.39013671875 1030.49951171875 1031.75927734375 1038.48645019531 1055.77844238281 1074.00415039062 1079.57104492188 1088.53747558594 1097.06091308594 1105.64050292969 1109.67224121094 1108.59301757812 1110.33935546875 1112.19470214844
948.699096679688 955.344177246094 960.935424804688 968.409851074219 955.567321777344 960.877380371094 966.630126953125 971.707092285156 973.30419921875 972.781311035156 979.808166503906 978.428771972656 975.312072753906 970.958435058594 967.6474609375 966.518493652344 965.251098632812 968.819458007812 965.016906738281 977.857116699219 980.936889648438 978.449096679688 979.410522460938 981.814819335938 974.986389160156 962.008361816406 965.1396484375 978.13671875 974.105834960938 971.148864746094 971.455444335938 963.013549804688 978.322204589844 982.143432617188 988.987243652344 982.573608398438 985.645812988281 983.89013671875 991.637817382812 984.27392578125 973.535217285156 980.773376464844 971.736694335938 967.787231445312 975.724792480469 973.533325195312 974.692321777344 984.287658691406 984.817443847656 979.046569824219 972.594970703125 968.64892578125 969.035522460938 979.753234863281 977.605163574219 973.629455566406 967.35546875 967.250366210938 974.393493652344 971.061645507812 975.644592285156 976.383605957031 984.868408203125 987.580017089844 997.174133300781 995.833557128906 988.283203125 986.291564941406 979.346435546875 968.958618164062 974.218933105469 971.978088378906 975.569030761719 982.934265136719 977.764526367188 976.364562988281 978.983947753906 987.298767089844 983.485290527344 994.46826171875 997.59375 989.099426269531 994.174438476562 1003.02484130859 1000.4375 999.791076660156 1002.81994628906 1002.73168945312 1001.19567871094 992.258911132812 994.301452636719 996.265869140625 997.006408691406 991.286315917969 995.443969726562 991.490356445312 994.412719726562 999.374145507812 991.686401367188 990.97802734375 982.869262695312 984.472839355469 987.00341796875 992.238342285156 988.252136230469 996.955078125 1003.78692626953 996.552612304688 994.265625 995.099365234375 992.181579589844 989.272277832031 992.584106445312 999.718994140625 1002.28747558594 995.813354492188 996.373840332031 997.7822265625 1000.60498046875 1000.33026123047 1015.88641357422 1012.77593994141 1012.71691894531 1021.64849853516 1016.50317382812 1016.54113769531 1016.53295898438 1016.88256835938 1016.39080810547 1014.69897460938 1008.90081787109 1011.28881835938 1015.81781005859 1022.05389404297 1029.37902832031 1038.92517089844 1029.76184082031 1030.12365722656 1036.75463867188 1045.9794921875 1059.29028320312 1074.5751953125 1076.54064941406 1087.43347167969 1103.80285644531 1110.16125488281 1118.568359375 1117.60900878906 1116.6953125 1116.7763671875
960.763916015625 959.854187011719 959.982849121094 970.166870117188 969.56787109375 966.855346679688 966.987121582031 965.469360351562 961.899353027344 963.130615234375 966.188537597656 970.474548339844 971.132263183594 966.54443359375 971.954650878906 965.13037109375 966.464782714844 969.830871582031 976.086181640625 976.519348144531 987.057922363281 984.034118652344 977.650329589844 976.985778808594 967.011596679688 958.846496582031 967.066711425781 975.736633300781 984.943420410156 975.451599121094 970.478942871094 972.313110351562 972.105285644531 971.997802734375 972.820434570312 979.816833496094 987.254455566406 989.012817382812 992.007934570312 977.031372070312 972.98486328125 967.709777832031 967.942016601562 970.056579589844 975.467834472656 972.264404296875 963.079833984375 976.211547851562 980.302612304688 981.575012207031 979.340393066406 971.489929199219 964.1318359375 966.0126953125 968.746826171875 977.68017578125 974.370971679688 963.093078613281 964.406616210938 965.725280761719 974.486267089844 979.877746582031 984.939758300781 998.3564453125 995.095642089844 1003.41546630859 988.502014160156 983.70556640625 968.005737304688 969.822631835938 971.948486328125 970.648559570312 966.531616210938 969.094299316406 975.826171875 977.879821777344 983.594665527344 984.645629882812 984.837463378906 985.379821777344 998.515502929688 995.854064941406 1000.14349365234 1001.77746582031 1001.49432373047 997.162902832031 1000.50854492188 992.650451660156 996.576721191406 994.118896484375 991.692016601562 990.34033203125 989.097290039062 999.814270019531 992.147216796875 996.919799804688 999.118041992188 1002.87341308594 990.517578125 975.435791015625 980.519958496094 983.916564941406 992.043823242188 995.833312988281 996.663879394531 987.509399414062 991.789367675781 998.831176757812 999.282104492188 994.730834960938 989.019714355469 984.179321289062 993.857604980469 1000.44067382812 1001.22283935547 1006.96832275391 1002.99353027344 1002.72131347656 1000.92956542969 1013.19018554688 1014.82788085938 1006.10699462891 1017.70135498047 1014.34564208984 1008.30828857422 1012.73120117188 1010.99926757812 1009.79852294922 1008.86010742188 1013.89758300781 1014.45782470703 1010.11651611328 1016.85986328125 1021.89251708984 1034.41040039062 1038.68518066406 1038.22143554688 1043.70715332031 1049.37060546875 1050.54345703125 1066.47863769531 1081.14086914062 1089.93566894531 1091.07177734375 1100.62390136719 1116.25146484375 1124.97509765625 1124.16125488281 1119.87255859375 1119.853515625
956.345092773438 959.865661621094 962.711730957031 960.858276367188 968.154479980469 968.649719238281 971.121276855469 966.981079101562 957.549621582031 953.392700195312 963.101440429688 970.772277832031 973.107666015625 963.951293945312 974.578247070312 968.748718261719 965.450866699219 975.226257324219 974.603942871094 979.381408691406 982.609680175781 979.108154296875 975.567993164062 969.061889648438 964.859924316406 960.405822753906 973.271301269531 981.975402832031 976.478637695312 973.164123535156 977.744018554688 979.026245117188 979.758056640625 980.703674316406 979.421630859375 975.671997070312 979.649353027344 981.822326660156 984.531799316406 975.604858398438 976.279663085938 976.571533203125 972.884094238281 974.239318847656 973.497253417969 972.176025390625 969.393676757812 974.269958496094 978.574096679688 974.395263671875 970.168212890625 972.934143066406 966.139770507812 962.073059082031 977.019714355469 980.223876953125 978.669006347656 971.450378417969 967.657409667969 972.769897460938 973.023254394531 984.478088378906 985.849304199219 992.747314453125 990.603454589844 991.783203125 982.621215820312 975.03662109375 970.555541992188 966.119750976562 969.277893066406 968.688049316406 967.357238769531 963.883361816406 973.632568359375 982.506713867188 987.742919921875 977.893615722656 981.550720214844 983.867797851562 988.320556640625 991.761535644531 995.469482421875 1000.08996582031 1005.81750488281 988.357116699219 985.30126953125 983.709045410156 987.720886230469 985.263854980469 986.141845703125 984.666320800781 987.768127441406 987.809020996094 993.914123535156 1000.29705810547 996.336608886719 993.921813964844 995.047790527344 990.344909667969 981.710083007812 982.113403320312 987.174682617188 986.585510253906 988.448120117188 988.069519042969 998.615600585938 992.527648925781 995.584838867188 993.736083984375 988.845642089844 992.228881835938 996.225524902344 994.097473144531 1000.12744140625 1003.27728271484 999.692749023438 994.76611328125 1006.17260742188 1013.89703369141 1014.78240966797 1013.50244140625 1013.02056884766 1009.45269775391 1005.86755371094 1004.59899902344 1006.31799316406 1014.79455566406 1016.91333007812 1024.77062988281 1023.24261474609 1017.16009521484 1022.44195556641 1033.00671386719 1040.73364257812 1043.44055175781 1046.34228515625 1042.24072265625 1050.12475585938 1059.35205078125 1076.17700195312 1083.96960449219 1095.11694335938 1095.86865234375 1113.50500488281 1122.24243164062 1125.7353515625 1128.52880859375 1132.48815917969 1131.83203125
944.904052734375 952.886596679688 963.954528808594 963.535400390625 967.864013671875 972.26416015625 969.21240234375 959.235656738281 964.144958496094 962.6064453125 958.661071777344 967.233520507812 973.296508789062 975.703430175781 977.061828613281 986.492858886719 975.144836425781 966.727905273438 974.171203613281 977.583312988281 971.999877929688 982.116516113281 978.184631347656 968.147644042969 972.856384277344 966.502563476562 971.496520996094 980.541809082031 979.206787109375 978.570190429688 977.304382324219 980.063537597656 978.780883789062 984.823852539062 981.785278320312 980.540283203125 982.504821777344 975.158203125 986.475891113281 972.369201660156 972.690368652344 969.040161132812 965.831848144531 978.794860839844 973.482971191406 963.3544921875 967.997131347656 968.980712890625 977.262268066406 978.33544921875 973.425537109375 965.298767089844 967.261535644531 971.926696777344 978.419616699219 978.314025878906 978.498901367188 985.478149414062 981.197875976562 976.839233398438 979.409912109375 979.998962402344 989.790954589844 984.862609863281 991.279846191406 994.890747070312 987.209716796875 978.856567382812 976.768859863281 968.081848144531 965.400390625 968.451538085938 974.414733886719 981.444946289062 988.339172363281 982.850952148438 979.246887207031 975.053833007812 973.798156738281 975.587829589844 983.450927734375 999.888977050781 996.774658203125 1001.27899169922 996.441040039062 995.21728515625 984.72900390625 981.723205566406 979.730712890625 986.387268066406 987.55859375 978.587036132812 988.338500976562 986.861877441406 992.51318359375 1000.470703125 998.922241210938 989.838073730469 994.947265625 988.622741699219 980.129455566406 977.912231445312 980.549499511719 985.283935546875 985.445068359375 986.225036621094 987.442016601562 980.055786132812 988.613647460938 993.436462402344 995.19287109375 996.54052734375 991.7978515625 993.119262695312 994.297729492188 995.683044433594 999.869873046875 999.109191894531 998.327758789062 1001.68475341797 1004.38732910156 1009.70190429688 1000.7939453125 1004.61462402344 1002.57366943359 1000.80560302734 1010.91662597656 1016.45147705078 1011.7880859375 1017.18139648438 1028.54504394531 1023.16333007812 1028.4091796875 1040.60180664062 1045.04663085938 1049.04370117188 1045.16674804688 1050.025390625 1053.13330078125 1060.55993652344 1076.5908203125 1082.90466308594 1093.75231933594 1107.74877929688 1115.46618652344 1126.43823242188 1130.65954589844 1137.87475585938 1148.13977050781 1139.3525390625
940.791564941406 951.516967773438 954.095642089844 954.012878417969 954.599853515625 960.150390625 959.508911132812 952.9716796875 958.788208007812 960.132385253906 959.266540527344 968.74267578125 977.667114257812 982.243408203125 980.294250488281 984.109130859375 977.267944335938 969.77685546875 981.115600585938 981.241516113281 988.583435058594 979.478454589844 980.88330078125 973.213012695312 970.999328613281 972.467956542969 981.23681640625 974.471435546875 974.387756347656 978.446594238281 981.553955078125 978.74853515625 981.382019042969 988.098876953125 983.402648925781 990.507446289062 978.091918945312 979.559143066406 980.655822753906 983.650024414062 986.780395507812 970.512390136719 968.685485839844 971.031311035156 972.027465820312 965.179809570312 967.849670410156 969.378601074219 980.675231933594 976.587890625 963.693969726562 964.911743164062 968.454040527344 978.037414550781 976.550903320312 970.620666503906 976.125732421875 981.438598632812 980.134643554688 981.593383789062 983.7783203125 986.498413085938 983.348327636719 976.945983886719 983.955688476562 993.1806640625 991.228759765625 979.808654785156 975.009765625 969.956176757812 963.848510742188 966.75634765625 971.029724121094 971.633422851562 980.067993164062 973.989624023438 972.176696777344 975.439636230469 964.425903320312 975.589172363281 975.566345214844 987.423950195312 981.470153808594 997.944030761719 995.445556640625 997.556762695312 991.502319335938 983.076904296875 978.671997070312 980.241088867188 983.366271972656 984.44482421875 982.240844726562 988.527770996094 989.471618652344 991.281860351562 992.041137695312 997.953796386719 1001.64520263672 989.296691894531 979.8974609375 977.794311523438 987.653137207031 982.096496582031 987.828979492188 980.913818359375 975.780517578125 983.67333984375 987.857604980469 992.214233398438 987.577941894531 992.048156738281 993.363952636719 992.0390625 989.655029296875 992.06689453125 994.787963867188 993.451110839844 1001.73345947266 998.406555175781 1001.33264160156 1002.16491699219 992.519165039062 1000.09594726562 1005.37280273438 1005.10510253906 1014.95239257812 1016.74304199219 1019.01202392578 1023.68627929688 1023.31903076172 1021.8974609375 1029.5888671875 1039.85852050781 1047.05712890625 1060.74462890625 1056.08020019531 1052.51696777344 1062.41760253906 1075.68835449219 1079.04443359375 1089.97692871094 1107.04223632812 1109.71655273438 1118.22961425781 1128.76477050781 1135.71728515625 1142.80895996094 1152.15161132812 1146.21472167969
937.4130859375 945.145324707031 950.973815917969 950.050048828125 957.154968261719 958.016784667969 953.557250976562 953.683349609375 956.384948730469 955.801391601562 957.830505371094 970.23681640625 968.98095703125 975.727783203125 983.788513183594 983.452758789062 978.127014160156 967.943603515625 982.987365722656 983.187927246094 981.64697265625 983.135620117188 980.134887695312 985.336608886719 973.1572265625 967.016052246094 983.170593261719 976.474243164062 976.529479980469 978.820739746094 983.421142578125 978.055297851562 988.890014648438 989.393493652344 981.418518066406 982.901489257812 984.442016601562 981.488464355469 984.58935546875 984.653930664062 985.056335449219 977.828979492188 964.4970703125 965.737854003906 967.980346679688 970.007385253906 968.106689453125 978.4169921875 981.069152832031 978.538940429688 968.719299316406 964.385131835938 964.33837890625 973.995971679688 973.335266113281 969.663269042969 977.5751953125 985.531616210938 984.176452636719 985.468505859375 990.040344238281 973.018005371094 977.333129882812 979.976989746094 987.194213867188 989.557067871094 990.624206542969 988.981628417969 962.808898925781 959.331970214844 960.618347167969 963.55712890625 965.890686035156 967.412048339844 965.769775390625 970.603881835938 977.582824707031 981.103637695312 970.276306152344 970.015869140625 984.948486328125 987.566833496094 983.677490234375 989.921875 995.341064453125 995.878479003906 990.259216308594 989.821594238281 980.845031738281 983.669311523438 982.591247558594 988.62109375 991.690002441406 989.135864257812 995.572570800781 984.543029785156 983.945129394531 988.272705078125 1000.85168457031 993.358459472656 989.934936523438 983.453979492188 983.306457519531 982.34033203125 977.026306152344 982.101196289062 978.109130859375 978.71484375 978.375305175781 984.418273925781 990.178649902344 991.34619140625 996.647033691406 987.809020996094 987.134460449219 1002.71527099609 991.401306152344 999.078369140625 996.529602050781 1000.94451904297 998.649108886719 995.822448730469 987.821716308594 992.964538574219 998.471374511719 1010.75982666016 1018.91900634766 1032.69091796875 1029.84985351562 1032.43371582031 1029.29382324219 1036.57800292969 1041.17199707031 1052.43273925781 1054.36267089844 1062.59411621094 1059.97375488281 1062.57531738281 1064.00842285156 1074.86755371094 1081.73449707031 1091.83752441406 1103.68310546875 1114.97497558594 1118.15771484375 1143.32116699219 1149.41589355469 1156.28942871094 1162.38586425781 1162.04504394531
942.773376464844 949.171081542969 951.0107421875 955.302368164062 963.207580566406 954.545654296875 953.974243164062 948.679260253906 958.266662597656 957.0810546875 962.58251953125 964.454040527344 964.545715332031 976.137451171875 982.6982421875 981.92822265625 978.465209960938 971.468994140625 969.177673339844 977.887268066406 974.760375976562 981.241455078125 986.149597167969 978.517761230469 975.756896972656 973.341003417969 978.392578125 970.919250488281 976.060485839844 975.089111328125 976.293579101562 979.441955566406 993.383239746094 993.219421386719 986.600891113281 983.401245117188 979.253051757812 985.000366210938 975.495727539062 981.851318359375 978.591186523438 974.653259277344 964.765747070312 965.204711914062 971.118957519531 968.382568359375 965.87890625 970.862426757812 972.007629394531 979.345703125 974.188232421875 961.186340332031 971.119140625 968.370788574219 965.820739746094 967.291320800781 967.835510253906 979.088317871094 979.577575683594 979.612060546875 975.795837402344 969.087097167969 978.656188964844 971.890625 981.127136230469 980.266662597656 983.177978515625 974.132995605469 965.020751953125 962.017456054688 957.992492675781 959.246520996094 963.827575683594 977.686462402344 969.095886230469 969.614196777344 972.956848144531 980.951354980469 966.666015625 967.601440429688 973.004211425781 979.816589355469 988.457885742188 982.425964355469 989.845825195312 992.848754882812 988.7626953125 986.19482421875 980.051147460938 980.988586425781 981.882385253906 982.071472167969 986.174255371094 983.146606445312 990.828125 981.217590332031 987.548461914062 987.640930175781 989.3251953125 994.143798828125 983.524230957031 980.508728027344 978.021484375 978.670288085938 965.181945800781 979.902038574219 978.967651367188 984.889099121094 982.107543945312 993.508422851562 989.992980957031 980.11669921875 989.6904296875 986.224609375 990.030639648438 1001.81237792969 992.509643554688 993.315246582031 1005.69201660156 1000.97088623047 997.204528808594 997.455810546875 998.517333984375 1001.19647216797 998.500427246094 1007.35656738281 1014.03649902344 1034.3095703125 1032.68640136719 1046.07702636719 1041.97509765625 1047.30480957031 1052.57019042969 1052.06030273438 1061.92492675781 1064.30590820312 1060.31066894531 1065.90283203125 1075.47045898438 1089.59191894531 1099.22680664062 1100.08850097656 1113.28002929688 1117.79333496094 1133.94091796875 1144.39868164062 1161.080078125 1166.52709960938 1172.67919921875 1169.82763671875
942.0087890625 945.338989257812 945.925720214844 946.234619140625 947.299987792969 960.49267578125 962.551208496094 961.876281738281 963.39892578125 954.378112792969 949.350280761719 961.071228027344 961.462585449219 971.716979980469 976.229675292969 982.023193359375 969.643676757812 964.917602539062 975.538024902344 978.977172851562 976.763732910156 978.511535644531 991.271789550781 979.953674316406 973.687072753906 971.50927734375 973.564758300781 965.374694824219 978.811096191406 977.83837890625 977.94775390625 976.783081054688 981.061828613281 986.245056152344 989.348510742188 988.069274902344 987.288818359375 986.228637695312 971.4677734375 973.222900390625 970.87548828125 977.083435058594 964.920654296875 964.9443359375 967.961791992188 966.510803222656 962.196899414062 970.163879394531 970.71484375 969.724426269531 972.921325683594 971.544189453125 967.6611328125 956.717041015625 958.405517578125 968.683532714844 971.327514648438 970.594787597656 977.025695800781 978.590270996094 967.873107910156 964.191223144531 965.614074707031 966.925415039062 972.570556640625 973.327087402344 973.260681152344 970.869018554688 954.446472167969 949.163940429688 954.327331542969 955.781005859375 957.985290527344 964.410888671875 970.6630859375 971.939392089844 972.622680664062 969.457885742188 963.976379394531 966.871887207031 970.77685546875 974.982116699219 980.869201660156 979.24658203125 990.9072265625 989.749328613281 992.824401855469 984.807006835938 979.450073242188 982.462890625 979.751892089844 975.376525878906 973.845825195312 978.523803710938 974.637634277344 980.00634765625 980.784057617188 976.915588378906 977.566345214844 986.467712402344 991.328308105469 987.688415527344 982.604431152344 983.581420898438 975.117431640625 981.374084472656 986.022766113281 992.194274902344 1002.49633789062 1003.20092773438 992.652893066406 991.515930175781 992.463806152344 995.286682128906 991.050476074219 988.0478515625 999.576721191406 1005.00830078125 1011.05548095703 1010.74090576172 993.463623046875 991.097595214844 1000.21881103516 998.833435058594 1000.48980712891 1003.86627197266 1018.08599853516 1022.04797363281 1029.31591796875 1037.60388183594 1038.484375 1046.73815917969 1060.36682128906 1065.79321289062 1071.65551757812 1069.1298828125 1077.26904296875 1080.32373046875 1086.56713867188 1096.19543457031 1107.79431152344 1113.59924316406 1116.041015625 1128.05529785156 1141.19055175781 1148.9306640625 1156.302734375 1170.11584472656 1174.06958007812 1176.25573730469
956.01953125 953.7451171875 949.523193359375 945.235473632812 943.256103515625 952.855895996094 966.180419921875 961.697082519531 966.936645507812 960.390014648438 961.521362304688 961.44482421875 964.641296386719 974.321533203125 974.663757324219 982.76318359375 975.189086914062 975.010498046875 976.152404785156 983.81884765625 981.600952148438 981.981323242188 983.278015136719 974.132690429688 971.969604492188 982.648010253906 974.763244628906 969.959838867188 971.4140625 978.121765136719 973.071472167969 974.286254882812 976.491088867188 982.355529785156 982.6650390625 975.86669921875 978.0126953125 979.77490234375 973.874267578125 967.639099121094 966.628356933594 967.005554199219 971.884460449219 972.263000488281 968.835998535156 969.8720703125 973.417846679688 959.957092285156 966.492431640625 971.096313476562 972.005554199219 968.918029785156 963.185180664062 958.386535644531 956.632995605469 966.717712402344 957.109313964844 963.099914550781 967.187072753906 962.900024414062 964.703735351562 963.341247558594 965.265380859375 963.790954589844 973.172546386719 972.2744140625 970.440002441406 960.366088867188 961.580444335938 968.792785644531 966.2138671875 963.991149902344 954.656127929688 964.418823242188 966.262268066406 976.0478515625 969.9755859375 966.304748535156 970.205749511719 960.050231933594 973.362487792969 977.718505859375 979.715270996094 985.014953613281 997.382263183594 993.24365234375 996.327880859375 981.704650878906 974.155944824219 974.559997558594 978.209533691406 978.613220214844 974.58740234375 976.125854492188 970.93017578125 972.293151855469 974.517456054688 973.05615234375 978.440795898438 985.835388183594 989.859619140625 994.256713867188 983.957092285156 990.130126953125 985.500244140625 987.545166015625 991.233093261719 995.838134765625 1003.37084960938 1001.70104980469 1000.34643554688 994.759948730469 988.699401855469 998.891723632812 997.773254394531 1004.85675048828 1006.27185058594 1008.57995605469 1021.83068847656 1005.93054199219 1012.67553710938 1008.10491943359 1009.98059082031 1008.94091796875 999.927673339844 1005.87567138672 1013.08874511719 1023.59545898438 1033.57995605469 1035.3857421875 1042.5498046875 1051.47229003906 1053.58032226562 1068.25305175781 1072.99682617188 1083.26708984375 1087.75805664062 1089.35803222656 1089.59875488281 1111.59008789062 1106.06201171875 1116.18627929688 1124.53491210938 1129.81811523438 1144.21166992188 1146.86364746094 1156.59716796875 1168.22937011719 1171.93530273438 1169.53857421875
955.341369628906 959.689208984375 949.207702636719 950.581298828125 951.876342773438 959.485778808594 965.470397949219 964.126098632812 975.172546386719 966.516723632812 969.258850097656 961.242370605469 978.071655273438 974.462036132812 974.22021484375 979.989196777344 979.252807617188 976.633483886719 980.9765625 986.012329101562 979.668090820312 981.696899414062 974.695617675781 978.528259277344 971.971496582031 973.831909179688 982.820495605469 973.407043457031 970.91259765625 978.460021972656 974.597839355469 979.499389648438 978.820190429688 973.276000976562 969.892333984375 970.218322753906 972.264526367188 968.874206542969 968.959777832031 960.454711914062 966.451599121094 969.159362792969 973.91455078125 967.537048339844 961.4091796875 965.242919921875 965.495544433594 964.710083007812 964.056396484375 975.179138183594 975.754089355469 969.440673828125 962.177551269531 969.385375976562 963.552612304688 969.201171875 972.005798339844 969.609985351562 963.634582519531 962.749938964844 956.467590332031 964.519348144531 968.722839355469 974.932189941406 961.778503417969 968.072570800781 958.646667480469 963.732299804688 968.746520996094 969.4677734375 965.030212402344 959.478454589844 958.097839355469 960.645629882812 961.339538574219 971.1171875 974.787231445312 964.879211425781 963.579711914062 968.904418945312 965.189270019531 975.377868652344 972.595703125 974.3798828125 983.184631347656 985.286743164062 985.9921875 976.937744140625 974.970764160156 985.073425292969 988.793334960938 980.685241699219 975.459411621094 969.851013183594 969.673706054688 973.7900390625 974.208068847656 982.074157714844 972.560974121094 982.391052246094 982.138366699219 985.008666992188 987.200561523438 983.931030273438 981.906677246094 989.228149414062 997.745239257812 999.162231445312 1001.41442871094 1000.10327148438 997.272033691406 997.254943847656 992.778503417969 997.676391601562 1001.20855712891 1013.11492919922 1009.76135253906 1019.06921386719 1013.57037353516 1014.90106201172 1007.68426513672 1005.88055419922 1006.09808349609 1001.09381103516 1002.63195800781 1015.01892089844 1012.43853759766 1019.18151855469 1027.71142578125 1038.16674804688 1049.10095214844 1050.60974121094 1059.76013183594 1066.52893066406 1069.51159667969 1077.43664550781 1074.98291015625 1092.44201660156 1095.51879882812 1109.333984375 1112.56530761719 1124.70874023438 1127.66564941406 1125.29284667969 1140.5634765625 1149.98645019531 1159.8359375 1165.24487304688 1165.29711914062 1167.70190429688
952.095520019531 949.577270507812 952.02880859375 948.236145019531 955.555358886719 965.993835449219 967.200744628906 967.031860351562 973.765808105469 958.631164550781 966.954711914062 966.695129394531 972.999389648438 977.21533203125 985.153381347656 976.674682617188 973.661254882812 982.907348632812 990.555236816406 981.210205078125 972.072326660156 975.855529785156 979.77490234375 977.553649902344 964.282409667969 965.785400390625 973.062561035156 978.740051269531 971.423706054688 976.941467285156 977.290771484375 969.273254394531 965.639953613281 973.171508789062 972.536437988281 969.099365234375 964.975769042969 966.423889160156 971.980651855469 969.204223632812 965.78125 967.705932617188 961.210327148438 968.382629394531 960.13037109375 963.599609375 960.670837402344 964.770751953125 970.846252441406 969.966613769531 966.365844726562 966.287414550781 968.762451171875 969.459716796875 968.824157714844 975.098937988281 985.615234375 977.495666503906 970.699768066406 972.780212402344 964.416137695312 959.436340332031 970.813598632812 970.713684082031 976.300537109375 967.87158203125 967.95849609375 964.616149902344 964.34912109375 956.270141601562 950.236694335938 963.2666015625 961.335083007812 972.007446289062 964.350891113281 971.057373046875 976.352966308594 967.518371582031 958.554870605469 968.011840820312 967.05615234375 965.31982421875 963.466674804688 964.101745605469 973.055480957031 969.583374023438 980.832153320312 990.861633300781 970.750915527344 982.252624511719 990.124267578125 984.518493652344 973.451599121094 980.005798339844 980.135986328125 970.397521972656 977.692932128906 981.140686035156 980.922729492188 979.5556640625 980.103149414062 984.043640136719 976.205017089844 984.062194824219 984.335815429688 992.498718261719 991.96337890625 993.393798828125 995.705017089844 995.44482421875 995.9130859375 993.600708007812 1001.04827880859 994.820922851562 1004.86016845703 1012.67053222656 1008.64270019531 1007.09515380859 1020.34497070312 1016.94970703125 1008.68090820312 1015.36779785156 1018.59619140625 1009.10949707031 1011.37774658203 1016.56213378906 1019.60559082031 1016.80212402344 1015.3291015625 1040.83520507812 1051.17858886719 1046.18664550781 1052.30883789062 1067.83276367188 1068.16540527344 1072.8466796875 1085.25561523438 1094.31604003906 1097.37585449219 1109.34936523438 1116.39221191406 1124.89245605469 1126.21923828125 1130.10266113281 1134.16967773438 1147.0302734375 1151.06787109375 1160.73742675781 1164.56127929688 1160.89465332031
949.984619140625 953.992736816406 952.811706542969 955.653625488281 958.004028320312 959.019958496094 957.875305175781 967.829345703125 966.800598144531 969.626342773438 968.589294433594 971.605529785156 971.40185546875 974.831787109375 987.042053222656 977.982055664062 978.376770019531 985.681945800781 975.325317382812 979.2353515625 966.36474609375 966.111633300781 967.592163085938 973.221923828125 964.082275390625 955.970703125 965.054016113281 973.360229492188 968.809387207031 981.811645507812 972.822998046875 974.83056640625 959.134460449219 970.8056640625 971.976318359375 971.669494628906 967.614379882812 962.531494140625 968.48291015625 969.368469238281 970.736755371094 960.32080078125 962.030944824219 962.833801269531 960.497436523438 967.408325195312 961.656127929688 955.543273925781 966.007568359375 962.623657226562 964.454711914062 967.297058105469 965.40869140625 967.573547363281 972.816101074219 975.178894042969 969.94482421875 968.262817382812 971.423889160156 969.577514648438 963.165100097656 969.566223144531 970.105590820312 969.9990234375 972.251159667969 969.417724609375 971.563720703125 973.033264160156 966.139953613281 958.565734863281 957.934875488281 966.864318847656 958.733947753906 956.814880371094 962.14111328125 976.709655761719 974.006774902344 969.181274414062 972.012634277344 969.72021484375 964.812316894531 967.480285644531 966.857666015625 968.172973632812 962.420227050781 966.392395019531 972.401184082031 982.09765625 967.436828613281 974.067016601562 982.080261230469 981.253540039062 980.7900390625 982.853942871094 970.434692382812 966.852294921875 966.081726074219 976.706176757812 978.494079589844 981.086669921875 977.830993652344 973.162353515625 982.622985839844 985.597412109375 990.019897460938 993.7724609375 996.774108886719 983.518371582031 990.972106933594 984.946105957031 989.049926757812 993.491271972656 996.128540039062 996.251037597656 1004.41461181641 1015.63354492188 1015.6630859375 1022.05511474609 1017.13739013672 1013.87036132812 1017.61492919922 1011.30004882812 1010.51458740234 1012.99798583984 1012.43640136719 1024.03393554688 1023.70233154297 1024.83618164062 1024.60986328125 1029.00463867188 1045.298828125 1049.65173339844 1056.294921875 1061.97143554688 1058.54663085938 1073.79577636719 1085.67980957031 1085.52075195312 1097.908203125 1104.20593261719 1119.71569824219 1118.73303222656 1124.13708496094 1131.05859375 1132.22143554688 1138.45922851562 1138.23791503906 1154.8134765625 1147.57788085938 1161.25610351562
953.515319824219 960.597290039062 965.777160644531 961.914001464844 966.756958007812 964.832397460938 963.44091796875 970.971008300781 973.8349609375 967.953186035156 968.255676269531 970.591857910156 967.129272460938 969.205444335938 976.640686035156 973.203918457031 979.64013671875 983.747253417969 975.947509765625 968.245239257812 962.10205078125 963.155517578125 970.183044433594 975.611511230469 972.624267578125 971.783142089844 961.327880859375 963.5322265625 961.817138671875 973.559814453125 969.492492675781 972.639892578125 963.892822265625 969.890258789062 975.683715820312 968.574340820312 968.31640625 962.258605957031 958.014343261719 962.093933105469 959.185424804688 960.371459960938 954.206176757812 964.882507324219 974.167907714844 967.681518554688 966.284973144531 961.565490722656 965.792419433594 969.490112304688 969.777099609375 963.692932128906 961.169128417969 971.672607421875 967.679931640625 969.623291015625 966.966613769531 963.937805175781 964.534057617188 962.332214355469 955.794494628906 954.14794921875 969.025451660156 969.85791015625 969.830444335938 972.263793945312 969.308410644531 964.287170410156 973.102172851562 957.423095703125 962.439636230469 968.383972167969 956.279663085938 960.443664550781 966.32373046875 969.209533691406 968.7265625 974.173400878906 969.589111328125 963.761596679688 973.040649414062 968.118041992188 974.356262207031 967.08349609375 972.454406738281 968.102844238281 970.988830566406 973.087646484375 978.173400878906 972.410888671875 975.0517578125 980.646789550781 982.067932128906 986.3564453125 979.120056152344 972.961669921875 967.138366699219 963.434875488281 982.128295898438 978.729858398438 975.536865234375 982.816467285156 981.596801757812 988.334533691406 989.974670410156 988.703125 989.357055664062 982.210876464844 986.335510253906 986.022094726562 983.749328613281 995.002075195312 990.7685546875 994.690246582031 1000.47534179688 1006.00103759766 1007.24169921875 1021.93865966797 1014.00433349609 1010.99566650391 1015.6552734375 1008.92248535156 1009.12078857422 1021.86206054688 1016.98510742188 1025.48376464844 1024.65734863281 1035.01770019531 1026.47827148438 1039.99584960938 1043.978515625 1044.47900390625 1055.31140136719 1055.01794433594 1062.99670410156 1076.4345703125 1094.90600585938 1097.49621582031 1099.04223632812 1096.49230957031 1103.90197753906 1106.52160644531 1115.53015136719 1121.88806152344 1133.64208984375 1140.88220214844 1138.99877929688 1144.09033203125 1148.33239746094 1158.04235839844
956.188903808594 953.618591308594 953.294677734375 960.370727539062 957.527526855469 964.442016601562 962.177368164062 966.311462402344 975.756774902344 978.531799316406 975.403564453125 976.957946777344 975.768615722656 972.178771972656 968.441101074219 971.069519042969 977.082336425781 981.824523925781 968.344543457031 955.096069335938 957.7744140625 963.208862304688 963.399291992188 970.043884277344 960.736511230469 962.388549804688 959.392395019531 963.742919921875 960.286437988281 969.255920410156 968.478393554688 961.581420898438 967.455932617188 973.846862792969 971.289794921875 971.254089355469 965.73583984375 962.195678710938 956.564147949219 963.940490722656 959.521789550781 960.632934570312 954.252807617188 962.936157226562 963.622924804688 967.248657226562 971.589477539062 969.089233398438 969.734436035156 964.682434082031 969.86865234375 963.804565429688 959.795654296875 972.015930175781 970.15478515625 969.372192382812 971.877868652344 959.878479003906 966.263427734375 967.94921875 962.073303222656 956.902099609375 967.931640625 967.297790527344 972.574096679688 970.309143066406 967.3701171875 964.944213867188 971.061828613281 969.963684082031 965.12548828125 966.26318359375 963.607482910156 961.172302246094 962.92041015625 972.049682617188 972.233947753906 976.53515625 974.455139160156 968.801818847656 962.531799316406 964.839599609375 971.244934082031 970.493469238281 967.252990722656 969.893615722656 975.904174804688 974.044067382812 967.6630859375 967.610595703125 974.044555664062 978.231689453125 971.157653808594 982.689575195312 967.976867675781 970.068298339844 972.816101074219 970.473449707031 973.690551757812 968.750305175781 974.886901855469 991.823364257812 986.106140136719 987.294860839844 985.185607910156 989.097595214844 982.55908203125 989.53369140625 988.229309082031 981.774169921875 989.771118164062 991.481994628906 990.017761230469 999.271240234375 993.878234863281 1001.52624511719 1005.84381103516 1016.8544921875 1017.009765625 1013.88757324219 1008.04772949219 1010.78948974609 1017.76837158203 1015.58203125 1022.83148193359 1030.88305664062 1031.71752929688 1032.85961914062 1032.06518554688 1033.27270507812 1043.75354003906 1052.359375 1052.00988769531 1066.17822265625 1070.56555175781 1077.50451660156 1090.56860351562 1097.43725585938 1099.47033691406 1093.03369140625 1096 1093.09594726562 1101.32751464844 1122.33349609375 1129.18103027344 1132.66137695312 1142.19836425781 1139.88122558594 1150.7763671875 1155.29663085938
957.638916015625 947.876525878906 956.038696289062 964.912780761719 960.623168945312 968.910583496094 969.993225097656 969.579040527344 969.809631347656 978.746337890625 976.371215820312 973.287536621094 973.151428222656 971.173522949219 975.743530273438 980.406921386719 971.645874023438 972.616149902344 964.8896484375 955.828918457031 964.111938476562 966.985961914062 968.42919921875 962.997009277344 956.153015136719 948.479309082031 950.819030761719 965.445861816406 964.00341796875 972.914489746094 965.473327636719 963.659973144531 966.316284179688 963.104248046875 966.29345703125 973.340270996094 969.198364257812 966.3173828125 966.875061035156 958.349548339844 952.989196777344 962.992980957031 964.499938964844 966.309509277344 972.287475585938 966.807373046875 961.590148925781 963.305480957031 960.362243652344 963.083679199219 955.794189453125 958.785949707031 962.954772949219 959.265625 958.317932128906 957.122131347656 965.959533691406 962.934448242188 954.417602539062 963.270874023438 964.668518066406 966.760986328125 964.066284179688 972.170959472656 977.048645019531 964.609741210938 974.528259277344 964.52685546875 969.141967773438 962.408630371094 958.404235839844 966.499877929688 968.292663574219 972.708740234375 967.512390136719 970.971313476562 974.899719238281 975.456298828125 973.341918945312 971.429626464844 964.964233398438 960.328796386719 963.712036132812 970.33740234375 967.504272460938 978.191101074219 972.212829589844 972.838012695312 969.752685546875 968.444152832031 978.617980957031 981.376220703125 975.781494140625 978.333374023438 968.975219726562 971.944030761719 977.081481933594 976.683227539062 975.110534667969 976.442932128906 981.21875 986.305236816406 989.388610839844 986.905700683594 985.188537597656 980.623657226562 987.255065917969 988.876831054688 976.735229492188 977.628662109375 981.062927246094 996.10888671875 990.62353515625 992.399291992188 995.690551757812 998.491882324219 1004.27203369141 1003.07012939453 1009.55603027344 1007.71240234375 1011.31097412109 1010.12237548828 1014.904296875 1025.24633789062 1030.02331542969 1028.94677734375 1028.06555175781 1029.39440917969 1040.01452636719 1042.70471191406 1052.53002929688 1060.30651855469 1063.78625488281 1074.31628417969 1085.89709472656 1082.01940917969 1090.50231933594 1096.3330078125 1102.33435058594 1099.38354492188 1094.18090820312 1091.5126953125 1106.29943847656 1110.26171875 1126.33032226562 1132.8388671875 1140.73791503906 1147.36010742188 1143.47473144531 1142.57153320312
955.117919921875 955.359497070312 961.446960449219 968.85693359375 971.250793457031 968.711791992188 970.427307128906 969.460998535156 963.466430664062 970.4951171875 976.974670410156 978.062438964844 974.2294921875 978.371948242188 973.75634765625 967.919799804688 966.667236328125 967.578002929688 962.626770019531 960.868041992188 963.114990234375 955.900390625 958.475646972656 964.230590820312 955.049987792969 951.571716308594 956.356689453125 960.716003417969 964.604736328125 969.077697753906 972.651977539062 962.207702636719 961.413330078125 958.068420410156 967.581787109375 973.664001464844 964.342102050781 964.864196777344 966.867919921875 959.9169921875 963.240844726562 967.465026855469 967.194519042969 960.709289550781 970.52294921875 974.794189453125 961.360717773438 960.44873046875 954.532653808594 956.702697753906 956.504455566406 957.131530761719 959.432067871094 955.457336425781 958.437927246094 956.701293945312 961.276916503906 960.965515136719 961.440734863281 957.823852539062 958.005432128906 963.478515625 969.090515136719 972.371520996094 982.59326171875 969.009399414062 966.779296875 966.158569335938 966.653198242188 962.622375488281 955.389038085938 951.667297363281 969.43603515625 971.982543945312 968.642700195312 966.617797851562 967.726440429688 964.921508789062 970.043212890625 968.665100097656 966.281188964844 959.048950195312 962.716979980469 958.059509277344 966.790344238281 972.039855957031 967.670227050781 969.079406738281 974.154418945312 973.175598144531 969.041931152344 975.332458496094 979.765075683594 976.07470703125 971.082397460938 974.803100585938 977.854736328125 980.180541992188 975.066833496094 974.40869140625 969.976318359375 975.982421875 988.077575683594 981.63330078125 978.574279785156 981.739196777344 971.917114257812 972.499877929688 970.181884765625 974.810974121094 974.423828125 975.37548828125 981.331481933594 988.871032714844 989.394470214844 1005.10229492188 1007.94213867188 1011.01879882812 1007.65826416016 1013.46722412109 1011.55645751953 1008.51934814453 1025.14831542969 1028.32458496094 1031.40063476562 1033.10046386719 1033.82043457031 1030.35461425781 1036.93469238281 1042.841796875 1051.92980957031 1058.32299804688 1059.61242675781 1075.60913085938 1086.36193847656 1092.89562988281 1089.90185546875 1096.74731445312 1099.390625 1096.41589355469 1096.41223144531 1096.53588867188 1101.89404296875 1118.35473632812 1121.30847167969 1132.2373046875 1136.60766601562 1141.72888183594 1144.01037597656 1144.42016601562
955.958923339844 965.866821289062 973.096740722656 973.161499023438 978.802917480469 976.505676269531 977.829528808594 973.61474609375 965.171691894531 966.244140625 973.8916015625 972.210876464844 967.656433105469 978.518188476562 971.781616210938 969.87353515625 966.570068359375 966.563903808594 970.460815429688 968.350341796875 953.609619140625 955.634826660156 964.578979492188 973.328430175781 962.024291992188 951.324645996094 950.851623535156 961.382202148438 966.472229003906 971.811401367188 967.568176269531 964.75244140625 956.536865234375 956.519104003906 963.799865722656 972.847351074219 965.02001953125 960.355773925781 965.98974609375 957.837219238281 960.172973632812 962.996887207031 979.304382324219 968.314453125 964.331909179688 962.2607421875 961.01171875 964.828918457031 955.770935058594 956.430541992188 958.1259765625 963.236938476562 952.294677734375 957.864318847656 958.632019042969 956.2880859375 955.858459472656 961.257507324219 952.617614746094 955.110656738281 951.656372070312 956.551208496094 959.196411132812 951.785400390625 961.163513183594 966.734375 966.494567871094 959.244445800781 961.897827148438 955.890502929688 958.944274902344 956.061889648438 973.472778320312 973.072204589844 965.375854492188 969.120788574219 964.841979980469 968.063049316406 967.017700195312 960.692138671875 958.077697753906 960.551147460938 954.679931640625 951.803344726562 957.865173339844 965.503051757812 971.872192382812 968.852844238281 980.519836425781 978.875427246094 972.296447753906 969.557495117188 974.315979003906 973.510498046875 974.181701660156 977.958435058594 970.395751953125 967.550109863281 974.896728515625 972.58349609375 972.319396972656 972.929382324219 973.818969726562 976.690063476562 978.580078125 976.621154785156 969.02490234375 977.760864257812 976.624450683594 966.931579589844 976.63818359375 973.800048828125 985.987670898438 983.803466796875 990.584228515625 1001.18792724609 1010.15881347656 1012.60247802734 1003.66003417969 1008.69097900391 1008.52624511719 1013.26525878906 1016.93402099609 1018.43951416016 1021.45050048828 1020.56610107422 1026.7470703125 1037.07836914062 1040.25927734375 1044.37939453125 1047.95959472656 1061.45593261719 1069.89013671875 1069.20288085938 1086.48852539062 1097.24365234375 1091.00170898438 1089.68432617188 1093.87329101562 1083.12927246094 1091.94348144531 1090.93359375 1088.7939453125 1101.42028808594 1109.63598632812 1117.40417480469 1124.47021484375 1129.89782714844 1130.69873046875 1132.95654296875
