NCOLS 150
NROWS 37
XLLCORNER 7394249
YLLCORNER 4842299
CELLSIZE 30
NODATA_VALUE -9999
955.633483886719 960.178344726562 958.044555664062 960.521057128906 971.777893066406 975.390869140625 973.687927246094 971.515808105469 979.892211914062 991.320251464844 985.112243652344 978.029296875 976.675415039062 970.272888183594 973.592407226562 972.554809570312 968.476989746094 970.211486816406 969.409118652344 965.485412597656 964.406616210938 969.567932128906 970.210083007812 963.453063964844 959.75244140625 958.455322265625 963.426818847656 961.002868652344 962.972045898438 975.276184082031 970.719116210938 965.421936035156 965.497924804688 963.794067382812 972.472778320312 968.666809082031 960.877197265625 965.283447265625 962.935180664062 954.477294921875 954.241638183594 952.865356445312 949.026306152344 952.956420898438 965.147155761719 956.114196777344 952.746826171875 954.405517578125 959.088562011719 956.527160644531 950.891906738281 951.4697265625 958.159606933594 960.023376464844 961.28076171875 962.527587890625 964.319396972656 958.603454589844 956.969482421875 957.524536132812 957.703979492188 961.613037109375 952.196228027344 951.144287109375 964.308349609375 959.267517089844 958.671569824219 962.384094238281 960.814758300781 964.854125976562 961.851440429688 962.936645507812 966.677490234375 968.437683105469 965.577087402344 967.105285644531 968.328979492188 971.511962890625 970.450439453125 960.283935546875 967.028381347656 966.3759765625 968.689636230469 972.182800292969 971.349060058594 965.060729980469 968.6279296875 966.212646484375 965.413208007812 967.681823730469 973.729370117188 973.539489746094 978.312866210938 969.983642578125 967.374267578125 968.383605957031 972.066589355469 971.385559082031 974.164733886719 972.647216796875 975.568176269531 973.138549804688 975.169555664062 980.988647460938 983.16357421875 977.654968261719 981.869384765625 988.7587890625 983.980163574219 981.54443359375 980.853088378906 984.801208496094 984.209655761719 991.67626953125 999.623046875 1004.13623046875 1004.96569824219 1003.61224365234 1006.02502441406 997.565856933594 992.1005859375 1002.04565429688 1015.14154052734 1020.90087890625 1027.12561035156 1023.44116210938 1014.77227783203 1026.5673828125 1044.32409667969 1043.50390625 1039.67346191406 1043.57873535156 1048.36730957031 1054.38793945312 1073.32983398438 1085.78100585938 1094.35034179688 1093.68090820312 1098.51489257812 1096.68920898438 1099.37854003906 1108.51843261719 1093.783203125 1104.07287597656 1114.2646484375 1109.423828125 1113.14404296875 1113.9541015625 1113.48181152344 1118.16687011719
961.382202148438 962.885864257812 960.5615234375 961.49658203125 973.705017089844 969.920104980469 972.826782226562 968.22412109375 974.53759765625 990.100219726562 982.982421875 974.294494628906 975.021606445312 976.143615722656 973.480407714844 973.464782714844 966.047973632812 970.827392578125 973.353454589844 969.367492675781 965.579467773438 960.58837890625 961.918640136719 960.582946777344 959.68408203125 960.640808105469 965.895568847656 968.730712890625 967.543273925781 972.703735351562 967.590454101562 964.780456542969 965.969360351562 969.665283203125 968.419311523438 969.74609375 958.156982421875 958.805053710938 955.728393554688 950.218933105469 950.072937011719 955.8271484375 952.023254394531 958.723022460938 957.432067871094 956.249633789062 955.023986816406 952.527221679688 950.5205078125 954.248107910156 954.547180175781 959.079772949219 961.195678710938 951.009338378906 951.185729980469 962.054504394531 953.601318359375 962.406066894531 967.150512695312 959.072937011719 958.367797851562 958.999450683594 957.035278320312 951.399658203125 959.620544433594 964.736267089844 955.875610351562 959.684143066406 952.707580566406 956.031311035156 958.669799804688 971.257019042969 960.396545410156 962.601745605469 967.830749511719 967.599487304688 970.69140625 969.5107421875 967.068908691406 966.723571777344 967.391906738281 958.621154785156 960.895080566406 968.634460449219 969.251831054688 972.397033691406 965.209716796875 965.153625488281 964.289245605469 967.428894042969 965.172912597656 968.641784667969 975.792602539062 973.200988769531 966.952270507812 966.412963867188 962.716369628906 965.889465332031 971.634643554688 977.193664550781 969.27685546875 970.960693359375 969.6015625 976.888793945312 973.333374023438 975.643981933594 983.3369140625 977.911682128906 981.970458984375 981.271301269531 981.649536132812 987.613098144531 986.939270019531 989.099670410156 989.603637695312 1000.62268066406 998.963806152344 996.436645507812 1003.9658203125 993.282409667969 999.055358886719 1000.86102294922 1007.99652099609 1015.78527832031 1021.18353271484 1025.72082519531 1020.20916748047 1024.97644042969 1039.83374023438 1048.37377929688 1045.40759277344 1041.70104980469 1056.0390625 1063.02404785156 1079.51306152344 1089.23779296875 1084.87951660156 1084.31774902344 1084.77905273438 1086.04516601562 1080.19506835938 1082.06787109375 1086.81652832031 1094.26635742188 1097.47766113281 1095.4736328125 1099.50573730469 1096.81262207031 1111.06652832031 1101.060546875
975.101501464844 972.242919921875 968.164794921875 966.359375 965.644226074219 971.45458984375 966.706481933594 961.467224121094 966.519714355469 976.664001464844 975.319519042969 969.462768554688 966.898315429688 969.477294921875 971.818481445312 965.144165039062 967.343811035156 973.222106933594 964.055480957031 963.546691894531 962.396423339844 954.018798828125 956.296325683594 957.492248535156 962.493408203125 967.588317871094 963.525512695312 958.7958984375 967.188537597656 961.968505859375 961.902770996094 964.534118652344 963.344421386719 967.262145996094 962.787048339844 965.889831542969 956.359252929688 958.429565429688 948.915588378906 952.481384277344 956.860778808594 954.356018066406 953.443725585938 953.565979003906 960.586608886719 952.4638671875 947.336669921875 947.319396972656 942.839477539062 942.986938476562 950.901916503906 957.244567871094 958.39013671875 951.129699707031 953.294860839844 955.743347167969 954.895141601562 959.715454101562 969.743408203125 962.050415039062 961.264709472656 954.058410644531 957.320007324219 953.076416015625 955.218322753906 959.22998046875 965.808349609375 960.429809570312 958.198608398438 953.036987304688 957.821838378906 958.894958496094 960.463562011719 974.74169921875 969.950988769531 961.216735839844 966.121337890625 971.690612792969 968.565124511719 966.449035644531 961.930297851562 955.389282226562 962.423461914062 962.679931640625 962.831481933594 970.8095703125 966.447937011719 972.260070800781 967.287414550781 968.286315917969 971.661315917969 962.888244628906 979.938598632812 979.89990234375 963.726257324219 960.222534179688 962.257141113281 976.982482910156 976.791320800781 977.412475585938 977.483337402344 971.987121582031 972.377197265625 973.740051269531 974.93017578125 981.428039550781 983.296630859375 982.651428222656 988.002075195312 983.356140136719 983.173217773438 992.846496582031 989.520080566406 997.097900390625 993.142517089844 994.540466308594 993.334228515625 991.704284667969 994.328796386719 990.945068359375 993.618530273438 1000.95434570312 1012.15679931641 1019.36944580078 1026.49401855469 1017.80401611328 1020.06219482422 1026.64147949219 1028.34240722656 1038.05627441406 1050.73669433594 1045.81628417969 1050.13903808594 1069.38049316406 1074.06030273438 1096.11584472656 1089.92639160156 1077.00073242188 1074.73779296875 1076.29077148438 1066.82446289062 1078.93273925781 1087.2412109375 1073.64013671875 1074.5107421875 1087.17980957031 1092.84777832031 1091.18725585938 1094.212890625 1103.54577636719
972.105590820312 975.738464355469 971.429138183594 971.951599121094 977.699584960938 970.605407714844 975.260192871094 975.193542480469 970.546997070312 970.121826171875 964.67333984375 971.464477539062 970.237548828125 968.673034667969 960.505737304688 967.661254882812 973.320068359375 972.846313476562 973.377563476562 965.645324707031 958.221374511719 953.061157226562 954.883544921875 961.410278320312 961.173461914062 960.073852539062 956.790222167969 964.549987792969 959.456115722656 955.357727050781 962.795593261719 955.690246582031 955.371032714844 965.958862304688 959.160278320312 964.206787109375 961.0888671875 957.015441894531 957.382263183594 960.420654296875 961.784301757812 950.543212890625 956.830383300781 960.009399414062 961.5869140625 951.870971679688 952.20361328125 948.076904296875 947.938720703125 948.521179199219 954.816772460938 954.147644042969 954.918762207031 951.388977050781 954.163879394531 958.373168945312 963.300598144531 962.375183105469 960.701110839844 956.980346679688 953.1044921875 956.766662597656 957.272583007812 945.594604492188 952.935974121094 953.869873046875 955.181274414062 960.734191894531 956.993469238281 954.116394042969 956.432739257812 957.851745605469 958.06005859375 965.561401367188 974.152465820312 966.848205566406 960.682250976562 963.855895996094 963.22900390625 968.268432617188 961.1708984375 962.789245605469 970.281494140625 973.070007324219 966.217651367188 968.688171386719 965.772033691406 962.945129394531 963.619079589844 975.830017089844 969.8984375 970.908142089844 976.873596191406 982.202331542969 977.0810546875 975.091979980469 973.517395019531 983.495361328125 982.160949707031 981.161315917969 979.392944335938 969.752746582031 975.826843261719 971.272705078125 974.893493652344 981.259094238281 980.067016601562 983.768005371094 985.618347167969 981.714599609375 994.572387695312 997.113098144531 992.802612304688 991.852722167969 992.305053710938 996.636108398438 998.510864257812 996.560424804688 985.939453125 994.305725097656 996.48388671875 1001.68615722656 1010.95495605469 1017.93438720703 1020.47613525391 1021.84625244141 1026.3857421875 1032.0224609375 1028.9853515625 1035.86853027344 1038.92016601562 1046.27954101562 1052.96166992188 1064.54321289062 1074.17248535156 1092.16760253906 1084.68432617188 1080.505859375 1060.14904785156 1067.58544921875 1058.62060546875 1069.41003417969 1075.35766601562 1072.13610839844 1070.98376464844 1074.79833984375 1086.14379882812 1084.01379394531 1087.3642578125 1088.11193847656
970.466796875 975.102294921875 970.61767578125 977.645568847656 971.973510742188 978.429870605469 964.958129882812 960.514404296875 968.351989746094 958.302795410156 957.039428710938 965.898620605469 963.624206542969 956.980834960938 949.102661132812 960.796203613281 975.253112792969 972.987182617188 973.467041015625 966.03125 964.419311523438 956.611389160156 958.408569335938 959.88671875 960.057983398438 951.481567382812 955.299926757812 952.312866210938 958.064392089844 952.584838867188 946.740051269531 948.349609375 960.139282226562 963.033752441406 956.344421386719 960.28173828125 957.572692871094 957.799255371094 949.5927734375 950.730834960938 956.723937988281 951.069519042969 951.816223144531 954.699279785156 951.9853515625 951.917175292969 959.139099121094 948.373413085938 949.818725585938 957.500793457031 954.047973632812 952.096008300781 955.573120117188 956.330078125 958.343322753906 954.5400390625 956.987976074219 949.336364746094 956.239685058594 951.777282714844 951.1572265625 953.27880859375 957.737854003906 958.266906738281 948.932861328125 952.932434082031 954.532104492188 953.286499023438 948.972351074219 954.945190429688 955.350524902344 953.731994628906 955.047058105469 957.435607910156 967.649841308594 959.496704101562 952.045227050781 957.556762695312 961.123107910156 963.678039550781 960.090087890625 963.636352539062 965.080810546875 978.057556152344 971.528076171875 968.162048339844 964.079956054688 965.258361816406 971.29052734375 974.029052734375 970.627807617188 971.908935546875 979.051208496094 982.050659179688 984.7109375 987.553894042969 984.64794921875 979.818542480469 982.078674316406 986.123474121094 978.156860351562 982.127380371094 977.350708007812 983.692626953125 984.623596191406 983.405822753906 985.504760742188 986.727355957031 993.295288085938 992.287231445312 997.359191894531 994.095336914062 1008.29180908203 993.136047363281 986.016052246094 991.743469238281 997.922485351562 996.712341308594 994.813293457031 994.502685546875 997.654968261719 1005.65655517578 1006.763671875 1025.267578125 1025.51623535156 1019.01641845703 1026.28100585938 1034.2685546875 1027.408203125 1035.4052734375 1041.17810058594 1049.04333496094 1057.51953125 1063.44909667969 1077.09704589844 1089.96801757812 1087.31237792969 1071.02172851562 1053.44567871094 1052.00012207031 1053.822265625 1052.23400878906 1057.68664550781 1056.3701171875 1058.20751953125 1061.77404785156 1070.7080078125 1080.71105957031 1072.75842285156 1074.28564453125
978.687744140625 980.017883300781 973.592895507812 968.795593261719 964.378662109375 970.437255859375 964.58251953125 959.990783691406 963.025268554688 967.443298339844 961.530822753906 959.229919433594 953.381896972656 954.636901855469 953.1455078125 959.00390625 970.357971191406 972.300415039062 969.14501953125 971.263732910156 961.754821777344 966.329467773438 953.424255371094 957.814819335938 954.009338378906 949.703369140625 945.98388671875 945.755859375 948.392578125 944.757629394531 951.718627929688 949.894470214844 966.9150390625 966.402465820312 958.354187011719 964.163330078125 966.7763671875 960.650451660156 961.716918945312 957.898681640625 955.722106933594 954.760192871094 959.872131347656 950.456359863281 947.62255859375 946.297119140625 951.72607421875 948.675964355469 949.342529296875 957.51513671875 959.190307617188 959.263366699219 952.6220703125 950.304077148438 942.450805664062 953.903381347656 955.815673828125 955.677124023438 952.162048339844 955.991577148438 954.69970703125 956.167358398438 965.154663085938 959.64111328125 950.920593261719 963.247680664062 959.980285644531 959.995422363281 952.869262695312 945.950378417969 962.520874023438 965.308227539062 958.3984375 972.617858886719 965.20849609375 956.455261230469 959.563537597656 965.518798828125 965.201354980469 958.471008300781 963.730346679688 963.860961914062 966.688354492188 974.27685546875 979.066345214844 968.5205078125 965.0791015625 966.123657226562 979.122131347656 965.155822753906 974.947387695312 969.969360351562 973.769165039062 979.34912109375 980.567993164062 977.007507324219 987.974243164062 986.551147460938 977.870788574219 981.288879394531 978.615295410156 982.432861328125 980.780822753906 982.450561523438 976.646179199219 984.531005859375 982.373657226562 992.0927734375 993.659362792969 1000.17462158203 1001.81140136719 995.301208496094 996.056030273438 992.062622070312 993.942199707031 992.784301757812 991.215270996094 997.622680664062 1001.38372802734 1008.91217041016 997.96142578125 998.440612792969 1012.33459472656 1016.47839355469 1017.44421386719 1016.00756835938 1025.23071289062 1031.50207519531 1038.09814453125 1039.85119628906 1054.65222167969 1049.72375488281 1047.15075683594 1060.27868652344 1065.83825683594 1065.60375976562 1065.33410644531 1058.57824707031 1052.89038085938 1043.75476074219 1032.37243652344 1044.00524902344 1047.62316894531 1057.23583984375 1057.56579589844 1053.72338867188 1058.78381347656 1065.58874511719 1062.88159179688 1064.55993652344
973.984008789062 977.107666015625 967.814270019531 970.682983398438 969.994140625 972.146362304688 972.887268066406 968.186401367188 977.958190917969 967.635437011719 966.563598632812 956.787902832031 951.456909179688 951.796875 947.618530273438 960.534118652344 970.725402832031 971.301879882812 975.944885253906 967.810974121094 965.955505371094 961.561279296875 960.843383789062 955.490173339844 956.481384277344 953.8896484375 948.518859863281 942.489379882812 944.517517089844 952.822448730469 949.747314453125 950.704956054688 960.740600585938 964.179138183594 959.567504882812 961.161743164062 960.072021484375 949.537231445312 958.69482421875 944.417297363281 949.717529296875 944.536682128906 948.258728027344 943.502197265625 947.733215332031 949.266479492188 951.904418945312 954.683349609375 949.451416015625 958.537414550781 962.321105957031 950.119140625 955.940063476562 949.453918457031 944.799499511719 951.345275878906 952.715454101562 952.40576171875 961.321166992188 962.405883789062 952.323791503906 960.412780761719 960.107849121094 963.732116699219 959.511779785156 970.870483398438 964.584777832031 964.104431152344 963.306579589844 961.283447265625 962.413757324219 971.725891113281 966.17138671875 969.24462890625 961.209594726562 957.457397460938 956.391784667969 969.331665039062 959.931823730469 962.939758300781 960.990600585938 964.75634765625 964.06640625 964.399169921875 970.470703125 964.6708984375 963.240173339844 970.350769042969 975.550048828125 969.511962890625 967.917114257812 966.467529296875 967.175842285156 976.877624511719 977.405639648438 971.396728515625 981.492492675781 982.009521484375 978.253112792969 968.528930664062 980.8935546875 977.975708007812 983.880187988281 975.423217773438 970.100463867188 974.669616699219 980.580078125 996.131713867188 996.66748046875 1000.11279296875 999.042785644531 994.425659179688 1001.81695556641 996.805847167969 997.735412597656 1006.7685546875 995.051879882812 1004.93408203125 1004.84997558594 1006.11651611328 1004.03369140625 996.087158203125 1007.48767089844 1015.64813232422 1020.31915283203 1021.27172851562 1031.45251464844 1028.06591796875 1026.72058105469 1053.36633300781 1057.37390136719 1057.291015625 1049.97253417969 1054.42529296875 1059.67846679688 1051.49633789062 1052.73132324219 1048.09558105469 1039.44262695312 1028.94836425781 1021.69189453125 1026.45141601562 1040.73645019531 1047.69079589844 1044.04931640625 1044.08471679688 1053.33312988281 1060.26721191406 1059.43359375 1053.64880371094
972.178771972656 977.574584960938 975.87890625 972.616577148438 975.993957519531 971.316711425781 963.708740234375 972.318420410156 965.901184082031 958.894226074219 954.684997558594 952.509765625 955.316101074219 952.905395507812 945.730712890625 958.51708984375 965.006896972656 973.260192871094 971.115905761719 967.341613769531 963.887023925781 960.483642578125 956.706848144531 952.122253417969 942.378295898438 938.458312988281 946.134338378906 942.890197753906 947.975708007812 951.013854980469 944.830993652344 947.256958007812 962.039978027344 953.089111328125 956.391784667969 954.696655273438 952.761047363281 949.715087890625 949.145812988281 948.453552246094 951.230407714844 949.193298339844 951.803039550781 952.722839355469 952.682189941406 954.629455566406 951.9267578125 950.251159667969 938.295959472656 955.371154785156 958.256896972656 952.481384277344 952.992126464844 951.906311035156 944.797424316406 958.790161132812 955.75146484375 956.425415039062 962.839538574219 956.239562988281 957.482177734375 964.033264160156 967.831298828125 959.151611328125 967.115783691406 972.545227050781 973.769775390625 967.56005859375 966.849487304688 964.771179199219 963.548400878906 967.9208984375 968.596740722656 965.317138671875 964.069213867188 964.734313964844 963.650085449219 962.232604980469 959.977661132812 967.815185546875 969.452880859375 966.60498046875 970.456604003906 966.318786621094 963.609619140625 958.219421386719 972.308044433594 972.793212890625 974.548461914062 975.429321289062 972.794372558594 971.323181152344 967.942687988281 973.345336914062 980.039489746094 969.985229492188 976.522888183594 982.024719238281 980.923034667969 975.824401855469 975.314880371094 980.375427246094 981.59375 979.556335449219 987.257507324219 987.951354980469 988.110778808594 996.345031738281 992.52783203125 993.994873046875 994.30078125 992.104614257812 997.281921386719 997.911437988281 1003.96118164062 1005.49584960938 1009.04327392578 1010.28460693359 998.515869140625 999.835998535156 1002.47082519531 1000.73583984375 1009.47796630859 1023.72875976562 1019.70318603516 1018.86853027344 1020.06140136719 1027.57250976562 1031.8173828125 1044.09558105469 1051.58752441406 1052.57849121094 1047.17346191406 1043.0947265625 1045.31921386719 1047.01806640625 1038.30517578125 1037.03845214844 1029.82482910156 1025.74743652344 1024.46252441406 1020.33551025391 1029.45434570312 1047.17199707031 1042.30456542969 1037.13403320312 1047.76794433594 1048.13220214844 1038.5087890625 1044.09851074219
967.626281738281 973.30224609375 973.707153320312 973.499633789062 973.061767578125 967.377075195312 970.103942871094 971.713989257812 967.418029785156 957.655639648438 955.312377929688 954.563171386719 956.843322753906 951.745971679688 954.316223144531 961.748657226562 963.127624511719 961.596984863281 973.004028320312 963.027587890625 958.627502441406 951.862854003906 947.931701660156 944.517517089844 944.614990234375 942.536071777344 937.899719238281 942.90234375 950.673767089844 948.228698730469 945.459167480469 949.313781738281 959.247497558594 948.293701171875 943.273559570312 945.628173828125 948.169860839844 950.475769042969 943.841796875 948.086608886719 952.139709472656 947.707702636719 954.035461425781 957.235107421875 953.294311523438 955.968566894531 948.608825683594 948.943054199219 940.277954101562 948.790893554688 954.185302734375 953.252197265625 952.549011230469 951.208557128906 955.86865234375 960.646423339844 958.446533203125 956.328979492188 965.440856933594 961.798950195312 961.2568359375 967.204223632812 957.701049804688 961.741271972656 971.223205566406 970.407348632812 975.689025878906 972.3017578125 972.830383300781 974.080932617188 966.383056640625 969.05126953125 970.16943359375 965.881652832031 970.874450683594 963.374938964844 955.9208984375 956.083740234375 961.993469238281 967.572509765625 970.622741699219 970.837280273438 969.262390136719 962.219177246094 968.904479980469 969.216613769531 979.692565917969 976.206726074219 974.350708007812 974.356872558594 972.607482910156 964.054626464844 971.514221191406 975.216979980469 989.031982421875 979.714721679688 971.751281738281 967.488220214844 979.325561523438 980.476440429688 978.033386230469 978.315002441406 980.96484375 976.703063964844 985.865234375 990.171813964844 991.068481445312 984.4482421875 983.043823242188 989.953186035156 989.131896972656 991.271057128906 995.036499023438 1001.55249023438 1004.42749023438 1003.35717773438 1003.73620605469 994.551086425781 999.256408691406 1005.21215820312 1015.89416503906 1012.15032958984 1017.33135986328 1023.59753417969 1023.93817138672 1015.77136230469 1024.09545898438 1024.27294921875 1032.98120117188 1034.1572265625 1044.1376953125 1045.5302734375 1041.30993652344 1039.03210449219 1042.66198730469 1049.62976074219 1034.58679199219 1030.84777832031 1021.04858398438 1031.1298828125 1031.83325195312 1032.50512695312 1028.68603515625 1038.62182617188 1035.91259765625 1034.36315917969 1034.37060546875 1030.59802246094 1028.05847167969 1024.5986328125
962.145080566406 972.066528320312 968.447448730469 968.2861328125 977.061706542969 962.445068359375 965.2568359375 963.840087890625 960.235717773438 957.438781738281 954.877685546875 961.053344726562 963.503601074219 949.916809082031 951.589782714844 957.697082519531 962.886291503906 961.321838378906 963.230346679688 957.687072753906 949.030883789062 944.7265625 942.374755859375 941.78515625 945.022888183594 942.322814941406 939.844543457031 941.544555664062 943.407775878906 947.617431640625 951.9423828125 951.974243164062 946.75537109375 945.261291503906 947.882263183594 948.4814453125 946.131713867188 947.897705078125 952.9375 947.969421386719 948.673522949219 958.502685546875 948.802185058594 951.865783691406 949.744384765625 959.507446289062 958.348876953125 961.394287109375 951.96875 951.514953613281 950.542846679688 950.722839355469 953.757751464844 959.046630859375 960.522094726562 961.3984375 964.532958984375 962.949279785156 962.599548339844 965.8994140625 971.962280273438 967.219787597656 965.634948730469 968.781433105469 967.682556152344 969.642578125 976.809387207031 972.0986328125 961.767578125 964.731628417969 967.104125976562 963.377319335938 970.2060546875 966.968017578125 967.442932128906 961.516479492188 960.831909179688 954.80908203125 961.115356445312 970.08203125 966.591369628906 973.130004882812 974.537170410156 972.541870117188 970.178344726562 980.792541503906 972.558532714844 977.060791015625 981.338012695312 974.456604003906 974.211669921875 963.864929199219 970.384765625 982.464233398438 991.751831054688 977.750915527344 966.456420898438 968.355346679688 974.320129394531 978.936279296875 984.342956542969 977.588745117188 981.58251953125 976.314636230469 985.954162597656 999.334350585938 988.375793457031 984.813903808594 981.452209472656 988.671691894531 990.282470703125 991.585021972656 1007.86926269531 1005.43182373047 1000.48089599609 1001.47937011719 993.500427246094 1008.44372558594 1005.10302734375 1009.51348876953 1021.60815429688 1021.50384521484 1026.13549804688 1026.60888671875 1020.82000732422 1023.46630859375 1019.59967041016 1028.15661621094 1029.9013671875 1036.57788085938 1046.98046875 1049.37243652344 1043.61706542969 1044.98547363281 1043.07080078125 1039.81774902344 1035.42517089844 1028.40710449219 1036.11486816406 1036.60827636719 1032.32080078125 1034.40832519531 1032.93969726562 1039.70422363281 1031.32470703125 1026.98828125 1023.69989013672 1022.15783691406 1018.56262207031 1018.90600585938
955.589416503906 959.454345703125 958.925903320312 961.094970703125 966.687744140625 966.233154296875 966.753662109375 960.528015136719 958.490539550781 955.351989746094 959.209167480469 958.593566894531 960.003723144531 949.873474121094 949.058898925781 953.779052734375 949.769592285156 959.119445800781 951.609313964844 945.607177734375 949.481018066406 937.456237792969 936.250671386719 939.404479980469 940.213989257812 937.017028808594 938.84130859375 941.732421875 944.12548828125 949.561340332031 953.766906738281 950.096313476562 942.903991699219 952.753967285156 950.90673828125 950.619201660156 947.368957519531 952.823364257812 948.236877441406 954.712341308594 951.605651855469 955.223999023438 951.973327636719 947.192016601562 958.502685546875 962.200134277344 963.583618164062 962.421203613281 952.724975585938 950.204345703125 955.09228515625 956.393005371094 964.197143554688 959.768676757812 965.806518554688 958.898681640625 960.21826171875 971.495239257812 966.725646972656 967.885131835938 973.167724609375 964.515686035156 968.541076660156 974.852905273438 973.335388183594 970.771850585938 976.77978515625 975.786804199219 966.848266601562 964.312561035156 972.234680175781 974.317993164062 978.679931640625 969.560607910156 971.808166503906 967.250793457031 954.968383789062 964.30859375 970.015319824219 972.679138183594 963.085876464844 972.512084960938 981.162719726562 978.718933105469 979.556884765625 986.4658203125 976.181945800781 977.601867675781 982.132690429688 979.310668945312 971.617248535156 962.399597167969 973.849670410156 981.861267089844 988.609985351562 976.914001464844 974.972839355469 972.325012207031 988.869140625 983.791625976562 980.310546875 972.47509765625 975.448791503906 978.238952636719 984.871337890625 992.883239746094 992.714416503906 986.470581054688 991.183471679688 984.466125488281 1001.58892822266 996.856750488281 1006.60308837891 999.051330566406 1007.52239990234 1005.28985595703 995.508422851562 1012.62945556641 1011.65209960938 1012.34582519531 1016.39263916016 1025.56591796875 1033.53869628906 1036.75500488281 1024.91674804688 1025.65307617188 1020.08874511719 1022.47161865234 1029.23901367188 1029.76586914062 1043.71228027344 1048.26916503906 1045.41015625 1045.59130859375 1036.77331542969 1041.60412597656 1042.47119140625 1031.10498046875 1024.69934082031 1027.24096679688 1031.04052734375 1030.494140625 1030.90405273438 1031.02404785156 1027.95471191406 1022.39227294922 1020.90759277344 1021.03393554688 1020.60021972656 1016.98040771484
953.315124511719 956.6572265625 967.487854003906 955.338928222656 963.387023925781 964.319702148438 965.671081542969 960.881591796875 959.730102539062 957.160888671875 949.338439941406 950.783386230469 953.085693359375 945.261474609375 941.84228515625 945.323669433594 947.757507324219 940.961547851562 947.089965820312 947.010803222656 949.471130371094 943.986267089844 938.841003417969 936.457885742188 947.152648925781 947.361511230469 938.704528808594 943.679016113281 950.631103515625 954.477905273438 948.895385742188 950.109069824219 952.3544921875 943.156433105469 943.658508300781 948.8740234375 941.396545410156 949.587219238281 953.958801269531 956.328308105469 959.671569824219 957.362976074219 954.755676269531 953.316955566406 959.054809570312 959.493713378906 972.633972167969 960.364135742188 959.2724609375 959.098937988281 959.815795898438 953.367614746094 958.0322265625 969.028686523438 964.0625 964.359924316406 965.528076171875 977.473999023438 974.321899414062 970.561218261719 978.001892089844 973.738891601562 963.023803710938 972.517822265625 965.956237792969 973.277526855469 969.604064941406 968.060546875 967.899658203125 970.836608886719 973.996154785156 977.835815429688 973.693420410156 973.139099121094 970.624877929688 968.35791015625 966.348693847656 968.64404296875 970.711730957031 970.938659667969 973.482604980469 971.784423828125 977.512634277344 977.812866210938 985.018981933594 987.582885742188 985.490844726562 981.865844726562 979.800598144531 973.266235351562 973.620178222656 973.698364257812 980.326171875 984.307067871094 983.673889160156 977.42724609375 979.335388183594 980.289184570312 991.564453125 988.595092773438 985.021484375 977.292114257812 968.626037597656 980.43603515625 994.957946777344 988.074584960938 993.696411132812 995.353393554688 996.550964355469 1003.12286376953 999.897338867188 998.59228515625 1006.14147949219 1001.78216552734 1009.134765625 1012.3759765625 1006.92578125 1013.86730957031 1020.16333007812 1024.55151367188 1024.32165527344 1025.96130371094 1034.25939941406 1037.41357421875 1038.17346191406 1021.76007080078 1017.07641601562 1017.78558349609 1025.73608398438 1021.37170410156 1030.23425292969 1047.3896484375 1040.42810058594 1037.38854980469 1038.04370117188 1041.37512207031 1048.16345214844 1032.58154296875 1033.04357910156 1030.11511230469 1031.92590332031 1028.09240722656 1022.37744140625 1018.76159667969 1013.92529296875 1023.34558105469 1014.97998046875 1022.33123779297 1019.61273193359 1011.55291748047
952.6767578125 948.173950195312 951.091979980469 957.82666015625 968.513671875 956.359436035156 955.151794433594 950.138671875 948.709655761719 949.0927734375 952.009582519531 943.838989257812 941.251098632812 945.9931640625 941.10302734375 946.997497558594 945.968566894531 942.229370117188 940.455383300781 933.177978515625 946.738708496094 948.973449707031 945.970275878906 942.894897460938 942.560302734375 941.811584472656 943.951904296875 950.347961425781 942.435241699219 943.912048339844 945.013671875 948.237915039062 957.185363769531 951.489990234375 950.015441894531 948.999938964844 939.282592773438 947.221313476562 947.578918457031 956.401550292969 968.228881835938 956.154296875 964.138610839844 960.075805664062 967.557006835938 968.329956054688 980.420349121094 978.702880859375 967.690185546875 966.919494628906 969.283813476562 962.165222167969 966.122009277344 972.918029785156 962.930053710938 968.834533691406 974.165466308594 981.966125488281 980.498229980469 974.9326171875 969.561096191406 967.131958007812 967.211486816406 966.176818847656 960.73828125 965.287414550781 965.825012207031 966.139038085938 972.634460449219 966.467407226562 976.44677734375 979.528381347656 982.74072265625 984.884399414062 980.6669921875 978.022583007812 971.481384277344 967.151489257812 978.706909179688 979.129089355469 973.209533691406 973.630859375 977.001586914062 981.128601074219 979.798278808594 987.886352539062 986.45703125 981.495483398438 976.012573242188 971.059326171875 982.848937988281 981.558959960938 982.230407714844 981.486633300781 986.633666992188 985.438720703125 981.629150390625 983.860778808594 994.171081542969 995.612365722656 979.714050292969 974.964172363281 978.518310546875 989.67529296875 993.625366210938 992.429382324219 992.5732421875 997.811401367188 1002.91345214844 1013.32623291016 1015.78619384766 1008.55657958984 1011.1455078125 1006.84399414062 1012.20355224609 1020.30981445312 1017.73468017578 1025.62573242188 1031.72082519531 1028.28930664062 1027.73864746094 1028.27429199219 1024.06408691406 1033.0537109375 1034.21630859375 1028.06469726562 1018.02838134766 1024.23278808594 1022.09869384766 1022.20874023438 1033.47717285156 1038.15893554688 1037.65856933594 1036.28576660156 1034.61071777344 1042.14428710938 1042.40393066406 1040.81713867188 1030.49853515625 1025.66027832031 1026.77062988281 1019.73150634766 1022.00341796875 1022.79626464844 1015.85534667969 1014.41802978516 1018.84851074219 1013.88757324219 1007.11553955078 1009.12005615234
957.8056640625 956.745544433594 952.453857421875 956.388488769531 961.469787597656 953.4736328125 951.885314941406 948.021118164062 941.752563476562 937.789489746094 944.864013671875 939.730529785156 944.370971679688 951.313598632812 956.6103515625 947.344360351562 948.878051757812 941.114562988281 937.17919921875 939.569885253906 950.069396972656 949.0361328125 943.513977050781 949.378112792969 953.501647949219 951.619079589844 949.865051269531 942.502014160156 950.604064941406 938.129150390625 939.059326171875 948.978942871094 945.778381347656 952.05126953125 947.638793945312 954.908996582031 946.490295410156 947.659240722656 956.607788085938 959.164978027344 954.368530273438 958.566162109375 968.077270507812 977.732116699219 975.007080078125 979.268249511719 980.350952148438 974.804443359375 976.332092285156 967.354248046875 961.605895996094 975.040710449219 967.187866210938 973.682189941406 975.385803222656 972.471496582031 972.208740234375 976.334289550781 973.203552246094 971.30908203125 959.674194335938 958.210693359375 963.243469238281 964.925537109375 958.274658203125 952.752502441406 962.445373535156 968.043640136719 972.710632324219 974.628112792969 977.899047851562 976.272644042969 980.38720703125 981.837036132812 973.635009765625 976.746154785156 966.8564453125 966.148376464844 975.174743652344 971.691223144531 975.047424316406 968.775451660156 969.930358886719 983.553344726562 981.125244140625 978.897827148438 992.585510253906 978.909301757812 976.48779296875 975.478820800781 975.117065429688 981.157775878906 980.246398925781 972.127136230469 977.801818847656 972.995849609375 983.405090332031 982.244323730469 983.6005859375 993.610900878906 980.054931640625 982.96875 983.5986328125 989.033020019531 1000.6494140625 990.031188964844 988.791015625 985.36328125 1008.44982910156 1020.50170898438 1019.22973632812 1019.56909179688 1015.02850341797 1018.30633544922 1027.1806640625 1025.6689453125 1034.55798339844 1041.17456054688 1033.83776855469 1030.46166992188 1030.68701171875 1026.68151855469 1022.01055908203 1035.93859863281 1031.15588378906 1026.71398925781 1025.83837890625 1020.67065429688 1020.87561035156 1016.57635498047 1020.79901123047 1031.89660644531 1037.41674804688 1035.72424316406 1040.3828125 1031.80444335938 1029.26513671875 1033.73229980469 1034.38330078125 1023.86175537109 1014.83929443359 1015.08020019531 1019.01617431641 1021.93804931641 1014.08837890625 1013.67602539062 1005.0634765625 1011.81530761719 1004.025390625 1003.95397949219
949.731323242188 948.941589355469 949.660278320312 950.527465820312 948.961853027344 946.932861328125 947.120666503906 945.93359375 938.548828125 943.229797363281 951.750610351562 947.098388671875 950.979064941406 959.401672363281 957.669494628906 949.66796875 955.987487792969 949.304565429688 940.114685058594 949.900939941406 946.31298828125 958.4189453125 954.883605957031 945.677001953125 947.962951660156 949.477844238281 949.715576171875 939.951904296875 948.043029785156 944.140747070312 937.376037597656 947.47265625 955.651062011719 946.476989746094 953.342834472656 952.947448730469 959.514221191406 958.159545898438 951.473388671875 959.166259765625 957.947326660156 952.361877441406 963.41357421875 964.152893066406 966.732666015625 971.892761230469 974.7001953125 980.406555175781 972.440979003906 977.80517578125 976.584289550781 976.010681152344 970.991943359375 968.897583007812 970.593139648438 969.582580566406 972.562438964844 968.941345214844 970.969421386719 963.041748046875 958.736328125 956.180603027344 960.729553222656 969.343200683594 961.249267578125 961.375549316406 968.421203613281 973.063659667969 977.747863769531 983.789367675781 980.060791015625 978.919555664062 981.577026367188 979.491333007812 974.893127441406 979.061767578125 978.160522460938 975.022705078125 974.659973144531 971.598693847656 973.82763671875 978.101928710938 982.787170410156 984.200317382812 985.637634277344 986.77392578125 981.829467773438 981.368591308594 977.300598144531 971.439636230469 984.434448242188 988.75927734375 984.410522460938 977.280334472656 981.2333984375 974.522033691406 980.608642578125 980.715576171875 979.385131835938 994.875610351562 988.981994628906 991.4970703125 993.695068359375 996.109558105469 988.40869140625 990.900695800781 987.428833007812 995.766479492188 1008.1357421875 1013.87042236328 1022.41961669922 1022.57214355469 1023.29742431641 1031.63146972656 1027.37512207031 1030.40295410156 1030.24951171875 1041.30505371094 1031.35339355469 1036.56323242188 1036.98046875 1028.46923828125 1034.97265625 1035.63659667969 1033.79870605469 1036.62060546875 1023.87481689453 1023.23175048828 1014.89813232422 1016.53955078125 1023.98980712891 1028.78845214844 1030.46740722656 1036.29406738281 1034.72497558594 1029.05310058594 1024.72583007812 1024.32275390625 1020.93469238281 1011.04718017578 1015.38909912109 1008.70916748047 1014.30456542969 1014.26641845703 1017.02429199219 1011.51214599609 999.121765136719 1009.77172851562 1004.73651123047 1008.25549316406
955.985656738281 962.115966796875 959.151062011719 952.592895507812 944.815795898438 943.898559570312 944.0810546875 944.052368164062 950.519714355469 942.792053222656 943.934631347656 950.170043945312 954.516784667969 959.638427734375 953.967163085938 953.006591796875 955.634948730469 961.316467285156 947.715942382812 950.101379394531 949.343933105469 958.974243164062 954.575073242188 954.208068847656 953.757629394531 956.816284179688 953.362487792969 944.721069335938 944.397216796875 944.621215820312 948.369750976562 952.967224121094 958.032043457031 949.629211425781 946.858581542969 947.460571289062 950.081726074219 956.412048339844 965.91455078125 960.566650390625 962.516845703125 959.259338378906 964.6982421875 967.87548828125 968.274658203125 972.734741210938 976.805847167969 982.475646972656 985.080139160156 984.201416015625 979.617370605469 980.270812988281 980.006958007812 967.794311523438 969.563293457031 974.136901855469 969.622802734375 968.590576171875 970.546447753906 961.080810546875 967.96875 962.023620605469 965.013671875 968.331420898438 968.797119140625 962.570068359375 963.936157226562 971.489074707031 978.513610839844 979.359558105469 981.081665039062 977.419128417969 985.071166992188 981.407470703125 975.633972167969 975.5849609375 979.907165527344 977.454528808594 988.119079589844 977.09521484375 982.987915039062 980.916198730469 985.196472167969 988.468322753906 987.606079101562 978.747253417969 981.854431152344 991.373779296875 984.537841796875 975.718688964844 981.909729003906 983.194213867188 978.642578125 974.447692871094 977.275085449219 987.733825683594 995.371765136719 987.916870117188 988.108764648438 991.701293945312 992.512878417969 1006.03314208984 1005.53924560547 991.493286132812 1002.23162841797 992.814758300781 1002.56512451172 1004.26928710938 1014.08428955078 1025.74255371094 1029.912109375 1025.75329589844 1026.51538085938 1026.01403808594 1032.48620605469 1032.55187988281 1042.29370117188 1039.50891113281 1032.62951660156 1031.76452636719 1037.35827636719 1031.24096679688 1031.4638671875 1033.62109375 1027.92224121094 1035.45886230469 1025.69921875 1019.60186767578 1021.23266601562 1017.05474853516 1027.57568359375 1032.39221191406 1027.19689941406 1024.29479980469 1019.1875 1028.25451660156 1025.17858886719 1020.96734619141 1023.62878417969 1010.94934082031 1017.42010498047 1019.68310546875 1012.77270507812 1012.05419921875 1012.31372070312 1001.29864501953 996.15966796875 999.532104492188 1001.69866943359 1006.4658203125
953.5166015625 962.355712890625 954.395874023438 951.158752441406 942.495788574219 951.660461425781 937.797119140625 941.580627441406 936.668884277344 938.715515136719 941.509216308594 948.108764648438 954.228332519531 961.114013671875 961.498413085938 969.508361816406 960.018859863281 963.310241699219 955.786804199219 961.495056152344 951.537109375 953.117797851562 952.091491699219 958.234680175781 957.640441894531 958.755920410156 950.69287109375 942.533020019531 941.467224121094 944.500366210938 950.506286621094 952.904968261719 954.744812011719 952.831787109375 957.529907226562 957.594665527344 964.6591796875 956.429382324219 961.389099121094 960.835021972656 961.412109375 958.868286132812 968.204345703125 969.616455078125 975.687316894531 970.574951171875 985.809143066406 992.653930664062 995.535949707031 982.702941894531 978.154174804688 975.656066894531 971.866455078125 967.276794433594 961.414855957031 973.301391601562 973.918029785156 972.101806640625 967.331970214844 970.308837890625 977.291625976562 967.545043945312 961.243408203125 964.329162597656 970.537170410156 965.552734375 973.959533691406 971.156433105469 973.922973632812 983.9658203125 987.080932617188 976.043273925781 978.565124511719 979.557800292969 980.059814453125 978.367980957031 979.592224121094 984.689880371094 979.276794433594 982.946105957031 980.704284667969 980.325378417969 989.771667480469 994.966979980469 989.11767578125 981.858642578125 989.005310058594 987.293334960938 981.55419921875 978.75146484375 981.207092285156 979.286926269531 975.160766601562 973.311584472656 985.464172363281 995.257446289062 994.058898925781 994.684020996094 995.228149414062 993.424926757812 991.211791992188 998.221374511719 1002.34008789062 994.167358398438 1004.58068847656 995.174499511719 1001.33312988281 1003.91802978516 1007.91186523438 1023.46215820312 1025.63684082031 1028.43322753906 1025.98388671875 1026.07189941406 1025.96667480469 1031.70861816406 1035.26501464844 1039.51672363281 1041.93469238281 1038.12963867188 1039.57104492188 1043.89526367188 1035.94677734375 1032.38830566406 1025.4921875 1035.31909179688 1024.29602050781 1018.9248046875 1020.38079833984 1014.01647949219 1021.26959228516 1027.73620605469 1022.6318359375 1015.84594726562 1015.19079589844 1024.02648925781 1026.01379394531 1025.69799804688 1024.70166015625 1016.25970458984 1013.91729736328 1010.39434814453 1017.59057617188 1009.56762695312 1010.26763916016 1006.72766113281 999.103576660156 992.356201171875 994.736328125 996.389099121094
955.447998046875 949.224182128906 946.375 946.493469238281 945.243835449219 934.625732421875 932.969909667969 934.042175292969 946.874328613281 945.067565917969 959.083251953125 959.242919921875 952.153686523438 964.297668457031 968.090881347656 968.205261230469 967.633056640625 964.630493164062 964.977355957031 966.37744140625 955.247680664062 957.676208496094 957.6845703125 949.932373046875 959.816467285156 957.087341308594 951.900695800781 945.511535644531 947.1552734375 948.941467285156 960.474853515625 960.975646972656 959.291320800781 964.480346679688 961.502807617188 957.5126953125 967.707641601562 969.322082519531 975.244384765625 969.110595703125 965.032592773438 971.925109863281 975.667053222656 979.290893554688 975.386291503906 977.978576660156 983.348266601562 990.432189941406 999.994750976562 986.769836425781 987.497009277344 987.545593261719 969.874633789062 962.775329589844 966.304260253906 974.044250488281 968.313049316406 972.898193359375 967.391967773438 972.650146484375 974.408996582031 971.974853515625 968.008911132812 961.62255859375 964.881164550781 971.1689453125 974.8291015625 976.607055664062 986.463195800781 989.088806152344 988.333557128906 981.681030273438 979.162231445312 984.679443359375 986.306762695312 987.777893066406 986.391845703125 990.125183105469 989.033996582031 977.314453125 981.285583496094 988.663024902344 988.923522949219 996.67529296875 994.2265625 989.658325195312 987.496337890625 985.846374511719 988.928405761719 981.001647949219 975.878540039062 976.31201171875 974.97314453125 980.784790039062 995.950866699219 989.822937011719 994.085205078125 1000.82397460938 1001.78509521484 997.046020507812 990.339416503906 996.089233398438 996.911926269531 1002.80499267578 1002.88208007812 1000.77587890625 1002.44854736328 1003.07537841797 1008.82861328125 1017.70251464844 1022.78656005859 1021.26031494141 1026.71484375 1027.69775390625 1029.29760742188 1035.45068359375 1039.78295898438 1035.48913574219 1042.17053222656 1034.18566894531 1042.65905761719 1043.27917480469 1042.05041503906 1033.55773925781 1033.41918945312 1030.0068359375 1019.35223388672 1020.23443603516 1015.09478759766 1022.85327148438 1020.84204101562 1023.37255859375 1017.54187011719 1014.04595947266 1016.75579833984 1026.47119140625 1026.66955566406 1027.82397460938 1018.23516845703 1017.28076171875 1019.91259765625 1013.02081298828 1007.57000732422 1006.22546386719 1004.05419921875 1002.48834228516 998.050476074219 993.264526367188 989.700805664062 993.785827636719
939.45703125 942.995544433594 957.144226074219 942.34765625 940.306701660156 939.599609375 934.538269042969 931.899719238281 947.81396484375 944.564575195312 954.809387207031 966.9150390625 965.842590332031 974.133117675781 974.171752929688 976.494567871094 982.438659667969 967.86474609375 968.383911132812 969.495239257812 959.899230957031 956.206604003906 949.419067382812 950.782592773438 956.171752929688 962.203308105469 962.590209960938 964.59228515625 970.570617675781 973.940307617188 977.9345703125 974.510375976562 971.996398925781 962.363891601562 968.3076171875 970.232360839844 970.586242675781 977.734619140625 976.546325683594 973.961608886719 968.400024414062 979.879516601562 980.528442382812 993.191772460938 989.90380859375 989.144165039062 985.834289550781 994.6689453125 995.81787109375 1000.19580078125 993.969299316406 981.391723632812 982.443420410156 974.433410644531 975.791442871094 973.247497558594 972.565490722656 978.09912109375 977.344970703125 976.081787109375 969.323974609375 966.72705078125 958.033874511719 970.524597167969 963.047607421875 977.904296875 969.550476074219 976.560424804688 976.628662109375 986.733276367188 982.702087402344 986.772216796875 983.282348632812 983.194641113281 987.778137207031 987.468139648438 996.518981933594 995.538330078125 988.156616210938 979.960021972656 982.350402832031 989.931823730469 991.854797363281 992.640563964844 993.25732421875 988.972595214844 984.390625 983.986206054688 982.981201171875 970.730224609375 965.915771484375 978.205017089844 977.661560058594 983.971862792969 986.484008789062 990.02685546875 992.933776855469 1005.17559814453 1005.3603515625 999.390319824219 994.486022949219 983.365173339844 991.794799804688 996.509033203125 1003.84338378906 1000.55731201172 1000.91333007812 1003.4150390625 1018.40545654297 1025.97619628906 1028.5654296875 1020.01586914062 1017.93194580078 1023.58135986328 1030.90686035156 1031.93762207031 1040.78698730469 1036.94995117188 1028.744140625 1037.5966796875 1042.80249023438 1038.01818847656 1046.99926757812 1033.697265625 1037.63977050781 1026.18896484375 1027.478515625 1017.61901855469 1011.73840332031 1019.36224365234 1021.09143066406 1014.4150390625 1019.46630859375 1021.30639648438 1013.48291015625 1019.06140136719 1026.15612792969 1020.89276123047 1018.45135498047 1014.87310791016 1007.14703369141 1008.52160644531 1011.24182128906 999.500549316406 1002.49914550781 1000.62463378906 993.974365234375 996.902954101562 999.306762695312 994.377624511719
938.531005859375 943.457458496094 944.330139160156 931.986999511719 929.273620605469 934.096008300781 938.687438964844 938.989074707031 955.686096191406 950.817016601562 953.082580566406 963.678039550781 968.542663574219 973.5712890625 979.361267089844 974.594787597656 972.168823242188 973.126586914062 974.114135742188 966.531433105469 968.753173828125 970.129577636719 960.24755859375 952.124938964844 961.991821289062 959.800415039062 962.105773925781 969.047912597656 972.692565917969 975.674072265625 978.072387695312 983.794982910156 975.184387207031 973.509033203125 970.802734375 970.531494140625 976.118591308594 980.776062011719 980.488708496094 981.705871582031 988.834167480469 986.693054199219 990.123046875 1000.75073242188 1002.29919433594 996.873718261719 991.624572753906 994.812622070312 994.076599121094 1003.45043945312 989.943298339844 983.950256347656 977.743347167969 979.99755859375 983.2119140625 981.48046875 978.283874511719 982.228881835938 981.510986328125 976.018798828125 975.668518066406 969.163879394531 972.555480957031 961.85009765625 964.795776367188 970.143127441406 970.378540039062 975.493713378906 979.678283691406 980.251281738281 979.924560546875 979.513549804688 984.345397949219 984.552795410156 987.335571289062 992.177795410156 992.816528320312 994.02490234375 991.352600097656 989.172546386719 982.456176757812 986.905029296875 984.164184570312 989.734252929688 992.566589355469 981.339721679688 985.9140625 976.474304199219 984.838806152344 971.608520507812 973.486328125 979.756652832031 975.718322753906 989.502136230469 996.719299316406 993.176025390625 997.642944335938 1000.57647705078 1003.58087158203 989.746765136719 988.736999511719 992.398681640625 993.79052734375 1002.33312988281 1002.18487548828 1007.69995117188 1002.45001220703 1012.72106933594 1024.18493652344 1030.68481445312 1024.88464355469 1025.53198242188 1030.03979492188 1032.39587402344 1029.40856933594 1037.88732910156 1033.79064941406 1034.32434082031 1030.84985351562 1027.21997070312 1036.01818847656 1040.68688964844 1027.55432128906 1028.71264648438 1025.81799316406 1015.35668945312 1019.23486328125 1012.77880859375 1016.39770507812 1023.63903808594 1021.87878417969 1015.53594970703 1023.66339111328 1025.05639648438 1017.62969970703 1021.36346435547 1022.24652099609 1011.02001953125 1009.08618164062 1009.84820556641 995.272216796875 1000.75439453125 1002.44720458984 1004.75646972656 1002.65496826172 995.764465332031 995.368774414062 999.074523925781 1000.56372070312 999.043518066406
929.423889160156 941.105102539062 937.625244140625 935.548278808594 936.440612792969 936.662658691406 943.563110351562 943.147033691406 947.051452636719 953.587768554688 964.443481445312 971.016296386719 979.956787109375 970.438537597656 973.981323242188 974.719848632812 969.554443359375 976.743530273438 980.296142578125 982.080139160156 988.919311523438 978.78369140625 967.637451171875 961.970275878906 963.070129394531 964.120422363281 966.437133789062 974.204467773438 979.360778808594 982.132080078125 985.68603515625 988.348388671875 972.171875 974.205627441406 978.233764648438 979.564208984375 986.961364746094 984.063842773438 984.011901855469 991.678649902344 993.059753417969 988.611267089844 987.514892578125 997.213195800781 997.9970703125 994.637512207031 997.020874023438 999.119323730469 1001.11761474609 995.620544433594 998.464721679688 997.220886230469 987.561279296875 980.376098632812 983.953674316406 978.865478515625 978.85791015625 977.730407714844 985.746337890625 972.764709472656 969.950988769531 973.545776367188 971.125 963.338012695312 953.77734375 962.372802734375 969.938720703125 976.955505371094 983.745422363281 979.785034179688 980.460021972656 981.438049316406 985.64208984375 982.622802734375 986.029418945312 994.897888183594 994.912048339844 989.530822753906 988.447509765625 993.912902832031 992.019348144531 983.087951660156 982.998046875 986.874755859375 987.6005859375 985.192199707031 983.898071289062 983.2568359375 987.672058105469 980.585632324219 979.849304199219 982.363037109375 982.343139648438 984.977478027344 991.3447265625 992.317260742188 999.427551269531 1003.74493408203 1000.19714355469 998.665100097656 994.775207519531 997.673034667969 996.445007324219 999.702880859375 1003.32641601562 1008.68688964844 1007.70642089844 1013.45483398438 1022.7626953125 1020.07330322266 1029.09741210938 1034.89916992188 1032.67614746094 1039.64367675781 1046.71948242188 1038.98608398438 1035.93774414062 1028.4697265625 1025.15344238281 1023.79071044922 1023.35052490234 1027.76745605469 1020.373046875 1012.35748291016 1024.53942871094 1025.74145507812 1018.45788574219 1011.28210449219 1016.39294433594 1020.52508544922 1021.83636474609 1020.04583740234 1032.44616699219 1027.33972167969 1020.47967529297 1013.73327636719 1015.61352539062 1015.48864746094 1006.75787353516 997.737121582031 998.909729003906 992.848876953125 992.008605957031 994.995239257812 1000.39666748047 997.597290039062 992.619262695312 999.27490234375 991.890441894531 996.096862792969
936.619689941406 939.086975097656 933.543029785156 931.860900878906 924.2421875 931.385131835938 942.651306152344 941.298950195312 934.660339355469 946.487670898438 955.967834472656 971.425720214844 977.827453613281 979.778625488281 984.511108398438 982.6240234375 973.062866210938 985.428894042969 977.906494140625 983.577331542969 983.904235839844 980.732116699219 973.1767578125 970.001281738281 974.801330566406 973.639831542969 983.050964355469 973.151977539062 970.486938476562 980.896789550781 972.432861328125 982.188110351562 973.982360839844 980.49560546875 981.848266601562 990.283813476562 991.529907226562 991.942016601562 991.735717773438 996.117248535156 1006.19537353516 1006.25555419922 1007.14398193359 1004.06219482422 1001.66766357422 1000.95861816406 1006.46923828125 1003.88110351562 1010.62329101562 1008.21459960938 1003.80487060547 997.474914550781 986.156127929688 983.714538574219 982.864685058594 981.091979980469 984.261779785156 987.115417480469 976.879821777344 975.249084472656 970.109191894531 975.459045410156 972.9404296875 968.512145996094 964.165710449219 969.931701660156 975.154174804688 986.072937011719 988.255310058594 981.065368652344 985.106994628906 993.731262207031 995.607421875 999.317565917969 989.608947753906 987.460510253906 992.172302246094 996.805297851562 987.2841796875 988.74853515625 991.145874023438 991.491149902344 984.885192871094 991.358947753906 990.336608886719 989.50830078125 980.785278320312 988.854858398438 996.156494140625 988.441650390625 981.460693359375 986.9150390625 983.558654785156 986.132385253906 989.968994140625 995.633422851562 994.261108398438 999.441528320312 997.6494140625 998.865539550781 1001.27770996094 1003.61499023438 998.165100097656 1011.35650634766 1005.25872802734 1006.74694824219 1013.53601074219 1017.47039794922 1021.24420166016 1023.17333984375 1030.98266601562 1031.80004882812 1033.05737304688 1035.94421386719 1039.12255859375 1048.05712890625 1033.51110839844 1021.71600341797 1019.55200195312 1010.46301269531 1011.32952880859 1013.05322265625 1017.13146972656 1016.58483886719 1023.43286132812 1031.92248535156 1016.07647705078 1014.5185546875 1016.81958007812 1017.91973876953 1017.96008300781 1021.42120361328 1029.49255371094 1023.41625976562 1018.53070068359 1008.36627197266 1016.82281494141 1013.71594238281 1006.25103759766 999.7177734375 1001.69274902344 990.278259277344 994.296813964844 1000.34857177734 993.420288085938 993.285583496094 1004.43395996094 999.938232421875 997.612243652344 999.442749023438
941.877258300781 937.181213378906 932.071594238281 934.509521484375 930.510986328125 933.605651855469 933.759399414062 933.302368164062 934.959228515625 937.371337890625 957.911682128906 968.3798828125 970.267944335938 977.170043945312 990.450927734375 988.382446289062 984.010559082031 988.348937988281 987.116577148438 982.184692382812 974.608154296875 978.464782714844 986.463134765625 987.449340820312 991.6279296875 984.723815917969 979.511535644531 983.480407714844 980.135620117188 968.936645507812 966.933776855469 981.82470703125 988.328125 991.498229980469 991.381408691406 995.181335449219 996.8583984375 990.552062988281 998.297729492188 1015.24340820312 1020.6591796875 1019.43591308594 1012.04022216797 1021.59185791016 1011.76202392578 1015.74078369141 1013.09515380859 999.546325683594 1004.51678466797 1006.71441650391 1000.02282714844 995.484741210938 993.621398925781 988.50390625 980.263061523438 982.595397949219 979.108459472656 982.493469238281 984.069274902344 974.136596679688 968.250732421875 983.553833007812 977.137939453125 976.0087890625 975.035278320312 977.204040527344 981.698425292969 985.729614257812 983.051391601562 987.185424804688 990.7470703125 988.913208007812 993.649475097656 1000.66052246094 999.616760253906 993.228942871094 995.1826171875 997.417175292969 989.200744628906 991.392211914062 987.434143066406 987.50146484375 996.014282226562 993.492980957031 990.19189453125 990.302612304688 981.098083496094 985.655639648438 995.666809082031 991.455200195312 983.075561523438 988.2626953125 980.263854980469 990.999877929688 995.546508789062 991.279907226562 987.223449707031 997.014404296875 1001.90179443359 1010.73736572266 1006.24871826172 999.178161621094 1005.84442138672 1012.09075927734 1006.80981445312 1006.69378662109 1011.34185791016 1018.32574462891 1026.28247070312 1019.73010253906 1031.67236328125 1024.38684082031 1027.04443359375 1030.77490234375 1031.9794921875 1037.15576171875 1016.48840332031 1017.23944091797 1015.61584472656 1011.23797607422 1012.78729248047 1014.28576660156 1015.83264160156 1013.53894042969 1012.43609619141 1019.71148681641 1014.35784912109 1011.03155517578 1004.01837158203 1005.78344726562 1008.25244140625 1015.74481201172 1007.44982910156 1014.32806396484 1013.70776367188 1010.9130859375 1011.427734375 1018.75958251953 1008.05480957031 1006.34008789062 1000.14215087891 991.929443359375 990.293701171875 987.140441894531 990.177185058594 987.190979003906 990.02294921875 998.191528320312 1002.57696533203 999.214416503906
943.347778320312 944.841674804688 934.130615234375 936.296875 939.771179199219 933.5341796875 935.076171875 931.9326171875 935.389221191406 949.869262695312 955.466796875 961.7578125 976.05908203125 973.879089355469 978.25830078125 986.145690917969 986.420349121094 980.503356933594 980.923095703125 985.132507324219 977.940612792969 970.077026367188 987.934936523438 989.460632324219 987.678771972656 980.722595214844 984.232055664062 979.439758300781 979.14794921875 974.537170410156 977.173950195312 986.773376464844 991.626159667969 983.847412109375 984.0458984375 989.744079589844 990.475952148438 988.999084472656 998.489807128906 1013.93725585938 1017.37390136719 1012.34478759766 1021.65869140625 1017.32147216797 1016.13293457031 1021.64483642578 1020.57446289062 1007.67346191406 1012.11102294922 1002.19598388672 1000.33959960938 995.585998535156 1002.17413330078 994.294982910156 990.9521484375 981.060302734375 989.5234375 981.148620605469 977.653747558594 974.767456054688 977.874938964844 982.467041015625 977.402038574219 971.763488769531 973.204895019531 977.318115234375 981.622863769531 985.5302734375 988.852600097656 982.782165527344 991.497314453125 992.781677246094 992.418823242188 990.275573730469 995.934143066406 996.528381347656 997.1025390625 995.965881347656 994.316040039062 995.818176269531 994.784545898438 996.065063476562 999.28857421875 998.122314453125 1000.17767333984 992.596130371094 989.99365234375 985.148071289062 990.167236328125 983.84814453125 972.736572265625 979.698608398438 987.555908203125 976.951904296875 986.730041503906 994.312072753906 996.06591796875 997.8671875 1003.25274658203 1009.10101318359 1012.57751464844 1010.07415771484 1012.08489990234 1006.58227539062 1010.84521484375 1014.16149902344 1019.25439453125 1024.6416015625 1026.90502929688 1022.69689941406 1020.39208984375 1023.33276367188 1029.22375488281 1041.06225585938 1032.29650878906 1022.08062744141 1013.30609130859 1012.75408935547 1017.03619384766 1010.04504394531 1009.23919677734 1013.96276855469 1008.13433837891 1005.75915527344 1016.79675292969 1016.37384033203 1013.07257080078 1010.67315673828 1003.86560058594 1004.56677246094 1005.55749511719 1004.29376220703 1007.74249267578 1009.12591552734 1010.41204833984 1006.46423339844 1008.19262695312 1010.35321044922 1008.10534667969 997.223266601562 995.641662597656 990.586364746094 980.658142089844 980.16748046875 987.133972167969 985.044738769531 993.025695800781 987.548706054688 989.554504394531 988.939270019531
949.011962890625 943.418823242188 943.595703125 933.543029785156 936.299621582031 932.604675292969 936.632507324219 941.536987304688 947.995178222656 951.452026367188 959.317321777344 961.540832519531 973.890930175781 976.263671875 977.655883789062 984.697937011719 984.920715332031 973.573852539062 978.608947753906 993.690368652344 983.40966796875 980.714538574219 988.082946777344 992.503967285156 989.120727539062 986.16650390625 979.357055664062 987.444396972656 986.014282226562 984.588806152344 991.893188476562 988.042419433594 982.754211425781 975.633850097656 979.984313964844 991.26708984375 992.895690917969 992.751708984375 995.333801269531 1006.71783447266 1005.83880615234 1012.48040771484 1018.69830322266 1015.99096679688 1018.0322265625 1017.46435546875 1019.78436279297 1014.48101806641 1012.50555419922 1007.19830322266 997.609924316406 1003.76702880859 1003.90368652344 1000.31402587891 993.03857421875 988.533813476562 980.678771972656 981.581726074219 980.741943359375 970.016052246094 969.910949707031 981.66259765625 979.447509765625 973.373474121094 972.68359375 976.853515625 981.458984375 981.112548828125 977.951232910156 989.157531738281 983.907043457031 986.135314941406 995.383911132812 995.756958007812 991.155822753906 991.603698730469 991.89501953125 992.991088867188 991.041809082031 1004.86804199219 996.871154785156 996.338439941406 995.876525878906 1002.90637207031 997.408508300781 996.291198730469 997.819946289062 997.226013183594 991.79248046875 985.765502929688 981.766662597656 978.848510742188 982.724609375 983.806945800781 992.513427734375 1003.58343505859 1001.46801757812 1002.76239013672 1007.1279296875 1005.97760009766 1008.4970703125 1011.62127685547 1011.25091552734 1010.23040771484 1019.83917236328 1024.54443359375 1018.79705810547 1028.91821289062 1029.43127441406 1017.29559326172 1022.888671875 1023.82940673828 1027.953125 1040.97375488281 1033.15966796875 1022.25085449219 1021.19769287109 1024.20922851562 1018.70483398438 1013.52233886719 1018.90887451172 1011.46520996094 1008.72045898438 1020.69317626953 1023.03228759766 1015.88854980469 1016.90313720703 1015.67370605469 1006.16253662109 1006.7236328125 1006.21228027344 1008.15582275391 1010.00482177734 1008.85528564453 1009.30364990234 1004.03521728516 996.617736816406 1006.99157714844 1000.4951171875 992.601684570312 991.164855957031 980.634033203125 975.691589355469 980.537353515625 991.928894042969 992.821716308594 990.214111328125 987.410583496094 985.58642578125 989.431579589844
952.142456054688 949.503662109375 938.520141601562 945.844604492188 933.43701171875 934.913208007812 942.2529296875 952.619323730469 950.728393554688 949.546813964844 955.958923339844 968.222106933594 972.843994140625 980.032531738281 984.95166015625 979.059326171875 975.778625488281 977.150207519531 982.696350097656 976.79150390625 981.468139648438 991.06005859375 978.385986328125 988.403198242188 993.3779296875 989.4208984375 989.475219726562 986.901306152344 987.995361328125 981.14599609375 995.147705078125 988.182983398438 987.661560058594 983.53759765625 986.001281738281 995.215209960938 994.911376953125 1000.39093017578 994.129272460938 1004.91577148438 994.244262695312 1005.11077880859 1008.83746337891 1012.16223144531 1008.74737548828 1011.66827392578 1016.16912841797 1016.60357666016 1017.66900634766 1012.45306396484 996.92578125 998.016967773438 997.1630859375 990.424621582031 990.589904785156 985.114440917969 990.785461425781 980.552062988281 983.491394042969 976.316589355469 968.29833984375 966.567626953125 970.189453125 973.304016113281 968.718383789062 976.464965820312 972.795227050781 978.612243652344 981.818908691406 986.203796386719 988.772583007812 982.363952636719 1000.81207275391 995.672302246094 994.616027832031 991.0625 991.852172851562 994.066162109375 1000.03961181641 1003.21020507812 1003.28540039062 1002.24957275391 1003.041015625 998.042602539062 1000.86657714844 994.874755859375 1004.73388671875 1001.66809082031 995.125061035156 984.366577148438 992.859619140625 982.320861816406 978.377868652344 984.422912597656 984.231628417969 986.910217285156 993.009765625 994.12744140625 996.361206054688 999.640563964844 995.400573730469 1007.17199707031 1006.84118652344 1012.02239990234 1012.32568359375 1026.19641113281 1030.3701171875 1021.35321044922 1031.85595703125 1032.70068359375 1026.09655761719 1026.962890625 1032.271484375 1035.69592285156 1031.65161132812 1034.00720214844 1025.1640625 1031.42114257812 1028.48254394531 1025.44934082031 1025.68322753906 1012.96502685547 1017.93707275391 1023.38336181641 1017.16156005859 1017.01556396484 1014.54522705078 1015.62426757812 1009.84429931641 1002.83770751953 1003.28015136719 1009.62921142578 1006.73596191406 1015.68200683594 1010.23236083984 1001.43292236328 1003.06176757812 1009.67523193359 999.380615234375 995.228576660156 996.1318359375 995.95166015625 987.467468261719 971.331481933594 978.740478515625 991.858703613281 985.543029785156 979.255920410156 993.212463378906 992.617736816406
948.661193847656 947.15087890625 944.386169433594 947.647521972656 933.812927246094 939.353515625 938.612670898438 940.700744628906 932.771179199219 951.186340332031 958.94677734375 972.886657714844 970.839050292969 981.351989746094 981.72265625 977.797668457031 974.025024414062 976.976928710938 986.182922363281 974.952575683594 979.089477539062 983.90576171875 990.363464355469 988.630310058594 995.569030761719 988.605773925781 995.813842773438 990.843505859375 988.913635253906 983.949829101562 985.151672363281 985.742370605469 977.468933105469 980.485412597656 996.542358398438 1000.70977783203 1001.30377197266 995.898193359375 996.179931640625 996.417785644531 996.164367675781 1006.80474853516 1003.06506347656 1007.66223144531 1000.80682373047 998.121215820312 1003.09155273438 1002.81793212891 1010.517578125 1010.373046875 1004.57568359375 996.542236328125 997.086120605469 994.608154296875 984.055358886719 986.501281738281 986.718078613281 985.540161132812 980.858337402344 979.448425292969 966.245239257812 966.867126464844 968.200073242188 967.226928710938 968.614990234375 976.682556152344 972.976867675781 973.899963378906 979.486633300781 984.529479980469 977.943115234375 975.542541503906 992.926818847656 997.670654296875 989.620727539062 987.864868164062 1007.53186035156 1013.38354492188 1011.65155029297 1008.84991455078 1008.16369628906 1004.12548828125 1008.48315429688 1003.88653564453 1000.11334228516 1002.61395263672 1000.47174072266 999.371215820312 1000.02551269531 994.526672363281 994.187072753906 987.882995605469 983.122314453125 987.791687011719 983.237365722656 982.139465332031 989.747619628906 988.128784179688 1002.68774414062 999.515686035156 986.816528320312 1001.09448242188 1009.90814208984 1006.47631835938 1008.93170166016 1018.18377685547 1027.00561523438 1022.08721923828 1026.0595703125 1025.00317382812 1022.4130859375 1031.21997070312 1025.28466796875 1021.67083740234 1033.51354980469 1032.18786621094 1028.63159179688 1034.27319335938 1023.93688964844 1027.91442871094 1029.68029785156 1020.03662109375 1017.43981933594 1014.6513671875 1013.494140625 1012.80975341797 1010.87677001953 1010.56500244141 1004.58129882812 1002.59899902344 1012.17230224609 1003.27746582031 998.894714355469 1003.35913085938 1005.74255371094 1002.37213134766 994.411010742188 1002.34252929688 995.8076171875 998.235290527344 999.902221679688 995.487060546875 987.2568359375 982.444274902344 976.769836425781 978.291687011719 976.727294921875 979.141235351562 984.355041503906 999.4072265625
948.502197265625 948.063415527344 949.120300292969 946.242919921875 939.718017578125 937.672607421875 940.113159179688 941.631958007812 945.320495605469 960.521789550781 969.477111816406 969.655578613281 973.387817382812 977.255004882812 980.82958984375 976.310607910156 973.512573242188 973.102905273438 973.58740234375 971.172668457031 978.159362792969 983.697937011719 987.307800292969 989.096740722656 991.078918457031 988.029052734375 992.34130859375 995.116027832031 996.710327148438 986.1494140625 976.315734863281 978.218811035156 974.394836425781 986.100341796875 987.740051269531 994.711730957031 991.776000976562 991.395629882812 988.487854003906 1000.30230712891 1002.28955078125 1000.80773925781 999.513122558594 996.322570800781 985.097595214844 982.333740234375 984.559509277344 989.101928710938 1004.966796875 1007.47204589844 998.625671386719 994.922973632812 989.49169921875 990.847900390625 988.506164550781 984.804504394531 980.212524414062 983.310668945312 979.059143066406 971.987731933594 964.143981933594 965.798522949219 966.360656738281 972.643859863281 969.380493164062 972.699401855469 974.970947265625 976.2626953125 981.597595214844 976.823547363281 974.101623535156 983.694885253906 984.710021972656 999.532653808594 996.751892089844 998.140441894531 1014.05810546875 1016.09759521484 1021.84387207031 1013.16540527344 1013.59796142578 1009.60717773438 1004.66046142578 1005.68334960938 1000.10534667969 1002.81237792969 1006.00573730469 995.952941894531 995.159973144531 992.269409179688 987.42822265625 981.15234375 984.270385742188 987.159606933594 981.55419921875 990.057678222656 994.935729980469 1003.76348876953 1007.35406494141 1000.55615234375 996.667724609375 999.934631347656 1003.42254638672 1016.99243164062 1009.54125976562 1016.318359375 1019.69653320312 1028.66943359375 1028.31628417969 1029.77514648438 1029.51330566406 1029.72619628906 1018.03411865234 1020.70629882812 1028.67028808594 1029.50646972656 1033.75695800781 1030.5263671875 1031.96350097656 1028.07995605469 1025.24768066406 1024.15625 1020.98364257812 1003.36334228516 1003.94799804688 1000.35284423828 1000.04144287109 1014.78033447266 1003.79632568359 1002.85040283203 999.889831542969 1001.3095703125 1000.20172119141 1002.25738525391 999.772399902344 992.598510742188 995.696166992188 1000.57189941406 993.894653320312 994.038940429688 996.573547363281 991.746154785156 988.080139160156 990.625793457031 986.338989257812 980.336669921875 983.056823730469 982.856506347656 985.415466308594 994.345886230469
947.91015625 945.276062011719 943.169189453125 945.998291015625 940.394287109375 936.056335449219 942.129272460938 938.804260253906 953.025573730469 956.321960449219 954.221008300781 966.993957519531 965.824584960938 970.978942871094 973.779663085938 968.94970703125 968.526611328125 976.06396484375 971.730834960938 973.8974609375 972.861633300781 973.140869140625 979.72216796875 986.1484375 996.127868652344 994.925231933594 989.171203613281 987.967895507812 981.428649902344 981.400573730469 981.257202148438 976.757751464844 982.873718261719 977.5 989.851806640625 990.722534179688 990.385314941406 981.366271972656 980.777404785156 990.5048828125 997.452941894531 991.58251953125 998.32421875 997.001098632812 983.351867675781 973.760864257812 983.801086425781 989.433349609375 1000.90844726562 995.492919921875 1000.111328125 997.932250976562 991.580749511719 993.888366699219 994.239379882812 986.460144042969 982.209045410156 975.933898925781 983.196960449219 975.364685058594 970.461486816406 970.956970214844 970.341735839844 981.921936035156 977.733154296875 977.728698730469 976.785400390625 983.032592773438 979.611206054688 978.644897460938 981.394287109375 981.152587890625 988.441345214844 996.347229003906 987.678161621094 998.772521972656 1007.62445068359 1008.81469726562 1007.62823486328 1020.7001953125 1014.71276855469 1009.60394287109 1013.19970703125 1011.58166503906 1010.56420898438 1006.84576416016 999.765319824219 995.203735351562 996.454040527344 999.208862304688 999.245239257812 988.8310546875 987.736572265625 986.410339355469 989.385192871094 997.968566894531 1000.80328369141 1006.26239013672 1005.66064453125 1010.95159912109 1008.2998046875 1007.96978759766 1001.97900390625 1009.50817871094 1015.52154541016 1017.84948730469 1022.80786132812 1029.87658691406 1032.33361816406 1021.51629638672 1030.05773925781 1034.53491210938 1033.04382324219 1032.91711425781 1037.84790039062 1033.68579101562 1038.33239746094 1043.65319824219 1038.71752929688 1040.04663085938 1034.20642089844 1029.20007324219 1013.1611328125 1004.51177978516 1007.12854003906 992.93212890625 989.86962890625 997.80078125 997.558227539062 999.448059082031 1003.95770263672 1004.29022216797 1002.84558105469 1004.34844970703 998.562255859375 995.733642578125 994.510009765625 990.753723144531 989.529174804688 988.83837890625 992.963745117188 984.957214355469 987.546508789062 977.879150390625 971.437255859375 977.599487304688 986.87841796875 976.524047851562 979.439514160156 988.964599609375
947.899230957031 944.211303710938 945.046325683594 945.04638671875 944.64892578125 941.320129394531 937.696899414062 943.199645996094 941.335815429688 952.592468261719 959.038024902344 959.662658691406 966.635925292969 970.211364746094 964.386474609375 961.654479980469 962.6044921875 972.795776367188 973.781982421875 975.981689453125 977.15673828125 972.438171386719 980.336730957031 988.589904785156 983.7197265625 982.53173828125 984.952392578125 985.97314453125 977.861083984375 978.093139648438 980.642456054688 966.900390625 970.4677734375 975.578308105469 980.964660644531 988.699035644531 984.4677734375 987.641845703125 979.853088378906 985.867492675781 986.363586425781 986.449340820312 994.878051757812 988.603271484375 980.220336914062 976.522338867188 978.685791015625 992.216430664062 998.688781738281 998.161071777344 994.455383300781 985.500366210938 995.060180664062 999.820190429688 998.795288085938 989.609069824219 984.841247558594 978.672973632812 982.225158691406 982.884216308594 984.548583984375 967.192138671875 968.021789550781 973.699157714844 976.194580078125 984.665771484375 979.802612304688 978.746154785156 978.550415039062 981.156188964844 985.678466796875 985.374572753906 981.219177246094 989.247192382812 992.181823730469 985.478576660156 996.675598144531 1007.35418701172 1009.06262207031 1007.81182861328 1012.40826416016 1016.91021728516 1018.26129150391 1010.04913330078 1004.13287353516 1009.56097412109 1006.45672607422 994.005981445312 996.600280761719 999.145324707031 1000.69714355469 995.587707519531 989.580200195312 994.726745605469 988.104125976562 989.75341796875 999.480163574219 1000.791015625 997.711547851562 997.5478515625 1007.66131591797 1014.12884521484 1010.64184570312 1011.1572265625 1009.00317382812 1016.72216796875 1015.2314453125 1019.95599365234 1029.04406738281 1032.17395019531 1036.58740234375 1050.26843261719 1052.59912109375 1049.84020996094 1052.62536621094 1050.68408203125 1046.41918945312 1042.55053710938 1045.63061523438 1045.87060546875 1041.49060058594 1018.83917236328 1006.35711669922 1001.19226074219 1001.67492675781 1003.64233398438 990.636779785156 982.398132324219 996.22998046875 995.36083984375 1005.54742431641 994.526794433594 998.484252929688 996.679809570312 999.721130371094 996.330200195312 1001.81610107422 994.048461914062 988.828552246094 991.050720214844 986.235412597656 976.028747558594 974.794738769531 969.496337890625 964.063903808594 971.168640136719 976.298583984375 973.991271972656 986.652709960938 991.614990234375
942.485107421875 938.352416992188 936.72216796875 943.939819335938 947.449279785156 937.923461914062 942.363342285156 937.936889648438 942.957763671875 956.573608398438 958.2021484375 954.531555175781 956.170288085938 958.344055175781 960.703247070312 958.133178710938 961.253173828125 958.178100585938 963.220397949219 962.7099609375 962.555725097656 962.690551757812 967.098571777344 975.7607421875 977.397033691406 977.254638671875 977.775329589844 975.405090332031 973.917785644531 977.040100097656 980.327392578125 978.268310546875 977.989074707031 970.118408203125 982.708190917969 987.658264160156 993.630004882812 983.739440917969 979.31298828125 976.8115234375 978.330200195312 978.08544921875 989.40283203125 985.729370117188 985.063720703125 978.677368164062 986.068420410156 1000.32263183594 997.95654296875 998.23046875 989.744262695312 988.364990234375 986.560424804688 993.097534179688 1001.32415771484 993.570617675781 987.638671875 988.978149414062 987.03125 987.81005859375 989.196228027344 979.87646484375 975.331237792969 975.337463378906 973.209838867188 986.623840332031 990.749877929688 987.033935546875 983.806030273438 980.290466308594 986.444213867188 989.808532714844 983.140502929688 982.625305175781 984.040466308594 979.301391601562 978.252868652344 989.685241699219 996.639282226562 995.07666015625 1006.23852539062 1015.00201416016 1012.27404785156 1012.14166259766 1003.29034423828 1003.92883300781 1005.13665771484 1000.08917236328 1000.96136474609 996.372741699219 995.530639648438 995.824951171875 995.495239257812 993.243469238281 1003.86987304688 998.938110351562 998.873779296875 995.607543945312 995.559936523438 997.183532714844 1007.53765869141 1023.23748779297 1018.34271240234 1014.53460693359 1007.50164794922 1015.24664306641 1017.38470458984 1023.13153076172 1026.73193359375 1038.91809082031 1036.55859375 1050.26599121094 1063.43432617188 1057.36535644531 1056.94067382812 1054.41064453125 1051.64782714844 1048.8271484375 1056.44360351562 1050.08190917969 1041.59680175781 1016.36614990234 1018.27301025391 1008.31256103516 1001.39715576172 1012.41961669922 997.416259765625 986.742553710938 993.806884765625 984.994506835938 981.554870605469 992.313842773438 991.658569335938 995.326843261719 999.30615234375 991.162353515625 995.838806152344 995.0966796875 991.176086425781 982.570739746094 979.775146484375 972.918334960938 971.710571289062 964.149047851562 961.961059570312 976.056701660156 979.418334960938 976.852722167969 983.795959472656 985.07666015625
939.433654785156 932.898986816406 941.622375488281 938.272827148438 936.594421386719 938.726867675781 942.858154296875 946.041076660156 939.820007324219 952.076477050781 946.044921875 948.70703125 954.09521484375 958.076416015625 962.788940429688 957.918029785156 958.151428222656 958.732055664062 963.833679199219 959.729919433594 952.661987304688 955.289611816406 961.59033203125 965.485595703125 967.262451171875 971.883239746094 977.150268554688 971.343566894531 963.532592773438 970.198486328125 975.587280273438 973.695129394531 964.967712402344 974.119567871094 973.038757324219 978.258422851562 987.967590332031 983.274719238281 988.749084472656 975.249633789062 979.07763671875 978.490661621094 974.988220214844 978.852600097656 975.14892578125 985.108093261719 983.323791503906 988.887329101562 999.64306640625 992.487182617188 998.625793457031 999.320251464844 1003.67242431641 1001.19696044922 997.941528320312 996.936706542969 991.38525390625 991.130065917969 992.758056640625 988.427124023438 988.282165527344 988.138427734375 986.419921875 985.165100097656 984.429077148438 993.471801757812 983.5146484375 978.4794921875 982.149108886719 987.271545410156 985.802734375 979.644958496094 984.718627929688 987.4638671875 992.160827636719 985.428344726562 984.515319824219 984.422729492188 993.9287109375 998.846130371094 997.147888183594 1005.31689453125 1009.29248046875 994.416076660156 1001.03729248047 1005.20501708984 992.616333007812 993.585266113281 999.188903808594 998.959350585938 998.207946777344 1003.25695800781 994.644348144531 996.157958984375 1002.13830566406 1002.72631835938 1002.65838623047 995.1640625 991.661804199219 1001.05938720703 1012.78857421875 1021.57513427734 1016.38549804688 1002.93853759766 1006.95404052734 1023.73364257812 1028.19311523438 1022.00543212891 1027.21459960938 1039.01806640625 1045.12316894531 1054.11535644531 1054.96215820312 1052.08715820312 1055.00744628906 1054.2900390625 1051.39282226562 1057.56457519531 1059.79040527344 1045.63671875 1041.08129882812 1028.93640136719 1014.20404052734 1002.98010253906 1004.87414550781 1004.40838623047 996.480712890625 997.123474121094 987.353149414062 974.912231445312 980.96435546875 984.071044921875 986.719848632812 987.467102050781 991.367126464844 990.189147949219 992.930358886719 987.069702148438 981.288269042969 976.222290039062 973.428649902344 975.063720703125 976.255798339844 974.545654296875 968.820922851562 970.853149414062 979.095581054688 981.192565917969 985.821533203125 980.0556640625
948.537536621094 946.47265625 935.871154785156 935.72314453125 932.255065917969 947.367980957031 943.597473144531 944.539245605469 947.082336425781 943.511413574219 935.698425292969 932.891662597656 938.120849609375 956.937561035156 957.181396484375 949.448669433594 956.069519042969 955.166381835938 965.89599609375 953.251647949219 955.096496582031 954.992858886719 959.748046875 949.850341796875 967.425170898438 970.538269042969 963.119384765625 967.554565429688 964.900451660156 965.72216796875 978.521423339844 970.451110839844 965.335021972656 974.841613769531 973.641662597656 978.97265625 984.977416992188 986.70849609375 982.355163574219 972.465637207031 964.900085449219 969.065673828125 980.461608886719 981.124694824219 979.09326171875 980.762145996094 983.611572265625 989.480590820312 998.300659179688 992.162109375 995.37646484375 1006.232421875 1001.17633056641 999.173645019531 996.521728515625 993.232360839844 988.033935546875 987.951538085938 993.412536621094 983.384826660156 981.184143066406 993.133605957031 997.818725585938 987.824035644531 987.195922851562 988.018188476562 987.511596679688 994.089660644531 982.578857421875 977.78759765625 987.151550292969 989.062072753906 996.567993164062 989.294982910156 992.505493164062 991.158935546875 993.0439453125 994.427429199219 988.549682617188 998.35009765625 1004.20977783203 1004.70385742188 1006.26983642578 1003.09283447266 999.720092773438 1002.27368164062 995.737670898438 990.930053710938 1002.73315429688 1011.40057373047 1010.34838867188 997.549072265625 992.156066894531 1004.45971679688 1004.92974853516 1001.63897705078 1002.05834960938 1000.34899902344 1002.80511474609 1007.11785888672 1012.86096191406 1020.57348632812 1019.14971923828 1013.81658935547 1015.70562744141 1016.10961914062 1027.30651855469 1025.2734375 1035.68359375 1045.46630859375 1056.94287109375 1055.16015625 1054.6708984375 1057.85009765625 1062.76306152344 1064.73815917969 1052.94653320312 1050.24389648438 1051.55529785156 1041.70532226562 1033.53369140625 1026.59716796875 1016.79211425781 1001.36590576172 1002.72387695312 996.525573730469 993.419311523438 987.61962890625 975.168029785156 974.637023925781 978.647644042969 987.014953613281 989.839233398438 988.939392089844 986.069274902344 988.362182617188 990.772705078125 986.568359375 979.69873046875 975.497314453125 977.741821289062 971.025085449219 974.824951171875 976.623352050781 965.799621582031 967.395568847656 964.491394042969 970.271057128906 979.537841796875 984.755920410156
951.435241699219 940.250366210938 950.131713867188 944.197692871094 939.710388183594 941.712280273438 941.382690429688 950.374450683594 944.471557617188 944.111999511719 932.288391113281 933.362121582031 946.748291015625 951.06640625 945.526550292969 948.39794921875 951.348999023438 957.355590820312 954.377380371094 954.671325683594 949.969482421875 953.682434082031 949.611877441406 948.487915039062 950.100830078125 962.342834472656 961.795043945312 965.554870605469 964.032653808594 958.9833984375 962.609497070312 958.185729980469 970.453857421875 971.827758789062 976.677917480469 973.545166015625 973.901916503906 976.109008789062 977.956726074219 970.609252929688 967.345092773438 965.885986328125 977.86572265625 983.147583007812 982.876037597656 987.27783203125 981.5029296875 992.972595214844 997.236938476562 993.992065429688 994.169616699219 1004.19250488281 991.604431152344 998.686462402344 998.61962890625 991.095825195312 992.826354980469 996.867065429688 992.350219726562 987.641235351562 983.668762207031 991.684204101562 991.999389648438 989.907592773438 989.884582519531 988.966491699219 991.7783203125 991.350280761719 981.819702148438 982.146057128906 988.099548339844 987.800231933594 985.614501953125 977.250061035156 988.274719238281 997.667907714844 994.897521972656 989.936157226562 988.353271484375 991.941101074219 1003.06518554688 1005.25689697266 1001.62390136719 1000.44281005859 1004.66119384766 1002.96710205078 1000.97357177734 995.558349609375 1007.10180664062 1009.13702392578 1005.67352294922 1004.43084716797 1001.66143798828 1011.30114746094 1000.00952148438 1005.79425048828 1006.55383300781 1006.47973632812 1007.61486816406 1013.62353515625 1020.32629394531 1011.03668212891 1010.056640625 1009.28442382812 1013.47497558594 1020.07049560547 1020.67462158203 1030.64233398438 1039.99523925781 1052.57019042969 1058.25854492188 1062.869140625 1055.81262207031 1060.384765625 1063.71899414062 1070.65173339844 1057.28698730469 1054.54187011719 1050.21704101562 1046.34777832031 1034.14672851562 1023.42272949219 1014.27716064453 1003.66827392578 1003.35717773438 1000.60510253906 980.929382324219 976.744567871094 981.223571777344 974.084411621094 975.947570800781 980.562622070312 980.306335449219 983.968811035156 986.670166015625 985.358032226562 990.427490234375 980.899841308594 972.1181640625 973.79638671875 971.364013671875 969.310791015625 975.223327636719 963.697875976562 970.455200195312 969.230834960938 966.199340820312 966.463562011719 971.988708496094 989.325744628906
966.403137207031 948.813659667969 944.1650390625 947.049072265625 945.5029296875 942.750366210938 936.361022949219 941.925109863281 941.673095703125 939.912414550781 939.958618164062 943.525634765625 956.673767089844 953.777099609375 948.966735839844 943.887634277344 954.714904785156 958.815063476562 949.420776367188 960.387023925781 955.666076660156 949.633605957031 950.673400878906 946.231384277344 950.403442382812 959.7919921875 960.267395019531 963.321228027344 957.129028320312 957.712219238281 965.882446289062 962.552185058594 961.574035644531 971.348388671875 977.161437988281 967.52392578125 969.197509765625 967.578369140625 965.693786621094 970.25244140625 969.073120117188 972.300720214844 979.69677734375 985.991821289062 989.936950683594 991.001281738281 998.677429199219 991.978881835938 994.111450195312 993.605895996094 991.449035644531 993.326354980469 998.480834960938 998.128723144531 991.545715332031 999.380615234375 1001.76251220703 1002.9990234375 1003.80084228516 991.439636230469 986.109985351562 996.06201171875 987.125 988.556579589844 988.534362792969 991.508178710938 989.6103515625 992.558532714844 987.093933105469 987.831787109375 996.303955078125 990.426452636719 988.937438964844 983.937194824219 992.138793945312 995.144714355469 991.1650390625 983.841735839844 986.239929199219 1004.20153808594 1009.40295410156 1005.87365722656 995.287170410156 1003.47442626953 1004.78344726562 1011.87939453125 1009.76678466797 1003.02111816406 1005.1103515625 1014.15087890625 1005.33746337891 1008.19140625 1008.84338378906 1000.15844726562 1008.04675292969 1001.03833007812 1008.94543457031 1014.56860351562 1016.08203125 1013.1044921875 1019.13000488281 1010.72039794922 1010.08978271484 1019.96624755859 1020.64868164062 1025.01391601562 1026.64624023438 1038.84289550781 1045.3564453125 1053.75476074219 1058.57971191406 1065.09729003906 1063.87719726562 1061.62341308594 1065.95812988281 1061.94836425781 1064.46728515625 1058.00915527344 1047.11389160156 1048.35070800781 1053.03393554688 1029.421875 1023.98217773438 1016.58703613281 1013.30212402344 999.972106933594 990.803039550781 975.768859863281 988.31884765625 984.6689453125 980.888488769531 983.955871582031 985.808227539062 981.119934082031 983.119995117188 984.000366210938 979.026489257812 971.688232421875 968.704956054688 966.593933105469 975.512756347656 973.124328613281 977.621520996094 970.106323242188 971.241455078125 968.536437988281 966.802917480469 977.238952636719 975.348510742188 975.133605957031
965.3857421875 954.368286132812 948.784057617188 945.58642578125 950.960388183594 949.8681640625 950.358764648438 945.971557617188 947.439697265625 947.033996582031 946.381530761719 942.755493164062 963.570251464844 958.236206054688 958.685119628906 951.264099121094 950.264404296875 951.53662109375 952.273681640625 963.682312011719 959.538208007812 956.544006347656 956.283996582031 952.340881347656 954.340942382812 964.626953125 964.364135742188 962.344787597656 966.587158203125 971.826599121094 966.369995117188 966.85546875 970.995300292969 969.121520996094 976.362060546875 971.34521484375 969.627319335938 968.559753417969 961.162841796875 964.461669921875 962.219970703125 964.35888671875 972.919799804688 983.338745117188 994.560729980469 985.096313476562 988.632080078125 992.610534667969 991.544067382812 989.981262207031 981.674499511719 988.332763671875 1003.51104736328 999.476013183594 995.739074707031 1005.03796386719 1011.14831542969 1009.78338623047 1008.38311767578 999.299499511719 992.540771484375 994.771850585938 993.353881835938 991.129211425781 992.385986328125 996.712646484375 995.829772949219 988.282775878906 990.673095703125 989.853881835938 987.991638183594 997.142517089844 994.4423828125 996.521118164062 990.623474121094 988.281555175781 993.405029296875 987.941650390625 996.296447753906 999.39111328125 1005.26104736328 1009.15979003906 1003.41796875 997.26416015625 1004.06927490234 1008.97357177734 1001.44067382812 1008.53869628906 1013.16876220703 1009.74731445312 1012.26092529297 1009.41387939453 1005.39239501953 1001.76593017578 1009.21374511719 996.137817382812 1012.22808837891 1017.37780761719 1016.23162841797 1018.74853515625 1010.41754150391 1007.58123779297 1020.75634765625 1027.82397460938 1025.66235351562 1032.96801757812 1034.59851074219 1042.54345703125 1041.56982421875 1051.01525878906 1061.79577636719 1064.83947753906 1061.51635742188 1060.90368652344 1061.65734863281 1068.97546386719 1052.9443359375 1049.35949707031 1046.40625 1050.26208496094 1045.90014648438 1043.86840820312 1032.78173828125 1028.68212890625 1011.65747070312 1009.89764404297 990.0927734375 982.698181152344 985.475402832031 984.38037109375 980.46630859375 991.798522949219 983.479736328125 985.945190429688 985.780639648438 981.439453125 981.53759765625 973.283813476562 967.984069824219 965.622924804688 963.092529296875 972.619750976562 979.586975097656 979.186645507812 978.826904296875 979.256286621094 967.383239746094 971.048034667969 968.535766601562 970.269287109375
963.903442382812 957.805053710938 949.8671875 950.393310546875 953.664245605469 954.978393554688 954.132019042969 949.656188964844 948.8388671875 948.064697265625 953.946228027344 957.3486328125 970.449645996094 971.133911132812 963.739379882812 955.13525390625 945.998657226562 958.442565917969 963.257934570312 965.953796386719 963.8759765625 954.703735351562 953.689819335938 963.275512695312 956.786315917969 960.726623535156 970.051208496094 965.722717285156 964.670532226562 965.230407714844 970.134338378906 971.253112792969 969.012512207031 971.050842285156 972.810852050781 978.691101074219 979.3369140625 971.862426757812 968.983642578125 963.201721191406 964.894897460938 961.564147949219 975.460021972656 980.574279785156 984.8271484375 981.178771972656 988.503540039062 986.880432128906 992.397583007812 981.28271484375 989.859741210938 991.968322753906 989.436462402344 997.69189453125 994.736877441406 1005.21545410156 1010.35565185547 1005.91705322266 1005.57855224609 1004.41882324219 998.975219726562 997.71142578125 997.267028808594 993.067504882812 990.639831542969 989.895935058594 987.709045410156 988.362060546875 989.288879394531 979.40625 985.761169433594 994.776184082031 994.8916015625 997.790649414062 985.509338378906 987.920959472656 999.167602539062 998.888610839844 987.759460449219 989.817932128906 1001.25079345703 1008.24365234375 1007.7080078125 1010.9482421875 1007.61737060547 1010.18615722656 1003.078125 1007.91546630859 1014.74163818359 1022.23516845703 1013.31018066406 1007.39105224609 996.261413574219 1005.18328857422 1003.88488769531 997.650451660156 1015.56103515625 1021.06140136719 1019.04931640625 1014.79626464844 1017.18859863281 1014.35522460938 1023.90972900391 1024.04797363281 1029.93566894531 1035.34448242188 1033.08764648438 1034.69287109375 1043.96911621094 1045.72094726562 1054.85681152344 1059.36645507812 1066.99694824219 1066.46984863281 1057.97680664062 1056.61828613281 1051.93249511719 1046.60559082031 1051.40258789062 1054.6455078125 1046.423828125 1046.02966308594 1038.03833007812 1023.01165771484 1021.98645019531 1016.17498779297 998.830871582031 994.789978027344 989.106506347656 986.906127929688 982.563171386719 985.362060546875 981.976318359375 982.63916015625 984.726196289062 968.183959960938 975.215881347656 969.403137207031 965.570129394531 967.871032714844 962.050537109375 964.517333984375 973.143127441406 981.231323242188 983.979309082031 982.46826171875 977.508605957031 977.625610351562 967.224609375 973.198120117188
