NCOLS 150
NROWS 37
XLLCORNER 7394249
YLLCORNER 4842629
CELLSIZE 30
NODATA_VALUE -9999
940.259948730469 949.126770019531 954.328430175781 954.014404296875 953.104553222656 957.296936035156 963.133728027344 957.830810546875 969.368530273438 956.535949707031 964.88525390625 966.951049804688 978.183654785156 982.323913574219 975.331909179688 972.166381835938 983.34619140625 975.119506835938 972.943054199219 965.990844726562 968.556457519531 968.088134765625 968.399658203125 963.55810546875 965.881652832031 976.797546386719 975.600341796875 984.615356445312 974.525573730469 975.847045898438 973.621215820312 970.647277832031 975.426879882812 969.332580566406 971.401794433594 975.725952148438 974.003173828125 969.696655273438 971.869750976562 978.471557617188 980.8828125 974.734741210938 971.508544921875 962.971557617188 964.389831542969 974.816223144531 969.427062988281 971.152038574219 978.807067871094 973.661987304688 977.6669921875 974.148193359375 970.763793945312 967.528686523438 970.568054199219 973.0029296875 961.785705566406 978.352905273438 981.306396484375 974.535705566406 970.152709960938 965.034423828125 976.446594238281 962.40380859375 972.297973632812 973.388916015625 974.685546875 971.561767578125 966.961120605469 954.844055175781 960.353820800781 961.717895507812 967.216491699219 970.521179199219 971.226379394531 979.098266601562 978.088073730469 969.725646972656 978.845886230469 980.625 978.279907226562 974.649108886719 987.48828125 991.810913085938 983.78076171875 986.092834472656 989.678527832031 985.443115234375 989.821594238281 995.622863769531 999.651123046875 986.674377441406 986.793212890625 993.317199707031 987.179870605469 988.886779785156 994.492492675781 994.985656738281 997.410522460938 986.278625488281 994.027282714844 992.598999023438 992.443420410156 986.338073730469 981.393310546875 986.7783203125 984.646789550781 978.259094238281 981.205688476562 982.488586425781 983.640319824219 990.246887207031 999.112670898438 988.115173339844 997.587646484375 1002.33142089844 995.900817871094 991.806213378906 990.86865234375 981.026733398438 984.473205566406 995.795532226562 996.327087402344 1007.21636962891 999.749084472656 997.103393554688 1015.93737792969 1020.79907226562 1028.689453125 1027.89880371094 1027.21374511719 1030.84411621094 1032.96936035156 1037.99401855469 1043.98974609375 1047.01574707031 1055.861328125 1068.46301269531 1080.10974121094 1088.37109375 1107.24987792969 1106.07434082031 1116.3544921875 1120.61499023438 1138.6611328125 1147.84497070312 1156.12976074219 1156.62475585938 1153.06457519531 1151.88671875
945.555053710938 947.818115234375 946.634216308594 945.588317871094 947.412414550781 954.371765136719 956.847106933594 964.350158691406 955.408630371094 945.513977050781 955.946716308594 957.133666992188 972.349243164062 970.368225097656 975.951416015625 975.57568359375 991.688903808594 985.379455566406 980.591491699219 967.962036132812 970.580444335938 961.932250976562 960.445373535156 959.528869628906 968.180908203125 971.216369628906 969.629943847656 978.368469238281 975.26025390625 982.547424316406 975.435607910156 975.809143066406 971.899108886719 974.853332519531 968.222839355469 968.282531738281 968.244506835938 971.00439453125 975.999328613281 977.176208496094 980.580444335938 965.956237792969 968.188110351562 961.81103515625 958.459533691406 977.305297851562 970.360229492188 963.318969726562 966.289306640625 968.21435546875 980.271240234375 970.8564453125 969.761535644531 970.2880859375 970.431030273438 972.408142089844 969.4697265625 978.308532714844 987.749755859375 982.204223632812 978.335632324219 975.895629882812 969.471923828125 975.747802734375 975.167846679688 978.368286132812 981.572570800781 977.559936523438 968.183532714844 952.278564453125 954.925231933594 970.763671875 973.507385253906 974.36328125 970.310729980469 971.437744140625 974.889892578125 975.323608398438 980.975219726562 971.286865234375 976.5068359375 983.131408691406 980.069396972656 986.575744628906 986.770812988281 992.531311035156 988.836059570312 983.86962890625 986.067626953125 989.616149902344 986.344970703125 984.191162109375 994.091491699219 987.331726074219 989.921508789062 992.349792480469 991.914794921875 989.417602539062 997.985229492188 993.565612792969 984.951232910156 975.846008300781 980.343872070312 983.02978515625 988.234619140625 981.835205078125 978.350341796875 977.18994140625 986.20361328125 992.900756835938 989.353149414062 987.151245117188 994.694763183594 995.017395019531 1008.60919189453 1011.18029785156 1000.49462890625 1000.48321533203 1000.26550292969 991.727172851562 996.765869140625 995.010986328125 1008.59985351562 1009.00860595703 998.155395507812 1003.23626708984 1017.24969482422 1022.14868164062 1028.05407714844 1029.94909667969 1035.53955078125 1029.84033203125 1033.888671875 1034.1162109375 1048.72802734375 1060.24365234375 1067.33850097656 1075.97082519531 1089.80334472656 1093.62585449219 1111.47595214844 1104.77770996094 1111.68029785156 1125.3662109375 1132.73974609375 1144.61853027344 1159.13098144531 1159.81286621094 1169.36633300781 1168.55688476562
945.133850097656 952.7314453125 954.34375 942.667785644531 950.213806152344 955.447143554688 965.568115234375 969.141845703125 952.5390625 946.022827148438 954.161804199219 962.105102539062 966.794738769531 968.647155761719 979.552612304688 983.943908691406 979.614685058594 978.519836425781 984.200561523438 975.052795410156 975.549682617188 970.510375976562 964.742797851562 968.76220703125 965.121826171875 967.968933105469 969.843688964844 972.821533203125 989.557434082031 983.709289550781 975.975341796875 986.873291015625 980.689147949219 976.670532226562 972.044250488281 963.252014160156 964.189331054688 959.547302246094 971.685119628906 977.617919921875 980.205932617188 970.978698730469 962.813171386719 952.697021484375 952.878112792969 960.862487792969 966.840576171875 963.567199707031 960.644592285156 966.246948242188 970.408264160156 968.225219726562 975.227294921875 976.852844238281 973.508544921875 970.247131347656 963.573913574219 965.749206542969 974.295288085938 983.804626464844 972.529907226562 968.725891113281 969.608276367188 978.719909667969 976.696838378906 974.935791015625 970.076049804688 965.889770507812 960.909362792969 955.869201660156 958.764343261719 964.524230957031 969.18896484375 972.239990234375 967.973754882812 970.227844238281 971.550354003906 974.444030761719 979.467712402344 971.831176757812 978.768310546875 984.255554199219 981.662841796875 982.678894042969 988.592895507812 986.93994140625 972.103271484375 977.750061035156 987.530212402344 991.635437011719 990.052551269531 980.900756835938 982.837890625 983.74560546875 991.512756347656 990.673156738281 994.561584472656 995.46826171875 999.669921875 994.086120605469 986.220581054688 977.030578613281 974.639343261719 978.273193359375 979.87158203125 980.834411621094 982.195739746094 982.483215332031 989.218627929688 991.100219726562 992.68994140625 997.283203125 1000.12390136719 998.974792480469 1007.349609375 1016.17608642578 1009.69653320312 1003.10443115234 999.923889160156 998.073913574219 1006.26519775391 1005.14135742188 1007.42700195312 1008.74206542969 1010.46057128906 1013.07501220703 1008.08355712891 1010.68719482422 1022.78356933594 1027.48413085938 1024.72216796875 1028.45703125 1027.90368652344 1038.96533203125 1052.90075683594 1063.55871582031 1071.6884765625 1081.0654296875 1096.15466308594 1104.16284179688 1105.10827636719 1111.94885253906 1121.81274414062 1132.62622070312 1135.04699707031 1147.83435058594 1165.53955078125 1165.99475097656 1162.8046875 1163.49340820312
950.038879394531 949.498596191406 950.347534179688 947.590087890625 954.27001953125 958.900024414062 970.694152832031 962.155944824219 964.718200683594 960.326416015625 958.918212890625 964.168090820312 973.809631347656 983.239074707031 989.317016601562 988.161499023438 977.093627929688 978.855895996094 982.926879882812 984.462707519531 975.131408691406 970.230834960938 970.081481933594 967.086730957031 969.557861328125 969.77734375 964.513916015625 969.059753417969 972.462768554688 977.257751464844 982.245422363281 979.035400390625 976.608337402344 968.899658203125 959.925476074219 967.08056640625 969.221618652344 966.509643554688 957.7373046875 961.506225585938 966.689331054688 960.21240234375 959.26806640625 952.119750976562 952.093322753906 953.959777832031 955.480834960938 956.03515625 963.552429199219 967.580688476562 963.355224609375 967.046142578125 966.300354003906 970.547607421875 976.747985839844 964.963745117188 965.988647460938 975.144470214844 985.15869140625 980.470275878906 976.103637695312 971.254577636719 968.592895507812 966.865783691406 974.7607421875 973.1015625 977.811645507812 972.165893554688 964.116027832031 959.933044433594 960.516662597656 962.000915527344 969.917846679688 975.96826171875 968.814392089844 965.376708984375 971.669128417969 971.326843261719 979.862854003906 974.388488769531 981.967468261719 985.279968261719 976.568908691406 982.120422363281 977.155334472656 978.5244140625 980.965637207031 974.172058105469 972.73291015625 979.059448242188 979.740966796875 981.642761230469 977.141845703125 980.791931152344 982.111755371094 985.309448242188 988.683288574219 987.022094726562 992.368225097656 987.937194824219 993.335876464844 981.684387207031 980.759399414062 974.343811035156 985.264282226562 981.156677246094 985.075256347656 984.287475585938 995.669128417969 992.922241210938 997.481872558594 1002.10577392578 1000.91027832031 997.928894042969 1009.03332519531 1008.12982177734 1008.62078857422 1011.76330566406 1007.56793212891 1007.505859375 1001.8115234375 1009.44909667969 1004.06762695312 1012.16754150391 1016.24554443359 1009.16448974609 1012.02026367188 1014.49194335938 1016.07189941406 1033.04760742188 1028.78234863281 1030.62841796875 1034.28161621094 1043.97265625 1054.87646484375 1071.41613769531 1072.86853027344 1091.63439941406 1097.45092773438 1095.26354980469 1105.79809570312 1115.82446289062 1121.06274414062 1122.28991699219 1130.38122558594 1153.82287597656 1167.77575683594 1170.95690917969 1169.19860839844 1162.97387695312
953.65673828125 955.387878417969 955.361267089844 952.687072753906 957.614807128906 962.909606933594 973.605712890625 973.834838867188 966.640869140625 970.479797363281 970.103576660156 974.888488769531 973.869689941406 972.057250976562 980.914367675781 983.412170410156 976.57763671875 979.73583984375 975.116821289062 973.838012695312 969.764953613281 963.451965332031 970.663391113281 971.406677246094 965.252136230469 966.417175292969 968.800354003906 970.970397949219 980.5166015625 974.892028808594 984.590209960938 988.482177734375 982.249450683594 974.358520507812 968.608764648438 963.598815917969 969.526611328125 965.354614257812 959.293701171875 960.342102050781 961.472839355469 965.909851074219 958.776550292969 958.715393066406 968.582458496094 957.680603027344 957.796020507812 955.515686035156 968.728820800781 967.496643066406 971.113220214844 967.297180175781 966.068237304688 976.70556640625 972.499877929688 967.49560546875 977.218811035156 980.0537109375 982.267028808594 984.478149414062 982.952392578125 970.594665527344 969.764831542969 968.196105957031 967.294616699219 972.916320800781 969.232177734375 971.609252929688 969.347473144531 973.077087402344 962.477966308594 961.285522460938 975.3388671875 976.670104980469 977.497131347656 970.453979492188 970.33837890625 973.467224121094 975.744934082031 973.625305175781 971.266418457031 982.025512695312 974.543579101562 969.173767089844 976.706787109375 974.90966796875 971.033935546875 972.21484375 972.826171875 974.861511230469 975.930786132812 974.210815429688 972.015869140625 978.222839355469 977.775756835938 988.129638671875 989.633117675781 992.803039550781 993.932861328125 987.018737792969 992.277954101562 984.998168945312 985.251525878906 990.065673828125 984.005676269531 985.294128417969 990.761901855469 996.018371582031 1001.97381591797 999.677612304688 1001.38549804688 997.886047363281 1009.94647216797 1005.25964355469 1007.37915039062 1012.66070556641 1015.1103515625 1013.08807373047 1010.41595458984 1008.60217285156 1010.56384277344 1014.63055419922 1005.73364257812 1003.89770507812 1009.45849609375 1008.02368164062 1015.20239257812 1014.32568359375 1021.02722167969 1031.80383300781 1035.18737792969 1037.43481445312 1047.12341308594 1047.59838867188 1064.28588867188 1075.86853027344 1075.50170898438 1089.271484375 1095.94616699219 1097.984375 1108.869140625 1122.24633789062 1121.93664550781 1116.59289550781 1129.10986328125 1144.50622558594 1156.85900878906 1168.59240722656 1170.5966796875 1161.50512695312
956.14794921875 955.062133789062 950.250610351562 959.864074707031 965.510070800781 963.315490722656 974.326538085938 969.980529785156 969.548522949219 973.3544921875 976.642700195312 972.494323730469 971.263366699219 972.187866210938 986.085144042969 981.250305175781 978.216369628906 976.352783203125 967.504577636719 968.912414550781 969.066772460938 958.93359375 963.78271484375 962.382568359375 962.216186523438 966.582214355469 970.953308105469 973.733215332031 980.069091796875 977.496704101562 976.89404296875 991.271423339844 983.143676757812 976.318420410156 969.5712890625 961.720947265625 959.293395996094 959.215759277344 956.283203125 951.093933105469 957.781066894531 967.864379882812 964.904357910156 958.288330078125 965.669067382812 960.439575195312 959.874389648438 960.76416015625 969.389526367188 969.940307617188 971.271789550781 969.002563476562 972.578369140625 965.171630859375 970.020568847656 968.865783691406 972.058532714844 965.648193359375 969.908874511719 981.924499511719 986.822631835938 973.072448730469 973.250549316406 966.212890625 975.596740722656 967.796875 972.010131835938 974.294189453125 971.848999023438 971.196899414062 963.751647949219 966.420776367188 967.704284667969 968.454650878906 967.647888183594 975.481750488281 969.303649902344 969.575012207031 967.068420410156 969.242370605469 971.804016113281 974.153015136719 975.330139160156 966.335388183594 972.225402832031 976.214172363281 971.323059082031 969.379577636719 972.913879394531 967.017761230469 967.945190429688 970.716247558594 977.640380859375 978.17431640625 983.76513671875 985.558532714844 981.654663085938 987.722351074219 989.425048828125 991.15234375 974.217529296875 988.696350097656 996.044189453125 990.620544433594 991.084533691406 995.192260742188 997.896545410156 1002.79553222656 1001.98907470703 1004.9482421875 1002.81494140625 1003.59442138672 1002.57153320312 1002.73425292969 1004.58374023438 1005.55743408203 1019.15161132812 1018.19927978516 1013.87182617188 1019.23559570312 1028.37341308594 1017.92797851562 1009.57104492188 1013.61462402344 1007.12078857422 1008.01373291016 1013.36859130859 1024.84008789062 1028.77587890625 1029.37683105469 1041.93273925781 1049.423828125 1062.33361816406 1061.54504394531 1066.85302734375 1078.41479492188 1088.97985839844 1083.01782226562 1090.55786132812 1098.94165039062 1104.23974609375 1114.8017578125 1119.68664550781 1118.91918945312 1128.02661132812 1145.0498046875 1151.01928710938 1164.71301269531 1167.50744628906 1158.05639648438
960.208312988281 955.83984375 954.627136230469 959.652709960938 967.63330078125 973.549011230469 971.602172851562 966.547241210938 964.765869140625 965.859985351562 972.867492675781 969.63671875 978.148742675781 977.868835449219 970.352416992188 982.5361328125 968.716186523438 967.866638183594 973.648620605469 973.079345703125 976.983093261719 963.848327636719 956.28759765625 962.367370605469 958.993347167969 969.491943359375 962.193420410156 973.788696289062 971.743530273438 976.345153808594 983.327453613281 985.549194335938 983.449462890625 972.552429199219 968.487854003906 961.219787597656 957.862548828125 960.31005859375 953.769104003906 953.993408203125 962.556518554688 960.898864746094 954.723999023438 958.479797363281 957.848449707031 958.499694824219 957.475891113281 959.276977539062 967.485290527344 971.828247070312 979.309020996094 971.708801269531 964.373718261719 963.566772460938 962.98486328125 967.459289550781 973.855346679688 966.070068359375 965.81787109375 977.140014648438 981.919311523438 973.827819824219 978.461486816406 973.322021484375 972.878723144531 967.502685546875 968.132080078125 971.137573242188 982.088195800781 975.341735839844 972.599853515625 967.397827148438 963.672424316406 973.910949707031 966.035278320312 970.016784667969 960.564514160156 962.680480957031 964.044860839844 972.447814941406 977.023010253906 975.659362792969 976.155578613281 972.578491210938 972.440307617188 979.311767578125 973.813903808594 970.6806640625 971.763244628906 970.240661621094 973.702026367188 982.110229492188 981.285766601562 983.738220214844 984.816711425781 983.684265136719 977.171630859375 977.629577636719 984.789978027344 971.600891113281 977.431396484375 976.656555175781 973.355834960938 981.809814453125 983.142700195312 990.235778808594 995.324096679688 998.678894042969 995.772583007812 998.940551757812 1007.22644042969 1010.07916259766 1005.947265625 1002.27575683594 1001.19512939453 999.7041015625 1008.52593994141 1018.96459960938 1015.32263183594 1022.32598876953 1024.74841308594 1021.87280273438 1013.31280517578 1010.02429199219 1006.43939208984 1014.22338867188 1017.65692138672 1025.68957519531 1035.09106445312 1033.2216796875 1041.81616210938 1060.30651855469 1069.22265625 1064.71423339844 1063.96826171875 1075.4326171875 1077.08386230469 1087.03198242188 1087.49230957031 1092.7724609375 1102.19079589844 1107.73315429688 1118.23937988281 1128.32971191406 1131.97033691406 1140.1083984375 1156.41040039062 1153.49182128906 1153.94763183594 1158.25122070312
958.798461914062 957.637939453125 960.041870117188 968.6396484375 966.801391601562 964.648071289062 969.916625976562 971.034851074219 966.983764648438 968.945678710938 968.962036132812 969.145202636719 965.310729980469 967.887512207031 965.307006835938 973.988159179688 975.168518066406 967.431701660156 971.242065429688 972.597229003906 972.511962890625 961.53271484375 962.61572265625 962.245910644531 961.704772949219 958.036560058594 956.587158203125 966.301513671875 975.855163574219 984.133361816406 973.578552246094 981.434814453125 977.967834472656 974.96875 970.733825683594 969.002807617188 964.785766601562 963.79931640625 965.680786132812 965.6552734375 961.835327148438 958.692321777344 953.001831054688 951.118408203125 957.734558105469 964.486999511719 964.062255859375 965.268249511719 968.200622558594 973.958557128906 973.190490722656 971.324645996094 966.417114257812 965.841613769531 962.603942871094 961.532775878906 968.162353515625 964.064514160156 968.318908691406 974.406127929688 972.530334472656 977.9794921875 970.950805664062 970.135864257812 967.866149902344 965.479858398438 970.25341796875 968.868347167969 968.156799316406 974.379638671875 967.933776855469 961.517211914062 966.391357421875 973.093994140625 976.732666015625 970.29541015625 975.109985351562 972.09228515625 964.804809570312 966.667602539062 964.427917480469 973.114624023438 967.591735839844 971.845092773438 974.901000976562 976.050109863281 974.703674316406 973.866760253906 979.133972167969 973.903381347656 977.026123046875 981.692993164062 983.096130371094 980.085083007812 980.385498046875 978.5126953125 968.679382324219 972.27685546875 975.643005371094 970.639099121094 971.725219726562 971.312927246094 972.2275390625 973.363220214844 983.900024414062 989.681518554688 995.296691894531 992.186767578125 987.004760742188 990.796508789062 993.874145507812 1004.98114013672 1000.58996582031 991.837036132812 1006.45935058594 1002.66906738281 1013.40649414062 1011.88037109375 1014.04272460938 1021.98077392578 1022.68939208984 1019.22241210938 1017.63946533203 1015.72686767578 1007.00512695312 1004.98760986328 1010.00238037109 1033.66577148438 1037.81140136719 1037.53100585938 1051.05334472656 1064.05053710938 1064.95983886719 1069.66723632812 1070.24694824219 1077.322265625 1089.46252441406 1087.27990722656 1091.82971191406 1091.72985839844 1096.38635253906 1105.17309570312 1118.55029296875 1121.02978515625 1129.75524902344 1140.28857421875 1152.74951171875 1148.07958984375 1148.19616699219 1143.15966796875
950.979309082031 958.176635742188 967.439392089844 959.690856933594 960.237121582031 959.447448730469 963.992370605469 968.852600097656 967.11474609375 965.356079101562 970.427124023438 972.744140625 977.297119140625 979.344421386719 971.638366699219 968.647705078125 975.283996582031 970.827453613281 967.485656738281 975.914428710938 973.223083496094 969.718139648438 968.653259277344 962.039245605469 962.204223632812 957.92919921875 957.364440917969 962.793395996094 975.735107421875 975.335815429688 970.498474121094 981.058471679688 983.889282226562 975.976806640625 976.172607421875 978.132934570312 974.859985351562 967.270080566406 959.839965820312 956.914978027344 952.342529296875 955.426940917969 950.87646484375 961.343200683594 958.431640625 970.062805175781 966.601135253906 964.2021484375 974.243957519531 968.521667480469 968.0302734375 964.797485351562 967.772399902344 967.512268066406 960.320190429688 967.006713867188 971.076782226562 964.103149414062 966.203796386719 968.340881347656 977.413452148438 968.596557617188 966.644348144531 967.829406738281 970.317565917969 966.037170410156 966.35205078125 961.241455078125 972.878662109375 970.445678710938 966.640502929688 973.038452148438 970.04443359375 966.632385253906 977.554321289062 973.316650390625 974.650207519531 970.691467285156 965.997009277344 965.427551269531 962.409301757812 963.236755371094 967.105163574219 972.313903808594 967.475341796875 962.10888671875 969.676147460938 967.660461425781 966.6201171875 967.455688476562 973.8759765625 977.943115234375 976.313903808594 972.028869628906 975.84375 982.535095214844 971.553039550781 972.982727050781 971.720886230469 975.574890136719 976.922302246094 974.208129882812 971.093383789062 973.443298339844 970.334045410156 980.380737304688 982.835754394531 985.454467773438 982.767639160156 987.368041992188 994.052124023438 994.916320800781 992.290100097656 1000.00732421875 1006.61279296875 1005.98468017578 1004.51037597656 1024.77087402344 1025.18627929688 1021.12280273438 1024.13012695312 1025.23425292969 1023.89764404297 1022.67565917969 1020.35217285156 1009.65301513672 1021.69390869141 1037.02905273438 1037.85278320312 1044.36535644531 1054.24938964844 1069.48046875 1069.40246582031 1074.94299316406 1082.43225097656 1083.4384765625 1087.56140136719 1091.69030761719 1093.54748535156 1101.42492675781 1101.17456054688 1106.0771484375 1118.66027832031 1120.2578125 1135.67346191406 1141.37780761719 1141.50805664062 1146.43920898438 1140.48815917969 1137.62475585938
951.403625488281 962.174560546875 959.419128417969 955.086791992188 959.278381347656 963.321166992188 962.235778808594 972.1337890625 976.652038574219 976.387390136719 980.3828125 977.340087890625 972.374450683594 981.966796875 972.409912109375 979.163208007812 977.910461425781 973.165405273438 971.330993652344 973.155456542969 966.894897460938 967.923522949219 968.3701171875 964.910583496094 959.891296386719 959.633605957031 957.853454589844 968.139587402344 971.567199707031 970.052978515625 972.68359375 972.885864257812 986.173217773438 980.612609863281 982.320190429688 979.057312011719 979.879577636719 964.815246582031 968.7041015625 956.14111328125 958.802795410156 956.091491699219 955.152893066406 958.213806152344 960.553527832031 962.190795898438 959.920288085938 964.235961914062 968.855407714844 959.156921386719 958.492431640625 961.854858398438 960.983215332031 959.586303710938 960.744689941406 967.318481445312 975.398315429688 963.200744628906 963.687683105469 962.323608398438 972.244506835938 970.359680175781 968.723937988281 969.794128417969 963.958862304688 959.721069335938 959.906982421875 959.633422851562 959.967468261719 955.143920898438 968.038879394531 967.600280761719 968.79248046875 969.816345214844 975.1181640625 968.11962890625 970.923278808594 966.373229980469 973.542785644531 963.782897949219 958.616638183594 962.586303710938 961.227172851562 971.89697265625 975.176696777344 969.243103027344 964.888610839844 974.896301269531 975.952026367188 967.550231933594 979.955383300781 981.702453613281 977.025024414062 967.971862792969 968.123718261719 965.414184570312 969.84130859375 973.751525878906 969.786254882812 976.210266113281 978.680541992188 971.271240234375 968.249328613281 963.840270996094 969.999084472656 975.290649414062 976.425964355469 985.64111328125 979.877624511719 991.502014160156 987.29248046875 989.373168945312 1000.66345214844 1000.23529052734 1000.97546386719 1001.50762939453 1005.49432373047 1018.50360107422 1020.78149414062 1024.53759765625 1028.44226074219 1022.62799072266 1027.95629882812 1028.89050292969 1025.55029296875 1027.251953125 1027.9970703125 1031.84741210938 1041.42224121094 1038.78002929688 1048.5263671875 1055.94677734375 1068.40759277344 1078.21862792969 1092.41467285156 1097.70471191406 1096.38171386719 1101.9453125 1094.48559570312 1091.90844726562 1106.73156738281 1109.75085449219 1114.44226074219 1129.87341308594 1138.21911621094 1130.20654296875 1133.24084472656 1136.28198242188 1136.89978027344 1123.19836425781
963.569091796875 967.889770507812 963.504455566406 962.791625976562 963.159912109375 968.354248046875 968.083862304688 973.858703613281 975.266967773438 973.442321777344 969.491088867188 977.220764160156 973.235900878906 973.836669921875 970.72998046875 977.708251953125 982.985534667969 971.450622558594 966.255249023438 968.748779296875 963.206787109375 961.6650390625 969.882446289062 958.604064941406 960.221984863281 954.398864746094 958.651550292969 966.03369140625 971.0908203125 969.830993652344 970.310424804688 971.135559082031 978.61328125 973.113647460938 976.877014160156 975.594665527344 976.732666015625 969.957458496094 968.694702148438 959.65771484375 965.410949707031 966.589538574219 968.891540527344 969.586547851562 971.095092773438 966.319396972656 969.53125 965.42041015625 957.887512207031 957.640747070312 960.095153808594 956.67138671875 955.606567382812 960.024719238281 960.133544921875 969.374938964844 975.700622558594 968.710693359375 966.072082519531 964.384521484375 965.942138671875 964.994079589844 962.284362792969 956.198059082031 966.361511230469 964.354797363281 963.744995117188 959.660461425781 961.937744140625 958.530700683594 960.999084472656 959.999755859375 962.740173339844 968.330993652344 963.413818359375 969.938598632812 969.403625488281 967.593933105469 963.57958984375 968.894348144531 959.538940429688 963.207702636719 972.1328125 983.164978027344 971.352355957031 967.221008300781 975.603271484375 975.159423828125 974.595336914062 972.158386230469 972.380065917969 968.775024414062 972.429809570312 964.440856933594 964.226440429688 963.281188964844 961.664306640625 971.434143066406 972.891662597656 985.825561523438 979.456726074219 983.172790527344 974.088623046875 964.060302734375 966.605529785156 978.509765625 978.239562988281 972.425048828125 984.804382324219 987.608093261719 986.909301757812 996.849365234375 1002.87805175781 999.851257324219 994.347961425781 997.447082519531 999.235046386719 1014.31976318359 1014.95123291016 1025.04748535156 1023.41986083984 1028.0888671875 1024.84216308594 1023.57135009766 1029.68176269531 1022.73071289062 1025.53918457031 1024.31811523438 1031.66101074219 1042.54455566406 1043.86267089844 1051.15124511719 1071.57312011719 1067.38391113281 1078.14501953125 1092.86901855469 1090.3349609375 1100.52331542969 1104.93151855469 1109.09729003906 1115.03259277344 1114.96716308594 1120.8798828125 1125.18896484375 1127.95007324219 1122.57971191406 1119.80151367188 1122.07824707031 1131.56616210938 1121.73669433594
962.637939453125 966.197265625 972.254577636719 972.870300292969 978.527099609375 968.057678222656 977.162780761719 976.098327636719 961.697998046875 960.781555175781 959.305114746094 968.317443847656 972.721801757812 970.862548828125 978.096618652344 979.235473632812 976.414978027344 973.700134277344 969.839538574219 967.367309570312 958.267028808594 958.607482910156 965.77587890625 971.892944335938 963.137512207031 956.712524414062 953.418640136719 960.337097167969 964.642944335938 961.822448730469 957.615051269531 964.362915039062 972.335327148438 974.396362304688 970.820861816406 968.314880371094 973.930358886719 972.463012695312 958.236877441406 963.52587890625 965.54345703125 966.200866699219 970.754638671875 970.523559570312 962.61376953125 969.981689453125 979.1416015625 969.415771484375 960.413757324219 956.213317871094 954.705627441406 946.638610839844 947.682373046875 956.155822753906 956.123046875 970.418640136719 969.619323730469 955.231384277344 955.806274414062 965.741455078125 955.569091796875 957.791564941406 955.560424804688 959.811401367188 962.233764648438 962.795166015625 956.89013671875 958.053466796875 961.493713378906 957.144958496094 964.457885742188 963.735046386719 957.838684082031 954.70849609375 954.447692871094 963.086608886719 965.470031738281 969.186096191406 971.919372558594 969.663391113281 958.644653320312 966.807678222656 959.122619628906 968.167602539062 978.803161621094 972.905151367188 971.431701660156 969.827026367188 976.69091796875 974.853881835938 971.886169433594 966.883911132812 979.139587402344 976.860229492188 972.212829589844 969.577392578125 970.020935058594 973.963500976562 973.195251464844 973.751770019531 974.609741210938 979.819763183594 972.959899902344 963.375732421875 971.4619140625 983.142272949219 972.607666015625 977.128784179688 981.835021972656 990.914001464844 990.446960449219 990.909240722656 1008.08245849609 996.294311523438 988.462158203125 989.126098632812 991.543090820312 999.172729492188 1007.37182617188 1019.30499267578 1012.60217285156 1018.01013183594 1013.68292236328 1015.37072753906 1026.26403808594 1027.53430175781 1030.18212890625 1037.140625 1035.40625 1045.07775878906 1042.05798339844 1050.92932128906 1059.39489746094 1065.02465820312 1073.35949707031 1087.40393066406 1094.79040527344 1098.05822753906 1102.32385253906 1100.115234375 1110.32397460938 1110.82299804688 1107.56311035156 1117.37731933594 1120.00695800781 1113.30871582031 1111.59326171875 1110.54907226562 1116.47302246094 1111.99157714844
965.998962402344 967.561096191406 976.771240234375 976.638366699219 975.9697265625 972.614562988281 976.218933105469 983.498779296875 971.720520019531 966.0751953125 956.128479003906 954.562438964844 967.029846191406 967.207641601562 977.2021484375 978.132263183594 981.90087890625 971.549865722656 973.652038574219 965.895324707031 959.113952636719 964.029663085938 953.719482421875 969.149658203125 966.459716796875 955.65234375 952.650390625 952.57666015625 959.441040039062 968.333679199219 968.113403320312 964.383117675781 960.923156738281 971.955505371094 970.608825683594 966.207641601562 964.558898925781 962.828186035156 963.9853515625 966.287292480469 957.479675292969 965.02587890625 971.426879882812 970.395080566406 963.765441894531 968.76416015625 974.329956054688 966.828491210938 965.044128417969 957.562561035156 950.940612792969 949.800903320312 947.480773925781 957.93603515625 952.442504882812 962.200561523438 962.782165527344 955.778625488281 950.521667480469 954.031616210938 952.638854980469 961.49853515625 958.471008300781 959.503845214844 960.51904296875 957.023559570312 954.308227539062 961.353454589844 961.911376953125 957.399047851562 956.275024414062 955.49365234375 957.162902832031 958.630493164062 962.583862304688 970.2578125 964.229187011719 968.373657226562 971.882873535156 967.581604003906 964.2158203125 963.498107910156 974.627319335938 969.682800292969 974.349792480469 964.861083984375 962.143188476562 963.914794921875 970.586975097656 973.475280761719 968.982421875 966.539245605469 972.91357421875 971.541259765625 969.493408203125 963.657104492188 970.507080078125 972.607727050781 973.91162109375 982.396911621094 978.83935546875 972.609130859375 974.240661621094 970.602722167969 967.179870605469 974.464721679688 974.446594238281 982.966918945312 979.985290527344 982.986328125 987.808837890625 981.698364257812 991.680358886719 988.640930175781 991.390197753906 990.793029785156 983.784790039062 994.686889648438 1010.61981201172 1011.89312744141 1013.10076904297 1003.42138671875 1010.61169433594 1008.38024902344 1022.46813964844 1023.81164550781 1022.16510009766 1033.84741210938 1032.27392578125 1049.91186523438 1055.12268066406 1058.41040039062 1060.69714355469 1076.38696289062 1082.15124511719 1091.66625976562 1089.30017089844 1090.42712402344 1096.96057128906 1098.47045898438 1104.51806640625 1099.41186523438 1098.03063964844 1100.68920898438 1096.70458984375 1097.96459960938 1103.76550292969 1106.79833984375 1107.81970214844 1095.71862792969
965.126525878906 976.570922851562 979.560546875 974.312072753906 969.804321289062 975.223571777344 978.468322753906 980.389526367188 979.759887695312 972.55908203125 965.17578125 966.119995117188 967.511657714844 973.126586914062 974.404846191406 965.911743164062 974.981628417969 972.448120117188 962.557312011719 959.893432617188 953.524841308594 961.441162109375 968.036315917969 953.95361328125 961.299072265625 950.633361816406 954.800903320312 946.78759765625 953.937622070312 955.801513671875 953.082702636719 963.618103027344 963.27294921875 958.438110351562 968.613647460938 963.313659667969 961.326416015625 957.637451171875 962.547607421875 958.753784179688 953.693237304688 950.205810546875 963.349670410156 963.183776855469 967.997436523438 966.234252929688 964.694763183594 970.739562988281 961.41064453125 957.146423339844 951.768249511719 945.375793457031 950.788452148438 961.523559570312 961.407836914062 954.434692382812 959.767944335938 963.162048339844 959.997131347656 963.969787597656 957.232177734375 957.896362304688 958.123901367188 958.624084472656 958.590881347656 953.92724609375 956.368591308594 959.695068359375 954.781555175781 960.636474609375 956.474975585938 956.991516113281 949.0556640625 952.134826660156 962.068969726562 970.898803710938 969.626892089844 968.525146484375 970.188659667969 969.356384277344 960.419738769531 968.725280761719 964.157653808594 958.91357421875 960.796508789062 951.621887207031 952.376953125 958.432495117188 958.952941894531 963.937805175781 965.813293457031 970.946533203125 975.488586425781 979.128845214844 972.658996582031 968.232543945312 979.625305175781 972.661804199219 979.428344726562 977.111999511719 979.873352050781 971.489318847656 965.021484375 976.435424804688 967.263916015625 973.849548339844 981.848388671875 982.202758789062 977.219787597656 977.888549804688 987.864074707031 983.724365234375 987.795471191406 988.736389160156 989.482421875 984.336791992188 988.82373046875 993.004516601562 999.836608886719 1006.57855224609 1004.19683837891 1010.14147949219 1006.54022216797 1008.97351074219 1014.56860351562 1018.76037597656 1023.88067626953 1026.50012207031 1039.99853515625 1056.96032714844 1058.99743652344 1052.47094726562 1063.12634277344 1079.98291015625 1089.78503417969 1096.12182617188 1086.29919433594 1087.56726074219 1089.5556640625 1084.29833984375 1086.46655273438 1083.86352539062 1086.90979003906 1085.216796875 1083.71838378906 1087.80969238281 1090.69616699219 1088.82214355469 1083.32373046875 1078.90502929688
952.856994628906 965.140625 976.343872070312 974.329467773438 976.064025878906 981.031555175781 976.08056640625 974.229431152344 973.530151367188 971.316284179688 966.36767578125 970.11083984375 969.791076660156 972.257934570312 973.346435546875 969.403259277344 977.187927246094 968.489135742188 966.374206542969 963.732727050781 958.703674316406 961.532836914062 960.248718261719 963.037963867188 959.424438476562 953.693298339844 948.137817382812 943.357238769531 942.944946289062 945.893127441406 956.963989257812 965.520874023438 955.222900390625 947.275756835938 961.98828125 965.527526855469 952.272277832031 955.778686523438 960.805541992188 954.598510742188 947.964782714844 952.703125 959.977783203125 962.033386230469 956.723510742188 959.55322265625 952.114807128906 957.836547851562 955.561950683594 961.803527832031 958.148376464844 946.374206542969 953.922546386719 958.389465332031 963.609558105469 964.003295898438 957.177001953125 959.124206542969 958.758544921875 961.247863769531 957.45751953125 962.21826171875 949.112731933594 949.082214355469 963.1962890625 956.798461914062 960.449523925781 967.643127441406 957.144165039062 955.030395507812 960.051635742188 956.739440917969 964.454528808594 957.236938476562 956.8671875 957.731201171875 966.541015625 963.910827636719 961.3681640625 963.782958984375 965.294677734375 967.213317871094 964.779724121094 951.543212890625 951.331726074219 959.752136230469 956.461364746094 954.114562988281 963.863586425781 961.905456542969 968.764587402344 962.46435546875 961.644714355469 962.671630859375 969.360473632812 979.041015625 981.050903320312 972.634521484375 971.066833496094 977.940979003906 985.613037109375 985.700134277344 968.554504394531 978.318298339844 970.680297851562 969.181457519531 985.955749511719 984.736633300781 978.962646484375 980.989562988281 983.682006835938 993.677368164062 994.291137695312 985.682250976562 987.829895019531 986.923461914062 991.989013671875 1000.85144042969 1001.22454833984 1002.84320068359 1008.30938720703 1011.83154296875 1012.48449707031 1012.19494628906 1012.31359863281 1013.10357666016 1021.09844970703 1030.87451171875 1040.01220703125 1051.86303710938 1055.81201171875 1058.93347167969 1064.80517578125 1076.01586914062 1084.90490722656 1090.62670898438 1089.92102050781 1093.68090820312 1095.79467773438 1082.73779296875 1081.03332519531 1081.64587402344 1070.04260253906 1076.48754882812 1083.98059082031 1081.25390625 1083.12524414062 1080.05798339844 1077.31005859375 1078.84008789062
953.241455078125 967.719421386719 969.793029785156 976.708740234375 970.929443359375 978.108703613281 970.258850097656 967.626831054688 972.666381835938 973.437255859375 974.758605957031 970.178405761719 972.893249511719 974.133056640625 972.5751953125 971.853820800781 968.494445800781 968.388610839844 969.8974609375 962.017822265625 961.75 956.634826660156 954.050109863281 960.257690429688 953.33154296875 949.737060546875 947.596740722656 952.012634277344 951.28955078125 956.948913574219 962.082092285156 958.832641601562 954.763305664062 949.521240234375 953.541442871094 957.012390136719 955.994262695312 960.946105957031 960.581665039062 956.45654296875 952.550964355469 961.907287597656 958.534057617188 958.563049316406 954.155151367188 947.825317382812 952.307067871094 950.815856933594 949.528503417969 953.61767578125 958.709655761719 949.37060546875 954.312866210938 945.606140136719 954.1865234375 955.787536621094 954.114501953125 959.493286132812 962.571533203125 963.188720703125 971.087585449219 965.673095703125 947.684143066406 952.725402832031 960.538269042969 958.858581542969 961.829406738281 970.253051757812 965.469665527344 958.900573730469 953.980773925781 957.876953125 963.660766601562 961.700622558594 967.083862304688 959.52490234375 962.175354003906 961.732421875 958.753662109375 958.667358398438 965.511169433594 967.151306152344 960.841064453125 955.772888183594 960.937316894531 966.208862304688 961.85107421875 955.353698730469 969.837219238281 964.833862304688 963.970153808594 965.018188476562 962.733215332031 958.290588378906 970.117858886719 973.692077636719 979.486511230469 977.408630371094 980.885986328125 982.208801269531 989.025207519531 983.192565917969 978.580688476562 978.185241699219 984.847290039062 980.472229003906 979.014038085938 978.330383300781 987.713989257812 994.02734375 990.436645507812 996.64111328125 991.074645996094 988.949340820312 982.502380371094 990.42431640625 994.596862792969 1003.21313476562 1012.13031005859 1014.63287353516 1009.59814453125 1010.67834472656 1017.11053466797 1011.80688476562 1017.79351806641 1014.15863037109 1034.0166015625 1037.91455078125 1040.01452636719 1045.09094238281 1059.82543945312 1062.75866699219 1059.46081542969 1066.22412109375 1071.34619140625 1084.03552246094 1081.9599609375 1086.78625488281 1080.03796386719 1071.94262695312 1075.35437011719 1071.04992675781 1071.291015625 1067.20300292969 1074.57788085938 1078.11950683594 1070.84545898438 1072.07263183594 1061.74401855469 1074.82666015625
962.934448242188 966.600280761719 973.619567871094 965.298217773438 965.450500488281 978.821594238281 970.294189453125 964.812438964844 968.633544921875 958.366271972656 964.884399414062 961.258117675781 963.1123046875 967.057495117188 955.2841796875 960.089965820312 962.646667480469 963.21142578125 954.248352050781 956.541442871094 957.98193359375 963.842590332031 951.579833984375 946.51513671875 953.573059082031 950.938110351562 956.254699707031 954.615478515625 951.853332519531 950.726928710938 955.895690917969 953.766662597656 954.548767089844 951.23486328125 955.223510742188 956.246887207031 965.400146484375 960.544860839844 952.647766113281 954.062377929688 956.594787597656 958.145141601562 958.554321289062 951.411376953125 953.992248535156 953.136413574219 949.564147949219 951.436706542969 948.355041503906 959.45947265625 956.52685546875 955.531921386719 945.306274414062 944.522216796875 942.536254882812 954.209594726562 949.676452636719 956.435852050781 962.181396484375 966.772705078125 971.681945800781 974.610046386719 959.80908203125 959.984802246094 955.145568847656 952.342224121094 959.413208007812 972.6142578125 968.751159667969 971.085266113281 966.668762207031 958.116149902344 965.181762695312 959.805358886719 963.185974121094 958.954284667969 967.419738769531 966.619262695312 963.031005859375 966.911193847656 960.223205566406 968.162841796875 962.612854003906 955.420349121094 956.940368652344 956.772644042969 966.827880859375 968.364074707031 968.270812988281 971.259521484375 963.440490722656 962.19775390625 956.561889648438 956.524353027344 966.239685058594 974.682067871094 973.971801757812 983.492858886719 982.630310058594 982.167236328125 986.83251953125 984.933715820312 987.301452636719 983.972351074219 983.205749511719 986.543273925781 984.016784667969 992.16943359375 999.699768066406 1000.52209472656 997.347595214844 996.132934570312 1004.80224609375 991.385192871094 985.908447265625 994.020568847656 996.303955078125 1012.525390625 1011.54327392578 1021.12908935547 1021.46112060547 1009.49822998047 1012.54956054688 1015.61541748047 1016.01849365234 1020.97271728516 1034.07202148438 1036.59362792969 1042.63415527344 1045.20666503906 1050.52807617188 1053.52941894531 1056.22119140625 1058.58142089844 1075.662109375 1079.10388183594 1075.01965332031 1076.66577148438 1074.15368652344 1067.25085449219 1069.1826171875 1062.07897949219 1063.72509765625 1058.79931640625 1061.93603515625 1069.63012695312 1061.36047363281 1050.64392089844 1065.12145996094 1072.52478027344
963.324584960938 967.253601074219 964.785705566406 963.998474121094 968.456726074219 965.996154785156 965.845153808594 963.604858398438 967.494079589844 960.104248046875 950.87158203125 958.681701660156 958.741271972656 965.477478027344 954.515441894531 968.259826660156 964.00439453125 959.73486328125 953.997680664062 949.249145507812 963.586059570312 960.317626953125 955.143005371094 950.533447265625 948.826293945312 949.872680664062 940.413757324219 952.702392578125 952.908508300781 952.012329101562 952.633117675781 945.799865722656 953.89208984375 962.349426269531 958.625732421875 954.533935546875 953.083190917969 960.193481445312 955.330444335938 961.418029785156 949.162231445312 960.412780761719 955.619140625 955.358154296875 952.2919921875 952.579162597656 954.010131835938 956.008605957031 959.190734863281 959.170532226562 960.818908691406 952.515869140625 944.244079589844 939.657836914062 953.052368164062 947.992431640625 946.145324707031 949.294555664062 961.135864257812 961.507141113281 964.619445800781 965.079345703125 959.448303222656 963.554870605469 960.680236816406 966.166137695312 967.641784667969 961.984924316406 961.539672851562 964.4794921875 959.9765625 964.731201171875 969.023376464844 962.967956542969 956.207824707031 965.653198242188 971.741577148438 971.347229003906 959.086181640625 965.911010742188 969.629272460938 968.060485839844 965.748046875 961.455200195312 956.932739257812 959.997314453125 963.583374023438 966.183715820312 971.120056152344 966.465576171875 962.177673339844 957.270202636719 954.550109863281 969.1572265625 966.017211914062 969.177185058594 978.394836425781 978.851928710938 976.215515136719 978.227966308594 986.527526855469 981.124755859375 987.521667480469 985.996826171875 995.467041015625 990.304992675781 985.952819824219 990.114196777344 993.048522949219 999.137268066406 998.509094238281 991.266052246094 1005.60845947266 993.868469238281 996.376525878906 997.586364746094 1008.16583251953 1000.44165039062 1008.89459228516 1018.24603271484 1014.46697998047 1007.87121582031 1006.71319580078 1015.41351318359 1009.32611083984 1012.86029052734 1026.759765625 1049.16516113281 1044.83312988281 1044.19921875 1042.15222167969 1056.5068359375 1057.53918457031 1057.36584472656 1067.81787109375 1079.78771972656 1078.15637207031 1071.35388183594 1068.89978027344 1059.35925292969 1053.73278808594 1045.54541015625 1041.11962890625 1050.97631835938 1050.16235351562 1058.6884765625 1056.86083984375 1054.61120605469 1068.33569335938 1068.93798828125
959.952697753906 953.134338378906 964.27099609375 965.713989257812 972.887145996094 969.534423828125 962.2958984375 966.68603515625 965.344116210938 959.074951171875 955.441467285156 957.664184570312 958.7734375 970.685668945312 966.8369140625 967.066284179688 962.480285644531 953.886840820312 957.248901367188 953.407531738281 949.199462890625 960.303588867188 953.481384277344 948.551879882812 951.233764648438 946.416259765625 935.489685058594 936.618225097656 953.018310546875 941.401611328125 951.473999023438 955.352172851562 950.049011230469 953.489807128906 956.319458007812 952.47216796875 955.387939453125 950.23095703125 947.256896972656 955.50341796875 958.320617675781 958.582824707031 949.491882324219 957.479187011719 955.908874511719 949.643859863281 948.204345703125 955.658081054688 960.359130859375 958.228210449219 957.4140625 955.074462890625 951.558410644531 948.018737792969 951.45361328125 949.876892089844 957.10009765625 955.839111328125 958.061157226562 948.076904296875 959.196960449219 969.045776367188 967.990051269531 960.566711425781 969.21826171875 969.124755859375 967.307495117188 968.442810058594 962.968566894531 965.269226074219 963.837768554688 962.143981933594 969.283020019531 964.0146484375 962.203369140625 960.910522460938 962.863830566406 965.406494140625 969.110717773438 973.025939941406 971.4677734375 964.220947265625 960.063842773438 960.294128417969 964.117919921875 969.0322265625 975.3916015625 968.395751953125 974.241455078125 964.179565429688 965.636962890625 962.356262207031 963.542419433594 961.881530761719 964.081420898438 969.475402832031 972.560546875 975.536865234375 969.998229980469 967.473693847656 969.480712890625 975.954772949219 993.062377929688 991.804382324219 985.667297363281 992.514587402344 992.644836425781 999.872192382812 1000.2958984375 1000.69537353516 1008.88128662109 1000.90618896484 999.600341796875 999.661071777344 996.290344238281 1004.87860107422 1014.55798339844 1015.33142089844 1006.61224365234 1001.12829589844 1004.00885009766 995.77392578125 1003.29809570312 1000.47229003906 1007.876953125 1019.46667480469 1033.20190429688 1044.12158203125 1049.35913085938 1051.2265625 1047.39782714844 1051.34704589844 1057.39978027344 1043.21435546875 1058.45495605469 1067.5830078125 1070.67749023438 1070.38708496094 1064.60278320312 1061.17651367188 1054.68908691406 1043.57788085938 1031.05895996094 1037.2119140625 1044.83361816406 1057.02966308594 1053.24230957031 1048.92138671875 1056.93615722656 1056.82629394531
962.723815917969 964.364868164062 967.277160644531 965.721435546875 955.27490234375 966.69775390625 968.2578125 970.646728515625 965.979125976562 962.326599121094 958.732666015625 965.548461914062 964.243347167969 960.803161621094 965.13720703125 959.092895507812 957.1044921875 954.0283203125 950.149780273438 955.595031738281 956.077575683594 955.757568359375 951.216552734375 948.327392578125 946.873352050781 948.643493652344 944.0166015625 947.527587890625 957.606384277344 944.270812988281 954.714172363281 954.43798828125 949.133728027344 957.809326171875 948.192138671875 950.080993652344 952.956604003906 949.21630859375 948.110534667969 960.664489746094 956.733276367188 952.116943359375 947.168212890625 953.482360839844 958.624206542969 946.767700195312 945.066345214844 952.342407226562 956.893981933594 948.381774902344 953.585144042969 955.386779785156 956.977294921875 953.678161621094 954.227661132812 956.701293945312 956.526184082031 957.741027832031 965.793762207031 958.161560058594 960.142272949219 967.140319824219 973.182373046875 967.219604492188 975.886108398438 974.137451171875 964.494812011719 972.262390136719 964.747497558594 961.841064453125 968.510925292969 969.798522949219 965.588439941406 962.69482421875 961.393432617188 963.334777832031 962.497436523438 964.611450195312 966.384826660156 978.344055175781 970.991271972656 966.282043457031 967.449279785156 960.128295898438 969.441223144531 969.604187011719 974.091979980469 973.700012207031 966.523071289062 968.538024902344 963.807739257812 965.511596679688 963.736511230469 970.673828125 965.525085449219 969.299072265625 975.071411132812 971.388732910156 963.776245117188 974.222961425781 981.591613769531 980.500122070312 988.497619628906 995.846923828125 991.437072753906 997.151123046875 994.859313964844 1006.13757324219 1008.72045898438 1007.03936767578 1002.34069824219 1005.20281982422 1007.68835449219 1009.07189941406 1001.7646484375 1010.3251953125 1016.55279541016 1012.11541748047 1002.44580078125 998.759155273438 990.294494628906 1003.08178710938 1008.10552978516 1007.01623535156 1018.88903808594 1012.55426025391 1021.94525146484 1037.85205078125 1047.072265625 1052.05334472656 1048.28784179688 1053.23486328125 1059.1884765625 1057.91711425781 1041.39978027344 1049.06140136719 1061.43933105469 1065.65148925781 1061.35974121094 1056.51037597656 1044.67443847656 1030.50415039062 1025.42724609375 1029.13684082031 1043.25109863281 1045.1123046875 1054.44787597656 1045.81286621094 1051.44567871094 1053.44482421875
964.582824707031 960.877807617188 952.677917480469 963.059875488281 964.568420410156 962.775512695312 973.88720703125 979.227294921875 973.27392578125 961.623291015625 961.549072265625 965.519592285156 965.318359375 961.445129394531 958.877258300781 955.935180664062 950.589660644531 946.024353027344 954.774291992188 957.16259765625 957.866271972656 958.315734863281 950.159606933594 939.374206542969 951.816345214844 948.400329589844 953.945434570312 948.898193359375 950.3291015625 962.098388671875 958.768676757812 958.597290039062 957.226501464844 962.2333984375 962.517028808594 950.743835449219 952.214050292969 950.703430175781 957.163818359375 955.066528320312 952.194763183594 953.713317871094 948.634338378906 947.613525390625 952.10791015625 945.9189453125 950.414611816406 948.412658691406 954.895263671875 943.598571777344 952.127807617188 949.977783203125 960.548706054688 959.122314453125 958.09228515625 960.984130859375 966.172485351562 970.686889648438 968.689392089844 966.749450683594 959.310180664062 967.686950683594 970.126892089844 976.564636230469 972.597351074219 976.52783203125 976.951477050781 973.019775390625 970.613647460938 965.199584960938 964.633728027344 963.975524902344 967.865661621094 961.185668945312 959.21630859375 957.1279296875 966.422973632812 966.165771484375 965.675231933594 978.639587402344 973.864685058594 977.245056152344 973.185791015625 974.528503417969 967.606384277344 973.578002929688 974.070678710938 972.966796875 981.993041992188 978.348083496094 970.392822265625 972.262451171875 968.594421386719 967.346496582031 969.459716796875 978.055236816406 982.687377929688 981.005554199219 977.308410644531 987.794128417969 981.423095703125 994.012145996094 996.673706054688 992.811096191406 994.473815917969 999.402954101562 999.008911132812 1001.62060546875 1003.73162841797 1001.85772705078 996.800537109375 1006.06048583984 1010.2275390625 1012.35662841797 1007.69390869141 1005.81707763672 1005.32470703125 1012.19128417969 1008.14562988281 1001.55505371094 998.186584472656 1015.34564208984 1028.23205566406 1019.19451904297 1013.06213378906 1018.62585449219 1024.53723144531 1032.45971679688 1048.2255859375 1050.0595703125 1054.29357910156 1060.89172363281 1052.30419921875 1051.16516113281 1044.55139160156 1045.33642578125 1058.99438476562 1055.13818359375 1051.3134765625 1060.15405273438 1045.27270507812 1025.19775390625 1029.81970214844 1033.86047363281 1040.64196777344 1031.63171386719 1037.02563476562 1031.46838378906 1036.06359863281 1037.88012695312
971.076293945312 967.87255859375 959.453918457031 950.363342285156 957.266418457031 954.602416992188 964.289794921875 974.528930664062 970.069091796875 964.265014648438 961.979919433594 956.308288574219 959.027709960938 957.196655273438 954.972961425781 954.182861328125 941.622314453125 945.028991699219 948.421447753906 949.997314453125 953.150756835938 951.178466796875 953.271057128906 948.080322265625 938.533508300781 956.0927734375 948.586669921875 947.586730957031 949.222961425781 955.454650878906 957.121826171875 959.927368164062 954.614807128906 954.241455078125 960.619812011719 950.473327636719 957.642395019531 955.033325195312 949.270629882812 948.571166992188 956.323791503906 956.542114257812 954.232116699219 958.290588378906 953.783142089844 946.884033203125 955.576171875 942.504821777344 953.692199707031 957.647766113281 951.333374023438 949.001831054688 954.852111816406 955.29345703125 962.367126464844 962.894470214844 960.128234863281 967.022094726562 975.054748535156 967.464416503906 964.555419921875 973.769836425781 966.387145996094 968.099548339844 968.108276367188 975.499755859375 986.95751953125 976.003601074219 978.260803222656 975.56396484375 971.793579101562 976.963806152344 977.067749023438 970.768127441406 970.568481445312 962.793823242188 962.924377441406 962.666320800781 970.014221191406 972.844787597656 973.747497558594 978.249267578125 977.649536132812 975.32861328125 977.83447265625 984.36572265625 978.24365234375 981.345947265625 983.239868164062 974.427734375 973.198791503906 967.261962890625 972.958923339844 963.674133300781 975.139892578125 976.109680175781 981.134155273438 986.259643554688 988.130065917969 985.66162109375 994.280944824219 991.81689453125 1001.58715820312 1003.30072021484 1004.73803710938 1004.94165039062 1006.33294677734 1002.31311035156 1000.27807617188 1004.72973632812 1003.2744140625 1006.32061767578 1011.86053466797 1020.31640625 1022.17718505859 1020.99560546875 1013.60455322266 1019.33514404297 1020.11590576172 1022.72827148438 1018.69573974609 1023.24224853516 1024.16967773438 1023.0595703125 1024.24377441406 1020.83807373047 1026.59753417969 1030.513671875 1043.74450683594 1043.92272949219 1038.86694335938 1053.58947753906 1055.7919921875 1048.93005371094 1042.05004882812 1045.17761230469 1061.42309570312 1054.70227050781 1055.16821289062 1050.58630371094 1038.68103027344 1030.51062011719 1025.83996582031 1024.19970703125 1027.19421386719 1026.44665527344 1032.79064941406 1033.97583007812 1025.76708984375 1018.94714355469
964.80029296875 963.492553710938 953.217712402344 951.372863769531 950.516662597656 951.206481933594 960.2041015625 970.8955078125 974.932434082031 964.077026367188 959.145080566406 950.674987792969 950.804016113281 951.629150390625 944.2001953125 948.289428710938 947.704956054688 937.734375 942.819030761719 948.319213867188 945.335266113281 938.638732910156 952.933288574219 945.74072265625 942.10986328125 946.22900390625 946.420471191406 950.516418457031 950.002014160156 952.652770996094 954.334899902344 961.744018554688 959.263305664062 949.579284667969 948.365661621094 948.690063476562 948.597717285156 958.660705566406 952.432250976562 955.7568359375 960.664794921875 959.7509765625 956.561706542969 947.792785644531 948.884521484375 952.797729492188 953.086486816406 954.391052246094 961.304809570312 958.132751464844 957.814575195312 961.596862792969 960.919250488281 962.121826171875 970.611938476562 973.022216796875 970.861450195312 963.6962890625 973.460021972656 970.0322265625 972.6298828125 973.774108886719 967.669860839844 967.895202636719 967.642700195312 973.967163085938 970.262756347656 984.794189453125 979.273620605469 978.603210449219 972.215881347656 973.572387695312 965.509582519531 972.500915527344 968.092041015625 956.812316894531 974.411926269531 972.078552246094 970.6904296875 967.705627441406 980.735595703125 982.815490722656 980.6259765625 977.2353515625 979.177612304688 979.208984375 978.986633300781 974.472229003906 977.626342773438 983.187683105469 974.5810546875 963.072021484375 970.574523925781 963.992797851562 965.31005859375 977.822875976562 977.380310058594 986.706604003906 987.31982421875 988.668640136719 1005.07769775391 1006.90234375 1003.37347412109 1010.43609619141 1000.78582763672 999.096984863281 1007.30474853516 1009.39892578125 1006.36511230469 1006.07354736328 1004.32629394531 1008.61395263672 1022.70672607422 1027.02307128906 1037.73034667969 1030.91870117188 1027.4951171875 1027.40087890625 1029.75805664062 1037.42687988281 1027.12060546875 1026.685546875 1025.41381835938 1034.28369140625 1036.7392578125 1014.47204589844 1023.84521484375 1034.61315917969 1035.99035644531 1036.02233886719 1036.00671386719 1042.20092773438 1047.85974121094 1044.3740234375 1052.77966308594 1042.9287109375 1039.63098144531 1044.49658203125 1048.84228515625 1044.59545898438 1030.77966308594 1031.65441894531 1019.65759277344 1018.33721923828 1014.06964111328 1017.07525634766 1034.32421875 1028.87805175781 1016.1337890625 1014.92828369141
951.680297851562 953.669616699219 954.707702636719 953.608825683594 956.548645019531 945.884887695312 947.628051757812 963.1455078125 968.203308105469 961.5625 961.752685546875 954.267944335938 944.287231445312 948.370971679688 943.491271972656 945.236206054688 944.991943359375 946.188659667969 944.927673339844 944.066162109375 952.044982910156 952.621459960938 956.605102539062 951.645568847656 943.888854980469 950.217834472656 951.277709960938 956.547668457031 942.747741699219 951.525207519531 953.657348632812 949.539001464844 955.815612792969 945.010620117188 946.234008789062 948.9560546875 950.987854003906 942.142395019531 943.063354492188 956.594055175781 945.715148925781 960.990661621094 955.945251464844 946.260986328125 949.959716796875 951.523498535156 963.991516113281 964.190673828125 962.707153320312 956.314331054688 959.502624511719 966.4267578125 974.832641601562 973.731689453125 967.72607421875 972.428100585938 964.857543945312 966.45166015625 968.535461425781 973.045715332031 972.88037109375 974.597595214844 973.97412109375 963.575744628906 965.701354980469 974.371887207031 971.987670898438 981.243530273438 979.513366699219 975.73974609375 968.53076171875 981.973693847656 969.831420898438 965.996398925781 974.421264648438 977.940979003906 970.642761230469 976.631774902344 973.240539550781 971.975646972656 973.953186035156 967.912048339844 973.775939941406 985.850708007812 979.509582519531 989.278198242188 985.467712402344 980.449584960938 976.696105957031 977.629638671875 976.521606445312 968.439819335938 974.105834960938 976.736694335938 978.256408691406 986.012817382812 979.411193847656 993.151306152344 1000.67724609375 1008.45837402344 1005.61303710938 1016.87316894531 1012.32427978516 1000.88446044922 993.372009277344 997.222412109375 1003.18035888672 1010.53533935547 1006.525390625 1006.93505859375 1007.94635009766 1013.25378417969 1025.35302734375 1029.59301757812 1024.00805664062 1035.40612792969 1031.46362304688 1027.59619140625 1037.63647460938 1036.62023925781 1036.8125 1023.87298583984 1026.56457519531 1032.53344726562 1037.79943847656 1027.62646484375 1027.05969238281 1026.73352050781 1028.50952148438 1029.64624023438 1028.40893554688 1028.22912597656 1036.53649902344 1032.09826660156 1028.38549804688 1026.58764648438 1035.02673339844 1039.4404296875 1042.07788085938 1040.3505859375 1034.88305664062 1018.32305908203 1020.30090332031 1020.80053710938 1017.72290039062 1021.29705810547 1024.84594726562 1022.13671875 1014.90283203125 1013.83441162109
952.445129394531 946.491333007812 943.71435546875 950.39013671875 957.538024902344 954.53564453125 960.12451171875 961.167785644531 955.429321289062 950.900329589844 946.135559082031 954.992004394531 944.142639160156 941.308776855469 944.357055664062 948.969360351562 944.455505371094 942.109802246094 947.66259765625 947.344299316406 943.593139648438 947.339904785156 951.946655273438 946.370422363281 937.182067871094 943.785095214844 949.993591308594 942.886108398438 943.257873535156 948.920166015625 952.986999511719 955.086730957031 951.5302734375 947.313842773438 942.978881835938 950.277221679688 939.304504394531 941.943176269531 942.432556152344 948.439697265625 951.410522460938 952.367004394531 958.444763183594 955.481384277344 951.496337890625 960.934143066406 971.519104003906 967.358947753906 973.151916503906 970.980407714844 973.28076171875 980.798461914062 977.135559082031 976.058959960938 969.125549316406 976.07177734375 970.361694335938 969.660034179688 975.454833984375 977.457946777344 972.567321777344 975.045349121094 974.334228515625 970.721313476562 961.796508789062 973.887878417969 978.886047363281 974.777648925781 979.126953125 979.069946289062 973.142272949219 977.417663574219 972.338623046875 977.001831054688 975.320373535156 973.399353027344 969.222961425781 978.862243652344 971.960571289062 967.354614257812 976.952819824219 978.468688964844 974.72705078125 979.320739746094 986.921752929688 984.1748046875 991.755493164062 982.099060058594 974.087585449219 976.032287597656 969.268249511719 972.782531738281 979.605224609375 987.833679199219 993.024658203125 991.445007324219 991.208312988281 994.290161132812 989.856811523438 1009.28430175781 1016.11090087891 1011.19738769531 1008.13726806641 1002.4658203125 996.217895507812 995.982055664062 1002.10424804688 1002.13531494141 998.166442871094 1006.82232666016 1010.17260742188 1017.69805908203 1024.22058105469 1025.02111816406 1029.25476074219 1033.21044921875 1025.98864746094 1032.64392089844 1038.67309570312 1033.87780761719 1029.91638183594 1027.76245117188 1030.97741699219 1039.04772949219 1035.0634765625 1026.39428710938 1027.52453613281 1030.22888183594 1029.23718261719 1025.69873046875 1021.68011474609 1024.26879882812 1028.37585449219 1024.76635742188 1017.58441162109 1027.52661132812 1026.5908203125 1031.9912109375 1030.57922363281 1029.6904296875 1024.48828125 1017.71978759766 1013.93707275391 1018.44085693359 1021.677734375 1016.23883056641 1015.56457519531 1012.40734863281 1011.69586181641 1004.55859375
951.821655273438 950.714904785156 949.406311035156 958.742553710938 950.326477050781 949.817687988281 948.961730957031 946.304809570312 953.310729980469 942.126708984375 941.961547851562 948.314514160156 947.912292480469 944.737854003906 942.456787109375 949.024719238281 950.950988769531 946.031982421875 949.171508789062 951.574401855469 948.067199707031 951.97802734375 946.685180664062 942.180114746094 947.719848632812 950.287170410156 950.767211914062 944.847839355469 947.933715820312 951.03955078125 947.05712890625 948.072204589844 955.046142578125 947.084228515625 949.216491699219 940.89599609375 935.897888183594 944.969543457031 945.725219726562 951.059143066406 952.61376953125 961.2275390625 966.302917480469 958.060119628906 958.73583984375 964.198425292969 971.926879882812 970.865173339844 971.098571777344 978.307678222656 981.84228515625 982.387634277344 984.118041992188 971.853210449219 982.523681640625 977.84033203125 975.385314941406 969.544677734375 972.591491699219 975.958435058594 978.347717285156 964.502075195312 961.732055664062 964.901916503906 971.359985351562 974.785583496094 979.380310058594 979.133850097656 982.073791503906 976.123413085938 972.0439453125 982.277770996094 978.0166015625 977.97998046875 976.513916015625 978.389282226562 973.583435058594 973.5009765625 968.904479980469 968.969543457031 972.421936035156 973.648620605469 970.184814453125 972.63916015625 984.967041015625 983.872192382812 986.755981445312 986.01953125 977.184020996094 975.205200195312 969.157836914062 973.884887695312 972.394348144531 983.635314941406 989.510986328125 994.523986816406 995.827514648438 992.365539550781 1000.43365478516 1007.03326416016 1009.57281494141 1008.62628173828 1000.97241210938 994.634765625 997.1416015625 991.675964355469 1004.66357421875 1008.60614013672 1000.69329833984 1008.52001953125 1010.6376953125 1013.54608154297 1020.97198486328 1031.24206542969 1029.10852050781 1033.87451171875 1034.75415039062 1040.11535644531 1041.66027832031 1038.47570800781 1044.81884765625 1040.77001953125 1047.25854492188 1040.57873535156 1034.73010253906 1033.46752929688 1026.87451171875 1029.013671875 1025.72131347656 1026.98547363281 1024.03356933594 1028.72766113281 1025.57678222656 1014.95013427734 1009.21228027344 1011.74053955078 1017.72009277344 1018.49340820312 1024.03662109375 1016.35852050781 1013.05407714844 999.334167480469 1011.96936035156 1011.17163085938 1019.04370117188 1015.19219970703 1007.49328613281 1008.97601318359 1009.22125244141 1005.44799804688
956.107666015625 967.400024414062 959.146606445312 952.046691894531 938.404724121094 940.959777832031 942.780151367188 944.32861328125 939.041198730469 934.944274902344 942.957336425781 951.029479980469 951.034362792969 955.825256347656 960.914611816406 957.69140625 952.572082519531 950.534912109375 953.621337890625 957.923706054688 949.990417480469 949.265502929688 945.734252929688 942.348388671875 952.432006835938 959.270935058594 957.388671875 941.912658691406 944.033264160156 947.321105957031 949.759826660156 950.597534179688 957.088684082031 952.995422363281 959.871398925781 954.004333496094 952.16943359375 957.239013671875 950.964782714844 952.831481933594 961.077453613281 969.276245117188 969.930969238281 964.642211914062 967.404174804688 965.747497558594 974.220642089844 973.494934082031 977.247985839844 976.807739257812 984.433349609375 980.309936523438 979.601257324219 974.241943359375 977.319763183594 981.600219726562 980.540954589844 971.37841796875 970.478515625 975.597595214844 976.545837402344 970.014831542969 964.497863769531 969.964782714844 969.117065429688 971.324645996094 968.155151367188 968.017700195312 973.956115722656 975.231140136719 977.91162109375 980.233032226562 984.491455078125 982.214965820312 975.824584960938 980.955810546875 973.547241210938 964.249145507812 978.295166015625 971.886596679688 974.767578125 970.92626953125 973.974792480469 972.968627929688 982.416381835938 983.172607421875 985.458129882812 992.451782226562 985.49365234375 973.245544433594 970.787658691406 983.267333984375 986.064880371094 983.832824707031 984.483215332031 979.363220214844 984.242248535156 985.385803222656 989.953796386719 1001.92474365234 1008.29846191406 1005.36248779297 1003.65014648438 1003.50079345703 995.826110839844 992.673828125 995.640258789062 1008.09661865234 1013.0478515625 1011.36993408203 1016.78619384766 1009.35577392578 1017.30596923828 1024.51000976562 1028.80004882812 1036.72619628906 1036.84631347656 1041.47302246094 1042.39172363281 1046.91027832031 1048.18884277344 1050.677734375 1044.71423339844 1037.13696289062 1041.51806640625 1024.29223632812 1025.85021972656 1025.37866210938 1022.67901611328 1014.10577392578 1015.18377685547 1022.19635009766 1019.47174072266 1006.47338867188 1006.23376464844 1007.82330322266 1007.84716796875 1000.10424804688 1004.62408447266 1004.97424316406 999.675842285156 1002.49291992188 1003.62652587891 1008.00915527344 1007.61175537109 1008.04760742188 1009.67755126953 1010.10070800781 1008.13763427734 1005.70715332031
961.998840332031 964.537536621094 958.346618652344 947.92236328125 935.913391113281 941.72412109375 940.220825195312 942.967590332031 941.509155273438 936.71728515625 942.814514160156 947.459838867188 950.110107421875 959.558349609375 966.451965332031 978.140197753906 960.434509277344 959.858947753906 960.231262207031 960.223266601562 953.6640625 956.44189453125 948.733703613281 957.912170410156 964.372131347656 968.376708984375 954.631713867188 943.989196777344 945.680236816406 947.391723632812 952.187927246094 952.667236328125 951.727294921875 954.038757324219 954.655456542969 958.271667480469 953.777587890625 954.962219238281 959.548278808594 965.7890625 970.700378417969 963.77978515625 966.154541015625 976.793884277344 974.233154296875 980.349914550781 987.666748046875 980.110290527344 983.681274414062 984.65771484375 979.871765136719 979.789306640625 978.479431152344 986.630126953125 981.561401367188 978.012145996094 974.564636230469 977.834228515625 970.437316894531 970.5224609375 965.651550292969 966.565734863281 964.856994628906 969.787841796875 967.816528320312 967.637023925781 971.597839355469 971.601684570312 981.086791992188 972.140808105469 974.079467773438 976.832458496094 985.382080078125 975.083251953125 980.488830566406 986.465087890625 984.791076660156 985.4228515625 982.692626953125 974.62890625 977.723022460938 977.784729003906 984.315368652344 984.904907226562 987.096496582031 984.029052734375 992.30615234375 986.021301269531 990.600769042969 985.440551757812 980.823913574219 986.654663085938 992.09423828125 989.884582519531 983.828247070312 979.624084472656 982.636291503906 984.994750976562 983.462097167969 1000.93145751953 1003.90350341797 1004.79498291016 1002.89874267578 1001.29998779297 999.378601074219 1000.78118896484 996.876159667969 1008.43420410156 1012.02185058594 1019.87786865234 1014.60693359375 1016.34741210938 1015.40222167969 1024.603515625 1026.39270019531 1035.22387695312 1041.18176269531 1042.0537109375 1045.47973632812 1051.15661621094 1048.98937988281 1050.06286621094 1046.07434082031 1042.08520507812 1027.11596679688 1030.74047851562 1026.94030761719 1020.93206787109 1023.31317138672 1013.17114257812 1006.55041503906 1009.80322265625 1007.56866455078 995.009399414062 999.931457519531 998.896179199219 997.669677734375 988.917053222656 991.69091796875 991.910034179688 999.418884277344 993.982666015625 1004.01293945312 1011.79028320312 1008.33135986328 1010.07788085938 1004.91369628906 1008.24932861328 1000.95300292969 990.481506347656
951.581787109375 951.913208007812 944.308349609375 943.401611328125 941.332702636719 935.51025390625 934.580200195312 934.173034667969 938.019653320312 942.48046875 945.903625488281 949.522827148438 945.843933105469 954.692749023438 969.5927734375 970.101623535156 972.066650390625 961.760925292969 966.066589355469 969.462341308594 962.116638183594 960.57177734375 956.530151367188 956.326354980469 966.615905761719 970.377563476562 962.148803710938 959.842651367188 949.558837890625 953.4921875 948.318237304688 957.407958984375 951.023864746094 955.09521484375 961.090209960938 957.180969238281 968.942138671875 970.378845214844 971.006896972656 976.844665527344 974.221069335938 973.092102050781 978.366088867188 980.006042480469 986.313598632812 985.197082519531 989.382690429688 991.213439941406 990.779663085938 987.677062988281 983.111450195312 974.016967773438 977.774536132812 977.343505859375 978.866882324219 976.671447753906 984.458923339844 975.715454101562 980.016540527344 973.340698242188 980.027465820312 965.83935546875 973.592956542969 972.561096191406 966.389221191406 977.339050292969 981.778198242188 980.21435546875 973.886840820312 980.646179199219 975.288146972656 977.595825195312 979.528259277344 982.185180664062 981.177062988281 981.555358886719 987.017272949219 984.895935058594 983.469665527344 979.46923828125 981.919799804688 980.394592285156 971.852844238281 982.763366699219 988.570678710938 990.488647460938 991.782653808594 985.443542480469 980.590087890625 986.266967773438 988.88623046875 982.685852050781 980.283630371094 987.99853515625 986.312866210938 988.288513183594 989.916137695312 995.599792480469 995.704467773438 996.028137207031 996.494201660156 1001.41278076172 1003.25018310547 1012.11663818359 1002.21453857422 1003.51837158203 1009.51593017578 1008.09582519531 1016.32781982422 1013.22210693359 1018.81951904297 1016.13690185547 1022.96813964844 1027.70373535156 1035.10205078125 1030.56921386719 1038.87805175781 1043.7099609375 1038.88989257812 1044.83813476562 1046.74951171875 1042.74670410156 1047.91857910156 1037.208984375 1023.72863769531 1017.37261962891 1021.74841308594 1024.94165039062 1027.58947753906 1013.490234375 1011.373046875 998.479736328125 997.742248535156 988.540954589844 1004.68218994141 999.128967285156 993.16552734375 988.34716796875 1000.84417724609 998.67724609375 1009.83935546875 1007.2333984375 1009.91009521484 1012.2802734375 1011.7333984375 1004.88677978516 1002.49890136719 999.23974609375 990.346313476562 988.915588378906
954.749389648438 947.092407226562 947.558044433594 948.666931152344 941.914611816406 934.558471679688 935.766357421875 938.902099609375 937.665649414062 938.9462890625 952.950866699219 953.450317382812 957.498901367188 964.966796875 970.204467773438 975.44580078125 969.258422851562 963.299865722656 971.403686523438 969.599853515625 965.824768066406 958.629577636719 950.900268554688 966.679931640625 971.06884765625 975.302429199219 971.259521484375 971.429138183594 962.111145019531 961.781555175781 950.709350585938 955.700012207031 953.494079589844 966.755004882812 960.406616210938 959.583251953125 970.933410644531 977.370849609375 972.547302246094 977.444396972656 976.060913085938 978.696899414062 978.617492675781 977.542297363281 983.595947265625 991.229736328125 988.612670898438 992.223754882812 1005.65045166016 994.0712890625 984.21826171875 982.502563476562 981.036010742188 986.229125976562 990.567260742188 986.357666015625 977.765319824219 972.607604980469 975.232727050781 982.237731933594 972.917419433594 971.918334960938 967.546936035156 969.669677734375 971.999633789062 978.078002929688 989.917846679688 986.60400390625 983.846130371094 980.819030761719 981.362548828125 980.980712890625 986.241088867188 985.07568359375 981.597412109375 990.884704589844 988.625061035156 985.4140625 981.774597167969 974.716247558594 985.281616210938 980.355712890625 984.924133300781 987.917297363281 988.490112304688 986.986022949219 979.493286132812 972.805725097656 975.556762695312 979.014465332031 979.277221679688 979.258117675781 978.269775390625 984.558471679688 983.360168457031 981.217956542969 996.520874023438 996.364440917969 995.479187011719 996.229370117188 995.830261230469 998.250793457031 994.931518554688 1001.33654785156 998.77783203125 1002.38024902344 1013.21539306641 1009.78704833984 1012.53942871094 1017.46691894531 1015.82427978516 1010.16687011719 1016.46643066406 1021.12127685547 1030.23937988281 1027.66967773438 1028.73364257812 1035.15563964844 1045.33178710938 1043.27575683594 1043.95031738281 1034.52124023438 1037.99560546875 1030.55847167969 1021.48852539062 1017.23077392578 1012.71759033203 1012.10162353516 1014.11053466797 1016.74505615234 1003.52056884766 999.915344238281 994.053161621094 997.127380371094 997.673583984375 1000.24365234375 1001.27856445312 997.231384277344 1006.28820800781 1005.64447021484 1017.81158447266 1011.27227783203 1001.86340332031 1007.12127685547 1005.31402587891 995.449584960938 997.294189453125 1007.54132080078 1002.97778320312 987.271301269531
946.429321289062 947.008422851562 951.054016113281 951.3056640625 942.980773925781 930.527282714844 927.537780761719 939.917114257812 953.031005859375 950.565551757812 957.1396484375 959.807800292969 969.041381835938 968.939697265625 972.74169921875 975.465698242188 971.78857421875 964.519714355469 973.525451660156 966.385864257812 968.697326660156 973.379272460938 971.432556152344 979.190490722656 977.458984375 974.18359375 974.626403808594 967.265014648438 964.106506347656 971.408020019531 955.544799804688 958.191528320312 955.38720703125 963.076965332031 963.4130859375 965.818359375 969.025024414062 974.741516113281 982.927978515625 975.455871582031 978.746948242188 987.097106933594 981.900451660156 988.799987792969 984.049621582031 990.385681152344 987.160705566406 985.812438964844 995.601135253906 993.923095703125 993.394287109375 986.955505371094 988.085205078125 986.864135742188 992.377258300781 981.977294921875 968.689819335938 980.607727050781 967.339721679688 977.299133300781 974.584838867188 975.283264160156 972.772583007812 972.156066894531 977.781555175781 989.249267578125 990.734619140625 979.846862792969 984.34765625 982.887390136719 976.810668945312 986.37548828125 990.125732421875 989.656555175781 995.47998046875 990.979187011719 984.351440429688 988.4052734375 989.259216308594 976.303955078125 987.97314453125 984.855285644531 996.763244628906 996.311157226562 990.665893554688 984.460571289062 982.548217773438 971.21240234375 968.741455078125 983.939758300781 982.67431640625 978.27099609375 980.924438476562 982.216125488281 985.925903320312 992.676025390625 988.836853027344 990.425720214844 989.996887207031 994.509094238281 1003.85601806641 1006.51129150391 1001.84625244141 993.594543457031 1001.47802734375 1009.16595458984 1011.12176513672 1009.99908447266 1012.19769287109 1015.67510986328 1015.11077880859 1007.12017822266 1019.67364501953 1019.03704833984 1035.84802246094 1030.65551757812 1031.59619140625 1042.30993652344 1044.41833496094 1037.79772949219 1034.07397460938 1030.359375 1035.00036621094 1026.40979003906 1018.57263183594 1014.13909912109 1006.08673095703 1005.75543212891 1007.63165283203 1010.22979736328 1013.54876708984 1003.52465820312 1000.71356201172 996.9951171875 1002.91790771484 1009.53076171875 1002.08666992188 998.675476074219 995.519653320312 1010.0263671875 1016.02575683594 1008.59973144531 998.076293945312 1002.11126708984 998.291931152344 998.998352050781 998.247131347656 997.528869628906 993.204833984375 993.581481933594
937.899841308594 940.47216796875 946.237365722656 938.500183105469 938.698547363281 933.793029785156 938.069763183594 939.101135253906 952.537109375 957.252258300781 965.745727539062 961.619873046875 970.5087890625 969.134399414062 972.685607910156 982.298095703125 975.639404296875 972.505187988281 980.96337890625 975.916259765625 984.927490234375 983.228759765625 989.492980957031 980.417846679688 973.030700683594 973.773315429688 971.836608886719 977.977111816406 972.282775878906 969.703063964844 966.816833496094 965.451477050781 955.619323730469 961.681518554688 967.396240234375 968.852294921875 973.806640625 977.608154296875 983.231811523438 978.190673828125 980.990966796875 985.219970703125 992.458374023438 993.699340820312 985.04833984375 996.601379394531 993.255920410156 998.607360839844 995.784301757812 994.496398925781 997.428894042969 997.945495605469 999.952514648438 995.231201171875 984.126220703125 981.468078613281 973.174926757812 971.192321777344 973.258422851562 977.118530273438 978.310119628906 975.667358398438 979.560485839844 979.044250488281 980.347961425781 988.427185058594 989.599853515625 985.317932128906 984.420959472656 991.212341308594 989.825561523438 986.298950195312 993.986145019531 988.841003417969 988.870361328125 996.245300292969 987.190246582031 993.050231933594 990.727844238281 981.320678710938 988.5400390625 1001.49603271484 993.733703613281 989.216918945312 986.958984375 984.350463867188 978.476257324219 984.1005859375 975.414978027344 972.444213867188 984.6435546875 979.52099609375 974.692077636719 980.970031738281 995.895935058594 997.173583984375 995.807189941406 995.457092285156 995.47119140625 995.211853027344 1011.23120117188 1014.19952392578 1010.86578369141 1009.75817871094 1007.63513183594 1002.74468994141 1015.19860839844 1006.69049072266 1017.20251464844 1015.32745361328 1012.65991210938 1012.51977539062 1013.90588378906 1029.2255859375 1039.67260742188 1025.37475585938 1027.63110351562 1033.44580078125 1029.51245117188 1028.48608398438 1023.94720458984 1012.43902587891 1016.07415771484 1016.34399414062 1020.59637451172 1017.53900146484 1006.87847900391 997.251708984375 1011.20330810547 1009.23522949219 1013.45202636719 1005.63220214844 1006.50396728516 1009.71807861328 1001.80767822266 1008.99914550781 1010.25769042969 1001.697265625 1004.98626708984 1012.49212646484 1011.09503173828 1001.72729492188 996.380676269531 1001.72222900391 1003.08538818359 997.592834472656 1001.35943603516 987.857055664062 993.067993164062 994.522094726562
936.600402832031 935.653259277344 931.194519042969 935.935913085938 929.931457519531 936.45166015625 947.454772949219 957.415283203125 950.842895507812 960.951293945312 955.461303710938 963.666015625 964.434509277344 975.590698242188 980.089599609375 986.830139160156 982.853210449219 985.498779296875 980.227233886719 979.023010253906 993.416198730469 995.046997070312 990.703979492188 983.739501953125 984.463562011719 978.970520019531 976.596008300781 972.132019042969 971.591003417969 966.394470214844 965.106140136719 961.535766601562 961.892761230469 965.214599609375 973.996887207031 975.495300292969 975.311706542969 984.534423828125 983.945434570312 989.250366210938 991.899841308594 988.752258300781 984.909790039062 989.234802246094 989.879516601562 997.6162109375 999.192321777344 1003.11187744141 995.781311035156 1005.02282714844 1000.30511474609 1004.4345703125 1001.27410888672 996.970092773438 985.247436523438 987.766174316406 981.715576171875 972.956359863281 974.242492675781 979.846130371094 979.345642089844 982.812255859375 983.97265625 971.137756347656 981.347595214844 989.550415039062 993.66162109375 995.384521484375 995.154479980469 983.099365234375 985.442138671875 993.377624511719 981.535461425781 991.201477050781 989.164733886719 994.276245117188 988.423034667969 986.256530761719 988.112243652344 988.893676757812 988.069396972656 998.978637695312 999.951293945312 1005.69421386719 991.494689941406 991.924133300781 987.805114746094 979.671264648438 971.394714355469 974.002563476562 986.637268066406 988.932250976562 976.948608398438 985.267456054688 993.654113769531 999.458251953125 999.066711425781 990.689514160156 999.209289550781 999.324645996094 1005.17767333984 1007.85339355469 1008.11163330078 1007.41119384766 1014.10174560547 1014.75305175781 1020.76281738281 1014.31494140625 1018.92126464844 1024.93078613281 1024.31591796875 1021.71575927734 1025.75708007812 1037.90246582031 1036.14892578125 1036.19860839844 1026.09155273438 1024.14086914062 1033.046875 1020.12927246094 1013.88116455078 1004.83850097656 1006.07275390625 1011.65826416016 1013.97235107422 1018.33935546875 1004.95336914062 1010.59466552734 1009.62451171875 1013.45690917969 1010.33428955078 1006.28649902344 1014.14105224609 1010.80975341797 1016.20642089844 1011.85876464844 1006.30126953125 1003.74896240234 1009.94384765625 1004.50018310547 995.943725585938 996.26220703125 998.021240234375 1003.42645263672 1001.67626953125 995.174743652344 999.582946777344 1002.60168457031 1003.76330566406 999.278076171875
934.166748046875 932.032531738281 927.919799804688 931.872741699219 933.099182128906 936.598815917969 947.078735351562 955.327270507812 956.529052734375 950.771484375 962.803161621094 956.10302734375 967.804504394531 975.185913085938 981.99072265625 985.476501464844 992.192321777344 987.742126464844 986.257141113281 990.464782714844 987.712707519531 997.280517578125 1003.10931396484 996.813781738281 985.447021484375 980.007629394531 971.329223632812 974.05224609375 971.351684570312 959.991333007812 970.513488769531 974.999084472656 972.1337890625 982.582885742188 975.128662109375 979.794128417969 977.353637695312 985.343811035156 987.126098632812 994.830383300781 1001.47320556641 1000.50427246094 986.36083984375 989.947570800781 999.200622558594 1008.64849853516 1009.74816894531 1004.36096191406 1007.46868896484 998.250427246094 994.362060546875 994.966247558594 1003.69781494141 997.326416015625 985.668090820312 993.534484863281 987.369873046875 979.899169921875 974.453369140625 985.876586914062 982.054077148438 979.593872070312 979.789367675781 977.094970703125 973.755859375 981.763732910156 997.573852539062 995.010375976562 993.503967285156 985.995178222656 986.380798339844 994.765502929688 993.445678710938 994.403747558594 992.805541992188 999.008544921875 994.733581542969 994.593322753906 993.391540527344 998.788024902344 999.98388671875 1004.60241699219 994.75634765625 1005.8544921875 1002.82415771484 990.81103515625 987.572021484375 982.567260742188 973.867370605469 985.511108398438 984.106872558594 987.274230957031 980.689453125 984.242919921875 993.640808105469 1003.5703125 1003.10278320312 1001.14001464844 1006.49719238281 994.090393066406 999.895385742188 1000.65734863281 1008.2646484375 1007.70910644531 1013.89068603516 1016.42138671875 1024.01330566406 1022.71459960938 1016.99914550781 1024.41394042969 1026.69812011719 1029.11401367188 1037.55358886719 1038.70581054688 1040.43383789062 1028.94555664062 1019.18304443359 1008.07482910156 1023.71697998047 1022.63854980469 1011.49194335938 1007.00042724609 997.356506347656 1002.52355957031 1016.37371826172 1018.61645507812 1015.67041015625 1011.13568115234 1007.83032226562 1007.69860839844 1000.33184814453 1010.77972412109 1009.84411621094 1010.76763916016 1023.85113525391 1011.57135009766 1019.17102050781 1005.57513427734 1006.07067871094 999.164428710938 1001.11975097656 991.556457519531 991.922058105469 991.016967773438 989.353088378906 996.422241210938 994.639831542969 1002.44964599609 1002.39007568359 1000.84771728516
927.47265625 925.283630371094 932.471313476562 939.643737792969 937.391357421875 938.580627441406 944.154113769531 954.196594238281 956.432495117188 967.376770019531 968.962341308594 964.511047363281 967.760131835938 984.777404785156 982.174011230469 985.600769042969 989.988586425781 994.860290527344 998.840087890625 992.24169921875 989.984619140625 994.113403320312 993.127746582031 987.020874023438 985.101501464844 975.075988769531 972.556091308594 973.941040039062 974.460754394531 960.824096679688 970.106994628906 977.239868164062 974.917053222656 981.232788085938 984.659240722656 983.394287109375 990.048400878906 995.208435058594 1004.13488769531 1012.82830810547 1003.49615478516 1005.47009277344 1000.78405761719 999.214416503906 999.7841796875 1001.96801757812 1002.64752197266 1015.50567626953 1007.2998046875 999.256042480469 996.286865234375 996.876098632812 1004.47839355469 993.857727050781 992.837280273438 996.123779296875 985.892944335938 984.865905761719 979.874206542969 987.313110351562 986.107543945312 980.674560546875 981.901184082031 975.769958496094 973.766662597656 979.594604492188 988.282531738281 986.727294921875 988.8564453125 984.410400390625 981.622680664062 994.700805664062 997.464294433594 995.638000488281 1002.35766601562 999.571899414062 999.8818359375 994.584289550781 1000.95495605469 994.741577148438 1010.72735595703 1009.53643798828 999.223510742188 995.190490722656 1001.71917724609 995.126403808594 992.615783691406 984.337524414062 972.640625 995.362915039062 990.909545898438 988.7412109375 984.922729492188 988.910522460938 992.522521972656 1005.33380126953 994.039978027344 1002.70227050781 997.705139160156 999.0517578125 996.651489257812 1003.22180175781 1005.30462646484 1008.46459960938 1017.63348388672 1020.46325683594 1020.27581787109 1023.76104736328 1023.02471923828 1030.96704101562 1030.36828613281 1034.97888183594 1038.05200195312 1034.06616210938 1026.07653808594 1026.63806152344 1026.33081054688 1019.400390625 1015.74981689453 1019.09985351562 1014.57196044922 1004.06549072266 1000.41839599609 1004.37835693359 1015.26507568359 1016.78125 1014.95074462891 1005.54339599609 1007.13653564453 1007.03009033203 1007.05694580078 1007.42602539062 1005.09307861328 1010.07672119141 1004.39453125 1002.25183105469 1006.91729736328 1000.56225585938 1002.92956542969 995.965454101562 995.192260742188 979.3154296875 990.630737304688 982.039001464844 982.418579101562 992.119140625 998.660461425781 995.055786132812 996.223205566406 995.467651367188
927.644287109375 933.853393554688 932.411499023438 934.268249511719 935.311157226562 943.253112792969 951.609252929688 952.86083984375 959.097045898438 969.090881347656 975.117309570312 976.402893066406 968.6123046875 979.466430664062 973.401428222656 980.555541992188 989.984741210938 992.266906738281 999.121032714844 991.313903808594 999.80419921875 992.511291503906 992.706481933594 992.424743652344 991.61474609375 980.084411621094 987.903015136719 983.727233886719 984.132507324219 982.276062011719 978.4560546875 975.027099609375 979.6064453125 984.829772949219 986.781127929688 980.385620117188 993.395385742188 1007.41314697266 1004.91821289062 1007.79760742188 1007.37310791016 1007.67486572266 996.711791992188 1005.51123046875 1011.30908203125 1010.66644287109 1008.03094482422 1013.04339599609 1014.26989746094 1009.32611083984 1002.67156982422 1001.04803466797 1000.75219726562 992.396118164062 1002.81524658203 1001.25787353516 987.572326660156 982.411254882812 976.821350097656 971.950744628906 975.714050292969 973.503051757812 980.048156738281 975.6240234375 972.133178710938 975.549682617188 975.79541015625 980.412902832031 984.067626953125 977.574768066406 985.47900390625 995.336547851562 1002.53533935547 995.811340332031 1000.69946289062 995.696899414062 998.931884765625 1003.52935791016 999.398559570312 1004.79833984375 1003.80279541016 1009.52227783203 1005.63635253906 995.782470703125 987.688720703125 991.995483398438 1000.61407470703 984.287170410156 974.333923339844 989.464416503906 991.125061035156 983.94384765625 982.809753417969 989.711364746094 986.341613769531 1004.18914794922 1003.08209228516 997.470336914062 1001.11352539062 1000.83386230469 1006.16387939453 1010.48358154297 1004.07983398438 1012.56475830078 1020.26770019531 1022.75054931641 1025.60852050781 1030.73022460938 1030.01574707031 1028.93029785156 1032.84191894531 1038.32800292969 1044.51416015625 1035.17578125 1036.32556152344 1028.37048339844 1023.05187988281 1021.916015625 1011.49359130859 1010.16674804688 1010.29376220703 997.261413574219 1003.11572265625 1007.89343261719 1012.76782226562 1016.57806396484 1018.48870849609 1010.94812011719 1007.30926513672 1006.95318603516 1012.12524414062 1005.12542724609 1007.41302490234 1000.97302246094 995.090026855469 997.958129882812 998.256896972656 997.370361328125 993.591125488281 994.741394042969 987.238098144531 987.743041992188 996.002990722656 993.100708007812 983.43505859375 991.042602539062 985.665222167969 976.424438476562 982.555358886719 981.555358886719
938.96923828125 935.102111816406 930.905700683594 938.827270507812 932.861511230469 940.675537109375 942.669128417969 942.316772460938 961.169677734375 970.090942382812 973.530456542969 979.04638671875 978.521240234375 977.072387695312 988.935607910156 984.395385742188 987.295532226562 994.8291015625 994.165588378906 994.039001464844 995.749877929688 998.790100097656 993.575012207031 995.222045898438 996.38916015625 994.947448730469 997.225158691406 986.712585449219 978.559265136719 980.173400878906 989.032287597656 986.413879394531 991.326049804688 981.911926269531 986.676513671875 989.634826660156 994.391418457031 998.094909667969 1008.59521484375 1015.85614013672 1007.88940429688 1010.50329589844 1008.30194091797 1006.60333251953 1002.82489013672 1017.13513183594 1015.99676513672 1022.27386474609 1016.26068115234 1019.02655029297 1005.73156738281 995.50732421875 997.656616210938 1007.55700683594 1002.90093994141 998.954528808594 991.824401855469 985.944946289062 982.771911621094 973.911010742188 974.08837890625 971.398010253906 972.383972167969 972.39794921875 973.41796875 975.815002441406 975.429016113281 975.666687011719 976.043334960938 978.975891113281 986.518676757812 993.758361816406 999.722961425781 998.224975585938 996.8466796875 997.027526855469 1001.17907714844 997.321350097656 1004.46166992188 1004.83044433594 999.346923828125 1002.54107666016 997.234191894531 1000.55114746094 996.805236816406 994.860900878906 986.584167480469 978.31201171875 977.699401855469 986.5029296875 985.012145996094 979.449035644531 986.937255859375 984.970886230469 991.923095703125 996.276794433594 998.625305175781 995.576232910156 1008.73321533203 1007.58801269531 1005.67858886719 1002.29107666016 1010.74060058594 1015.12084960938 1026.77978515625 1025.71252441406 1025.60498046875 1032.31518554688 1035.47729492188 1030.35119628906 1035.59362792969 1039.818359375 1041.01440429688 1025.39868164062 1031.58020019531 1036.79736328125 1040.33166503906 1026.48718261719 1010.37194824219 1009.67822265625 994.64453125 998.710998535156 991.259643554688 1000.82232666016 1005.49157714844 1015.24200439453 1009.13983154297 1004.17407226562 1008.67657470703 1013.30865478516 1004.78497314453 1002.32543945312 991.195617675781 1002.92919921875 989.960021972656 994.842895507812 992.328918457031 998.428771972656 1003.21337890625 989.7900390625 994.605346679688 994.37841796875 1000.47033691406 990.851867675781 984.821228027344 980.585021972656 974.863525390625 966.11572265625 967.078674316406 965.326538085938
