NCOLS 150
NROWS 37
XLLCORNER 7394249
YLLCORNER 4843649
CELLSIZE 30
NODATA_VALUE -9999
981.578857421875 995.222473144531 991.612243652344 987.864929199219 989.701110839844 990.064697265625 1004.31237792969 1015.28869628906 1007.24304199219 992.104248046875 985.998046875 988.812316894531 996.844970703125 1000.06030273438 997.176818847656 1005.01989746094 1009.201171875 1005.14886474609 1008.31494140625 1012.84747314453 1016.83129882812 1014.24060058594 1026.8017578125 1021.21881103516 1009.98468017578 1003.79296875 1001.77764892578 999.754455566406 1005.20648193359 1006.19451904297 1011.38342285156 1016.40222167969 1014.28192138672 1017.92175292969 1016.43334960938 1017.20513916016 1009.33306884766 1021.54968261719 1026.96008300781 1021.11938476562 1020.51568603516 1024.73034667969 1012.232421875 1020.54376220703 1022.615234375 1015.38458251953 1012.82104492188 1000.67962646484 1002.15155029297 999.390869140625 1005.62683105469 1000.291015625 1002.44775390625 995.078002929688 1006.97131347656 997.445434570312 1006.69598388672 1001.64782714844 993.528442382812 999.973266601562 986.337829589844 983.448852539062 975.165100097656 979.183044433594 978.314575195312 968.682250976562 968.142822265625 959.53857421875 951.025390625 953.135437011719 952.146240234375 949.237670898438 961.656677246094 972.186706542969 985.23095703125 1001.17065429688 1015.81103515625 1018.72637939453 1037.75463867188 1041.64794921875 1036.38110351562 1024.99304199219 1020.28002929688 1017.20941162109 1000.36633300781 984.33056640625 973.381042480469 960.016906738281 941.531188964844 933.745971679688 925.755310058594 929.449340820312 924.698059082031 918.085021972656 920.616271972656 923.807312011719 917.087280273438 909.560485839844 910.837890625 907.663208007812 913.374877929688 909.634887695312 891.78662109375 890.982727050781 890.716491699219 888.886901855469 897.377807617188 895.716796875 900.153076171875 902.654724121094 899.807495117188 896.768981933594 896.772033691406 904.623046875 904.832885742188 916.405029296875 913.322021484375 920.426452636719 922.634765625 923.13818359375 930.033142089844 942.030883789062 931.052978515625 941.895080566406 948.765808105469 964.789611816406 965.426391601562 973.300415039062 972.546264648438 984.756896972656 992.222778320312 995.780395507812 1004.99395751953 1012.65631103516 1036.40612792969 1049.61291503906 1059.67224121094 1066.41638183594 1083.12072753906 1089.97595214844 1105.61462402344 1117.22399902344 1129.56994628906 1144.97436523438 1143.68310546875 1138.54467773438 1142.42041015625 1122.82092285156 1116.57141113281 1109.66772460938
989.765930175781 987.746643066406 989.608581542969 989.435546875 987.67138671875 993.747131347656 1000.955078125 1005.56402587891 1002.61407470703 988.424682617188 988.033630371094 998.371887207031 992.912292480469 997.296020507812 1000.2509765625 1004.90972900391 1012.31896972656 1011.75079345703 1007.88836669922 1015.69940185547 1013.03216552734 1007.51556396484 1012.85046386719 1017.81164550781 1006.47613525391 1007.15643310547 1012.18627929688 996.147338867188 1008.77789306641 1009.55426025391 1009.76434326172 1010.37841796875 1013.26806640625 1009.32281494141 1016.63482666016 1026.48413085938 1024.53784179688 1027.96960449219 1023.06951904297 1021.36480712891 1022.97863769531 1022.82922363281 1015.25012207031 1028.21447753906 1015.35131835938 1013.40032958984 1012.70568847656 1008.62725830078 1002.48553466797 998.388977050781 1010.6865234375 1007.53338623047 1008.79864501953 992.197631835938 997.203979492188 1007.50054931641 1002.82366943359 1001.20904541016 1008.26519775391 1005.20904541016 995.763977050781 987.806884765625 981.79931640625 980.269958496094 977.49462890625 980.150573730469 965.384338378906 962.982360839844 949.583801269531 958.504455566406 950.574035644531 956.2314453125 962.459716796875 978.007568359375 996.249816894531 1004.37066650391 1012.61956787109 1020.40386962891 1030.73571777344 1028.17553710938 1026.96875 1017.64569091797 1019.94860839844 1026.68811035156 1005.43438720703 987.935607910156 974.295837402344 961.940612792969 952.07080078125 939.326904296875 928.564514160156 933.538452148438 927.434204101562 931.327880859375 926.629455566406 920.567260742188 918.002990722656 916.060119628906 921.7646484375 913.258850097656 910.940612792969 909.517700195312 909.210205078125 907.124206542969 903.604736328125 908.033630371094 907.952026367188 902.706848144531 906.102233886719 916.832580566406 906.651123046875 903.159851074219 904.234130859375 915.386474609375 914.5791015625 919.447631835938 920.385070800781 921.059387207031 930.7724609375 933.354736328125 933.740600585938 935.197021484375 943.6044921875 939.444580078125 950.614074707031 963.352111816406 980.0419921875 981.759155273438 985.6513671875 991.457214355469 999.585510253906 1006.20098876953 1006.57684326172 1017.42340087891 1043.3310546875 1052.30627441406 1070.26220703125 1079.90734863281 1091.13940429688 1099.34057617188 1112.20007324219 1118.82666015625 1127.06518554688 1139.67004394531 1139.8115234375 1147.91369628906 1143.22399902344 1137.59497070312 1123.3603515625 1119.43334960938
1001.85205078125 987.348999023438 977.890014648438 987.686645507812 990.444519042969 992.162780761719 1001.72027587891 991.491088867188 992.139953613281 994.971008300781 989.106079101562 993.722473144531 998.317016601562 998.768371582031 1000.30438232422 1006.83929443359 1002.55700683594 1005.25628662109 1002.13952636719 1007.56787109375 1016.98693847656 1008.79388427734 1015.28753662109 1009.71258544922 1013.43688964844 1003.69195556641 1003.79614257812 1001.94030761719 1007.97192382812 1008.99420166016 1007.28863525391 1011.578125 1012.74230957031 1011.01300048828 1022.34271240234 1026.80749511719 1032.23645019531 1020.73541259766 1026.80212402344 1016.80041503906 1017.07928466797 1017.60809326172 1011.68273925781 1025.66345214844 1016.48156738281 1010.14538574219 1007.99090576172 1013.75189208984 1007.54986572266 1011.36419677734 1012.46960449219 1005.76953125 1003.47119140625 996.90576171875 998.875061035156 1000.90570068359 1005.39044189453 1001.89300537109 998.148254394531 996.207763671875 1005.15374755859 989.611083984375 994.135314941406 990.010986328125 987.844299316406 984.174743652344 979.166870117188 965.967041015625 959.824584960938 964.256286621094 960.042602539062 964.169250488281 963.829956054688 974.318664550781 982.517028808594 1002.45190429688 1014.42425537109 1027.06506347656 1022.15045166016 1015.92010498047 1020.37872314453 1015.34497070312 1024.16455078125 1017.43676757812 1008.63598632812 999.171875 982.142395019531 962.13330078125 952.472106933594 946.9267578125 935.674499511719 935.646728515625 930.001708984375 925.641723632812 922.14208984375 927.920959472656 921.050415039062 919.838317871094 925.05224609375 919.678588867188 924.243774414062 921.920654296875 919.841247558594 913.650756835938 914.034545898438 921.471496582031 920.944396972656 915.756408691406 915.3466796875 924.596435546875 912.270935058594 905.386596679688 925.066711425781 928.454223632812 928.671569824219 928.108459472656 919.778137207031 920.588073730469 924.808654785156 923.51123046875 932.409118652344 937.644165039062 948.603088378906 944.782653808594 952.49853515625 961.042907714844 975.46142578125 980.658447265625 982.894409179688 1001.32043457031 1012.36376953125 1015.46398925781 1021.93334960938 1034.10717773438 1050.498046875 1060.72424316406 1069.50964355469 1089.73400878906 1096.57580566406 1099.74975585938 1107.74340820312 1113.82116699219 1116.32214355469 1131.80895996094 1136.43115234375 1139.01733398438 1139.53686523438 1130.77893066406 1130.29174804688 1116.0859375
1003.72296142578 992.5166015625 980.83935546875 987.315307617188 994.950012207031 995.218505859375 992.506103515625 998.418823242188 994.143859863281 994.520935058594 987.079650878906 997.231872558594 998.791137695312 994.244201660156 1002.53582763672 1001.20776367188 993.985290527344 993.684448242188 999.407470703125 1001.79412841797 1011.30926513672 1003.92883300781 1004.84759521484 1008.23907470703 1007.49884033203 1007.47680664062 1003.35693359375 1004.93865966797 1002.03784179688 1010.87194824219 1010.35784912109 1009.26300048828 1013.95520019531 1014.5244140625 1025.57727050781 1026.25073242188 1022.68530273438 1023.21124267578 1027.35693359375 1011.51300048828 1013.75103759766 1007.87677001953 1004.99670410156 1014.44073486328 1016.15991210938 1013.75286865234 1009.58447265625 1005.853515625 1012.76263427734 1014.36334228516 1021.27764892578 1012.28729248047 1010.35772705078 1007.44976806641 995.847412109375 999.12744140625 1001.20306396484 1006.84497070312 1010.97918701172 1007.83666992188 1005.12060546875 999.472778320312 996.325500488281 1001.14703369141 1000.48425292969 995.653747558594 984.845886230469 977.627868652344 972.794860839844 977.018859863281 972.415710449219 978.6416015625 976.03125 985.4423828125 989.950622558594 1002.51385498047 1023.56024169922 1027.32482910156 1029.52868652344 1018.54162597656 1017.97998046875 1013.51477050781 1022.40612792969 1018.63720703125 1014.51165771484 997.974914550781 985.655578613281 971.255126953125 954.178649902344 948.123291015625 945.284301757812 944.553039550781 943.48876953125 925.450988769531 930.991455078125 931.557006835938 930.982238769531 926.17431640625 937.156188964844 936.086669921875 935.774780273438 937.627746582031 926.33154296875 923.666320800781 924.202514648438 930.885559082031 933.770446777344 936.735046386719 937.274780273438 932.35009765625 920.840881347656 925.202758789062 928.3056640625 927.465637207031 929.838745117188 931.51513671875 914.9599609375 924.231201171875 928.200988769531 921.715698242188 933.678283691406 947.284240722656 945.955627441406 953.98876953125 961.608703613281 964.895751953125 977.155944824219 992.538024902344 991.392639160156 1004.37078857422 1017.96081542969 1022.07867431641 1038.37487792969 1042.64953613281 1060.24267578125 1070.05981445312 1074.89013671875 1086.67248535156 1098.89428710938 1100.45043945312 1107.10095214844 1109.56384277344 1121.73205566406 1124.15148925781 1129.95751953125 1128.85009765625 1131.4521484375 1132.46948242188 1124.58374023438 1112.154296875
992.398498535156 996.092407226562 981.561279296875 993.917602539062 995.612243652344 992.999084472656 985.613952636719 986.300842285156 995.446411132812 993.578552246094 985.696899414062 992.913513183594 998.967346191406 992.869262695312 987.783874511719 989.508728027344 993.424926757812 989.928955078125 989.080383300781 993.797180175781 998.561096191406 997.655212402344 998.109741210938 1008.86645507812 1010.41442871094 998.889892578125 999.112182617188 997.743408203125 997.874755859375 1008.52874755859 1013.29913330078 1020.26275634766 1022.19378662109 1023.03082275391 1034.97839355469 1036.70959472656 1025.33581542969 1028.47448730469 1020.27404785156 1020.57232666016 1020.83227539062 1017.20080566406 1014.92626953125 1010.84143066406 1013.90441894531 1016.12902832031 1022.2099609375 1007.2919921875 1017.07952880859 1016.13677978516 1015.04388427734 1013.80938720703 1010.06213378906 1010.84490966797 1000.14135742188 1002.89392089844 1009.51647949219 1010.25842285156 1015.27386474609 1018.595703125 1004.36413574219 1003.9462890625 1002.03228759766 1008.5556640625 1005.08184814453 1009.29034423828 995.299987792969 998.003173828125 986.583251953125 985.963073730469 975.616943359375 978.525817871094 983.895629882812 985.790100097656 995.750183105469 1012.19610595703 1029.26708984375 1030.27282714844 1032.45141601562 1031.42712402344 1021.08215332031 1023.79241943359 1026.53942871094 1023.95825195312 1007.12084960938 998.794860839844 985.484130859375 969.118957519531 961.424621582031 955.421081542969 952.791442871094 936.970581054688 937.736511230469 931.209411621094 933.898071289062 935.85546875 938.802429199219 943.303527832031 948.12890625 947.446533203125 949.743103027344 950.313720703125 937.44775390625 935.694885253906 940.718505859375 947.810485839844 951.030883789062 942.564819335938 948.203002929688 942.739868164062 930.511352539062 930.871398925781 936.975036621094 924.59033203125 925.837097167969 917.586120605469 913.072509765625 917.677429199219 924.371765136719 918.874755859375 933.679382324219 939.847778320312 941.906921386719 946.251037597656 959.832092285156 972.390869140625 973.991271972656 986.977416992188 992.6953125 1000.65979003906 1018.16143798828 1021.80590820312 1031.16870117188 1044.67529296875 1059.56860351562 1061.6103515625 1071.884765625 1088.17272949219 1092.89953613281 1096.90710449219 1104.21533203125 1104.07165527344 1111.46765136719 1118.4931640625 1123.56982421875 1120.88220214844 1128.70764160156 1124.890625 1115.43786621094 1111.09936523438
996.46875 997.064331054688 989.828063964844 983.184692382812 988.689575195312 987.065002441406 996.571533203125 993.609985351562 997.807556152344 985.093811035156 975.02880859375 977.703918457031 976.89111328125 979.626220703125 980.514831542969 983.793701171875 996.890625 991.442749023438 991.249816894531 994.698364257812 993.58056640625 991.210815429688 1003.97241210938 1006.18200683594 993.090881347656 985.246398925781 994.805053710938 996.444030761719 995.143676757812 1003.03179931641 1015.96337890625 1029.68249511719 1024.13562011719 1035.2451171875 1040.95300292969 1047.39782714844 1038.09948730469 1031.05236816406 1027.59362792969 1034.27233886719 1030.36022949219 1026.0966796875 1020.04602050781 1022.19134521484 1020.85559082031 1017.62225341797 1028.65148925781 1025.66223144531 1018.27484130859 1010.98809814453 1016.9072265625 1016.18353271484 1006.27673339844 1018.47149658203 1007.93151855469 1000.13311767578 1009.03149414062 1013.04821777344 1016.78234863281 1019.49230957031 1017.06182861328 1013.93731689453 1007.06469726562 1010.85626220703 1010.14270019531 1019.07666015625 1004.70428466797 1002.53540039062 987.006896972656 988.037292480469 986.384704589844 986.527587890625 987.192260742188 991.268005371094 1011.48272705078 1017.212890625 1025.84790039062 1034.31188964844 1035.59167480469 1035.02856445312 1035.08666992188 1032.04663085938 1024.78088378906 1019.02911376953 1005.021484375 995.130676269531 980.966613769531 972.800720214844 968.506408691406 953.436340332031 946.955322265625 951.347290039062 939.318054199219 943.322082519531 941.495727539062 946.083129882812 946.998657226562 948.383666992188 954.701416015625 954.173156738281 956.451965332031 957.043518066406 953.721618652344 953.997680664062 957.703002929688 952.090454101562 956.641540527344 956.527099609375 954.216491699219 953.459777832031 944.8408203125 940.109008789062 940.330322265625 930.451293945312 919.199584960938 921.315795898438 916.114074707031 915.727233886719 913.620178222656 916.236633300781 930.369567871094 938.955444335938 945.050048828125 956.838073730469 968.007568359375 975.10400390625 981.849060058594 995.554016113281 991.624938964844 1000.79504394531 1011.45233154297 1023.66442871094 1032.158203125 1045.23498535156 1060.00769042969 1066.53356933594 1070.47570800781 1083.22924804688 1084.09399414062 1088.27673339844 1098.57873535156 1104.41918945312 1110.37365722656 1107.73718261719 1110.22009277344 1112.80456542969 1118.173828125 1116.09814453125 1123.11987304688 1115.9853515625
992.046081542969 994.133728027344 991.148254394531 984.719787597656 978.424743652344 989.558227539062 994.055541992188 988.596069335938 991.486206054688 981.9462890625 976.020385742188 969.078369140625 968.528991699219 971.587768554688 969.197143554688 990.34912109375 992.033203125 995.774536132812 994.855285644531 996.085632324219 992.851379394531 988.358276367188 988.381469726562 993.597778320312 991.241882324219 982.380310058594 987.0087890625 994.494567871094 1000.2421875 1003.09680175781 1021.34332275391 1033.42468261719 1029.42016601562 1033.22961425781 1043.14855957031 1050.13513183594 1041.39685058594 1040.013671875 1031.72644042969 1040.66149902344 1025.001953125 1029.45495605469 1026.71948242188 1029.41918945312 1025.68078613281 1023.5986328125 1031.11352539062 1019.2216796875 1016.68572998047 1016.65417480469 1006.16119384766 999.057067871094 1009.18890380859 1011.20739746094 1006.34875488281 1008.52740478516 1009.99847412109 1010.63714599609 1023.90612792969 1019.94195556641 1013.92041015625 1017.36029052734 1016.86291503906 1019.41845703125 1013.28216552734 1021.310546875 1010.43139648438 1001.35662841797 998.666748046875 996.353942871094 992.869567871094 987.191955566406 998.368225097656 1007.26696777344 1020.97247314453 1027.18518066406 1032.50854492188 1033.50402832031 1035.23303222656 1038.09362792969 1041.25109863281 1034.10705566406 1029.92626953125 1021.10998535156 1008.09783935547 1001.44885253906 983.098510742188 984.671569824219 971.210571289062 956.221374511719 947.278564453125 947.705627441406 946.679382324219 950.897338867188 953.565063476562 951.092651367188 955.882446289062 955.457580566406 954.625305175781 956.363952636719 958.016052246094 958.948425292969 961.984558105469 959.018249511719 967.31005859375 968.777893066406 959.104370117188 967.117248535156 971.117065429688 965.971313476562 957.811462402344 946.19775390625 940.612487792969 929.423583984375 924.944885253906 923.288513183594 913.783508300781 924.432861328125 923.04736328125 921.592346191406 943.549621582031 947.651428222656 963.580627441406 967.0185546875 975.248779296875 991.966979980469 990.210693359375 998.787719726562 1002.86590576172 1004.59643554688 1012.74694824219 1023.04187011719 1034.56555175781 1045.25524902344 1064.208984375 1068.23937988281 1067.84155273438 1078.98852539062 1084.75158691406 1089.05810546875 1099.8515625 1102.21813964844 1103.12463378906 1104.34326171875 1109.38049316406 1104.23803710938 1109.54162597656 1115.03479003906 1114.16784667969 1108.30749511719
988.418762207031 988.257873535156 986.19970703125 981.586547851562 979.315124511719 985.512817382812 991.2861328125 994.675964355469 989.157897949219 984.979675292969 978.391052246094 971.198059082031 971.348205566406 972.078857421875 974.619384765625 981.64208984375 996.758056640625 993.067138671875 984.460388183594 984.260925292969 985.037536621094 980.614318847656 991.659851074219 988.831604003906 985.994201660156 984.767883300781 978.734680175781 985.361328125 1003.49365234375 1005.97283935547 1016.76135253906 1017.40173339844 1026.08947753906 1032.53430175781 1039.66064453125 1044.40771484375 1055.33959960938 1039.23278808594 1040.31066894531 1041.26379394531 1037.76306152344 1032.17492675781 1030.6201171875 1041.78442382812 1024.75830078125 1021.23669433594 1023.5966796875 1020.54595947266 1013.52258300781 1015.53100585938 1008.29577636719 997.343444824219 996.1044921875 1003.91156005859 999.558654785156 1012.38763427734 1012.72546386719 1016.17443847656 1009.13470458984 1020.75372314453 1016.83081054688 1015.51788330078 1022.05737304688 1023.10888671875 1018.58453369141 1013.98571777344 1018.60925292969 1010.59295654297 1003.60443115234 999.777160644531 1003.16149902344 1002.19171142578 1004.52362060547 1013.78881835938 1025.68920898438 1034.46264648438 1037.76611328125 1037.736328125 1043.67858886719 1043.66455078125 1049.22521972656 1041.86401367188 1038.71252441406 1025.89074707031 1004.79498291016 998.413391113281 994.526306152344 997.32373046875 976.010620117188 959.047973632812 947.914001464844 945.618408203125 963.476806640625 968.122802734375 958.370788574219 966.512023925781 970.3115234375 965.578125 964.224670410156 972.754577636719 970.790649414062 972.94189453125 976.906311035156 973.433959960938 975.047973632812 980.49951171875 977.210754394531 976.372802734375 975.262145996094 966.546081542969 962.871032714844 947.831298828125 948.354370117188 947.309448242188 941.8447265625 934.619445800781 923.698181152344 931.205200195312 934.656616210938 939.828125 954.818969726562 958.373840332031 964.876037597656 976.881530761719 978.396911621094 991.715515136719 999.516784667969 1007.75109863281 1010.13226318359 1011.38726806641 1025.671875 1026.79528808594 1035.17761230469 1047.57604980469 1056.62878417969 1068.87512207031 1070.41760253906 1068.04931640625 1082.94995117188 1086.1484375 1091.3681640625 1091.6513671875 1094.06176757812 1101.05822753906 1098.796875 1096.77404785156 1097.63488769531 1107.70300292969 1106.02624511719 1100.94421386719
984.220825195312 982.522521972656 986.441101074219 981.413757324219 981.432556152344 980.546203613281 998.177062988281 990.041442871094 983.449951171875 977.980712890625 974.071838378906 971.237731933594 968.110046386719 975.787719726562 981.081298828125 978.923034667969 983.961303710938 985.381103515625 987.31689453125 982.016784667969 974.507690429688 971.257080078125 980.363891601562 985.847534179688 995.408630371094 989.102905273438 981.5888671875 989.531005859375 1003.87615966797 1013.05377197266 1020.64349365234 1021.9609375 1020.71954345703 1023.50946044922 1029.73205566406 1045.0966796875 1040.27221679688 1035.99914550781 1043.61389160156 1046.85583496094 1040.576171875 1039.01159667969 1036.86242675781 1032.392578125 1021.26049804688 1017.96710205078 1010.98150634766 1012.96282958984 1008.21887207031 1006.98803710938 1009.44189453125 993.044372558594 984.437255859375 980.133361816406 992.233642578125 1006.07958984375 1012.55877685547 1021.01843261719 1013.35571289062 1014.23699951172 1021.8564453125 1013.23870849609 1028.15124511719 1027.83508300781 1019.73083496094 1026.71826171875 1017.84240722656 1016.49346923828 1011.02813720703 1005.75115966797 999.0234375 1011.55749511719 1018.45184326172 1028.42248535156 1027.06372070312 1025.79064941406 1035.31591796875 1046.44689941406 1040.02282714844 1047.78552246094 1044.39514160156 1037.173828125 1029.97399902344 1020.73968505859 1012.48126220703 1003.21783447266 996.712951660156 991.29345703125 986.870483398438 967.635070800781 964.272888183594 965.649047851562 971.338989257812 971.227478027344 974.240661621094 975.294860839844 978.942260742188 978.181884765625 964.803405761719 979.489868164062 970.435791015625 979.921203613281 994.886962890625 993.310302734375 985.607238769531 987.007202148438 998.23583984375 986.270141601562 982.481140136719 973.319702148438 970.103820800781 951.098449707031 944.594604492188 940.483215332031 943.003295898438 935.255981445312 933.72021484375 937.4130859375 941.144470214844 948.896301269531 964.274475097656 963.787902832031 970.030151367188 986.168579101562 995.364440917969 989.070617675781 1001.17938232422 1012.35028076172 1019.87677001953 1018.36315917969 1023.71368408203 1034.11694335938 1033.19055175781 1039.875 1051.08264160156 1058.95446777344 1057.51318359375 1073.09033203125 1074.90161132812 1089.92138671875 1087.67297363281 1086.86804199219 1090.18505859375 1097.78063964844 1096.86767578125 1094.85827636719 1094.94580078125 1100.31884765625 1099.22717285156 1089.83276367188
978.836608886719 979.252075195312 980.136657714844 971.526184082031 967.775634765625 981.876342773438 979.587097167969 979.153991699219 984.143371582031 980.125061035156 966.768676757812 969.198791503906 973.264465332031 982.120483398438 983.273559570312 974.750732421875 985.104553222656 978.182434082031 979.784545898438 983.89404296875 981.780334472656 976.229248046875 975.765441894531 990.39208984375 995.880004882812 993.183776855469 986.244262695312 992.302124023438 1008.12103271484 1015.35192871094 1015.03479003906 1018.87762451172 1024.30432128906 1020.85656738281 1025.83605957031 1027.63537597656 1033.55969238281 1038.39013671875 1040.15307617188 1046.8876953125 1039.37084960938 1042.70178222656 1032.45581054688 1032.27709960938 1018.52496337891 1009.80181884766 1009.51892089844 1004.06915283203 1004.84655761719 1001.74890136719 998.123168945312 993.532409667969 988.859008789062 986.5693359375 992.902893066406 1007.9775390625 1019.31701660156 1018.76434326172 1021.10992431641 1014.96453857422 1011.20965576172 1015.19696044922 1024.91394042969 1023.75494384766 1022.27081298828 1030.80505371094 1022.15393066406 1019.90240478516 1023.33599853516 1013.22888183594 1016.91687011719 1022.27758789062 1024.77819824219 1026.12707519531 1033.75366210938 1028.24060058594 1031.34838867188 1038.18615722656 1030.01403808594 1027.19897460938 1029.15893554688 1028.82092285156 1021.12463378906 1022.72039794922 1023.3974609375 1010.66082763672 992.108215332031 987.185913085938 977.309692382812 974.69775390625 974.513000488281 977.159362792969 981.196594238281 979.441345214844 982.103332519531 982.487060546875 974.719055175781 971.845764160156 978.263244628906 988.300598144531 982.179748535156 988.85302734375 992.675537109375 994.542724609375 996.534240722656 1005.05474853516 1000.45446777344 991.699951171875 985.548767089844 977.473388671875 972.505432128906 966.384521484375 959.642944335938 945.248291015625 945.162292480469 942.020141601562 936.53759765625 948.620422363281 941.418640136719 959.461547851562 974.366638183594 975.159057617188 979.745483398438 995.305908203125 1000.66778564453 996.902587890625 1008.15234375 1029.90356445312 1028.46948242188 1034.84008789062 1030.77014160156 1033.38928222656 1037.6494140625 1043.21447753906 1040.08142089844 1050.94982910156 1052.26452636719 1063.681640625 1073.93957519531 1081.41247558594 1077.35656738281 1096.54467773438 1094.19104003906 1091.45544433594 1091.76220703125 1092.01525878906 1089.25219726562 1085.19152832031 1091.9541015625 1086.40954589844
968.39013671875 969.962219238281 966.150695800781 957.049560546875 964.440124511719 962.221008300781 973.2763671875 977.039672851562 982.370422363281 982.781005859375 970.772583007812 970.464416503906 976.776062011719 968.095458984375 975.678283691406 978.705810546875 972.452392578125 971.696411132812 973.825073242188 974.626708984375 978.824157714844 982.994812011719 989.919860839844 984.789916992188 991.244262695312 1004.62335205078 1001.10766601562 998.484680175781 1004.79382324219 1016.45916748047 1018.29632568359 1020.18896484375 1024.1025390625 1022.08929443359 1022.45239257812 1021.07788085938 1032.29931640625 1038.57604980469 1035.04467773438 1041.44616699219 1037.19567871094 1039.76098632812 1035.14587402344 1035.78149414062 1017.92700195312 1003.27685546875 1004.23986816406 995.304382324219 999.705200195312 1001.67913818359 994.600341796875 993.154479980469 982.278198242188 992.94970703125 998.9560546875 1009.62414550781 1015.06921386719 1017.27746582031 1023.67120361328 1014.42272949219 1019.48596191406 1020.03234863281 1026.9140625 1030.33178710938 1024.21166992188 1025.54260253906 1021.84844970703 1017.05139160156 1037.1171875 1031.07861328125 1024.34521484375 1030.869140625 1025.75256347656 1023.34143066406 1025.8994140625 1027.19555664062 1027.14965820312 1033.36511230469 1034.14929199219 1025.6767578125 1028.31506347656 1035.77062988281 1030.78784179688 1025.68920898438 1028.12927246094 1008.90045166016 991.630187988281 978.872802734375 990.569274902344 983.591979980469 976.021911621094 978.968444824219 986.67626953125 982.648315429688 983.049377441406 977.157775878906 981.096557617188 988.109436035156 994.605834960938 994.136779785156 990.731140136719 989.365356445312 997.155212402344 998.159606933594 991.07421875 1005.94396972656 991.119384765625 985.182800292969 985.043884277344 986.768676757812 967.055969238281 969.65087890625 956.642456054688 943.863159179688 941.256896972656 944.024047851562 944.887573242188 939.419189453125 944.318908691406 952.88330078125 966.300537109375 975.947204589844 987.71875 995.073181152344 1009.75152587891 1012.47595214844 1022.41619873047 1023.26116943359 1034.11987304688 1029.9111328125 1039.03918457031 1042.52575683594 1039.65698242188 1045.34460449219 1037.89453125 1047.62963867188 1050.52258300781 1059.97119140625 1071.96154785156 1078.50378417969 1075.28479003906 1088.32067871094 1086.99328613281 1093.01013183594 1092.36511230469 1095.5400390625 1092.63500976562 1092.89306640625 1096.02795410156 1086.00854492188
961.679138183594 958.457458496094 970.120239257812 959.745483398438 959.747009277344 948.0595703125 956.960876464844 959.937194824219 967.546020507812 967.259582519531 965.020690917969 958.611633300781 968.330322265625 962.986755371094 958.464050292969 972.287414550781 971.907470703125 964.908813476562 970.565979003906 976.601745605469 982.070007324219 981.940734863281 981.871643066406 995.101501464844 1004.19915771484 1006.14367675781 1007.26513671875 1001.57452392578 1001.16632080078 1008.27941894531 1019.58197021484 1018.83819580078 1022.8154296875 1023.04284667969 1022.59704589844 1015.69744873047 1023.71771240234 1031.79028320312 1041.41394042969 1046.35314941406 1039.85620117188 1046.474609375 1037.02270507812 1032.78039550781 1025.447265625 1011.78533935547 1004.01495361328 995.824401855469 1002.91796875 1009.78625488281 1004.15155029297 997.65185546875 999.594543457031 999.855041503906 1008.95001220703 1013.35040283203 1014.57745361328 1011.14141845703 1023.72570800781 1015.3798828125 1026.34631347656 1031.59155273438 1033.39721679688 1036.93640136719 1027.91833496094 1030.95825195312 1022.66632080078 1025.17895507812 1034.18395996094 1033.65002441406 1034.81201171875 1029.48937988281 1021.47448730469 1023.37133789062 1018.52307128906 1017.35620117188 1018.80224609375 1023.00573730469 1030.28527832031 1024.8271484375 1018.52795410156 1022.35711669922 1029.07568359375 1024.06860351562 1018.63232421875 1005.27966308594 995.068664550781 991.744262695312 985.648376464844 993.657470703125 991.840148925781 991.850463867188 991.066528320312 988.957214355469 988.332702636719 982.3447265625 991.308776855469 1002.02392578125 999.849487304688 1012.4892578125 1004.49670410156 996.785278320312 1001.88269042969 1003.91290283203 998.687316894531 1001.22589111328 991.970947265625 982.061767578125 975.95751953125 978.841369628906 969.667907714844 964.213989257812 954.712585449219 944.879211425781 941.2646484375 938.695373535156 944.650329589844 936.033813476562 933.135559082031 947.150817871094 969.609375 988.429443359375 986.007507324219 1002.21716308594 1015.06121826172 1019.05670166016 1028.76184082031 1028.79040527344 1040.59875488281 1037.412109375 1034.97790527344 1040.822265625 1029.45458984375 1034.88537597656 1034.58935546875 1048.57446289062 1053.55456542969 1059.15930175781 1065.70251464844 1067.86560058594 1073.75695800781 1083.15075683594 1093.51306152344 1097.91223144531 1100.49877929688 1083.78479003906 1082.13940429688 1091.75659179688 1095.37219238281 1091.02307128906
948.303466796875 957.173522949219 962.331359863281 960.963684082031 955.04638671875 948.674743652344 950.94384765625 954.622192382812 953.652099609375 955.051391601562 960.233520507812 968.795471191406 965.398376464844 966.293884277344 963.932189941406 968.998840332031 966.075988769531 965.712158203125 964.028198242188 972.212280273438 971.740417480469 974.623168945312 979.022827148438 990.510620117188 997.226318359375 1000.20733642578 1012.38110351562 1002.05645751953 1009.80200195312 1004.6337890625 1007.57043457031 1012.43426513672 1015.22595214844 1022.86114501953 1019.55322265625 1019.02795410156 1024.63452148438 1032.8876953125 1035.66259765625 1047.37475585938 1041.87927246094 1044.92980957031 1034.24462890625 1028.70349121094 1017.12841796875 1009.17047119141 1000.54052734375 1008.49975585938 1010.79956054688 1006.78198242188 1005.04870605469 1004.61212158203 1002.38116455078 1000.45416259766 1009.60485839844 1010.12750244141 1008.00714111328 1015.23175048828 1025.54541015625 1016.63861083984 1031.23449707031 1032.44226074219 1029.79418945312 1032.19995117188 1024.50073242188 1022.13079833984 1019.8271484375 1026.98974609375 1028.65478515625 1028.83618164062 1027.4228515625 1025.38354492188 1026.36157226562 1025.18505859375 1021.69329833984 1027.06506347656 1019.74212646484 1024.74060058594 1015.38934326172 1013.52209472656 1014.02081298828 1011.345703125 1017.29827880859 1023.4091796875 1016.08538818359 1001.81549072266 996.016845703125 994.304992675781 985.489929199219 1004.77899169922 1002.04669189453 1006.07458496094 997.476440429688 997.536254882812 1002.96392822266 994.131713867188 1004.95764160156 1003.17321777344 1011.79943847656 1012.7255859375 1010.39208984375 1007.90417480469 1003.24792480469 1001.37719726562 998.692016601562 1004.55895996094 992.249755859375 981.132263183594 973.349548339844 979.486022949219 970.071166992188 954.335327148438 951.695617675781 941.097839355469 933.512634277344 940.0537109375 932.112609863281 937.558044433594 943.132385253906 944.244079589844 972.43017578125 987.9853515625 988.86865234375 1006.4541015625 1019.98876953125 1027.47399902344 1035.98876953125 1042.5380859375 1038.97412109375 1028.330078125 1032.95336914062 1034.71520996094 1035.99450683594 1038.1943359375 1038.16394042969 1047.58703613281 1054.30786132812 1056.14318847656 1052.61743164062 1062.78479003906 1076.84387207031 1085.29223632812 1095.11181640625 1092.6435546875 1092.15270996094 1085.86743164062 1088.55847167969 1092.16833496094 1091.28430175781 1086.55651855469
950.970520019531 949.461059570312 946.660034179688 946.257751464844 949.171203613281 949.664672851562 945.046203613281 955.387451171875 957.237426757812 951.572814941406 955.063598632812 968.621704101562 965.344787597656 953.238403320312 958.556030273438 956.135375976562 959.190979003906 966.814819335938 962.430969238281 963.95166015625 968.978271484375 971.577941894531 981.113464355469 996.23095703125 1003.47174072266 998.279724121094 990.420349121094 1001.22454833984 1013.19738769531 1006.52612304688 1006.41473388672 1005.27600097656 1008.9384765625 1018.84851074219 1010.64471435547 1019.47875976562 1025.52160644531 1024.93176269531 1024.05590820312 1033.73132324219 1034.49719238281 1033.0029296875 1028.09252929688 1023.92175292969 1008.80377197266 992.919494628906 995.287109375 1005.47937011719 1008.75903320312 1000.22802734375 1001.31463623047 1000.10266113281 993.4873046875 1003.05407714844 1001.17755126953 1000.17907714844 1010.92181396484 1007.30450439453 1017.31719970703 1020.60589599609 1028.96606445312 1028.349609375 1037.17272949219 1028.46765136719 1027.80249023438 1018.95422363281 1025.39221191406 1023.20416259766 1023.84167480469 1023.25103759766 1028.51953125 1030.09008789062 1036.98315429688 1026.42626953125 1016.29107666016 1017.66711425781 1017.41540527344 1015.17749023438 1007.74353027344 1004.08856201172 1006.92468261719 1010.71514892578 1009.18499755859 1013.56146240234 1010.88513183594 1008.43817138672 989.858154296875 996.429138183594 993.448303222656 1005.30627441406 1004.45172119141 1002.96716308594 1002.68109130859 1012.91076660156 1019.880859375 1023.14587402344 1022.05883789062 1024.1025390625 1015.10015869141 1014.70947265625 1008.90209960938 1009.84576416016 997.813293457031 1005.16424560547 1000.91809082031 999.552917480469 992.085693359375 984.976135253906 978.72900390625 975.60693359375 968.799377441406 954.552368164062 941.631469726562 937.005432128906 942.680358886719 943.220520019531 939.259094238281 943.887634277344 961.018493652344 969.815856933594 976.972717285156 995.418640136719 1010.93054199219 1009.70721435547 1015.64007568359 1022.72332763672 1036.38134765625 1043.21960449219 1035.44128417969 1027.16259765625 1031.25939941406 1037.93823242188 1041.1572265625 1048.12084960938 1044.61401367188 1050.888671875 1050.84167480469 1054.71923828125 1053.13659667969 1058.1435546875 1065.00024414062 1074.3095703125 1083.11889648438 1087.40869140625 1085.92028808594 1088.814453125 1087.37707519531 1089.93994140625 1086.45983886719 1085.11462402344
951.521179199219 948.204650878906 946.892211914062 939.540771484375 941.963806152344 940.916687011719 938.857788085938 947.871398925781 951.783813476562 958.363037109375 955.580993652344 955.463806152344 954.254455566406 962.711242675781 969.611389160156 961.676147460938 955.564636230469 966.268493652344 969.555969238281 976.284606933594 974.924438476562 972.307922363281 987.30224609375 996.337524414062 993.673583984375 998.266906738281 995.496337890625 999.568237304688 1010.15161132812 1002.30334472656 1004.40649414062 1001.54028320312 1008.46905517578 1006.6826171875 1009.88525390625 1024.07592773438 1024.19934082031 1022.98181152344 1029.36218261719 1024.03955078125 1031.34838867188 1028.10363769531 1027.39892578125 1021.91326904297 1009.18609619141 994.887573242188 991.494201660156 997.853820800781 1004.78771972656 993.049438476562 994.967346191406 1001.67181396484 998.742492675781 994.283081054688 996.29736328125 999.561584472656 1007.54833984375 1006.80242919922 1005.31048583984 1014.38623046875 1017.65362548828 1018.24322509766 1015.61340332031 1017.44567871094 1021.076171875 1016.72003173828 1017.64727783203 1027.51440429688 1022.326171875 1022.97406005859 1024.60888671875 1028.32653808594 1022.85241699219 1023.45275878906 1012.07183837891 1003.84930419922 1006.72583007812 1007.25231933594 1008.90045166016 1010.80169677734 1005.75225830078 1006.24621582031 1012.48474121094 1009.49566650391 1012.57568359375 1009.28454589844 1001.84698486328 1006.17889404297 1005.24505615234 1002.40045166016 1016.38165283203 1009.33001708984 1013.84613037109 1017.55249023438 1023.97222900391 1028.63659667969 1023.50659179688 1029.78625488281 1018.32659912109 1016.52117919922 1001.41577148438 999.624572753906 993.109741210938 1002.64318847656 1000.44281005859 1001.24346923828 1004.27227783203 991.23876953125 980.472900390625 973.026245117188 969.468078613281 953.890197753906 949.484558105469 937.107116699219 943.984497070312 940.382690429688 944.938354492188 946.608520507812 952.324462890625 962.480346679688 980.943725585938 998.225219726562 1002.67626953125 1008.40771484375 1017.92156982422 1030.36584472656 1032.20007324219 1036.92541503906 1033.50061035156 1028.78491210938 1040.5947265625 1046.14038085938 1050.73107910156 1053.00512695312 1052.14233398438 1049.61669921875 1056.12536621094 1065.3125 1056.81591796875 1058.24914550781 1065.02612304688 1076.70849609375 1079.84631347656 1083.51025390625 1083.24548339844 1090.14270019531 1091.49987792969 1080.00390625 1091.59387207031 1083.99584960938
951.291748046875 949.660827636719 940.239318847656 937.346130371094 925.463012695312 934.220336914062 933.762756347656 941.62646484375 947.9892578125 950.545288085938 943.127990722656 940.042724609375 961.312194824219 961.745910644531 960.824890136719 956.040588378906 957.849975585938 954.87890625 960.770385742188 966.887145996094 971.57373046875 975.517822265625 977.009155273438 990.471496582031 995.055419921875 992.446472167969 992.5234375 995.66650390625 1003.81494140625 1002.83135986328 1000.49548339844 1004.55377197266 1003.05706787109 1009.41223144531 1001.62066650391 1011.70025634766 1021.64770507812 1016.36303710938 1026.96203613281 1029.42663574219 1024.18823242188 1028.251953125 1025.32873535156 1015.19561767578 1009.33233642578 998.540161132812 998.869384765625 1001.88708496094 996.528747558594 998.74365234375 994.716918945312 995.951721191406 991.053466796875 986.739318847656 989.686584472656 992.456420898438 989.748046875 1003.05145263672 1003.32843017578 1003.81115722656 1010.59429931641 1010.28735351562 1009.11560058594 1018.41888427734 1021.57452392578 1019.28216552734 1014.67694091797 1016.93872070312 1017.29315185547 1016.68646240234 1020.18957519531 1019.20227050781 1021.91754150391 1018.47113037109 1007.00775146484 1002.02227783203 1006.71893310547 1006.46502685547 1008.20104980469 1010.77514648438 1003.93731689453 1000.15686035156 1006.82647705078 1000.30487060547 1005.79370117188 1004.21246337891 1007.27587890625 1010.82897949219 1009.14532470703 1011.86944580078 1017.70611572266 1029.40600585938 1027.04052734375 1040.18579101562 1038.54992675781 1031.25476074219 1024.48657226562 1020.61083984375 1017.66778564453 1010.60852050781 999.634582519531 1003.84832763672 1000.49664306641 1000.08056640625 1003.78344726562 1007.42242431641 1003.90106201172 1000.2763671875 990.540954589844 974.260131835938 968.852783203125 956.914733886719 950.365966796875 949.743774414062 944.74072265625 941.806640625 947.884948730469 964.764831542969 964.318603515625 974.7578125 981.715881347656 994.052429199219 1004.40863037109 1009.43145751953 1025.73620605469 1024.59509277344 1029.38720703125 1037.03686523438 1032.63537597656 1037.55517578125 1036.61840820312 1043.44519042969 1048.46069335938 1049.70275878906 1051.58117675781 1048.42419433594 1053.46313476562 1064.55590820312 1065.08654785156 1056.41235351562 1064.31323242188 1074.04516601562 1081.18859863281 1086.73974609375 1082.83630371094 1081.42333984375 1087.326171875 1091.94445800781 1093.39978027344 1088.34582519531
952.496887207031 946.953674316406 945.498962402344 940.547424316406 924.930297851562 934.002014160156 935.243408203125 944.048522949219 947.398132324219 954.146301269531 942.076721191406 945.809875488281 951.14453125 963.811828613281 961.63330078125 959.022216796875 956.731872558594 952.628601074219 956.798950195312 967.630493164062 974.494812011719 974.1845703125 973.261901855469 986.763244628906 983.835815429688 990.874816894531 998.934753417969 988.949035644531 993.631042480469 999.782165527344 997.222778320312 993.055725097656 992.859680175781 996.812805175781 997.41552734375 1002.70263671875 998.404846191406 1011.83288574219 1021.94592285156 1020.41656494141 1013.52679443359 1022.36968994141 1018.98187255859 1008.25677490234 1005.88702392578 1001.58123779297 994.897705078125 999.528564453125 992.703857421875 993.18359375 991.108215332031 991.678039550781 991.226135253906 980.712463378906 977.80859375 979.667785644531 975.521484375 986.542724609375 1005.31414794922 1014.99127197266 1014.60571289062 1010.04461669922 1010.01568603516 1018.60650634766 1020.51879882812 1015.98571777344 1026.83776855469 1023.50073242188 1018.16986083984 1009.75689697266 1013.99127197266 1018.53918457031 1010.14556884766 1009.99127197266 1003.99755859375 1001.32849121094 995.825256347656 1004.11212158203 998.141723632812 1002.63348388672 1006.58062744141 1004.04364013672 1001.99346923828 994.255554199219 996.9072265625 1010.18914794922 1013.47515869141 1017.63177490234 1014.689453125 1017.23016357422 1015.71105957031 1018.3349609375 1025.119140625 1025.90502929688 1031.83703613281 1031.29956054688 1023.30249023438 1010.92553710938 1007.20831298828 1001.27020263672 1001.75 1003.14593505859 1004.96203613281 1006.64111328125 1002.53985595703 1009.47741699219 1006.763671875 1000.40411376953 989.471557617188 977.574401855469 971.4599609375 964.963806152344 952.915649414062 948.90185546875 939.413940429688 951.243286132812 961.437072753906 970.580505371094 972.345275878906 974.698974609375 995.631103515625 1009.58056640625 1024.36364746094 1022.38714599609 1021.39587402344 1024.12683105469 1025.89343261719 1029.06176757812 1035.2099609375 1035.82482910156 1046.06298828125 1048.2890625 1046.359375 1048.54931640625 1054.17224121094 1049.27453613281 1056.83020019531 1058.97778320312 1063.02697753906 1050.21423339844 1062.62463378906 1068.71398925781 1073.19616699219 1077.29992675781 1082.55151367188 1084.46984863281 1088.34924316406 1095.64147949219 1094.94311523438 1094.49926757812
951.411560058594 945.367065429688 949.497924804688 940.872436523438 943.344177246094 944.300598144531 945.514831542969 948.075927734375 949.733276367188 954.775024414062 957.205444335938 958.638793945312 958.154235839844 955.5947265625 966.4072265625 961.15087890625 955.150329589844 959.66064453125 964.441528320312 978.077270507812 979.463012695312 973.151184082031 980.988098144531 979.681945800781 978.344787597656 996.014465332031 982.534790039062 985.959594726562 981.931579589844 994.468383789062 997.040100097656 991.131164550781 984.700134277344 993.910278320312 989.102355957031 994.989013671875 999.47216796875 1009.4921875 1011.00549316406 1006.67596435547 1000.4443359375 1007.82055664062 1012.43005371094 1004.73498535156 1002.73461914062 999.078369140625 999.589416503906 996.070739746094 994.506042480469 994.487609863281 984.464416503906 987.245971679688 989.838745117188 983.354797363281 971.877685546875 979.701232910156 987.120361328125 993.096008300781 1005.43487548828 1007.55285644531 1012.08905029297 1010.12744140625 1004.86944580078 1010.32525634766 1019.85308837891 1017.34973144531 1016.07885742188 1016.45098876953 1015.88323974609 1008.68072509766 1003.97436523438 1005.55187988281 1015.80242919922 1009.75280761719 996.625549316406 993.668334960938 991.681884765625 988.336608886719 994.43017578125 1007.28009033203 1007.58343505859 1007.39147949219 998.357421875 999.119995117188 1012.57928466797 1014.05395507812 1030.39086914062 1022.22814941406 1020.79718017578 1016.19946289062 1010.16937255859 1019.95837402344 1020.14001464844 1032.1328125 1032.08666992188 1023.81195068359 1021.86828613281 999.555114746094 987.25927734375 989.057250976562 998.950317382812 1002.35955810547 1003.65911865234 1002.62133789062 1007.36920166016 1003.49633789062 1005.55212402344 995.527648925781 979.964721679688 977.853332519531 973.026428222656 967.318908691406 963.065307617188 948.448913574219 943.947265625 953.380737304688 965.520385742188 965.784973144531 981.513427734375 981.617065429688 1001.71374511719 1013.13330078125 1013.3095703125 1022.53784179688 1026.1904296875 1022.29724121094 1032.052734375 1034.05798339844 1042.28198242188 1042.05334472656 1041.33447265625 1050.26477050781 1043.24304199219 1047.06115722656 1059.58520507812 1063.22863769531 1057.31298828125 1048.48010253906 1052.66979980469 1052.38134765625 1068.04174804688 1076.26892089844 1076.86279296875 1078.81958007812 1089.39440917969 1095.35705566406 1080.12634277344 1085.88232421875 1090.22827148438 1079.08825683594
953.868408203125 952.926513671875 946.851867675781 938.049072265625 948.533630371094 954.597778320312 955.459045410156 953.483520507812 957.361267089844 959.940246582031 963.085266113281 966.183959960938 962.65087890625 955.4765625 965.95654296875 958.764709472656 961.946533203125 964.553161621094 966.974792480469 972.969116210938 980.294494628906 974.438598632812 976.617004394531 980.045104980469 978.720520019531 988.367736816406 994.377197265625 985.399719238281 994.304016113281 993.883483886719 990.35400390625 996.137390136719 994.270202636719 999.039794921875 992.696533203125 989.930297851562 1000.59136962891 1009.11566162109 1017.72259521484 1020.03344726562 1011.15838623047 1007.10723876953 1008.89813232422 1009.21051025391 998.205993652344 1001.68438720703 999.113647460938 993.598693847656 993.310607910156 992.930419921875 989.609130859375 993.254150390625 992.366394042969 985.24365234375 980.973693847656 990.203369140625 993.482971191406 1008.10473632812 1008.89282226562 1017.64569091797 1011.32830810547 1011.28375244141 1023.84124755859 1015.90643310547 1018.08337402344 1008.90222167969 1008.1396484375 1008.34729003906 1004.40197753906 1004.13629150391 1010.91851806641 1014.20416259766 1018.06518554688 1002.87365722656 1001.57666015625 996.357543945312 986.494323730469 987.6640625 992.603332519531 1005.38830566406 1003.18475341797 998.577575683594 997.95166015625 999.819885253906 1012.48681640625 1014.12744140625 1016.74047851562 1021.61529541016 1023.22235107422 1018.16809082031 1018.27435302734 1026.54650878906 1031.4384765625 1023.44134521484 1024.39709472656 1022.82824707031 1011.93225097656 997.61376953125 996.26806640625 989.41943359375 992.297668457031 995.569580078125 1006.58905029297 1005.41467285156 1003.21069335938 993.561767578125 997.001647949219 986.646789550781 979.8359375 972.17236328125 963.073486328125 963.514892578125 952.972351074219 951.198364257812 948.844177246094 947.875549316406 958.814514160156 969.536743164062 970.329345703125 983.645324707031 1000.49133300781 1010.98889160156 1016.70068359375 1023.77496337891 1026.39306640625 1026.62573242188 1033.08984375 1038.91772460938 1040.32189941406 1044.24743652344 1042.48913574219 1045.21044921875 1047.32885742188 1049.12438964844 1055.83728027344 1056.279296875 1050.45263671875 1050.34362792969 1051.90490722656 1050.67248535156 1065.86682128906 1076.44409179688 1075.35034179688 1080.85095214844 1087.02087402344 1092.74401855469 1094.07421875 1087.55053710938 1086.576171875 1078.89245605469
952.536560058594 952.070495605469 953.691772460938 948.603149414062 948.740539550781 957.499145507812 965.599731445312 960.033752441406 960.198608398438 971.687255859375 965.315307617188 973.383972167969 967.159545898438 967.157104492188 968.369384765625 965.91015625 966.047180175781 972.18310546875 972.206970214844 982.282531738281 984.361633300781 984.392333984375 979.248657226562 973.239379882812 969.424255371094 982.032287597656 986.417846679688 990.064453125 995.681335449219 995.241516113281 985.793762207031 993.456115722656 994.143371582031 999.86767578125 999.198547363281 995.045837402344 1003.06396484375 1008.8642578125 1010.66955566406 1010.84527587891 1010.27648925781 1006.59338378906 1008.34350585938 1003.38146972656 991.866577148438 998.872497558594 999.362060546875 999.042846679688 990.960632324219 986.385314941406 985.159301757812 989.762634277344 989.337097167969 995.066589355469 997.6708984375 989.090393066406 991.428833007812 997.73193359375 1002.85498046875 1002.26647949219 1007.21325683594 1015.30358886719 1019.17987060547 1013.64764404297 1003.85638427734 1006.54510498047 1003.67205810547 996.053344726562 996.955871582031 1003.86566162109 1012.92919921875 1010.14990234375 1007.08367919922 1001.64068603516 998.595092773438 999.038635253906 992.81884765625 996.6650390625 995.006530761719 991.775390625 994.521179199219 992.208618164062 996.724731445312 994.444274902344 998.062377929688 1008.66394042969 1007.87078857422 1020.11682128906 1022.26898193359 1021.20330810547 1021.99774169922 1024.52319335938 1025.73681640625 1018.16638183594 1016.92700195312 1013.08819580078 1009.34655761719 995.133117675781 994.143310546875 983.205932617188 994.869689941406 994.804626464844 998.982299804688 994.852355957031 999.554260253906 999.788879394531 994.491455078125 987.068237304688 976.729675292969 965.389465332031 964.179321289062 955.208190917969 942.521911621094 941.803283691406 943.690734863281 951.074890136719 962.767517089844 970.99755859375 977.425903320312 984.046447753906 996.360534667969 1006.23480224609 1013.18432617188 1023.46856689453 1027.21569824219 1033.2802734375 1031.59191894531 1028.69348144531 1029.14086914062 1038.85070800781 1047.39721679688 1043.35241699219 1047.85571289062 1049.80358886719 1045.38623046875 1055.2939453125 1056.01684570312 1048.37097167969 1053.67163085938 1051.28771972656 1062.44250488281 1063.68591308594 1072.953125 1085.06701660156 1088.69165039062 1092.34851074219 1092.81225585938 1090.45922851562 1090.38049316406 1091.32202148438
950.996826171875 962.828491210938 955.089416503906 950.949523925781 952.312377929688 955.755920410156 962.275573730469 958.399963378906 964.9140625 981.150268554688 973.389953613281 973.035583496094 966.864135742188 980.550109863281 970.976501464844 972.939758300781 984.328979492188 984.246765136719 989.857421875 980.358642578125 991.704040527344 984.736450195312 980.306518554688 973.132629394531 976.043151855469 984.814880371094 987.463623046875 990.392639160156 994.450134277344 987.8681640625 981.564636230469 987.950012207031 990.849365234375 994.410888671875 994.318420410156 993.976379394531 992.43896484375 996.119262695312 994.470153808594 1006.85461425781 1002.87469482422 1004.25964355469 1000.55584716797 988.826904296875 989.985961914062 991.042236328125 991.094970703125 1001.26385498047 985.721862792969 976.978637695312 982.615234375 986.021728515625 993.668212890625 1000.21929931641 997.635498046875 985.170959472656 996.180969238281 1001.58331298828 1004.25549316406 1010.27691650391 1004.74060058594 999.877563476562 1011.89764404297 1007.23754882812 996.876403808594 997.579040527344 1002.77178955078 991.542419433594 1002.21673583984 1000.37109375 1011.41967773438 1010.22009277344 1000.67834472656 992.813537597656 998.2138671875 992.696594238281 988.748229980469 996.413757324219 998.396057128906 998.27001953125 1000.04620361328 994.953796386719 1004.13934326172 998.26416015625 992.964599609375 1004.93182373047 1015.64593505859 1012.98248291016 1024.00317382812 1017.04217529297 1013.06317138672 1022.51873779297 1014.810546875 1009.96881103516 1012.86041259766 1012.87707519531 1013.94952392578 993.25244140625 990.1025390625 986.063049316406 999.569946289062 1004.39691162109 1004.05944824219 999.811767578125 999.291564941406 998.641784667969 994.079284667969 980.422668457031 970.905578613281 968.502807617188 962.885437011719 950.310485839844 946.475769042969 935.577026367188 938.108825683594 942.161743164062 961.724487304688 972.901306152344 971.338073730469 978.146606445312 994.463806152344 1001.17449951172 1009.00061035156 1017.07641601562 1018.16363525391 1022.89074707031 1030.20275878906 1025.07800292969 1023.09704589844 1031.53674316406 1034.90161132812 1044.14916992188 1050.04516601562 1055.55065917969 1047.19018554688 1042.83605957031 1048.29663085938 1048.64416503906 1049.38989257812 1051.60766601562 1059.74353027344 1062.58532714844 1068.50817871094 1078.01330566406 1086.29235839844 1092.87036132812 1091.29174804688 1099.04870605469 1093.53625488281 1092.45812988281
961.306030273438 959.826721191406 963.262878417969 958.462341308594 961.0166015625 963.894470214844 959.073120117188 959.455810546875 960.381774902344 968.257141113281 970.132629394531 965.812805175781 978.634765625 980.556640625 975.172424316406 984.251831054688 986.181701660156 983.76953125 996.560241699219 984.390869140625 991.156127929688 985.446228027344 986.243041992188 982.474243164062 980.968139648438 976.286315917969 990.050903320312 984.763000488281 990.873291015625 986.241394042969 984.820007324219 987.988220214844 994.088806152344 992.6953125 993.700927734375 992.158203125 990.908508300781 984.883911132812 987.163269042969 985.895935058594 987.061218261719 998.020202636719 992.928344726562 988.991088867188 988.66552734375 986.569152832031 990.876892089844 992.921203613281 987.730895996094 979.036193847656 979.933227539062 979.556457519531 987.753356933594 991.968566894531 990.911926269531 989.250610351562 989.549072265625 996.923034667969 999.092590332031 1001.00152587891 997.060302734375 995.248962402344 997.151428222656 1001.10052490234 992.51318359375 993.605041503906 993.697387695312 998.818603515625 1000.5869140625 1000.45037841797 998.060668945312 1002.17999267578 996.238952636719 994.498352050781 993.905456542969 994.947570800781 993.335021972656 994.826721191406 994.328186035156 992.659790039062 995.06005859375 1000.41235351562 1005.98059082031 999.606323242188 1002.14129638672 1004.44995117188 1017.07916259766 1019.94122314453 1018.37652587891 1015.7568359375 1015.67437744141 1020.21154785156 1019.44372558594 1012.31982421875 1006.08654785156 1009.87048339844 1005.07598876953 985.956909179688 985.201171875 991.049072265625 998.234680175781 1006.78833007812 1002.45953369141 998.803955078125 998.832153320312 994.863830566406 1001.00811767578 980.058410644531 979.692260742188 969.177307128906 966.090087890625 949.811157226562 952.330810546875 939.612243652344 943.812805175781 948.90625 959.733093261719 956.698913574219 961.838928222656 971.477905273438 986.089477539062 1001.40808105469 1010.91729736328 1017.1474609375 1025.17810058594 1016.30908203125 1027.8720703125 1027.39001464844 1020.14141845703 1030.38220214844 1032.99865722656 1040.67895507812 1049.42724609375 1050.47863769531 1048.64221191406 1041.09753417969 1036.99609375 1041.52172851562 1053.4287109375 1053.51696777344 1058.14367675781 1063.19213867188 1077.24426269531 1077.2939453125 1088.39013671875 1091.83447265625 1094.01037597656 1098.44226074219 1089.58996582031 1098.63598632812
971.887023925781 965.43212890625 972.808715820312 960.085571289062 961.309753417969 966.752380371094 959.576293945312 962.887878417969 965.578186035156 965.59814453125 980.301147460938 972.893737792969 970.596313476562 979.10791015625 980.20166015625 975.302124023438 982.035827636719 989.970520019531 989.416259765625 987.901489257812 993.516296386719 987.721984863281 982.007873535156 987.181274414062 978.379699707031 972.868286132812 972.558227539062 974.720458984375 986.515014648438 982.041259765625 986.82861328125 986.368530273438 988.205505371094 992.119140625 993.447937011719 992.671142578125 990.988159179688 977.061096191406 981.315673828125 980.881652832031 983.894775390625 992.434814453125 985.384155273438 986.228820800781 992.859008789062 985.104858398438 982.013000488281 996.986022949219 991.721435546875 977.498352050781 981.724304199219 974.684631347656 981.302612304688 984.77685546875 991.289733886719 991.570983886719 994.643798828125 996.542053222656 998.081970214844 999.125427246094 992.983337402344 989.21240234375 984.203308105469 990.268676757812 997.284118652344 992.531982421875 986.278747558594 991.700927734375 1000.01763916016 1004.16162109375 1001.32861328125 989.785339355469 991.283081054688 985.499694824219 988.974365234375 997.499816894531 1000.99615478516 1001.14538574219 991.461303710938 993.197265625 1001.90295410156 1004.72418212891 1012.04644775391 1003.04254150391 990.744384765625 1006.84777832031 1009.44268798828 1013.52197265625 1014.57904052734 1018.53424072266 1019.1787109375 1025.04760742188 1014.69818115234 1015.06231689453 1005.2978515625 1006.13037109375 1000.55426025391 992.88427734375 982.980712890625 987.348999023438 996.546936035156 1001.40057373047 1007.21270751953 998.118591308594 998.000122070312 1004.0078125 1002.59271240234 989.494873046875 974.851013183594 971.879516601562 961.088195800781 959.433898925781 951.130554199219 948.87353515625 944.904846191406 955.392028808594 953.85693359375 957.180236816406 965.563720703125 971.617004394531 991.736572265625 1007.76666259766 1018.93127441406 1021.78723144531 1017.26452636719 1019.44903564453 1023.70428466797 1028.40649414062 1025.97253417969 1032.57531738281 1035.00158691406 1030.49011230469 1039.34533691406 1042.91003417969 1045.71228027344 1038.33129882812 1040.64721679688 1040.72058105469 1047.6455078125 1053.00659179688 1057.61267089844 1064.07470703125 1071.91955566406 1080.42785644531 1082.52978515625 1087.2138671875 1089.12536621094 1099.77001953125 1099.81896972656 1101.12817382812
954.750610351562 963.564575195312 971.357666015625 966.539428710938 968.775024414062 973.304016113281 975.694274902344 970.64111328125 968.219299316406 968.182556152344 973.924133300781 976.499145507812 980.391906738281 981.066345214844 975.098327636719 976.157653808594 978.181701660156 987.912658691406 985.252136230469 983.493591308594 997.546691894531 983.690368652344 981.147583007812 979.602172851562 971.728637695312 985.402587890625 981.951477050781 978.375061035156 982.935729980469 978.354370117188 975.509399414062 983.238830566406 992.443298339844 992.668640136719 987.265502929688 982.95947265625 978.096374511719 968.802062988281 975.176208496094 979.121826171875 979.1943359375 985.377746582031 987.31689453125 984.494445800781 987.99560546875 983.324462890625 983.821716308594 988.028442382812 988.244567871094 989.246765136719 985.388061523438 975.5439453125 973.086608886719 982.984985351562 981.704040527344 986.605834960938 994.064697265625 1000.55963134766 987.481201171875 989.939453125 990.540100097656 991.926330566406 988.280395507812 988.380615234375 993.88525390625 990.596435546875 987.318054199219 996.474853515625 1000.27032470703 1005.21875 996.340454101562 992.119567871094 987.507202148438 978.931640625 987.772705078125 996.338317871094 1006.40325927734 1004.08569335938 992.544616699219 1006.01550292969 995.890747070312 1007.61029052734 1008.11041259766 1012.37072753906 1001.06304931641 1003.96301269531 1005.03631591797 1007.74609375 1012.20538330078 1018.28735351562 1020.02008056641 1020.79827880859 1026.20568847656 1026.43371582031 1012.33856201172 1006.37701416016 997.517944335938 993.097229003906 986.077819824219 988.916931152344 984.580749511719 998.600769042969 1001.07629394531 1000.84985351562 997.990966796875 1000.70599365234 999.310546875 999.099060058594 989.134826660156 982.0966796875 973.738647460938 972.52392578125 963.963012695312 960.828796386719 950.661743164062 962.788146972656 961.900146484375 973.422668457031 973.403381347656 981.131225585938 993.330932617188 1005.19506835938 1025.623046875 1016.90893554688 1018.75067138672 1015.30303955078 1018.12664794922 1021.71130371094 1023.27673339844 1028.48852539062 1030.80346679688 1016.03570556641 1031.3369140625 1031.49011230469 1030.119140625 1033.27612304688 1030.88708496094 1040.36254882812 1043.35302734375 1056.5576171875 1064.70446777344 1065.15942382812 1071.41809082031 1081.6103515625 1080.41064453125 1085.44470214844 1088.7861328125 1091.55212402344 1097.87780761719 1110.43713378906
954.160766601562 950.363403320312 957.047546386719 965.919799804688 972.521484375 970.036926269531 978.169616699219 975.597839355469 973.242126464844 970.394958496094 972.582580566406 975.926513671875 975.5986328125 974.426574707031 966.882507324219 964.990417480469 978.587158203125 981.895935058594 983.549499511719 987.373046875 993.608642578125 983.760925292969 979.864685058594 980.116027832031 970.962829589844 985.23388671875 978.97900390625 973.47021484375 976.371948242188 979.781555175781 981.50732421875 981.080017089844 989.906860351562 994.074645996094 990.196228027344 973.018920898438 969.602844238281 967.131896972656 977.075927734375 982.62109375 980.714233398438 980.693664550781 986.378723144531 988.272766113281 985.158447265625 987.697998046875 986.792907714844 978.194091796875 982.234497070312 986.337341308594 981.047607421875 979.449157714844 973.017761230469 975.874206542969 980.002319335938 982.084106445312 986.272644042969 983.080017089844 991.043579101562 987.784729003906 993.937072753906 989.965148925781 991.211303710938 1001.37805175781 988.808898925781 986.37158203125 988.841064453125 990.299377441406 990.403869628906 995.68017578125 994.174255371094 986.758972167969 989.306091308594 978.34765625 987.968872070312 994.1025390625 1000.18817138672 1002.34375 1000.37408447266 1005.65258789062 1002.89752197266 997.708190917969 1008.20965576172 1011.36285400391 1004.07116699219 1001.23608398438 1005.15374755859 1010.78070068359 1010.07672119141 1012.18176269531 1013.77392578125 1011.96667480469 1017.35321044922 1012.49395751953 1009.09460449219 1006.65563964844 1005.00549316406 1003.92944335938 998.539245605469 991.346130371094 992.993408203125 993.15966796875 997.438110351562 997.726013183594 993.361694335938 998.556884765625 993.684448242188 993.745788574219 989.695251464844 982.45947265625 968.6259765625 973.545837402344 970.014526367188 963.991271972656 959.899230957031 956.751220703125 960.568420410156 969.756958007812 981.101318359375 996.720581054688 1013.26190185547 1007.44689941406 1012.47790527344 1019.50311279297 1020.08062744141 1027.67553710938 1022.84808349609 1023.95477294922 1025.62878417969 1034.18249511719 1027.08947753906 1019.15887451172 1019.26617431641 1030.77502441406 1030.73571777344 1027.20812988281 1020.099609375 1028.36047363281 1033.30712890625 1053.94152832031 1070.55407714844 1062.03967285156 1067.4541015625 1076.56066894531 1080.39672851562 1086.1103515625 1094.18090820312 1094.03515625 1105.69860839844 1110.87683105469
946.012451171875 941.051635742188 954.826721191406 963.165954589844 975.180236816406 979.516418457031 976.542053222656 979.867919921875 976.876281738281 966.446166992188 965.067749023438 977.312866210938 966.951599121094 966.601257324219 972.769287109375 973.686950683594 979.225341796875 976.669799804688 982.187438964844 987.597961425781 982.110534667969 977.963806152344 980.193542480469 972.124206542969 980.089477539062 984.085327148438 982.488708496094 973.520629882812 971.635192871094 983.527770996094 983.289367675781 992.047424316406 984.862121582031 980.201477050781 974.129455566406 976.483215332031 979.842651367188 975.85546875 973.434631347656 980.319274902344 977.8408203125 979.672668457031 983.706604003906 983.688537597656 987.389770507812 982.179809570312 981.436706542969 978.711669921875 976.651550292969 977.425659179688 983.918823242188 979.345397949219 974.284606933594 980.471740722656 973.370361328125 981.820495605469 981.921264648438 982.866394042969 978.339172363281 990.579956054688 996.005737304688 992.095397949219 990.970764160156 990.434143066406 988.341186523438 997.028686523438 999.65087890625 987.235778808594 980.704528808594 982.321960449219 990.541442871094 978.846801757812 977.92138671875 984.884948730469 980.116027832031 985.728271484375 999.138000488281 996.882629394531 1004.41186523438 1004.50402832031 1006.57275390625 999.313659667969 999.448791503906 1012.33142089844 1000.85925292969 1008.20959472656 1009.5634765625 1013.28997802734 1010.30804443359 1017.00073242188 1015.82391357422 1011.4287109375 1002.97674560547 1012.88031005859 1008.17816162109 1010.96362304688 1008.16864013672 1004.61798095703 995.998229980469 996.09326171875 997.701538085938 1001.44061279297 997.654235839844 1003.25830078125 1006.12976074219 998.378295898438 993.857421875 987.794738769531 995.392761230469 988.016906738281 978.997863769531 979.177124023438 975.347595214844 965.951171875 963.836059570312 964.773132324219 968.508544921875 982.957580566406 992.176391601562 998.869812011719 1003.87542724609 1014.36206054688 1017.62420654297 1021.34826660156 1024.01440429688 1021.1591796875 1021.28350830078 1021.84301757812 1031.01184082031 1035.83825683594 1021.18463134766 1016.77587890625 1013.07983398438 1019.80303955078 1030.26635742188 1024.40026855469 1019.28668212891 1032.26489257812 1048.7705078125 1049.20385742188 1062.63830566406 1062.64660644531 1068.04016113281 1074.50830078125 1079.53295898438 1089.49670410156 1091.57556152344 1102.15698242188 1107.07202148438 1105.57983398438
941.465026855469 939.672424316406 957.590270996094 964.553649902344 971.620788574219 965.558654785156 964.69775390625 970.6015625 975.877807617188 976.822265625 968.960632324219 971.890502929688 970.179443359375 968.500549316406 970.462524414062 968.484558105469 977.863403320312 979.950866699219 974.388916015625 982.820617675781 979.648803710938 980.305603027344 977.647827148438 973.758972167969 975.562072753906 983.432067871094 986.67578125 971.885498046875 970.838928222656 979.977172851562 986.452514648438 983.8505859375 988.210998535156 974.270568847656 979.031982421875 978.818603515625 984.986022949219 976.311828613281 974.9892578125 978.320678710938 981.259521484375 980.830810546875 987.483215332031 990.685729980469 984.1455078125 987.010131835938 983.471313476562 986.716186523438 976.362976074219 981.053405761719 980.200866699219 984.490783691406 977.271606445312 971.181762695312 968.781799316406 976.606079101562 966.037109375 969.71923828125 989.992004394531 999.076049804688 989.700744628906 988.89990234375 992.627807617188 989.946533203125 992.428588867188 995.436340332031 992.078674316406 986.882507324219 983.592590332031 984.627197265625 976.823913574219 978.630432128906 977.51025390625 978.568908691406 980.98681640625 986.731262207031 996.136596679688 992.297119140625 988.410095214844 1005.24450683594 996.497009277344 1005.66864013672 1005.20916748047 1006.71929931641 996.745666503906 1005.33837890625 1011.02593994141 1011.52447509766 1005.69079589844 1010.62481689453 1016.34191894531 1008.98529052734 1002.79321289062 1015.17401123047 1011.54162597656 1015.22595214844 999.532897949219 992.846496582031 996.173400878906 1005.72827148438 1005.44677734375 1003.28930664062 998.337829589844 1011.52154541016 1008.36651611328 988.883178710938 996.04052734375 997.185974121094 991.603515625 989.445556640625 979.279663085938 973.0146484375 970.590026855469 975.823974609375 967.565551757812 969.687255859375 980.353515625 987.16943359375 1003.83862304688 1003.44061279297 1008.40173339844 1018.71307373047 1019.06439208984 1015.19555664062 1014.73266601562 1020.65380859375 1011.90112304688 1009.23657226562 1018.50592041016 1023.01898193359 1011.44305419922 1013.41149902344 1013.50048828125 1016.73321533203 1016.16345214844 1017.31127929688 1031.82067871094 1040.84509277344 1043.48034667969 1048.00720214844 1061.24389648438 1063.53869628906 1075.23889160156 1081.44152832031 1078.17431640625 1090.56335449219 1094.33227539062 1106.60107421875 1116.53918457031 1112.10668945312
945.828308105469 943.014892578125 960.721008300781 963.741760253906 960.247497558594 965.227661132812 972.93798828125 967.779907226562 971.881713867188 960.265441894531 967.826721191406 969.489440917969 966.687927246094 966.985229492188 976.588134765625 982.974487304688 978.255126953125 981.990844726562 982.049133300781 976.497253417969 980.335815429688 984.954772949219 989.400756835938 974.741271972656 974.828735351562 984.784790039062 980.886657714844 989.044555664062 979.141845703125 973.301147460938 977.855529785156 982.392944335938 983.317321777344 972.005249023438 979.581298828125 980.985717773438 991.052917480469 973.592834472656 978.617309570312 976.428161621094 973.655517578125 975.914733886719 984.434448242188 984.022705078125 983.572021484375 987.375610351562 989.932067871094 987.432189941406 972.581726074219 978.110107421875 977.869079589844 982.238830566406 987.393005371094 982.398986816406 973.0673828125 965.750366210938 967.174499511719 973.501831054688 980.944274902344 994.432739257812 993.679626464844 991.862731933594 991.216125488281 991.420349121094 999.054504394531 996.590209960938 988.033203125 986.659851074219 989.73876953125 984.207702636719 976.625915527344 965.635192871094 964.735412597656 981.54931640625 985.970581054688 986.895080566406 988.577209472656 990.715881347656 998.874755859375 993.418823242188 1005.08978271484 1001.81427001953 1001.42401123047 999.891540527344 995.227478027344 998.8955078125 1000.33215332031 1002.61688232422 1006.62493896484 1003.04614257812 1010.89392089844 1005.25451660156 1007.64300537109 1015.14270019531 1013.00079345703 1007.54943847656 994.411987304688 999.958557128906 1006.49975585938 1003.37835693359 996.883178710938 996.357971191406 1002.29528808594 1001.98394775391 992.96728515625 992.919006347656 984.150634765625 988.940002441406 997.101440429688 987.382873535156 987.544799804688 981.323364257812 981.574829101562 973.474182128906 981.94091796875 975.796081542969 979.874145507812 989.29345703125 995.4599609375 1004.32141113281 1007.04760742188 1022.21350097656 1020.45330810547 1019.56408691406 1018.50787353516 1020.44854736328 1011.44879150391 1016.61077880859 1012.47131347656 1007.58251953125 1009.55456542969 1008.32934570312 1007.06433105469 1008.6806640625 1015.55145263672 1018.33013916016 1029.65625 1035.77612304688 1054.82189941406 1057.12915039062 1070.048828125 1066.08020019531 1072.96984863281 1084.12231445312 1083.76354980469 1086.57202148438 1100.54028320312 1118.375 1119.39538574219 1117.18444824219
956.346008300781 951.748229980469 961.177612304688 954.179809570312 952.3955078125 956.546691894531 963.571655273438 973.77099609375 967.026916503906 961.347595214844 968.753845214844 974.385314941406 972.606872558594 970.99560546875 976.805114746094 982.117614746094 982.748901367188 980.126770019531 974.102233886719 977.762023925781 985.79541015625 984.814575195312 986.642639160156 971.600219726562 970.056945800781 977.026794433594 974.306091308594 977.315246582031 979.282653808594 976.507873535156 978.911499023438 987.097045898438 982.819641113281 976.972839355469 971.069580078125 977.647766113281 985.993713378906 979.983093261719 974.196228027344 975.199462890625 977.856201171875 976.694091796875 981.943359375 978.751037597656 978.561645507812 977.908142089844 977.612731933594 980.609191894531 981.452514648438 972.135314941406 979.329406738281 983.230163574219 983.044555664062 981.01953125 972.191772460938 974.727722167969 966.443054199219 973.639221191406 982.926879882812 987.845336914062 989.851501464844 992.837341308594 990.239013671875 989.621154785156 989.177124023438 993.847045898438 988.9287109375 981.804992675781 982.321105957031 976.2568359375 974.0830078125 968.857971191406 976.090759277344 980.481323242188 984.977722167969 981.913940429688 987.519592285156 987.763732910156 1000.88323974609 1001.84729003906 998.553161621094 997.342468261719 994.276611328125 995.47900390625 1000.36773681641 1000.45812988281 992.917785644531 1005.18627929688 1012.04565429688 1009.38958740234 1007.23010253906 1017.25103759766 1011.69079589844 1009.84552001953 1008.99731445312 1003.18096923828 995.094543457031 998.697631835938 999.897888183594 988.907653808594 989.670654296875 987.186828613281 994.417602539062 985.865112304688 991.672058105469 995.819946289062 982.276916503906 982.109497070312 993.268859863281 993.997741699219 995.287719726562 984.09521484375 992.9208984375 995.952392578125 987.79052734375 985.272705078125 982.694763183594 993.270812988281 993.665893554688 1004.56610107422 1015.75531005859 1009.63354492188 1008.57916259766 1009.78112792969 1016.90899658203 1018.6044921875 1010.11224365234 1013.01232910156 1007.81909179688 1003.98681640625 1006.62561035156 1009.46936035156 1001.72198486328 1015.83898925781 1016.65704345703 1030.05346679688 1033.89184570312 1047.51770019531 1057.06896972656 1061.32531738281 1077.373046875 1077.38439941406 1080.71594238281 1084.54357910156 1081.66430664062 1085.63146972656 1100.47839355469 1108.11486816406 1121.51586914062 1117.21496582031
946.870300292969 956.230285644531 966.425109863281 954.9091796875 956.955688476562 962.255432128906 960.621948242188 967.634033203125 971.506591796875 964.284790039062 966.638061523438 967.363830566406 970.764892578125 971.873413085938 974.890563964844 986.566223144531 992.009582519531 984.572814941406 975.340637207031 983.272888183594 982.206237792969 984.697448730469 977.552185058594 978.3330078125 978.191284179688 977.211242675781 978.591003417969 981.218688964844 974.649108886719 983.925964355469 980.124084472656 983.92578125 979.8857421875 973.638488769531 974.652465820312 976.140075683594 981.594055175781 976.716674804688 979.38330078125 980.666076660156 974.987426757812 969.577209472656 964.30712890625 969.382385253906 975.895690917969 975.373352050781 974.1533203125 968.278869628906 976.9716796875 975.102783203125 976.464904785156 981.981628417969 980.570129394531 973.537719726562 966.679626464844 965.827392578125 970.453002929688 974.1015625 979.8642578125 984.319641113281 980.111206054688 991.597717285156 986.581970214844 985.349487304688 973.913391113281 987.110900878906 978.1689453125 974.065002441406 988.195007324219 980.567199707031 970.557922363281 972.177734375 987.53076171875 989.379150390625 995.371398925781 990.027709960938 987.065490722656 983.298706054688 991.500061035156 1005.03784179688 997.915893554688 993.378662109375 991.237365722656 982.314758300781 997.319946289062 991.002868652344 996.038208007812 1006.1787109375 1005.68774414062 1006.08428955078 1003.81091308594 1005.73809814453 1008.39471435547 1006.32220458984 1006.75378417969 994.241577148438 1004.48675537109 1003.01684570312 993.700744628906 991.05224609375 985.012329101562 986.021667480469 987.638061523438 994.976806640625 996.405517578125 996.929565429688 992.563354492188 995.353637695312 991.653442382812 991.143615722656 991.931091308594 987.971557617188 1002.46563720703 997.076477050781 994.305053710938 983.51123046875 987.425537109375 999.434265136719 995.140014648438 1005.03009033203 1009.23889160156 1010.01300048828 1010.32672119141 1011.46923828125 1013.41168212891 1008.91979980469 1013.81927490234 1010.16845703125 1003.64813232422 1013.32196044922 1016.5595703125 1014.56787109375 1011.12854003906 1026.63977050781 1030.46875 1032.35229492188 1041.841796875 1046.03601074219 1061.95751953125 1070.0322265625 1070.05615234375 1082.14514160156 1093.44287109375 1092.94482421875 1085.08532714844 1093.52307128906 1101.46398925781 1114.97485351562 1120.65417480469 1123.46203613281
947.461791992188 961.13720703125 966.373229980469 963.672119140625 956.090942382812 961.212707519531 953.726806640625 956.831726074219 961.06591796875 967.290588378906 965.101135253906 967.444885253906 969.718200683594 968.600891113281 969.898986816406 981.415344238281 985.654174804688 971.97802734375 973.766662597656 983.96337890625 984.396179199219 982.559204101562 975.619750976562 976.212280273438 970.777526855469 981.352233886719 977.96875 974.652404785156 977.483642578125 993.332092285156 985.307250976562 983.426025390625 985.63134765625 976.269836425781 984.257019042969 984.234191894531 978.37548828125 978.687316894531 973.997009277344 975.7783203125 975.786804199219 968.678649902344 970.250305175781 976.382873535156 975.180053710938 968.420166015625 965.503540039062 969.033447265625 964.908203125 968.900024414062 980.058898925781 977.401733398438 974.734680175781 976.43408203125 966.418273925781 969.827453613281 960.236877441406 972.655639648438 976.619689941406 986.567321777344 986.766723632812 989.178405761719 988.466918945312 979.254699707031 977.508483886719 982.323181152344 979.141296386719 978.910827636719 972.241271972656 977.365356445312 974.455932617188 973.687194824219 973.735900878906 980.355163574219 990.32421875 992.443603515625 996.990112304688 992.54150390625 995.378051757812 995.036987304688 1001.220703125 992.897338867188 977.410827636719 983.580505371094 990.643005371094 990.817810058594 993.417297363281 999.523559570312 1010.83093261719 1000.54681396484 1000.51226806641 998.729919433594 997.248107910156 998.0791015625 995.554626464844 1002.62109375 1003.93548583984 1003.05480957031 991.779418945312 993.642150878906 1001.85461425781 994.87939453125 987.046936035156 990.086059570312 1002.21905517578 997.00390625 996.967956542969 995.038208007812 988.579895019531 989.991088867188 994.055419921875 990.939819335938 998.715576171875 999.318725585938 994.013610839844 983.5205078125 991.485168457031 995.208679199219 1001.78918457031 1009.38208007812 1013.58312988281 1009.38946533203 1012.81298828125 1009.93768310547 998.536193847656 1003.84680175781 1005.75140380859 1007.05639648438 1006.44177246094 1014.20611572266 1015.85815429688 1013.46752929688 1020.49163818359 1033.66528320312 1028.49487304688 1036.56591796875 1038.97827148438 1051.17541503906 1057.98754882812 1067.0439453125 1081.58288574219 1082.12292480469 1091.93029785156 1092.88256835938 1090.26672363281 1095.83874511719 1106.27746582031 1108.10095214844 1119.92272949219 1120.2353515625
942.799011230469 949.635437011719 952.599731445312 960.857482910156 964.693420410156 972.966369628906 963.0966796875 958.108337402344 958.46044921875 970.195861816406 972.559204101562 972.484741210938 971.2470703125 968.714660644531 970.309753417969 977.52734375 977.642272949219 977.543395996094 980.239624023438 984.562133789062 986.369506835938 977.944030761719 975.475036621094 976.652526855469 972.309265136719 978.23583984375 970.152709960938 973.40283203125 980.792297363281 984.008178710938 981.45654296875 973.098083496094 984.686767578125 980.838134765625 981.742858886719 976.592956542969 976.344116210938 971.152709960938 973.962585449219 974.529663085938 970.055908203125 978.835388183594 973.267822265625 975.422729492188 971.627807617188 971.009704589844 970.248413085938 970.373474121094 964.158996582031 971.666687011719 970.769165039062 969.538696289062 977.557739257812 974.954895019531 972.258117675781 966.981140136719 965.103637695312 975.146057128906 976.833801269531 986.782653808594 981.814453125 984.054443359375 978.741638183594 986.420837402344 970.738586425781 969.095397949219 975.520629882812 975.074829101562 970.738220214844 969.490417480469 968.282897949219 967.072204589844 971.687805175781 975.396240234375 982.87939453125 988.726989746094 995.142944335938 995.918701171875 1002.841796875 1001.30084228516 995.454650878906 991.871459960938 981.379028320312 978.392395019531 979.485290527344 987.151611328125 992.811218261719 1000.63745117188 1005.49645996094 997.493469238281 995.501342773438 989.806762695312 983.894226074219 990.036376953125 987.78125 994.621765136719 998.236083984375 992.941223144531 987.853332519531 998.398620605469 994.902221679688 983.407836914062 985.386962890625 994.709533691406 994.648620605469 1000.04583740234 989.521789550781 986.725341796875 982.173278808594 986.031066894531 989.059936523438 999.06396484375 998.167663574219 988.523986816406 989.043823242188 987.656555175781 993.368896484375 1004.47808837891 999.219360351562 1008.08654785156 1010.67413330078 1018.34899902344 1015.97564697266 1004.65118408203 1003.44903564453 1006.54235839844 1003.43634033203 1008.37707519531 1008.52264404297 1005.34283447266 1008.52142333984 1011.15856933594 1013.92102050781 1028.87182617188 1031.80725097656 1043.29431152344 1048.92700195312 1040.37268066406 1052.16882324219 1069.56774902344 1079.12683105469 1091.46704101562 1091.50866699219 1096.6748046875 1093.40258789062 1104.67700195312 1111.85961914062 1121.04968261719 1129.62145996094 1132.30090332031
949.346008300781 947.898559570312 951.580078125 963.360656738281 962.722534179688 976.550415039062 971.807312011719 960.441955566406 959.421142578125 963.049743652344 972.278991699219 979.244445800781 977.113647460938 974.564514160156 981.610229492188 977.594665527344 973.280090332031 981.681823730469 987.556945800781 984.58837890625 985.695983886719 987.140502929688 978.590393066406 968.626220703125 961.757568359375 963.588012695312 964.954467773438 971.832397460938 978.176330566406 995.859436035156 981.151245117188 978.898803710938 977.667907714844 982.967041015625 975.276062011719 975.541748046875 983.052917480469 975.559753417969 973.217407226562 974.823120117188 973.209411621094 967.459899902344 976.869873046875 979.144714355469 975.406494140625 972.699401855469 968.512634277344 961.692504882812 962.533569335938 969.573181152344 965.734985351562 965.029296875 975.094665527344 970.80224609375 973.100891113281 965.832458496094 960.342468261719 973.150756835938 972.459106445312 981.356140136719 979.554321289062 975.21923828125 979.956420898438 987.418151855469 971.207153320312 975.537902832031 975.9013671875 973.354553222656 962.701416015625 958.718383789062 956.587585449219 957.047668457031 972.155578613281 972.233032226562 982.667907714844 979.222534179688 983.219421386719 982.837646484375 996.690185546875 996.681335449219 994.701843261719 982.9677734375 993.336303710938 983.723510742188 993.67578125 990.075561523438 988.689880371094 992.849548339844 993.760559082031 999.606628417969 991.484924316406 990.741577148438 990.8818359375 981.502136230469 987.477294921875 980.588562011719 991.444580078125 988.114013671875 992.624206542969 990.502685546875 992.116271972656 992.071838378906 986.417663574219 989.963806152344 998.340454101562 1001.45196533203 999.095581054688 984.302551269531 989.424926757812 992.516906738281 991.11865234375 996.839538574219 993.018615722656 985.849365234375 983.732727050781 989.018737792969 993.417358398438 1005.96978759766 1000.01831054688 1008.53930664062 1008.99395751953 1007.28344726562 1006.72717285156 1006.02838134766 1006.04406738281 1012.67138671875 1014.12097167969 1017.92980957031 1009.89599609375 1008.59655761719 1010.1513671875 1009.07434082031 1010.91497802734 1022.84619140625 1030.10314941406 1046.01110839844 1049.68762207031 1051.01452636719 1053.09033203125 1066.75732421875 1078.8916015625 1088.0498046875 1094.66784667969 1086.03552246094 1096.94213867188 1110.423828125 1126.84497070312 1132.33447265625 1130.68505859375 1140.36560058594
945.535583496094 947.040161132812 950.69091796875 956.937744140625 970.55810546875 972.209594726562 963.60400390625 960.023681640625 956.941711425781 966.334777832031 973.601379394531 972.230285644531 969.173645019531 974.986022949219 982.880493164062 975.52197265625 975.151245117188 986.794006347656 989.330749511719 989.903930664062 981.149047851562 982.853942871094 979.851135253906 969.440063476562 965.460693359375 951.723693847656 962.961975097656 969.700012207031 980.8095703125 978.997436523438 984.8505859375 975.40673828125 979.557800292969 975.046569824219 975.33544921875 978.631225585938 975.223815917969 979.935424804688 968.183227539062 977.8447265625 967.467712402344 962.990539550781 968.348449707031 972.714050292969 969.340637207031 959.877868652344 958.349853515625 959.486328125 965.053894042969 969.816955566406 964.259765625 969.35107421875 974.692077636719 970.780334472656 976.416931152344 972.56103515625 961.216857910156 966.685791015625 969.131713867188 973.087097167969 971.73974609375 977.413879394531 971.101501464844 971.490234375 978.575988769531 975.690307617188 972.404541015625 967.614013671875 966.982238769531 964.172729492188 960.452514648438 967.256652832031 972.172790527344 971.695068359375 975.580932617188 974.865173339844 972.574951171875 988.568603515625 987.103698730469 987.395751953125 990.603881835938 986.720642089844 989.544921875 993.462707519531 986.878479003906 983.641723632812 981.041625976562 990.760925292969 990.510986328125 990.571960449219 990.020141601562 989.577392578125 994.806640625 987.445983886719 989.985595703125 986.645141601562 986.005126953125 985.622924804688 991.844665527344 998.154235839844 988.630310058594 991.225036621094 987.065185546875 990.752380371094 992.384582519531 988.394653320312 985.919738769531 978.36181640625 986.690002441406 989.177612304688 990.387634277344 983.227111816406 990.7421875 994.105224609375 985.21435546875 988.073669433594 985.611633300781 999.405029296875 1001.4833984375 1003.16687011719 997.307250976562 999.389465332031 1002.21978759766 997.440856933594 1014.27703857422 1018.90075683594 1022.33557128906 1016.86553955078 1019.57690429688 1020.04406738281 1021.73455810547 1020.42932128906 1013.65795898438 1022.15069580078 1034.23937988281 1046.71179199219 1052.88232421875 1059.2314453125 1065.80651855469 1069.19140625 1071.32592773438 1089.248046875 1099.15490722656 1099.77612304688 1100.94519042969 1124.509765625 1133.53112792969 1138.62194824219 1143.47998046875 1148.89416503906
944.674621582031 947.07763671875 953.498962402344 953.414733886719 961.341735839844 961.8056640625 958.711975097656 959.665771484375 958.352172851562 964.336975097656 964.898254394531 974.566040039062 971.653381347656 986.19140625 981.330810546875 979.821350097656 975.407592773438 979.917785644531 980.801147460938 983.557495117188 979.952087402344 982.671447753906 977.956726074219 969.727661132812 969.189147949219 965.366088867188 968.033325195312 974.880615234375 979.466369628906 978.0361328125 977.804016113281 977.387451171875 974.934387207031 983.308532714844 985.047912597656 982.734924316406 974.329772949219 978.477478027344 976.100036621094 982.533447265625 978.024841308594 970.22705078125 968.246276855469 965.460876464844 964.649475097656 961.595886230469 952.298828125 955.879333496094 962.979370117188 972.222229003906 965.778442382812 966.98291015625 969.194091796875 970.518798828125 979.6435546875 975.4775390625 972.632019042969 976.022705078125 978.255859375 973.8984375 972.85595703125 974.234741210938 970.767944335938 974.61279296875 971.664733886719 969.217224121094 972.290954589844 970.386413574219 967.563354492188 970.456176757812 965.935607910156 973.33349609375 972.920715332031 969.031799316406 967.988037109375 971.251892089844 972.299194335938 979.554992675781 980.167602539062 982.064025878906 985.390014648438 988.667419433594 989.923645019531 988.309631347656 984.096740722656 988.078979492188 987.911376953125 986.133422851562 986.760559082031 981.599975585938 986.111389160156 987.146667480469 996.176452636719 990.377075195312 992.320678710938 980.354064941406 980.408996582031 985.179870605469 990.194458007812 999.33447265625 989.39599609375 989.735656738281 990.882873535156 986.49609375 983.15380859375 987.458862304688 978.434631347656 978.500793457031 983.880310058594 994.619567871094 987.178771972656 985.650329589844 984.945434570312 985.659851074219 987.967224121094 989.136596679688 999.019653320312 991.001892089844 992.723937988281 997.942504882812 993.205139160156 993.846984863281 993.163391113281 1001.18743896484 1002.18188476562 1016.64453125 1026.36499023438 1016.6787109375 1023.84912109375 1031.95056152344 1028.32751464844 1026.541015625 1034.10754394531 1030.38708496094 1035.85278320312 1046.66394042969 1050.21789550781 1060.04968261719 1069.70068359375 1066.10046386719 1073.75476074219 1085.31274414062 1102.98742675781 1106.18994140625 1109.21301269531 1132.61743164062 1141.99047851562 1149.61853027344 1158.84704589844 1164.31018066406
942.128234863281 942.943176269531 941.191833496094 961.08203125 955.896301269531 954.752380371094 960.152282714844 963.936950683594 959.708618164062 957.020568847656 964.054992675781 971.392333984375 975.48388671875 974.487243652344 975.051879882812 978.981750488281 980.202758789062 970.687683105469 973.645751953125 979.232421875 971.200134277344 977.594543457031 979.596374511719 974.731323242188 978.633056640625 972.181396484375 969.923706054688 977.552368164062 975.969055175781 979.523254394531 978.182312011719 980.253662109375 978.533325195312 978.098754882812 977.797973632812 973.487060546875 978.837158203125 971.225830078125 974.251342773438 982.328002929688 984.312744140625 969.612548828125 968.072692871094 960.58642578125 965.239868164062 960.933288574219 965.227844238281 964.675903320312 961.851989746094 960.191467285156 961.015014648438 969.149963378906 972.328125 965.484741210938 967.5 966.749755859375 964.930358886719 966.269226074219 975.913269042969 973.994079589844 976.952819824219 976.675537109375 978.512939453125 977.705444335938 986.756713867188 968.647766113281 975.124938964844 972.943054199219 969.255432128906 969.588989257812 958.162536621094 962.156921386719 967.968383789062 966.969604492188 963.567016601562 964.964294433594 961.279602050781 971.487426757812 973.779479980469 977.3154296875 976.391418457031 985.301330566406 975.097595214844 989.589050292969 986.191345214844 985.385803222656 981.730651855469 981.851013183594 985.285583496094 978.865051269531 984.375183105469 990.312805175781 989.953674316406 989.061401367188 986.604248046875 976.568115234375 975.617431640625 982.723022460938 987.006591796875 989.733337402344 995.316772460938 992.504211425781 989.002258300781 989.52587890625 989.292297363281 984.3251953125 980.998168945312 983.753845214844 983.01953125 988.060424804688 985.25341796875 989.070495605469 990.4677734375 991.314697265625 987.455871582031 997.94140625 1007.50390625 995.766845703125 992.772277832031 995.893676757812 1001.40460205078 999.425842285156 1001.61444091797 1004.11889648438 1004.46533203125 1014.99938964844 1023.97503662109 1025.00415039062 1030.4482421875 1035.12829589844 1028.28161621094 1022.90826416016 1031.93811035156 1041.986328125 1038.23718261719 1045.27673339844 1057.32556152344 1060.79064941406 1071.53674316406 1079.17736816406 1084.30126953125 1089.33801269531 1108.59948730469 1111.51477050781 1119.48278808594 1133.70324707031 1145.92260742188 1160.80847167969 1166.20617675781 1168.41296386719
950.233642578125 941.480407714844 941.961608886719 950.466430664062 953.830871582031 955.536926269531 957.115783691406 953.540405273438 959.884704589844 963.962158203125 962.625793457031 973.515625 969.345886230469 969.523620605469 967.1337890625 966.632507324219 971.79443359375 978.075622558594 979.400695800781 976.903503417969 977.181335449219 980.900512695312 985.042724609375 973.4970703125 969.929504394531 973.06103515625 972.743103027344 970.789916992188 969.684143066406 983.817199707031 978.839172363281 977.531982421875 975.050903320312 973.313598632812 976.86669921875 972.256042480469 974.830871582031 967.852416992188 971.9560546875 977.23974609375 975.242492675781 969.994140625 965.542114257812 965.890502929688 963.599731445312 967.720947265625 969.024841308594 967.135925292969 966.069213867188 965.17236328125 962.243896484375 969.421630859375 973.209045410156 964.916748046875 954.921997070312 950.210632324219 965.174438476562 964.87060546875 974.087890625 974.025390625 975.459228515625 981.953430175781 973.831237792969 978.003295898438 973.622924804688 973.469482421875 972.720458984375 973.441162109375 964.124267578125 961.472290039062 955.990478515625 968.313354492188 966.679748535156 967.994934082031 962.221923828125 971.83447265625 967.820678710938 973.580200195312 973.293701171875 974.90283203125 974.140197753906 978.519409179688 970.046020507812 982.629638671875 980.708679199219 983.099060058594 987.202331542969 984.00341796875 976.526000976562 973.270935058594 972.766235351562 977.687805175781 983.765380859375 987.557312011719 985.532775878906 985.634582519531 978.701904296875 977.557067871094 987.1611328125 989.038330078125 989.601318359375 987.524475097656 984.381958007812 991.287109375 983.122680664062 979.657409667969 984.442626953125 984.089538574219 986.992126464844 987.158020019531 984.494201660156 995.567504882812 994.116088867188 995.534912109375 992.969299316406 998.529724121094 994.679870605469 995.171081542969 1007.34063720703 998.776306152344 997.227600097656 1002.60485839844 995.120483398438 1004.06793212891 1017.97119140625 1023.98455810547 1030.55554199219 1023.73095703125 1037.39306640625 1039.75476074219 1039.16564941406 1033.068359375 1041.89880371094 1043.92346191406 1053.69580078125 1043.08190917969 1056.74157714844 1072.31494140625 1076.24816894531 1088.17724609375 1098.49597167969 1097.41442871094 1115.16479492188 1121.2841796875 1130.27587890625 1140.89990234375 1154.44848632812 1164.39245605469 1173.79748535156 1164.58764648438
