ncols 150
nrows 79
xllcorner 7394249
yllcorner 4842179
cellsize 30.00
nodata_value  1174.6
979.10  984.10  986.80  984.40  980.00  981.90  985.50  987.40  982.90  976.70  974.10  969.40  969.80  974.90  981.80  987.50  990.40  989.20  987.10  993.90  997.90  998.90  993.10  987.20  985.00  988.00  998.00  1003.8  1008.5  1013.2  1017.9  1022.1  1026.0  1028.9  1031.7  1034.2  1036.3  1038.5  1040.5  1041.7  1041.1  1040.4  1037.5  1029.7  1024.2  1021.4  1017.8  1013.8  1010.4  1008.7  1006.7  1005.8  1004.8  1005.0  1006.2  1008.6  1010.8  1013.4  1016.2  1018.7  1021.1  1023.3  1025.2  1025.6  1023.6  1021.4  1015.5  1003.4  996.80  995.80  996.80  1001.9  1010.8  1022.7  1025.7  1026.3  1025.7  1025.2  1024.0  1023.9  1025.5  1027.2  1028.9  1027.6  1026.2  1023.3  1016.1  996.40  984.60  971.40  956.60  942.80  941.30  947.30  948.80  954.50  966.90  978.90  980.10  970.40  950.20  935.70  922.00  931.00  942.60  957.10  967.70  974.00  975.20  972.00  966.90  963.10  961.50  957.50  950.30  933.30  917.10  910.00  922.50  937.40  950.40  961.00  966.90  969.50  969.90  969.30  969.20  971.90  980.70  994.50  1008.6  1020.7  1034.1  1047.1  1053.6  1058.2  1065.1  1072.7  1079.7  1085.6  1092.2  1097.9  1101.1  1098.9  1088.3  1084.9  1092.8  1101.4  1107.7  1110.0
977.80  982.30  984.10  979.80  975.40  980.20  984.20  985.00  985.10  982.20  976.40  968.50  965.00  971.30  976.50  980.90  983.70  980.80  985.70  991.60  995.00  992.10  986.30  980.00  983.30  994.30  1001.9  1007.0  1011.7  1015.8  1019.5  1023.5  1026.7  1029.2  1031.3  1033.4  1035.8  1038.2  1040.8  1042.5  1042.7  1041.9  1040.3  1035.7  1030.7  1025.8  1019.4  1014.3  1011.2  1007.2  1005.0  1003.5  1002.8  1002.9  1004.2  1006.5  1008.8  1011.9  1014.9  1017.6  1020.7  1023.3  1025.4  1025.7  1025.0  1024.3  1021.3  1016.4  1011.3  1006.6  1006.3  1010.1  1016.8  1022.8  1025.0  1024.7  1023.4  1021.7  1020.9  1021.3  1023.7  1026.0  1027.7  1028.5  1026.7  1024.4  1014.5  997.40  985.30  969.60  956.00  949.10  956.70  962.30  962.70  967.50  978.20  988.80  986.90  976.30  956.20  941.40  930.00  938.70  952.10  966.00  975.40  980.90  981.30  977.40  972.60  968.00  963.40  957.40  947.50  933.60  918.40  915.00  920.90  935.50  950.00  961.40  970.70  975.50  977.80  978.40  978.40  979.30  983.70  994.50  1007.1  1019.7  1033.6  1049.5  1056.2  1062.5  1069.9  1074.1  1079.3  1084.4  1090.9  1095.5  1097.4  1093.9  1084.4  1081.5  1090.3  1099.1  1104.2  1105.1
975.60  978.70  977.90  973.40  970.20  974.20  981.60  985.00  985.90  985.30  978.60  969.70  965.00  964.60  970.60  974.60  974.40  978.00  985.80  990.00  991.70  986.70  980.40  980.00  988.60  999.00  1004.4  1009.4  1013.3  1016.7  1019.7  1023.2  1026.0  1028.0  1029.3  1031.1  1033.2  1036.1  1039.4  1041.3  1042.7  1042.8  1041.0  1038.1  1033.4  1027.1  1020.9  1014.8  1010.5  1006.9  1003.7  1001.7  1000.7  1000.7  1002.2  1004.4  1007.0  1010.0  1012.9  1016.1  1019.8  1022.4  1025.0  1025.0  1025.0  1025.5  1023.9  1022.4  1020.8  1020.0  1018.6  1020.5  1021.0  1020.9  1023.2  1022.0  1019.9  1019.0  1018.1  1018.5  1021.1  1024.0  1026.0  1026.5  1025.9  1022.4  1013.9  1001.2  984.10  967.90  959.70  965.80  976.00  978.70  976.50  981.40  990.50  996.30  990.80  978.40  958.80  945.00  938.20  949.60  964.20  975.40  984.40  988.30  985.90  980.40  974.90  970.10  962.80  954.00  945.40  930.60  915.20  915.00  922.50  935.80  947.70  961.60  973.20  986.30  991.30  994.60  994.90  992.60  992.20  997.70  1007.5  1019.2  1034.2  1050.1  1058.0  1065.2  1070.5  1073.5  1077.8  1082.8  1088.2  1092.1  1093.7  1090.4  1079.3  1079.5  1088.4  1096.4  1100.1  1097.8
972.50  975.00  972.10  967.70  967.00  972.20  979.10  984.30  985.20  983.80  980.20  971.10  962.40  960.40  963.90  968.50  973.00  980.80  985.90  989.20  987.10  981.20  975.80  981.80  992.80  1000.8  1005.8  1009.9  1013.1  1016.0  1018.8  1021.8  1024.2  1025.6  1025.8  1026.1  1027.4  1032.4  1036.5  1040.2  1041.8  1042.0  1040.9  1037.6  1032.1  1024.7  1019.0  1014.8  1010.7  1007.1  1003.7  1000.4  999.20  998.70  1000.2  1002.1  1004.1  1007.6  1011.1  1014.8  1018.6  1021.4  1023.8  1025.3  1025.9  1026.4  1026.0  1025.4  1024.5  1023.0  1022.2  1022.9  1022.4  1020.0  1021.1  1019.7  1017.9  1016.9  1016.1  1015.7  1018.2  1020.4  1022.6  1023.4  1022.0  1018.4  1010.1  999.20  978.70  967.70  971.60  978.60  984.60  989.50  991.10  994.00  1001.2  1003.4  994.10  980.60  962.60  948.30  947.30  963.00  976.60  986.60  991.40  993.30  988.00  980.90  974.80  969.30  957.10  946.70  936.30  922.40  915.00  916.20  926.40  935.90  947.80  961.60  974.70  990.50  1000.0  1003.1  1005.6  1005.9  1003.4  1004.2  1009.8  1019.6  1033.0  1050.8  1060.2  1065.5  1068.1  1070.8  1074.6  1079.7  1085.0  1088.2  1088.5  1083.3  1075.0  1078.5  1087.1  1093.4  1094.3  1089.9
968.80  970.20  967.00  962.50  963.70  968.80  975.00  979.10  979.70  978.70  976.20  969.60  959.50  958.70  963.30  968.70  975.50  980.00  983.00  984.90  981.80  975.40  975.00  985.90  994.00  1001.2  1005.7  1009.2  1012.1  1013.9  1016.8  1019.6  1021.2  1021.7  1020.6  1019.2  1023.1  1028.4  1034.4  1038.5  1040.6  1040.8  1040.1  1036.2  1030.7  1019.2  1013.0  1008.7  1008.0  1006.7  1003.7  1000.3  997.10  995.90  997.50  999.60  1002.5  1006.5  1010.3  1014.2  1017.5  1020.0  1022.1  1023.7  1025.2  1025.8  1026.5  1026.7  1025.8  1025.0  1024.7  1024.3  1021.4  1020.1  1018.4  1017.3  1015.8  1014.7  1013.9  1013.6  1015.2  1017.0  1018.4  1018.9  1016.8  1012.2  1003.8  993.20  974.50  973.80  980.80  988.80  999.30  1003.5  1005.7  1008.7  1013.7  1012.7  999.60  983.90  968.00  951.00  959.20  975.20  989.10  996.00  998.20  995.50  988.40  980.20  972.40  962.90  951.20  938.90  928.30  917.90  919.30  922.90  931.00  938.20  948.70  961.60  975.60  992.20  1002.5  1009.1  1015.1  1017.7  1016.7  1016.2  1016.2  1020.2  1033.7  1051.2  1059.8  1063.2  1064.1  1066.3  1070.8  1075.7  1080.5  1083.8  1082.2  1074.5  1071.2  1079.0  1084.7  1089.6  1088.4  1084.3
965.00  965.30  963.70  958.80  959.20  964.40  970.00  971.50  970.90  968.90  968.00  964.40  958.20  958.20  963.60  968.30  972.20  973.60  974.90  976.50  974.60  975.00  979.10  988.30  994.40  1000.2  1004.2  1007.1  1009.6  1011.1  1014.5  1015.6  1017.2  1017.4  1015.4  1016.1  1022.9  1027.6  1032.4  1036.5  1038.8  1039.1  1037.2  1033.7  1028.8  1022.4  1015.5  1006.3  1005.0  1005.0  1002.8  1000.0  996.10  994.20  995.00  998.40  1002.1  1006.0  1009.6  1013.2  1015.9  1018.0  1019.8  1021.3  1023.5  1025.3  1025.9  1026.1  1025.6  1025.0  1024.9  1022.3  1019.6  1017.1  1015.0  1014.3  1013.7  1012.1  1011.5  1010.7  1011.8  1013.4  1015.1  1015.7  1013.7  1010.3  1000.3  989.50  979.40  984.40  991.00  1002.4  1010.6  1015.2  1019.2  1020.8  1020.6  1017.9  1011.3  992.20  976.40  960.00  971.60  987.80  998.60  1004.2  1003.9  997.30  988.10  978.70  968.70  959.50  949.00  933.30  922.30  921.00  928.50  935.30  942.70  947.10  952.50  962.70  974.90  991.90  1004.7  1014.9  1021.2  1023.8  1025.2  1026.7  1027.7  1027.1  1036.0  1050.0  1057.6  1059.6  1057.9  1062.8  1067.9  1072.6  1076.5  1078.7  1074.7  1070.2  1071.8  1079.6  1083.1  1085.3  1083.5  1080.6
958.10  959.10  958.70  954.50  955.10  958.60  961.30  961.60  960.80  961.00  961.50  958.70  955.00  957.90  962.20  964.30  964.60  967.10  968.80  969.50  970.00  974.20  985.40  990.50  994.20  997.40  1000.1  1003.3  1006.1  1008.1  1010.7  1012.0  1012.8  1012.3  1010.2  1017.4  1022.0  1026.0  1029.6  1033.9  1035.7  1035.5  1033.5  1030.1  1026.0  1021.3  1015.8  1007.1  1003.0  1001.8  1001.6  998.80  995.30  990.60  994.50  998.20  1001.6  1005.0  1008.8  1011.9  1014.0  1015.2  1016.8  1019.2  1021.7  1023.9  1024.6  1025.0  1024.9  1024.2  1022.5  1020.2  1017.7  1014.8  1012.8  1011.7  1011.1  1009.8  1009.0  1008.0  1008.5  1010.3  1012.1  1013.2  1012.9  1010.3  1005.9  1000.1  994.50  996.70  1004.5  1013.5  1020.3  1023.5  1025.2  1025.4  1024.2  1021.2  1016.7  1004.4  987.40  974.40  981.70  996.40  1004.3  1005.0  1005.0  1000.8  987.70  976.50  964.10  953.50  944.40  931.50  925.00  929.00  938.70  947.30  959.30  968.40  971.60  969.90  977.00  991.60  1006.2  1019.3  1025.9  1028.9  1030.9  1034.3  1038.4  1037.0  1041.9  1052.1  1055.0  1055.5  1053.6  1059.8  1065.6  1069.8  1072.5  1072.5  1068.3  1063.5  1071.1  1077.9  1080.9  1081.5  1080.1  1076.9
951.80  951.50  952.00  950.10  949.60  951.90  951.50  953.00  953.90  953.80  954.30  954.80  955.00  955.90  958.00  958.70  959.80  961.40  965.00  966.10  970.00  979.80  986.40  990.00  990.70  991.90  994.90  998.60  1002.1  1005.1  1007.3  1008.2  1007.3  1007.1  1011.7  1016.6  1020.4  1023.9  1027.5  1030.7  1031.5  1030.7  1029.2  1026.3  1023.0  1018.7  1014.1  1008.2  1002.3  999.20  999.80  997.40  993.50  990.00  993.90  997.50  1000.8  1004.2  1007.8  1010.5  1011.6  1012.9  1015.4  1017.9  1020.3  1021.8  1022.2  1022.6  1022.1  1021.1  1020.0  1017.5  1015.3  1012.8  1010.7  1009.4  1008.3  1007.6  1006.6  1005.2  1005.9  1007.7  1009.4  1010.8  1011.5  1010.3  1008.6  1006.8  1007.0  1007.8  1014.1  1019.1  1024.7  1026.5  1028.0  1027.7  1025.7  1023.0  1019.6  1014.0  1001.0  987.80  990.70  1001.4  1005.0  1006.9  1006.3  1002.4  987.70  974.60  961.10  950.20  940.50  932.60  928.10  935.30  945.00  959.30  974.90  982.70  986.50  986.50  986.60  994.30  1009.2  1021.0  1029.9  1033.5  1036.0  1039.3  1042.9  1045.4  1048.2  1052.4  1055.0  1049.9  1050.8  1057.6  1062.6  1066.3  1068.1  1067.2  1062.3  1060.0  1068.0  1073.9  1075.4  1077.9  1074.7  1070.1
946.30  945.60  946.40  946.60  945.60  945.30  947.20  947.80  950.00  950.00  950.00  951.30  953.40  955.00  955.00  956.80  959.80  960.00  963.60  968.70  973.00  977.90  984.10  987.40  985.60  987.40  991.70  995.90  998.80  1001.3  1003.9  1004.0  1003.8  1005.7  1010.6  1014.5  1018.1  1021.2  1024.2  1025.6  1025.9  1025.4  1023.9  1021.8  1018.8  1014.7  1011.2  1006.6  1001.0  995.00  996.70  995.60  990.30  989.60  992.10  995.50  999.40  1003.4  1006.6  1008.4  1009.1  1011.0  1014.0  1016.8  1018.7  1019.5  1019.9  1020.2  1019.7  1019.0  1017.4  1015.1  1013.1  1010.9  1008.3  1007.2  1005.9  1005.1  1004.3  1002.7  1003.3  1005.3  1007.0  1008.3  1009.7  1010.0  1010.0  1010.0  1011.9  1014.7  1018.7  1023.1  1025.0  1025.7  1026.9  1027.1  1025.6  1023.3  1020.6  1016.3  1007.7  999.30  997.80  1005.0  1005.5  1009.3  1008.3  1005.0  994.20  980.30  963.20  953.10  943.30  933.80  930.00  941.50  954.70  969.90  982.00  990.90  996.20  1000.0  1000.7  1003.9  1011.0  1023.0  1032.2  1036.2  1038.7  1041.5  1044.9  1047.8  1050.5  1052.0  1051.0  1045.0  1049.1  1055.5  1060.5  1063.2  1063.3  1061.1  1056.8  1055.6  1063.2  1067.7  1067.5  1066.6  1067.0  1065.0
945.00  945.00  943.80  945.00  945.00  945.00  948.00  949.40  950.00  950.80  951.60  955.50  956.60  959.20  958.70  959.90  962.40  965.50  965.00  968.40  970.00  972.00  975.00  979.50  981.00  984.70  988.70  993.50  996.80  999.10  1000.7  1000.0  1001.5  1005.9  1008.7  1012.0  1015.0  1017.6  1019.7  1020.1  1019.9  1020.0  1018.8  1016.9  1014.0  1011.8  1008.4  1003.6  998.10  994.10  993.60  993.60  987.40  986.40  991.00  994.80  999.40  1002.6  1004.8  1005.9  1006.8  1009.6  1013.1  1015.8  1016.9  1017.2  1017.5  1017.6  1017.1  1016.0  1014.5  1012.7  1011.0  1008.9  1006.3  1005.0  1003.4  1002.5  1002.1  1000.4  1000.6  1002.9  1004.4  1005.8  1007.5  1009.9  1010.0  1010.7  1014.2  1016.8  1020.6  1025.0  1025.0  1025.0  1025.4  1026.1  1024.4  1021.6  1019.5  1016.4  1011.9  1004.4  1004.1  1005.0  1007.2  1011.5  1010.2  1005.6  1002.4  986.90  967.70  955.30  943.50  934.60  937.00  950.00  963.90  978.10  987.70  996.00  1003.6  1007.6  1010.7  1014.0  1018.5  1026.5  1033.1  1036.8  1039.3  1042.3  1045.4  1047.9  1049.8  1050.3  1046.2  1041.5  1047.5  1053.0  1058.0  1060.0  1058.3  1055.4  1050.2  1052.6  1058.9  1060.8  1059.5  1058.6  1059.7  1065.1
945.00  945.00  944.50  945.80  951.40  956.20  956.60  957.00  958.70  955.70  958.10  962.90  967.40  968.50  965.70  965.90  965.00  970.00  971.30  971.80  973.00  974.00  975.00  976.20  979.60  985.10  988.20  991.70  995.30  997.00  997.70  998.00  1000.9  1003.1  1005.6  1008.9  1011.5  1012.8  1013.3  1014.1  1014.1  1014.2  1013.6  1012.4  1010.3  1007.6  1004.0  999.00  995.00  991.90  990.00  990.40  986.00  985.00  990.30  994.60  998.20  1000.5  1002.2  1003.1  1004.7  1008.5  1011.9  1014.1  1014.5  1014.8  1015.1  1015.0  1014.4  1013.1  1011.4  1009.9  1008.3  1006.4  1004.0  1002.2  1000.6  1000.2  1000.1  999.30  999.00  1000.2  1001.3  1003.4  1005.4  1008.3  1010.0  1011.6  1015.1  1018.6  1022.0  1025.0  1025.0  1025.0  1025.0  1025.1  1021.6  1019.0  1017.1  1014.6  1012.0  1008.8  1004.4  1005.0  1007.5  1009.3  1009.4  1006.0  1004.4  989.40  970.50  957.60  943.10  936.10  944.00  957.60  971.30  982.70  992.00  999.60  1007.7  1013.1  1017.5  1021.0  1023.9  1028.1  1032.6  1035.5  1038.3  1042.2  1045.1  1047.2  1047.4  1046.8  1040.9  1039.5  1045.6  1050.5  1055.1  1055.3  1053.5  1052.0  1048.4  1048.4  1054.0  1054.2  1053.1  1054.6  1060.0  1071.3
945.00  945.00  949.10  955.00  958.60  960.00  961.90  962.20  963.00  961.70  965.70  967.20  971.50  972.80  972.30  973.00  967.20  967.80  974.10  976.40  978.40  980.50  980.40  980.00  980.90  985.00  988.60  990.90  993.10  994.50  994.90  995.00  998.20  999.50  1002.0  1004.1  1005.7  1005.6  1005.7  1007.3  1008.3  1008.6  1008.4  1008.0  1006.0  1003.4  1000.6  994.40  992.20  991.00  989.30  985.00  983.60  984.20  989.50  993.40  996.30  997.60  999.30  1000.1  1002.2  1007.3  1010.6  1011.9  1011.2  1010.7  1011.5  1011.8  1011.4  1010.1  1008.3  1006.4  1005.3  1004.1  1001.6  999.80  998.50  998.60  998.20  996.70  995.90  997.60  998.90  1001.1  1003.5  1006.2  1009.1  1012.5  1016.1  1019.8  1023.1  1025.0  1025.0  1025.0  1025.0  1023.4  1019.8  1016.9  1014.8  1013.3  1011.8  1009.8  1005.5  1004.4  1006.2  1007.7  1007.6  1005.7  1003.4  991.10  972.70  959.60  945.30  940.00  950.80  962.50  976.70  987.40  995.40  1003.8  1011.4  1016.9  1020.6  1023.0  1025.0  1027.3  1029.5  1032.9  1037.4  1041.2  1043.8  1045.1  1044.9  1042.9  1037.9  1037.1  1044.3  1048.4  1051.0  1050.8  1048.5  1048.2  1045.4  1043.3  1047.5  1047.6  1048.4  1053.1  1067.0  1075.0
945.00  945.00  949.50  953.50  959.00  960.00  962.10  963.00  964.10  965.80  968.30  971.50  974.90  976.20  976.40  975.80  975.00  970.00  973.70  978.40  980.50  982.60  983.70  985.00  983.70  985.00  988.50  990.20  990.00  990.30  991.50  992.80  994.60  995.30  998.10  999.90  1001.3  1000.7  1000.6  1001.1  1002.1  1002.7  1003.4  1003.2  1002.0  1000.2  997.40  991.50  990.10  990.20  989.00  985.10  982.10  983.90  989.10  992.60  993.60  994.20  995.90  997.30  999.60  1005.3  1008.3  1009.2  1007.7  1006.1  1007.9  1008.5  1008.2  1006.8  1005.0  1003.7  1002.5  1001.8  999.80  998.10  996.70  996.00  995.80  994.60  994.40  995.10  997.00  999.90  1002.9  1006.2  1010.0  1013.7  1016.8  1020.3  1022.8  1025.0  1025.0  1025.0  1023.8  1021.1  1018.1  1015.0  1013.0  1011.7  1010.4  1009.1  1006.6  1004.6  1005.0  1005.9  1005.8  1005.0  1001.6  988.50  973.00  960.90  949.50  941.20  954.70  966.70  979.90  991.20  1000.4  1008.0  1014.7  1019.2  1021.9  1022.3  1021.7  1022.8  1027.6  1032.5  1036.7  1040.0  1041.4  1042.0  1040.9  1037.8  1032.4  1037.4  1043.2  1046.1  1047.4  1046.2  1044.0  1044.6  1042.1  1040.0  1042.1  1043.2  1050.7  1062.7  1069.8  1075.0
946.80  945.80  947.80  950.00  954.20  956.40  960.00  960.00  963.20  965.10  968.70  972.50  975.60  977.60  977.20  976.30  975.30  971.60  973.00  975.00  978.50  980.60  984.00  985.00  985.30  986.20  988.90  989.70  988.20  988.10  989.00  990.00  991.00  993.00  994.40  996.10  996.80  995.90  993.80  992.40  993.80  996.40  998.60  998.00  997.70  996.80  995.70  992.20  989.00  987.30  987.10  984.00  980.20  982.80  988.20  990.50  990.70  991.20  993.00  996.10  999.50  1003.0  1004.9  1005.0  1003.8  1003.1  1004.6  1006.0  1005.6  1003.9  1002.4  1001.4  1000.1  999.30  998.30  996.50  994.90  994.50  994.50  992.60  992.10  993.80  996.80  1000.0  1003.1  1006.5  1011.1  1015.1  1017.6  1020.0  1022.2  1023.5  1023.3  1022.9  1022.2  1020.1  1016.3  1013.6  1011.5  1009.9  1008.7  1007.9  1006.8  1004.7  1005.0  1005.0  1005.0  1005.0  999.90  987.20  973.90  962.30  950.70  946.20  957.00  970.00  982.40  993.60  1003.2  1010.3  1016.0  1019.2  1020.4  1019.8  1015.6  1021.5  1028.1  1032.4  1035.9  1038.7  1040.0  1038.4  1036.1  1033.3  1030.0  1037.0  1041.2  1043.1  1043.6  1041.0  1039.7  1040.3  1037.0  1036.0  1038.9  1044.1  1051.3  1060.0  1066.3  1070.7
952.10  953.00  955.70  956.10  956.20  958.30  960.20  963.30  965.90  966.70  970.30  973.20  975.60  976.30  976.90  976.50  975.30  975.00  976.10  976.00  977.20  980.70  983.30  985.70  986.90  988.20  989.00  987.70  986.00  986.00  987.50  987.70  989.40  990.80  991.90  993.40  993.50  992.20  990.00  988.30  988.50  990.00  992.50  993.80  992.90  992.50  993.00  991.20  987.90  985.00  984.70  982.00  980.00  981.50  986.50  988.30  988.10  989.00  990.50  993.90  997.00  999.50  1000.7  1000.5  999.40  1000.5  1001.9  1003.4  1002.9  1001.4  999.60  998.70  997.40  996.70  996.50  994.80  993.00  992.10  991.60  990.00  990.30  993.40  996.70  1000.1  1003.9  1007.5  1011.7  1015.4  1017.5  1019.5  1020.8  1021.4  1020.7  1020.5  1020.2  1018.6  1015.3  1012.4  1009.8  1008.0  1006.9  1006.4  1005.5  1004.5  1004.3  1005.0  1005.0  1003.8  997.90  990.90  978.40  964.90  952.10  945.90  957.90  971.40  983.90  994.10  1002.2  1008.2  1014.1  1016.5  1015.4  1009.9  1015.5  1022.7  1027.8  1031.2  1034.3  1036.5  1037.0  1035.5  1032.0  1028.7  1029.1  1036.2  1038.2  1039.1  1038.3  1036.4  1035.1  1034.2  1035.0  1035.5  1039.6  1044.6  1049.0  1055.6  1061.7  1069.3
956.90  959.20  962.50  964.70  965.40  963.20  960.00  965.00  967.80  970.50  972.20  974.60  975.40  975.00  975.70  976.00  976.30  977.80  980.10  980.70  982.10  984.10  985.20  985.40  986.80  988.20  987.80  986.00  985.00  985.20  985.70  985.40  987.60  989.40  990.00  991.20  991.20  990.00  988.50  985.40  986.40  988.90  990.20  991.70  990.30  990.00  990.40  990.70  989.30  985.40  982.90  980.00  978.90  979.60  983.70  985.10  985.50  987.00  988.20  991.10  993.50  995.30  996.40  996.10  995.40  997.60  999.40  1000.6  1000.2  998.80  997.20  995.60  994.50  994.70  994.50  992.90  991.20  990.00  990.00  990.00  990.00  993.50  996.80  999.90  1004.8  1008.4  1011.9  1015.0  1016.7  1018.0  1018.8  1018.9  1018.7  1018.7  1018.6  1017.0  1014.2  1011.7  1009.2  1006.9  1005.0  1004.5  1003.6  1002.3  1002.4  1003.6  1003.5  1000.6  995.50  990.10  981.30  966.80  953.40  944.00  957.80  971.10  982.50  991.00  996.70  1004.0  1010.2  1010.0  1005.4  1007.0  1017.9  1024.2  1027.8  1030.2  1032.1  1034.0  1033.5  1031.2  1027.6  1025.0  1031.1  1034.0  1033.7  1033.2  1032.3  1030.1  1029.7  1030.0  1032.1  1035.2  1040.5  1044.0  1048.5  1054.2  1062.1  1070.0
956.70  961.00  964.80  967.10  969.40  969.50  966.30  967.00  968.70  972.60  974.60  976.10  977.40  976.40  975.50  975.00  976.30  978.60  980.60  982.30  984.40  985.50  985.90  985.20  985.80  987.00  986.90  985.30  983.90  983.90  985.00  985.00  986.60  988.50  990.10  990.00  990.40  990.00  986.70  983.90  985.20  987.40  988.70  989.30  989.70  986.60  985.00  990.00  989.00  985.90  982.20  979.40  977.80  977.90  980.00  981.70  983.30  984.40  985.80  988.40  990.70  991.90  992.40  992.10  993.20  995.40  997.20  998.30  997.60  996.00  994.70  993.20  992.00  992.10  992.10  990.90  989.40  988.20  987.30  985.70  989.60  994.50  997.40  1001.3  1005.6  1008.8  1011.6  1013.7  1015.1  1015.6  1015.9  1016.1  1016.8  1017.0  1016.8  1015.6  1012.8  1010.1  1008.2  1006.0  1003.6  1001.7  1001.5  1000.0  1000.3  1000.9  1000.6  996.80  992.70  987.70  980.50  967.50  952.90  945.00  953.70  966.40  975.40  982.40  990.40  997.20  1001.7  1000.6  1001.1  1010.7  1020.1  1024.0  1026.2  1027.5  1029.8  1031.4  1030.4  1026.8  1021.7  1025.2  1030.0  1030.0  1028.0  1026.8  1025.5  1025.0  1029.8  1030.7  1036.6  1039.6  1042.0  1045.4  1049.5  1055.5  1060.1  1068.9
955.90  960.40  965.30  968.10  970.00  970.10  970.30  970.70  970.00  973.60  975.80  977.50  978.60  977.40  975.80  975.00  975.90  978.40  980.50  981.70  984.20  985.20  985.50  985.40  985.00  985.70  985.70  985.00  981.80  982.00  985.00  985.80  987.90  989.50  990.00  988.30  988.10  988.00  985.40  981.90  983.90  985.50  985.70  986.70  988.80  986.20  983.60  985.00  985.70  984.10  981.50  978.80  976.80  976.80  978.30  979.20  980.40  981.90  983.60  985.30  986.90  987.70  988.20  989.00  991.40  993.20  995.30  996.10  995.60  993.50  991.60  990.10  989.40  989.50  989.70  989.00  987.70  986.50  985.00  985.00  990.40  994.20  997.90  1002.1  1005.9  1008.9  1010.3  1011.7  1012.4  1013.0  1012.7  1013.4  1014.9  1015.2  1014.9  1013.6  1011.0  1007.8  1006.1  1004.6  1002.6  1000.0  999.10  998.40  998.70  1000.0  998.00  992.40  986.70  981.80  975.70  965.80  953.60  950.90  950.50  957.50  964.40  973.80  980.50  986.60  988.60  993.20  1006.3  1014.1  1020.1  1022.2  1023.6  1024.8  1026.9  1028.0  1026.3  1021.8  1020.0  1025.0  1026.6  1024.0  1021.8  1022.3  1025.0  1027.9  1032.1  1036.4  1044.4  1049.4  1052.4  1056.2  1056.9  1062.0  1064.5  1066.9
954.30  958.50  962.70  966.60  970.10  971.30  972.20  973.20  973.40  975.00  975.50  976.20  977.00  976.20  975.10  975.00  975.10  977.20  979.00  980.80  982.40  984.30  984.70  984.90  983.90  983.60  983.50  980.80  980.00  982.30  985.30  987.00  989.20  990.00  990.00  986.10  985.30  985.00  983.20  980.10  981.60  983.80  985.00  985.70  987.00  986.50  984.80  982.00  981.80  980.40  979.80  977.50  975.80  975.40  976.50  977.20  978.50  979.70  981.10  981.00  982.10  985.00  985.00  987.70  990.00  990.40  991.80  992.20  991.60  990.70  987.90  987.20  986.50  986.70  987.50  987.00  985.70  984.80  985.00  985.00  991.70  995.50  999.00  1002.5  1005.9  1008.5  1009.6  1009.2  1009.6  1010.0  1010.0  1011.2  1012.4  1012.9  1012.6  1011.8  1009.6  1005.8  1003.8  1002.9  1001.5  999.50  996.70  995.90  996.40  997.70  996.90  995.20  991.70  981.60  970.80  965.00  964.30  960.10  956.80  955.00  960.60  967.90  972.00  975.00  983.80  1002.0  1010.2  1016.9  1020.0  1020.0  1020.9  1022.6  1023.7  1024.0  1021.9  1016.0  1020.4  1022.9  1021.0  1018.6  1020.2  1023.1  1027.9  1031.7  1036.6  1042.4  1049.0  1055.2  1060.9  1064.7  1062.0  1069.1  1074.5  1077.3
952.80  955.60  958.20  962.50  967.30  970.40  972.20  974.30  975.00  975.10  975.00  975.00  975.30  974.80  974.40  972.70  973.10  975.00  976.20  979.10  981.50  983.40  982.10  982.00  980.50  980.60  980.80  978.30  978.60  983.00  985.80  987.20  988.70  989.50  989.00  986.30  985.00  982.90  980.10  978.60  980.00  981.80  984.90  985.00  985.20  985.30  983.70  980.20  980.00  980.20  979.20  976.50  975.00  975.00  974.80  975.20  976.40  977.50  978.40  980.00  982.70  986.00  987.50  989.80  990.00  988.80  986.80  986.00  985.30  985.00  984.10  984.10  983.50  984.30  985.30  985.00  983.50  982.10  982.70  986.10  991.60  995.90  999.60  1002.5  1005.2  1006.8  1007.0  1006.5  1006.7  1006.4  1008.3  1009.2  1009.7  1010.7  1010.4  1009.7  1007.6  1004.0  1001.7  1000.8  1000.0  997.80  995.00  994.80  995.00  995.40  995.20  995.20  991.70  981.70  975.30  971.60  978.50  976.60  967.60  966.10  966.80  970.00  974.70  987.20  997.60  1006.0  1012.6  1015.9  1018.5  1018.0  1018.7  1019.3  1019.7  1019.5  1016.8  1015.0  1017.6  1015.1  1015.5  1019.3  1024.1  1029.1  1034.3  1037.5  1040.5  1045.1  1052.7  1061.2  1068.3  1074.9  1074.1  1075.1  1082.9  1087.0
949.30  951.40  955.00  959.00  965.00  969.60  972.00  974.20  974.40  974.20  975.00  975.00  974.70  972.90  972.10  970.60  972.40  974.60  976.30  979.50  981.50  981.90  980.30  979.80  980.00  980.00  980.00  979.20  979.60  983.20  985.50  985.90  987.20  987.10  986.10  985.00  983.10  980.00  978.70  976.50  979.00  981.10  984.40  985.00  985.00  982.60  981.20  979.50  978.20  979.30  980.00  978.20  975.80  974.70  973.70  974.20  974.60  974.90  976.30  979.20  983.40  987.50  990.00  990.00  990.00  990.00  985.40  984.20  981.70  980.90  981.00  981.00  980.50  981.60  982.90  982.70  981.10  980.00  981.90  987.70  992.10  995.90  998.80  1001.5  1003.6  1004.6  1004.3  1004.4  1004.0  1003.6  1005.3  1006.0  1006.6  1008.0  1007.8  1006.2  1005.2  1002.5  999.50  998.40  997.50  995.90  994.50  993.90  994.00  994.50  995.00  995.00  991.20  983.50  980.40  977.20  988.60  990.80  984.90  977.90  980.00  984.80  991.30  998.00  1004.4  1009.7  1014.0  1015.0  1016.0  1015.2  1016.3  1015.6  1014.9  1014.9  1011.5  1011.1  1014.2  1015.0  1019.0  1023.5  1029.7  1034.1  1038.3  1044.2  1048.6  1049.8  1056.4  1066.5  1076.2  1084.1  1085.5  1085.7  1092.1  1098.6
950.40  955.50  958.90  962.00  965.80  970.30  972.20  972.90  972.30  972.20  973.40  973.50  972.30  971.40  970.00  970.00  972.50  975.10  977.40  979.80  980.20  980.50  980.00  978.00  977.80  979.00  978.30  976.80  980.00  982.30  983.50  984.30  985.60  985.00  984.00  982.40  980.90  980.00  978.30  975.30  977.00  981.10  983.00  983.20  981.00  979.00  977.90  977.20  976.30  977.70  979.10  977.80  976.20  974.40  972.90  972.80  973.10  973.60  975.00  978.80  980.50  986.10  989.10  990.00  990.00  990.00  990.00  984.00  980.40  979.20  978.20  978.20  977.90  979.20  980.40  980.50  978.20  980.00  983.70  988.90  992.50  995.40  997.90  999.70  1000.5  1000.7  1001.9  1002.1  1001.2  1000.8  1002.1  1002.8  1003.7  1005.3  1005.3  1003.2  1002.3  1000.6  997.70  995.70  995.00  993.90  992.20  992.40  992.80  993.40  994.00  994.70  991.80  988.80  983.40  984.10  992.90  996.30  995.60  991.30  990.00  993.80  997.70  1003.4  1007.4  1010.3  1012.7  1013.9  1012.8  1011.9  1013.0  1011.5  1009.8  1009.6  1009.2  1010.0  1013.5  1019.6  1024.5  1029.1  1034.6  1039.8  1043.6  1049.1  1054.7  1059.2  1061.0  1072.3  1084.0  1092.4  1098.0  1100.0  1104.5  1109.0
955.20  959.50  965.20  968.10  970.10  970.00  970.50  971.60  970.20  970.50  971.30  971.20  970.00  969.10  970.00  970.00  972.00  974.80  977.50  980.00  980.00  980.00  977.00  975.70  975.80  975.90  975.80  975.00  979.10  980.60  980.20  981.80  983.10  983.30  981.90  980.00  980.00  980.10  979.00  975.90  973.90  978.50  980.60  979.90  977.20  974.90  974.50  974.60  975.60  976.60  978.00  976.90  975.40  974.10  972.70  971.90  972.00  973.60  976.00  980.00  981.80  985.20  987.30  989.30  990.00  990.00  989.20  985.60  981.30  977.40  975.50  975.50  975.20  976.40  977.80  976.90  975.50  979.80  984.50  989.30  992.20  994.50  995.90  996.80  997.20  997.90  999.60  1000.0  998.70  997.80  998.90  999.60  1001.0  1002.7  1001.9  1000.0  999.30  998.00  995.50  993.70  993.20  992.30  990.50  990.30  991.10  991.40  992.70  993.10  992.70  990.70  988.10  991.20  996.50  999.00  998.20  996.60  997.30  999.30  1001.3  1005.1  1008.1  1010.0  1010.7  1011.0  1009.5  1007.9  1007.5  1005.5  1005.3  1009.9  1010.8  1014.3  1018.5  1025.1  1030.0  1034.5  1039.5  1044.2  1048.7  1054.7  1061.3  1069.1  1074.1  1078.9  1090.8  1101.2  1109.6  1114.5  1117.2  1120.5
956.40  961.40  966.80  970.20  971.10  971.00  970.20  970.00  969.50  968.50  968.70  969.50  969.60  968.20  969.60  970.70  972.60  974.90  977.70  980.10  980.10  980.00  976.40  975.00  974.70  975.00  974.10  974.90  977.00  977.40  978.20  979.30  980.00  980.00  980.10  980.00  980.00  979.10  977.80  975.90  975.00  975.60  977.60  976.60  974.30  973.40  972.40  973.00  975.00  975.90  976.90  976.30  975.10  973.90  972.60  971.20  971.10  974.30  975.20  979.00  982.20  985.00  986.30  987.70  988.30  988.30  987.30  985.10  980.90  977.00  974.70  973.60  973.40  974.10  975.10  975.00  975.00  980.30  984.60  988.90  991.60  993.00  993.30  993.60  994.10  996.10  997.70  997.10  995.80  995.00  995.80  997.20  999.30  1000.0  998.80  997.10  996.40  995.20  993.60  991.80  991.30  990.70  990.00  990.00  990.00  990.10  990.70  991.30  991.80  993.00  992.40  993.90  997.20  1000.3  1000.6  999.70  1000.0  1000.4  1002.0  1004.6  1006.6  1007.7  1008.0  1007.1  1005.2  1003.9  1003.0  1005.0  1008.8  1013.8  1015.7  1016.8  1020.7  1028.0  1034.4  1038.6  1043.0  1047.9  1053.5  1060.8  1068.2  1078.7  1087.0  1091.3  1098.5  1109.6  1120.0  1124.3  1128.9  1131.5
956.30  961.30  966.60  970.20  971.50  971.60  970.80  970.00  967.20  965.40  965.00  967.80  970.10  971.20  972.80  974.20  974.90  976.30  978.70  980.10  980.20  980.00  978.00  975.60  975.00  973.70  971.80  973.70  975.00  975.00  975.50  977.20  979.90  980.00  980.10  980.10  979.30  975.00  975.00  974.00  971.70  972.40  974.10  973.90  972.20  971.20  970.60  972.10  974.30  975.50  976.00  976.00  975.00  973.80  972.40  971.10  970.50  974.40  976.70  979.30  982.20  984.20  985.20  985.70  986.30  986.30  985.40  982.60  978.80  975.20  972.90  971.80  971.70  972.20  973.10  973.80  974.60  979.00  983.60  987.20  990.00  990.40  990.00  990.30  991.80  994.20  995.10  994.40  993.20  992.50  993.10  995.20  996.60  997.40  996.20  994.30  993.90  993.00  991.70  990.00  990.00  989.60  988.50  987.90  989.10  990.00  990.30  990.80  991.30  993.00  994.50  995.70  997.60  999.20  999.80  998.50  998.30  999.10  1000.3  1001.9  1003.5  1004.2  1003.8  1002.6  1000.2  1001.5  1004.5  1010.3  1018.0  1022.8  1025.9  1023.2  1023.7  1029.3  1036.4  1042.3  1046.7  1052.0  1060.6  1068.5  1077.1  1087.7  1096.5  1104.7  1109.0  1119.0  1128.1  1135.1  1139.4  1139.9
954.50  960.10  965.20  968.50  970.50  970.50  970.00  967.50  965.60  962.50  966.80  970.00  972.10  973.80  975.00  976.50  977.00  978.40  979.60  980.00  979.90  979.00  977.00  975.00  973.00  970.70  970.30  972.70  975.00  976.00  978.10  980.00  980.00  980.00  979.50  980.00  979.80  976.40  975.00  972.90  970.50  970.00  971.00  971.20  970.00  970.00  971.10  972.70  974.60  975.40  975.00  975.40  974.50  973.50  971.80  970.00  970.00  973.00  976.90  980.00  980.10  981.80  982.60  983.70  984.20  984.40  983.40  981.30  977.90  973.90  970.70  970.00  969.90  970.00  971.20  972.00  973.00  976.40  980.50  983.60  986.10  986.40  986.60  987.80  989.60  991.90  992.70  992.00  991.00  990.20  991.10  992.80  993.80  994.40  993.50  992.60  991.80  990.80  989.60  988.80  988.40  988.00  987.00  985.60  986.60  988.80  990.00  990.20  990.80  992.70  994.50  995.80  996.00  996.60  996.70  996.40  996.20  996.70  997.90  999.10  1000.4  1000.7  1000.3  1000.0  1000.0  1004.9  1013.1  1019.2  1024.8  1029.2  1032.1  1031.5  1026.9  1030.3  1037.4  1044.2  1050.7  1058.8  1067.8  1076.4  1086.5  1095.3  1106.0  1115.6  1122.9  1130.4  1138.8  1143.8  1147.1  1146.4
950.00  954.50  962.10  965.60  967.40  967.40  966.60  964.00  960.00  964.30  968.10  970.10  972.00  973.90  975.40  976.60  977.60  978.20  978.80  977.90  977.40  976.90  975.30  973.50  971.70  970.00  970.00  972.50  976.10  978.90  980.20  980.10  980.00  977.90  976.50  977.60  977.90  977.30  976.00  974.70  972.20  969.60  968.30  968.80  969.80  970.00  971.50  973.20  975.00  975.90  975.80  975.10  973.20  971.80  970.70  970.00  970.00  972.60  976.60  979.50  980.00  979.80  980.50  981.40  981.90  982.40  981.80  980.00  977.20  973.70  970.40  969.50  968.80  969.10  969.60  969.80  970.30  974.30  977.80  979.60  980.70  982.00  984.60  985.20  987.10  989.60  990.10  989.50  988.70  987.20  988.70  990.10  990.80  991.40  991.00  990.40  989.60  988.90  987.80  986.80  986.60  986.50  985.60  984.60  985.00  986.90  988.00  989.00  990.30  991.00  992.30  993.20  993.40  993.40  993.40  993.40  993.60  994.20  995.40  996.60  996.50  996.20  997.70  1000.0  1005.2  1010.3  1017.0  1023.2  1027.9  1031.8  1035.3  1037.3  1036.9  1033.7  1038.0  1046.0  1054.3  1064.6  1073.1  1082.7  1093.0  1103.4  1114.1  1124.2  1133.4  1142.6  1148.3  1152.8  1154.1  1148.0
946.90  950.00  957.50  959.40  960.50  961.00  959.80  960.00  961.10  965.60  968.20  970.10  970.80  972.40  974.10  975.70  976.60  977.40  978.00  976.80  975.00  974.70  973.10  970.50  969.20  969.50  970.90  975.20  977.20  980.00  980.00  980.00  978.10  975.50  974.40  975.30  975.80  976.60  976.10  975.00  972.40  969.80  967.40  967.00  968.00  969.40  971.10  972.70  974.90  975.40  975.30  974.20  972.20  970.10  969.60  969.10  969.90  971.60  976.00  978.00  978.80  976.50  977.80  978.70  979.80  980.40  980.00  978.80  975.70  972.50  969.80  968.80  967.80  968.00  968.40  968.70  969.20  974.20  975.00  975.80  975.80  978.50  981.10  982.50  985.20  987.00  987.20  987.10  986.40  985.00  985.80  987.60  987.80  988.20  988.30  988.00  987.20  987.00  985.80  985.00  985.00  985.00  984.20  983.20  984.20  985.40  985.80  986.20  986.60  987.00  987.60  988.50  989.80  989.20  989.80  990.60  990.70  991.70  992.80  995.00  994.80  994.50  998.80  1006.2  1010.4  1014.2  1017.7  1022.6  1027.7  1032.2  1036.3  1039.3  1042.6  1042.2  1040.0  1045.7  1056.7  1067.7  1077.8  1086.9  1097.4  1109.0  1120.6  1131.5  1142.3  1150.9  1158.2  1161.5  1157.3  1145.0
944.20  946.60  950.20  951.90  952.90  953.40  955.00  958.00  962.20  965.00  966.70  968.50  969.80  970.70  972.80  975.00  975.60  976.40  977.20  975.80  974.60  972.60  971.20  969.80  968.40  969.40  974.90  977.10  979.30  980.10  980.10  979.90  976.90  974.10  971.70  972.10  974.30  975.60  975.10  974.50  972.30  970.10  967.20  965.20  966.50  968.10  969.90  971.30  974.20  975.00  973.30  971.90  970.50  970.00  968.90  967.60  968.50  970.70  975.00  976.70  977.70  975.00  975.00  975.60  977.60  978.90  978.50  976.30  973.40  971.10  968.90  967.60  966.50  967.00  967.30  967.70  969.30  975.90  974.30  973.40  974.70  975.90  977.20  980.20  982.70  983.90  983.90  984.20  983.70  982.50  983.80  984.90  984.90  985.40  985.90  985.90  985.00  985.00  984.60  984.00  983.90  983.60  982.60  981.90  982.20  983.30  984.50  985.00  983.60  984.50  985.00  986.60  989.40  988.30  989.90  990.00  992.30  993.80  994.70  995.00  995.00  996.40  1000.0  1006.0  1011.3  1016.0  1020.7  1024.9  1028.4  1032.3  1036.8  1041.6  1045.9  1049.3  1048.5  1046.5  1058.1  1069.4  1080.9  1090.1  1100.9  1113.1  1124.9  1136.8  1148.1  1157.7  1165.6  1169.5  1158.1  1145.0
945.00  947.40  948.60  949.80  953.90  955.90  960.00  961.10  962.40  965.00  965.00  966.10  968.10  970.20  972.70  975.20  976.20  976.80  976.50  975.70  973.90  970.80  970.00  969.00  970.00  971.20  975.20  976.90  978.30  980.00  980.10  980.00  977.50  974.20  970.90  970.00  971.20  973.80  974.80  973.40  971.30  969.90  966.60  965.00  965.80  966.40  967.40  969.70  972.60  973.60  970.50  970.00  970.00  969.60  968.20  966.80  968.40  970.50  974.30  976.10  976.30  973.40  974.50  975.00  975.60  976.80  975.60  973.90  971.40  969.00  967.60  965.70  965.50  966.00  966.80  968.90  970.10  974.40  971.70  971.20  972.60  973.80  974.70  977.30  979.50  980.20  979.30  980.10  980.60  980.00  981.20  982.50  982.90  984.10  984.80  984.00  984.00  984.00  983.10  982.20  982.20  981.50  980.90  980.70  981.00  981.40  983.60  985.00  984.80  987.00  990.40  992.70  994.90  997.20  998.20  1000.3  1004.4  1006.5  1008.5  1008.4  1006.7  1001.0  1003.4  1005.0  1005.0  1011.4  1018.7  1024.1  1027.6  1032.2  1037.5  1042.9  1048.1  1052.1  1054.6  1052.5  1058.7  1070.9  1081.3  1091.7  1101.2  1114.5  1126.4  1139.0  1150.1  1160.7  1168.6  1170.0  1161.4  1150.1
947.10  950.00  951.80  952.40  955.00  955.90  960.00  962.90  965.50  966.20  967.40  968.60  969.30  970.10  972.70  975.30  977.10  976.10  975.30  975.00  974.00  971.10  969.20  966.80  966.20  971.30  974.80  975.00  975.60  976.70  978.60  978.30  976.50  975.00  972.20  969.30  969.10  971.30  972.40  971.30  970.50  968.30  965.50  965.00  965.00  965.40  965.00  968.00  970.90  972.10  970.30  968.10  968.20  968.60  967.40  965.90  967.80  970.70  973.60  974.70  974.10  970.70  971.80  974.90  975.00  974.60  973.40  970.70  969.40  967.60  965.80  965.00  965.00  965.80  968.10  970.20  970.80  970.20  970.00  969.90  970.30  971.60  973.00  974.30  975.00  974.90  975.70  977.50  977.90  977.50  978.70  980.10  980.90  982.20  982.60  982.30  982.40  982.30  981.70  980.60  980.40  980.00  980.00  980.20  982.20  983.90  984.90  988.40  991.70  995.70  996.90  999.90  1001.5  1002.1  1002.9  1005.5  1008.5  1010.5  1011.9  1012.7  1012.3  1009.5  1007.2  1010.1  1010.9  1011.3  1010.6  1016.2  1023.2  1029.0  1035.3  1041.2  1048.0  1053.5  1058.3  1060.9  1060.0  1066.7  1075.9  1085.9  1098.7  1113.0  1126.4  1138.4  1148.6  1158.9  1167.4  1173.6  1170.0  1163.2
948.40  951.20  954.30  955.40  957.80  958.40  958.10  960.20  965.10  967.40  969.80  971.10  971.90  972.60  973.90  975.80  976.80  975.20  975.00  973.90  971.60  970.00  968.10  965.50  965.00  969.70  972.10  972.20  971.90  975.40  976.30  976.10  975.20  975.00  971.80  968.80  966.10  968.70  970.00  969.70  968.80  967.20  964.80  964.20  964.80  964.40  965.00  967.00  970.30  970.80  970.00  967.30  966.40  967.30  966.40  965.10  967.70  970.90  973.10  972.10  971.10  970.00  970.60  972.20  973.20  972.10  970.20  968.50  967.10  966.10  964.80  964.00  964.90  965.90  970.00  971.70  973.10  971.00  969.60  969.10  969.00  970.00  971.20  972.00  972.60  972.70  973.90  975.10  975.30  975.00  976.00  977.40  978.60  980.30  980.40  980.60  980.90  980.60  980.10  979.50  979.00  979.50  980.00  980.50  985.10  989.40  992.20  994.10  995.00  996.50  998.50  1000.3  1001.7  1003.8  1005.9  1007.9  1010.7  1012.3  1013.7  1015.0  1015.9  1014.7  1010.0  1013.4  1016.8  1018.1  1019.3  1019.4  1020.0  1024.7  1031.1  1036.5  1043.9  1051.9  1058.1  1065.4  1070.7  1076.3  1082.0  1090.7  1100.9  1112.5  1123.5  1134.2  1145.1  1153.7  1162.5  1169.5  1170.0  1170.0
949.90  951.20  954.10  957.20  960.00  963.20  963.50  963.60  965.00  966.70  969.90  971.90  974.30  975.00  975.60  976.20  976.60  975.90  975.30  972.50  969.20  970.00  966.90  965.00  963.70  966.30  968.80  969.80  970.80  975.00  975.00  973.40  974.30  974.20  971.80  969.70  966.40  965.00  966.40  967.30  966.50  965.20  964.00  960.00  961.10  963.20  964.40  966.60  969.60  970.00  970.00  968.10  966.00  965.70  965.30  965.00  967.40  970.80  971.70  970.20  968.40  967.10  968.00  970.20  970.70  969.70  968.00  966.30  964.90  964.60  964.00  963.20  964.30  966.70  969.30  971.20  972.20  970.70  969.00  968.10  969.30  969.90  970.00  970.00  970.20  971.20  972.40  973.20  973.50  972.90  973.60  974.50  976.20  977.80  978.00  979.50  979.80  979.20  978.80  978.30  977.80  978.40  979.90  986.00  990.50  992.00  994.70  995.00  995.00  995.70  997.60  998.80  1000.3  1002.7  1006.0  1008.8  1010.9  1012.4  1014.3  1016.2  1018.5  1018.1  1014.2  1015.0  1020.3  1024.1  1026.5  1027.3  1028.3  1029.4  1031.2  1035.0  1038.0  1045.0  1055.0  1065.3  1074.8  1083.0  1090.6  1097.8  1105.6  1111.8  1118.9  1127.4  1137.1  1145.6  1153.7  1160.7  1164.5  1165.0
950.60  952.80  955.60  959.20  961.70  964.70  966.50  967.10  965.80  966.20  969.20  971.70  974.70  975.50  976.20  977.00  977.20  976.70  976.00  975.10  972.10  970.00  967.10  965.00  963.40  963.00  965.10  967.80  971.50  974.30  974.50  970.70  971.40  971.70  971.90  970.40  967.70  965.00  964.90  965.00  964.90  964.50  962.70  960.00  960.70  963.50  965.30  967.30  970.10  970.00  970.00  968.30  966.50  964.60  964.20  965.00  967.40  970.50  970.60  969.50  966.80  965.00  965.40  967.60  967.60  967.20  966.40  964.40  963.50  963.10  962.50  963.10  964.40  966.60  969.80  970.00  970.00  968.90  967.30  968.50  970.70  970.00  969.80  969.60  970.00  970.10  970.60  971.40  971.50  970.80  970.70  971.50  973.50  975.00  975.80  977.20  977.80  978.10  977.60  977.10  976.60  978.50  982.00  988.80  990.90  992.50  992.80  993.40  994.10  994.50  995.40  996.30  998.00  1001.0  1005.5  1007.5  1008.9  1011.0  1013.8  1017.1  1020.0  1020.1  1018.9  1015.0  1020.0  1027.0  1031.7  1035.6  1038.9  1042.3  1044.0  1046.9  1050.6  1055.1  1060.4  1066.9  1077.5  1087.2  1094.9  1100.2  1104.0  1107.4  1112.2  1120.3  1128.3  1137.0  1143.8  1150.6  1156.5  1158.6
952.40  954.10  955.50  959.90  962.60  965.70  968.40  970.00  970.00  969.20  968.80  971.50  975.00  976.10  976.90  977.20  976.40  976.80  976.10  975.00  973.00  970.80  968.20  965.70  963.60  960.00  962.90  968.20  971.30  972.80  973.00  970.20  970.00  970.20  971.20  970.40  968.10  965.20  962.10  961.80  962.30  962.10  960.70  959.00  962.20  965.00  966.10  968.00  969.90  970.00  970.00  968.80  966.80  964.90  963.10  964.80  967.40  969.90  970.00  967.10  965.00  963.80  963.70  964.90  965.00  965.00  965.00  963.40  962.10  961.70  961.60  963.50  964.70  967.00  969.70  969.30  968.40  966.90  965.60  968.60  970.90  970.20  968.50  968.50  970.20  970.70  970.50  969.80  969.60  969.90  970.00  970.00  971.10  973.20  975.00  975.60  976.40  976.50  976.20  975.80  976.50  979.40  985.20  988.30  990.20  990.50  990.70  991.00  991.30  991.30  992.30  993.70  996.30  1000.0  1004.1  1005.2  1007.0  1010.6  1014.4  1017.8  1020.8  1022.5  1022.7  1022.4  1021.3  1027.2  1033.1  1039.8  1045.6  1049.7  1053.7  1057.6  1061.2  1065.9  1070.2  1073.9  1080.1  1090.6  1096.1  1098.5  1098.2  1098.0  1102.3  1110.5  1118.6  1127.7  1134.3  1139.7  1145.3  1149.9
953.70  956.30  958.90  960.00  961.20  965.10  968.80  971.90  972.70  971.50  970.90  972.60  975.40  976.80  977.60  976.60  975.60  975.90  975.30  973.80  972.00  970.20  967.70  965.10  963.80  960.20  960.00  967.10  969.90  971.10  971.70  969.40  967.80  970.10  970.20  970.10  967.90  965.40  961.60  960.00  959.50  959.50  960.00  960.00  964.50  965.60  965.20  967.10  968.60  969.30  969.00  968.00  966.50  965.10  962.30  963.20  966.10  968.00  967.50  964.50  963.10  961.60  960.50  962.00  963.40  965.00  963.70  961.80  960.60  960.20  961.90  963.80  965.50  967.70  968.30  967.30  966.40  965.10  965.00  968.00  970.00  970.00  970.00  969.90  971.50  971.70  970.00  969.30  968.50  968.80  969.70  970.90  972.50  974.10  975.00  975.00  975.20  974.90  975.00  975.20  976.80  980.00  984.40  985.50  986.10  987.00  986.40  986.30  987.10  987.90  989.50  991.80  994.70  998.50  1001.3  1002.7  1006.8  1010.8  1014.4  1017.8  1021.0  1023.7  1025.4  1026.6  1026.6  1028.5  1034.0  1041.0  1047.7  1052.6  1057.1  1061.6  1065.6  1069.9  1075.5  1081.7  1087.6  1093.4  1095.7  1093.5  1088.5  1088.3  1094.0  1103.1  1111.3  1119.1  1126.4  1129.9  1134.3  1138.3
955.00  959.40  962.90  963.90  963.30  965.10  969.30  972.20  974.40  974.70  974.20  975.00  976.00  977.30  977.40  976.00  975.00  975.00  974.00  971.80  970.80  970.00  967.10  964.70  961.50  959.50  959.30  963.80  966.80  970.10  970.00  966.80  965.60  970.00  970.00  969.20  966.60  965.00  961.90  959.70  957.50  958.00  959.30  961.60  965.60  966.40  965.20  966.10  967.10  967.60  967.30  966.70  965.80  964.50  961.30  960.50  963.90  965.90  965.50  963.00  960.70  960.00  960.00  960.60  962.40  963.20  962.20  960.00  960.00  960.00  962.00  964.60  966.20  967.70  966.80  965.70  965.00  964.70  965.00  967.20  968.40  969.40  970.00  970.60  972.30  971.70  970.00  968.90  967.40  969.00  970.20  972.10  974.00  974.90  974.40  974.30  974.40  974.30  974.20  974.50  975.40  980.00  981.40  981.00  980.70  982.70  982.60  982.50  983.50  985.20  987.50  989.40  992.00  994.80  997.40  1001.3  1005.6  1009.5  1013.0  1016.8  1020.6  1023.8  1026.6  1028.7  1030.2  1031.7  1035.7  1041.7  1047.7  1052.0  1056.3  1061.1  1066.3  1072.1  1078.3  1084.8  1090.0  1092.1  1091.8  1085.4  1078.9  1081.0  1088.5  1096.7  1104.4  1110.9  1116.9  1120.5  1124.4  1127.6
957.60  961.10  965.00  967.20  965.50  967.50  971.20  972.90  974.70  975.00  975.00  975.00  976.00  976.90  977.00  975.80  974.30  972.60  972.10  970.00  969.20  968.60  967.00  964.50  962.00  959.70  958.30  959.70  965.40  968.50  970.00  965.60  965.00  968.10  969.90  967.80  965.00  963.50  962.00  960.60  957.90  956.10  957.60  961.40  964.00  964.80  964.50  964.60  965.70  966.00  965.70  965.10  963.50  962.30  959.60  959.00  960.00  961.30  963.10  960.70  959.30  958.50  959.10  960.00  961.20  961.40  960.60  959.20  960.00  960.00  961.20  963.50  965.20  966.20  966.00  965.70  964.60  963.60  964.30  965.30  966.40  967.30  968.70  970.00  970.70  969.90  968.60  967.10  968.00  969.70  971.40  973.50  974.00  973.30  972.70  973.00  973.10  973.20  973.30  974.10  975.70  979.40  979.20  978.20  978.70  979.50  979.70  980.20  982.10  983.70  985.80  987.50  989.60  992.20  995.10  999.80  1003.8  1007.5  1010.8  1014.5  1018.9  1022.4  1026.2  1029.4  1031.5  1033.3  1035.8  1039.2  1041.6  1045.6  1049.6  1054.3  1061.8  1071.3  1079.9  1086.9  1090.0  1090.0  1084.7  1078.4  1070.0  1074.6  1082.8  1090.0  1096.8  1102.2  1105.9  1110.3  1115.2  1119.0
960.70  963.50  967.10  970.30  970.90  971.60  973.60  974.50  973.30  973.00  973.70  974.50  975.50  976.30  976.50  975.30  972.80  970.10  970.00  968.50  966.90  966.60  965.40  964.60  962.50  960.30  960.00  960.00  965.10  967.40  968.30  964.40  962.10  966.40  967.80  966.30  965.00  962.40  960.00  959.30  957.10  955.00  957.30  960.10  961.50  961.70  961.40  962.50  963.80  962.30  962.00  962.50  960.60  959.60  958.00  957.40  958.40  959.90  959.90  959.10  958.10  957.20  957.90  959.20  960.00  960.00  959.10  958.00  958.90  960.40  961.50  962.50  963.90  964.60  965.10  965.10  964.10  962.60  964.00  965.00  965.00  965.90  967.70  969.20  969.00  968.20  966.80  966.30  969.30  971.30  973.20  972.80  972.20  971.50  971.30  971.70  971.90  972.00  972.60  973.80  975.00  975.10  975.00  975.90  976.70  978.20  978.80  979.60  980.00  981.50  984.30  985.90  988.30  990.60  993.80  998.10  1002.1  1005.3  1008.4  1011.9  1016.0  1020.3  1024.5  1028.0  1030.0  1030.3  1030.6  1030.8  1033.5  1039.4  1045.6  1051.4  1061.0  1070.9  1081.4  1088.6  1090.3  1085.4  1077.2  1071.2  1063.9  1068.7  1074.7  1082.8  1088.6  1092.8  1096.4  1101.0  1105.4  1110.4
963.80  965.70  968.70  971.30  973.30  973.90  974.30  973.30  971.00  970.00  970.50  972.50  975.00  975.60  976.00  975.00  972.10  970.10  970.00  966.40  964.90  964.70  965.00  963.90  962.00  960.00  957.10  956.00  963.70  966.50  966.20  962.80  959.70  965.40  966.40  966.00  964.60  961.50  959.20  957.70  956.00  955.00  956.80  960.00  960.00  958.80  959.60  960.70  960.90  960.00  960.00  959.60  958.30  957.30  955.60  955.00  956.00  957.20  957.90  957.80  956.90  956.20  956.60  957.30  958.30  959.00  958.10  957.90  959.10  960.00  960.80  961.40  961.50  962.60  963.30  963.00  962.40  962.00  963.30  963.90  964.50  965.00  965.90  966.30  966.10  966.00  965.20  967.30  970.30  971.70  971.70  971.00  970.50  970.00  970.10  970.50  970.70  971.00  971.90  973.40  975.00  975.00  975.00  975.00  976.00  976.90  978.10  979.80  981.10  982.60  984.40  985.70  987.80  990.00  992.60  995.90  1000.3  1003.2  1006.4  1011.0  1014.7  1019.4  1023.2  1026.0  1026.6  1025.7  1025.3  1028.9  1035.8  1043.7  1050.7  1058.7  1066.8  1075.5  1082.8  1089.8  1090.0  1082.3  1070.0  1063.3  1055.1  1061.9  1068.1  1074.1  1080.1  1083.4  1086.6  1091.5  1097.8  1102.3
963.70  966.50  969.40  971.40  973.20  973.70  973.90  973.20  969.70  967.30  968.40  971.10  973.80  975.30  975.60  974.90  973.20  971.30  970.20  966.20  962.70  961.80  962.40  962.20  961.10  959.00  955.90  955.00  962.00  965.70  965.20  960.80  960.00  962.70  965.40  965.20  962.80  959.70  957.80  956.10  955.00  955.00  956.70  959.90  958.60  956.60  955.30  957.10  958.50  957.80  958.00  957.60  956.30  955.00  954.80  954.70  954.80  955.00  956.00  956.30  955.70  955.20  955.30  956.20  957.00  958.00  957.30  958.50  959.60  960.00  960.00  960.00  960.00  960.90  961.20  960.90  960.70  961.30  961.70  962.40  963.00  963.60  965.00  965.00  965.00  965.00  965.00  967.60  969.90  970.50  970.30  969.50  969.80  969.50  969.30  969.70  970.00  970.00  972.00  974.00  975.00  975.00  976.20  978.90  979.20  978.90  978.80  980.00  983.20  984.50  985.00  986.50  989.00  990.00  991.30  993.90  997.70  1001.3  1004.7  1010.2  1014.5  1018.5  1021.2  1022.1  1021.2  1020.4  1023.9  1029.4  1037.2  1044.1  1052.3  1060.5  1068.8  1076.8  1084.3  1090.0  1090.0  1082.5  1072.4  1062.1  1050.1  1053.6  1059.7  1066.5  1071.9  1074.9  1077.9  1083.3  1089.0  1093.6
962.50  965.30  968.50  971.20  973.10  973.50  973.40  972.80  970.00  967.00  966.10  969.40  972.00  974.30  975.00  973.50  971.80  971.00  969.20  966.40  960.90  960.00  960.30  960.90  960.10  958.00  955.50  955.00  960.40  963.30  963.20  960.20  958.60  959.30  962.40  962.30  960.10  958.70  956.80  955.00  955.00  955.00  957.10  958.60  958.30  955.60  954.20  955.00  955.10  955.50  956.10  955.80  954.20  953.50  954.30  954.40  954.40  954.60  955.00  955.00  954.90  955.00  955.50  955.90  956.40  956.80  957.70  958.80  959.80  960.00  960.00  960.00  960.00  959.60  960.00  959.30  959.60  960.00  960.10  960.90  961.80  963.40  965.00  965.00  965.00  965.00  965.00  966.40  967.60  968.00  967.90  967.60  969.40  969.70  969.50  969.70  970.50  973.80  974.90  975.40  977.50  977.30  978.50  981.50  982.00  980.90  980.40  983.00  986.50  988.00  987.70  989.50  990.00  990.00  990.00  990.60  995.10  999.30  1003.3  1007.9  1012.6  1015.8  1017.0  1015.7  1015.2  1020.1  1026.2  1031.6  1037.7  1044.3  1052.7  1061.2  1069.8  1077.0  1085.2  1090.7  1090.5  1082.1  1069.8  1058.9  1047.8  1045.9  1052.9  1059.3  1064.8  1067.3  1066.8  1074.9  1081.4  1084.6
960.70  963.30  966.40  970.30  972.40  972.50  971.40  970.40  968.70  966.20  965.00  966.30  969.30  971.80  972.60  971.20  969.40  969.40  968.40  966.20  962.20  960.00  958.40  959.40  959.00  957.10  954.70  952.80  956.80  959.90  960.00  958.60  956.40  955.00  957.70  958.50  958.30  957.50  956.10  954.70  955.00  955.00  957.30  957.30  957.10  956.10  954.70  954.20  953.90  954.30  954.60  954.50  952.80  952.80  953.20  953.50  954.00  954.80  955.00  955.20  956.70  956.90  956.20  956.70  957.10  958.10  958.80  959.40  960.00  960.00  960.00  960.00  959.70  959.20  959.80  959.40  960.00  961.10  961.30  961.80  962.80  963.80  965.00  965.00  965.00  965.00  964.90  965.00  965.10  965.60  966.10  967.60  969.10  970.00  973.30  975.40  977.10  978.90  979.50  980.00  980.10  980.00  980.00  982.90  984.70  983.60  982.80  984.20  988.50  991.80  993.00  994.00  995.60  993.10  994.10  992.30  993.50  996.00  1000.8  1004.6  1008.5  1011.5  1011.4  1011.7  1017.4  1022.3  1027.8  1033.3  1039.0  1045.5  1052.1  1060.6  1068.9  1076.8  1084.9  1090.9  1090.1  1080.6  1069.6  1058.3  1047.7  1040.0  1045.7  1052.2  1056.7  1056.8  1059.5  1067.9  1073.2  1076.0
958.90  961.20  964.20  968.20  971.10  972.50  972.20  971.00  969.70  965.00  962.00  962.60  966.00  968.80  970.00  968.10  965.30  966.30  966.50  965.30  961.80  957.40  955.40  957.10  957.40  956.30  954.40  951.00  953.80  956.60  957.70  956.30  955.50  955.00  954.50  955.40  956.10  956.40  955.30  953.20  951.70  953.50  956.10  956.00  955.80  955.00  954.30  953.60  952.70  952.20  952.90  953.70  952.60  952.90  953.70  954.50  955.00  957.20  958.00  958.20  959.30  959.20  958.20  957.50  958.00  959.60  960.10  960.70  960.80  960.00  960.00  960.30  960.00  960.10  959.90  960.80  962.60  963.30  963.10  963.60  964.00  964.80  965.60  965.20  965.10  966.00  965.20  965.00  965.00  965.40  966.90  968.40  969.90  974.30  976.60  978.40  979.50  980.00  980.30  980.60  980.60  981.30  980.80  983.10  985.80  986.70  985.40  986.80  991.60  994.70  997.30  998.60  1000.3  1000.8  1002.4  997.50  995.00  995.00  996.30  1001.4  1003.8  1006.7  1008.3  1012.6  1018.8  1022.7  1026.9  1030.0  1033.2  1040.9  1049.2  1058.4  1067.2  1075.6  1083.6  1088.4  1085.9  1077.1  1069.0  1060.2  1048.8  1035.6  1038.4  1045.2  1047.4  1043.7  1053.7  1062.4  1066.1  1066.8
957.50  959.40  962.70  966.70  969.90  971.20  972.10  970.80  969.00  965.20  960.40  959.20  961.80  965.20  967.20  966.10  960.90  961.70  963.70  962.70  959.80  956.40  955.00  955.00  955.50  955.00  953.00  950.30  950.90  953.50  955.20  955.40  955.20  953.60  951.80  954.00  955.20  955.10  953.20  951.20  950.00  951.70  954.30  954.40  954.50  955.00  954.40  953.30  952.20  951.50  951.70  952.10  952.30  953.00  953.80  954.70  958.40  960.30  962.70  960.90  961.50  961.00  959.80  958.90  959.00  960.40  961.90  962.50  962.60  961.20  961.90  963.70  963.10  962.70  962.20  963.70  965.20  965.00  964.90  965.00  965.00  965.00  966.30  966.90  967.50  968.10  966.80  965.40  965.70  967.10  968.30  969.50  970.00  972.90  974.50  975.40  976.50  978.20  979.60  980.10  980.70  981.60  983.60  985.10  989.00  990.80  989.90  989.50  993.90  997.70  1000.7  1002.5  1004.5  1006.5  1007.5  1003.4  998.80  999.60  997.90  1000.0  1001.7  1004.2  1006.2  1012.1  1016.2  1019.4  1023.7  1027.4  1033.3  1040.9  1048.1  1056.4  1065.3  1074.6  1081.4  1084.8  1080.4  1072.4  1066.3  1058.3  1048.1  1035.4  1030.0  1035.9  1037.5  1037.9  1049.9  1057.1  1059.8  1057.7
956.50  957.50  961.20  965.00  967.60  969.50  970.10  969.00  967.20  964.90  959.90  957.40  957.40  960.30  964.10  962.60  958.20  958.10  960.50  960.00  958.10  956.00  952.60  950.40  951.80  952.30  950.90  949.80  949.40  950.70  953.10  954.10  954.00  952.40  949.80  951.50  952.40  950.80  950.00  950.00  950.00  950.00  951.80  952.10  952.80  954.00  955.00  954.20  953.40  952.60  951.90  952.20  953.20  953.40  954.20  955.00  959.00  961.50  963.90  963.20  963.40  962.30  961.10  960.00  960.00  961.00  963.10  964.50  964.60  963.40  963.90  965.50  965.70  964.80  964.70  965.20  966.20  966.10  965.00  965.00  965.10  966.60  968.10  969.20  970.00  969.90  968.50  968.30  968.80  969.80  970.00  970.00  969.90  970.00  970.10  971.40  973.10  975.00  976.20  978.40  980.00  980.90  984.00  987.70  990.90  993.00  993.60  993.50  995.00  997.90  1002.3  1005.3  1007.8  1010.4  1011.9  1009.0  1004.1  1007.4  1006.2  1002.6  1001.6  1005.0  1006.2  1010.7  1014.8  1019.2  1023.5  1028.5  1034.5  1041.2  1047.7  1055.0  1063.6  1071.5  1078.0  1079.8  1074.1  1066.2  1060.4  1053.8  1045.7  1036.6  1028.1  1027.4  1029.2  1037.3  1046.4  1051.0  1051.9  1048.1
955.60  955.00  959.10  962.90  965.90  967.50  968.40  966.70  965.50  964.90  961.60  957.60  955.00  957.30  960.60  959.50  956.00  955.50  957.90  957.50  955.90  954.10  952.20  950.00  949.40  949.40  949.80  949.10  948.40  950.20  951.20  951.90  952.50  951.20  949.90  949.80  950.00  950.00  950.00  950.00  950.00  950.00  949.90  950.50  951.30  953.10  955.00  955.00  954.80  955.10  954.80  954.50  955.00  954.60  955.20  957.50  959.90  962.80  965.00  965.20  964.90  963.50  961.70  960.00  960.20  963.30  964.40  965.70  966.00  965.10  965.00  966.00  966.70  965.30  965.00  965.30  967.10  967.20  966.00  966.40  967.70  969.10  970.70  971.90  972.90  970.00  970.00  971.50  971.70  971.60  970.90  970.00  969.00  969.80  972.60  973.80  974.00  975.00  975.50  977.90  980.00  980.20  984.20  988.70  992.00  994.70  996.60  997.50  998.40  1000.0  1001.8  1006.5  1009.9  1013.2  1015.5  1015.4  1011.1  1011.1  1015.2  1011.8  1005.0  1008.6  1009.1  1010.0  1014.7  1019.1  1022.9  1027.7  1034.0  1039.7  1045.8  1052.8  1060.8  1067.3  1072.5  1073.7  1067.6  1058.3  1052.4  1047.3  1041.3  1035.4  1027.3  1021.2  1025.1  1034.1  1041.6  1045.5  1044.6  1039.3
955.00  955.00  955.60  961.20  964.10  966.00  966.80  965.20  962.00  961.40  959.60  956.20  951.00  954.00  957.10  955.90  953.10  950.10  955.00  954.50  952.60  951.10  950.00  949.60  947.80  947.40  947.60  946.80  947.60  948.90  949.20  949.70  950.40  950.10  948.90  949.30  950.00  950.00  950.00  950.00  950.00  950.00  949.40  949.90  952.10  954.40  956.50  957.20  956.90  958.20  958.20  956.70  960.10  961.20  961.20  960.00  960.00  963.00  965.30  966.10  965.30  964.30  962.70  962.70  964.30  965.00  966.20  968.40  968.80  967.60  965.70  967.10  968.20  966.10  965.00  966.10  968.10  968.40  967.00  968.20  970.70  970.90  973.70  975.30  975.20  973.70  973.50  974.50  974.40  974.00  972.50  970.50  969.30  969.90  974.50  976.30  976.60  976.20  977.40  979.60  982.20  983.10  985.00  987.60  991.70  995.30  998.00  1000.2  1002.0  1003.3  1004.3  1006.2  1011.0  1014.9  1018.4  1020.2  1020.3  1017.2  1020.0  1016.1  1009.3  1010.9  1014.3  1011.6  1012.5  1016.7  1020.0  1024.9  1030.0  1034.5  1042.5  1049.4  1057.2  1063.8  1067.8  1068.8  1063.3  1051.7  1043.8  1038.0  1033.3  1029.4  1025.0  1020.0  1017.5  1027.2  1036.3  1039.3  1037.1  1032.7
955.00  955.00  955.00  958.80  962.30  964.20  964.60  961.70  958.50  957.80  956.90  955.00  950.00  950.00  953.40  951.60  949.80  947.00  949.40  949.60  949.00  947.60  948.20  947.20  946.00  945.10  945.30  945.70  946.80  947.40  947.70  947.90  948.20  948.90  947.90  949.00  950.00  950.00  950.00  950.00  950.60  950.60  950.10  950.70  953.90  956.40  959.20  960.80  960.00  961.30  960.40  960.00  962.10  963.80  963.90  961.70  962.20  964.40  965.40  967.40  966.60  965.10  965.00  964.70  964.50  967.30  969.50  970.60  971.30  970.80  969.60  970.00  969.80  968.70  967.80  968.00  969.40  969.60  968.30  969.00  972.60  975.10  976.60  977.60  978.00  977.70  978.00  977.80  976.70  975.70  974.00  971.50  970.00  971.00  975.60  978.60  979.10  978.30  979.50  980.00  983.20  986.00  986.90  988.00  990.00  993.60  997.70  1001.2  1003.7  1006.1  1008.2  1008.4  1011.4  1015.9  1020.3  1023.8  1025.6  1025.8  1024.3  1018.5  1010.0  1011.9  1017.5  1019.1  1015.3  1017.4  1021.8  1026.9  1032.3  1035.8  1039.9  1045.2  1054.0  1059.9  1063.4  1063.5  1059.3  1050.2  1044.0  1038.4  1032.1  1026.6  1022.5  1019.0  1015.2  1017.6  1027.4  1032.3  1029.3  1024.6
955.00  955.00  954.90  954.90  960.50  961.90  961.50  958.20  955.30  954.30  953.20  953.30  950.10  945.00  948.40  946.70  944.30  944.60  945.00  945.00  944.30  944.40  945.00  944.60  944.30  944.90  945.00  945.00  945.20  945.80  946.20  946.40  946.60  946.90  947.50  948.60  949.80  950.00  950.00  951.50  953.30  953.80  954.70  955.00  956.40  958.90  962.00  965.00  963.00  964.20  963.30  963.20  965.10  966.10  965.60  965.00  965.20  967.50  967.80  968.60  967.60  965.80  964.40  963.90  964.10  967.00  969.60  972.10  973.10  973.40  973.10  972.90  972.80  972.10  970.00  970.00  970.30  971.10  970.00  970.00  973.90  976.90  979.10  979.80  980.40  980.60  980.20  979.70  978.00  976.40  974.40  972.20  970.80  973.60  977.60  980.40  980.70  980.00  980.00  980.00  983.80  987.40  990.40  992.10  992.30  993.80  996.10  1000.6  1004.4  1007.7  1010.7  1012.5  1013.3  1017.4  1022.3  1026.5  1029.3  1030.7  1027.6  1019.6  1014.6  1015.0  1019.5  1022.3  1020.7  1020.0  1022.8  1028.3  1033.7  1038.9  1044.7  1048.9  1053.2  1056.6  1059.3  1058.5  1051.0  1047.1  1042.6  1037.7  1032.9  1028.5  1025.0  1019.9  1015.6  1011.3  1017.1  1023.7  1019.7  1020.0
954.20  953.00  952.80  953.30  956.10  959.30  958.20  954.70  949.60  949.50  949.00  949.40  947.60  944.30  945.00  943.10  942.30  943.20  944.60  945.00  944.70  945.00  945.00  944.60  944.20  944.90  945.00  945.00  945.40  945.40  946.00  946.70  947.40  948.10  948.30  948.90  949.50  950.00  952.00  954.10  955.80  958.30  961.10  960.80  960.20  962.20  965.40  968.20  966.50  966.90  967.20  966.60  967.70  968.60  967.40  965.30  967.00  970.10  970.60  969.90  968.40  966.00  964.50  963.50  963.70  966.40  968.90  971.40  974.00  975.00  976.00  975.90  975.90  975.20  972.60  971.00  973.10  973.40  971.90  970.20  973.50  975.70  977.90  980.10  981.50  981.80  980.80  979.20  977.50  975.80  974.40  972.70  972.70  975.60  979.90  981.50  982.20  981.40  980.00  980.00  983.70  987.80  991.20  994.20  995.00  995.20  995.00  1000.7  1005.0  1008.4  1012.0  1015.0  1016.4  1020.1  1024.6  1028.7  1032.3  1035.0  1032.6  1025.6  1020.9  1018.5  1020.0  1024.7  1022.7  1021.7  1024.0  1028.6  1033.3  1038.0  1042.6  1047.1  1049.3  1052.7  1055.1  1053.9  1045.4  1039.9  1038.7  1035.4  1031.4  1028.1  1025.4  1021.3  1016.9  1011.9  1005.0  1014.9  1012.3  1020.0
954.80  952.30  950.50  951.60  953.80  956.10  955.00  950.50  944.00  943.50  942.40  941.10  942.20  941.00  942.70  945.00  943.40  943.00  944.20  945.20  948.10  948.60  946.80  946.30  946.00  945.30  945.70  946.50  947.20  947.20  947.80  948.40  949.20  949.20  949.30  950.90  955.00  954.00  954.80  958.60  959.60  959.60  964.10  965.20  965.70  966.90  970.60  972.10  970.00  970.00  970.80  970.00  970.20  971.10  969.80  968.00  970.00  971.40  972.20  971.20  969.70  967.80  966.00  964.40  964.30  965.90  968.20  970.80  973.40  975.30  977.10  978.10  978.30  977.10  975.00  975.00  976.10  975.80  974.00  972.50  973.40  974.90  977.10  979.90  981.70  982.20  980.80  979.20  977.40  975.50  974.10  972.90  974.20  977.50  981.10  983.70  985.00  983.30  981.70  980.50  983.40  985.10  990.40  994.20  996.30  997.90  997.70  1000.0  1002.7  1007.7  1012.0  1015.7  1018.5  1021.9  1026.0  1030.0  1033.9  1037.2  1037.2  1032.5  1028.0  1025.9  1024.7  1027.0  1025.0  1025.0  1025.0  1027.8  1032.5  1036.7  1040.1  1043.1  1043.0  1048.3  1051.7  1051.5  1046.0  1037.7  1031.3  1029.4  1026.1  1023.8  1022.2  1019.1  1015.9  1012.0  1005.0  1005.6  1009.3  1020.0
955.00  952.10  950.00  950.00  951.30  953.10  951.50  944.00  940.00  940.10  940.00  940.00  940.00  940.00  940.30  944.50  945.00  946.00  948.30  949.50  950.40  954.70  956.00  954.20  950.80  949.60  948.90  948.80  948.90  949.10  949.30  950.90  952.20  950.60  949.90  955.50  958.70  956.90  957.20  961.20  962.60  960.50  965.20  969.20  970.50  972.20  975.00  976.70  975.50  975.20  973.40  971.90  973.40  973.40  972.10  970.30  970.00  971.40  973.50  972.10  970.60  970.10  968.40  965.90  965.00  966.10  968.00  970.00  972.30  975.00  977.10  979.80  980.00  978.50  976.10  976.50  978.90  978.10  975.60  974.00  974.00  975.60  977.90  981.00  983.20  983.10  980.40  979.90  978.10  976.40  974.70  974.90  975.60  979.10  982.50  985.40  986.70  985.80  984.70  984.20  985.00  985.60  987.10  991.70  996.40  999.60  1002.3  1003.6  1005.1  1005.0  1008.5  1013.4  1018.3  1022.6  1026.6  1030.4  1034.8  1038.5  1041.0  1040.6  1036.6  1033.7  1032.0  1030.8  1028.1  1025.8  1024.8  1024.8  1029.1  1033.0  1035.7  1036.1  1037.8  1043.2  1047.3  1048.0  1043.8  1036.5  1027.8  1021.5  1020.0  1017.2  1017.5  1016.2  1014.0  1011.2  1004.3  1000.0  1003.4  1015.3
955.00  952.40  949.80  948.20  948.20  950.00  945.90  940.00  940.00  943.10  943.70  944.00  943.90  946.80  948.20  950.90  952.10  950.00  953.10  955.70  955.00  959.00  961.80  960.40  955.30  954.80  955.10  953.20  950.00  950.00  950.80  954.70  956.00  953.50  953.10  958.20  961.00  960.00  960.00  963.60  965.40  964.20  964.40  971.80  974.50  977.90  979.20  981.10  980.40  978.70  975.40  976.30  976.90  975.70  974.30  971.90  970.40  972.20  974.00  972.50  971.10  970.50  969.50  967.10  965.00  967.10  967.80  969.30  971.90  974.80  977.40  980.00  980.00  979.90  978.90  978.90  980.40  980.30  977.60  975.00  975.00  977.70  980.30  983.80  985.00  984.50  982.60  981.40  979.10  977.10  975.30  975.00  977.50  980.90  984.40  987.10  989.40  988.70  986.00  985.00  987.00  988.90  989.70  990.00  993.00  997.30  1002.7  1006.7  1009.4  1010.9  1010.8  1010.0  1016.3  1021.2  1025.4  1030.3  1035.1  1039.0  1042.2  1044.5  1044.3  1042.6  1038.6  1034.1  1030.8  1027.5  1024.3  1023.4  1026.3  1028.4  1029.9  1031.1  1033.2  1037.8  1042.3  1043.6  1041.6  1034.8  1026.3  1020.6  1015.3  1012.2  1012.6  1012.7  1011.7  1010.6  1005.1  999.20  1002.0  1012.4
954.90  950.70  949.40  948.10  945.00  945.30  942.90  939.40  940.70  947.20  949.70  952.30  950.60  954.70  959.20  961.60  958.30  954.20  958.10  961.00  958.20  962.10  965.00  963.40  957.70  960.60  960.50  955.00  952.60  951.90  953.40  956.00  955.60  954.00  956.50  962.60  965.00  964.80  961.80  965.10  968.70  968.30  965.00  972.30  979.00  983.50  985.50  985.20  984.20  982.30  981.10  980.80  979.50  977.80  976.00  973.80  972.20  973.10  974.40  973.00  971.50  970.70  970.20  967.90  965.80  968.90  971.40  970.40  971.20  974.60  977.90  980.40  982.00  981.20  980.20  980.40  982.10  981.40  979.20  976.50  976.90  980.00  983.80  985.50  986.20  985.90  984.80  982.30  978.90  976.80  975.90  975.60  979.80  983.10  986.20  988.90  990.20  990.30  988.20  987.10  988.90  991.30  993.30  992.10  991.80  995.10  1002.1  1007.9  1012.3  1015.1  1016.8  1015.3  1015.2  1020.3  1023.6  1029.6  1034.3  1039.4  1043.5  1045.9  1046.8  1046.0  1041.4  1035.0  1030.6  1025.5  1022.7  1021.2  1023.1  1024.6  1026.3  1027.6  1028.4  1032.5  1037.2  1039.0  1037.8  1032.0  1023.9  1020.0  1014.6  1010.2  1007.4  1010.1  1010.5  1010.0  1005.7  997.30  997.10  1009.0
952.90  949.40  945.00  946.80  945.00  943.70  939.80  938.40  943.90  950.70  956.70  959.50  960.00  959.80  965.10  966.70  963.10  962.00  964.00  966.00  964.00  964.10  967.60  965.50  960.10  964.20  960.20  957.60  955.90  955.00  956.20  958.60  957.50  954.90  960.50  965.80  968.20  967.80  965.90  967.00  971.30  972.60  971.10  973.00  983.00  987.40  989.30  989.80  988.60  985.70  984.70  984.30  982.00  979.10  976.60  975.00  974.10  974.90  974.90  973.80  972.40  971.00  970.30  968.50  967.00  969.80  975.00  975.20  973.30  975.00  977.20  980.70  981.90  983.60  982.90  983.20  983.90  981.80  979.60  978.20  979.70  982.90  986.00  987.20  987.30  985.80  983.30  981.50  978.60  978.00  977.80  976.70  980.60  985.50  988.10  990.80  992.50  991.80  990.30  989.70  991.20  994.10  996.90  997.40  995.00  995.60  1002.9  1008.8  1014.2  1018.5  1021.5  1021.9  1019.9  1021.7  1026.6  1030.8  1035.7  1040.3  1044.0  1046.3  1048.1  1046.7  1042.7  1030.9  1023.4  1019.7  1019.6  1019.0  1020.2  1021.7  1023.1  1024.4  1024.8  1028.5  1032.7  1035.0  1033.6  1029.1  1021.8  1015.8  1012.5  1009.0  1005.0  1004.9  1008.0  1010.0  1003.6  995.10  996.20  1000.9
950.50  947.70  944.90  945.00  945.00  941.10  940.00  940.00  945.80  954.70  961.30  963.90  965.20  963.30  967.10  970.00  968.70  967.60  969.20  970.20  970.40  967.60  971.40  969.30  966.90  967.30  963.50  962.50  959.90  957.10  960.80  962.20  959.60  957.60  960.60  966.70  970.80  972.50  972.60  975.20  977.10  977.60  977.40  976.50  982.60  991.10  994.60  995.50  993.50  991.00  988.90  987.30  984.20  980.30  977.40  975.00  976.00  977.00  976.20  974.80  973.40  972.10  970.70  968.70  967.90  971.00  976.70  978.10  977.20  976.20  976.60  980.10  981.70  983.80  985.00  985.50  985.20  983.50  981.40  980.10  982.20  985.00  987.40  988.10  986.70  985.40  983.00  980.10  980.00  980.00  979.60  978.30  979.50  985.80  989.90  992.00  994.30  993.90  992.00  990.00  993.80  997.60  1000.7  1002.5  999.90  997.90  1002.7  1008.8  1014.9  1020.2  1024.5  1027.1  1027.6  1026.2  1027.7  1031.8  1035.5  1039.8  1043.3  1045.8  1046.6  1046.0  1042.1  1033.5  1024.3  1017.6  1015.3  1017.2  1018.1  1018.8  1019.6  1021.2  1021.9  1025.5  1029.0  1030.8  1029.6  1025.8  1017.1  1011.9  1009.4  1004.4  1001.2  1000.7  1004.7  1006.3  1000.5  993.20  993.00  1000.0
946.30  945.60  940.00  942.30  942.10  939.90  938.70  939.10  948.20  958.40  963.70  966.70  968.90  968.90  970.10  972.90  973.10  973.10  975.40  976.60  975.60  972.70  975.40  975.60  974.60  970.80  970.70  970.30  966.00  960.00  963.80  965.00  960.00  960.00  960.40  965.20  970.10  975.00  977.80  981.30  984.10  985.00  985.00  985.70  985.00  992.70  999.20  1001.0  998.90  996.50  993.20  989.70  985.80  982.30  978.70  977.30  978.10  978.40  977.10  975.80  974.60  972.90  970.60  969.00  968.70  973.60  978.20  980.90  980.70  979.50  980.50  980.90  982.40  984.00  985.70  986.90  986.70  986.30  985.40  983.90  984.60  986.80  989.20  989.60  988.10  985.80  983.20  980.00  981.60  983.50  982.40  980.00  980.00  985.10  991.00  993.30  995.10  995.00  994.40  994.50  996.10  1000.8  1004.6  1006.8  1004.7  1001.6  1001.4  1008.0  1015.3  1020.5  1025.6  1030.6  1032.5  1033.3  1031.7  1030.5  1030.0  1035.2  1040.1  1042.9  1044.3  1043.1  1039.5  1033.4  1027.1  1019.5  1015.0  1015.0  1015.9  1016.0  1017.2  1018.3  1018.9  1022.0  1025.5  1026.5  1025.2  1017.2  1010.5  1007.4  1005.3  1001.3  998.40  999.30  1002.1  1003.4  997.90  990.70  991.70  1002.3
942.60  942.30  939.30  938.50  936.30  937.50  936.80  939.00  951.00  959.70  965.50  969.10  971.40  972.80  974.80  976.40  977.40  978.70  981.10  982.50  981.90  980.30  980.90  980.10  979.70  976.70  977.00  975.30  970.50  964.90  965.00  964.70  960.00  963.60  964.60  965.00  970.80  977.80  982.00  986.30  990.00  992.60  994.20  997.20  996.30  996.10  1003.3  1006.9  1004.6  1000.8  996.40  992.30  988.60  984.80  980.00  980.00  979.90  979.10  978.00  976.80  975.00  972.60  970.40  970.00  970.00  973.90  979.00  982.60  983.50  982.70  983.10  984.30  984.80  984.90  985.30  987.50  989.30  989.40  989.10  986.40  985.00  987.80  990.00  990.00  987.40  985.00  983.90  983.00  984.10  985.00  984.80  981.40  981.30  986.10  991.60  994.90  996.50  997.90  997.70  999.30  999.10  1003.0  1007.3  1010.1  1010.1  1009.3  1006.3  1005.0  1011.8  1015.4  1022.3  1031.1  1035.0  1035.0  1033.1  1026.9  1023.5  1026.5  1031.7  1035.5  1037.6  1036.8  1033.8  1030.1  1027.2  1021.1  1015.2  1010.0  1012.0  1013.2  1014.5  1015.8  1015.6  1017.9  1020.7  1022.6  1017.7  1010.9  1005.5  1002.2  1001.3  998.10  995.30  996.70  1000.2  1000.0  995.90  990.00  991.60  1003.9
938.60  935.00  934.80  934.20  935.00  935.90  938.60  944.90  954.00  961.10  965.90  969.80  972.30  974.70  977.00  978.90  980.70  982.30  984.20  985.90  986.20  986.10  985.40  984.70  984.00  982.90  982.30  979.60  974.50  969.00  967.90  965.40  964.70  967.90  969.80  967.60  971.80  978.70  984.50  989.90  995.40  999.00  1001.6  1003.9  1004.0  1003.2  1006.8  1010.7  1010.1  1006.2  1000.5  994.60  991.20  987.20  981.60  981.10  980.70  979.70  978.60  976.10  975.00  973.30  972.80  971.10  970.00  974.00  979.80  982.60  985.00  985.50  985.90  986.70  987.70  987.60  987.80  989.40  991.10  992.60  992.70  991.20  989.50  989.70  990.00  988.80  985.70  985.00  984.50  984.40  985.00  985.80  985.30  983.40  982.20  987.40  992.70  996.10  998.00  999.30  1001.0  1002.8  1003.9  1006.6  1010.0  1011.2  1011.1  1011.7  1012.5  1011.0  1010.1  1019.1  1025.3  1031.2  1035.0  1035.0  1029.0  1020.0  1018.7  1018.9  1023.3  1027.5  1030.7  1030.5  1025.7  1025.8  1025.0  1022.0  1016.1  1008.7  1006.9  1009.8  1012.4  1013.4  1012.6  1015.2  1017.8  1019.3  1016.7  1013.6  1008.6  1000.1  997.30  994.00  991.20  994.10  997.80  998.20  994.30  987.30  991.90  1004.8
935.00  934.30  933.90  934.20  935.20  935.00  938.60  946.70  954.30  961.00  965.80  968.60  972.10  975.50  978.40  980.60  982.20  984.20  986.00  987.90  989.10  990.20  990.30  989.90  989.30  988.60  987.40  983.90  978.90  973.80  970.90  966.20  967.60  973.50  975.90  974.30  971.90  978.50  986.10  993.10  999.70  1003.4  1006.2  1008.4  1010.8  1013.1  1012.6  1013.9  1012.9  1008.4  1002.9  997.00  992.90  988.70  984.80  983.90  982.10  979.80  977.20  975.00  975.00  975.60  975.00  973.00  971.30  974.00  979.60  982.50  985.30  987.30  988.10  988.80  990.30  991.50  992.30  993.00  993.70  996.10  997.50  996.00  993.20  992.30  992.80  989.50  988.20  987.20  986.50  985.50  985.00  986.70  986.20  984.80  984.40  988.00  993.30  996.80  999.30  1000.7  1003.3  1005.4  1007.3  1010.0  1010.0  1011.5  1012.7  1013.7  1014.3  1015.4  1016.9  1019.5  1027.9  1030.8  1031.4  1028.2  1025.0  1018.1  1015.0  1013.9  1015.6  1019.2  1022.7  1022.1  1020.0  1021.9  1022.1  1021.0  1015.9  1008.3  1004.0  1006.3  1009.6  1010.4  1009.5  1012.5  1015.4  1016.5  1016.5  1014.0  1008.6  1001.4  993.90  990.60  989.40  990.90  995.30  995.20  992.40  985.00  993.00  1005.0
935.00  934.40  933.70  934.20  936.00  940.00  944.80  946.40  950.70  959.60  962.60  966.30  971.30  975.50  978.40  980.90  983.10  985.00  987.00  989.00  990.00  991.20  991.90  991.60  991.40  990.40  990.00  988.70  984.20  978.80  975.00  972.70  971.80  976.10  980.10  980.70  976.90  979.90  988.40  995.60  1001.5  1005.7  1009.4  1011.9  1014.7  1015.0  1015.4  1015.3  1013.5  1007.9  1002.9  997.40  993.30  990.00  988.10  985.50  982.60  979.90  978.30  976.90  976.90  977.80  976.50  973.60  972.80  974.90  978.10  981.70  985.50  987.40  989.60  990.60  992.00  994.30  996.10  998.00  1000.0  1001.5  1003.3  1001.8  996.80  996.80  996.30  993.90  991.30  989.50  988.70  987.40  986.60  987.90  987.40  985.40  985.00  987.70  993.40  997.00  999.80  1001.6  1004.0  1006.0  1008.4  1010.0  1010.0  1010.4  1010.9  1012.3  1014.3  1017.5  1022.0  1027.3  1032.2  1032.2  1030.0  1024.5  1021.7  1019.5  1019.6  1015.6  1011.9  1010.1  1012.2  1012.9  1015.2  1018.0  1018.8  1018.7  1016.1  1009.4  1003.2  1002.9  1005.8  1005.9  1005.1  1008.6  1012.3  1015.0  1014.4  1010.0  1004.5  999.50  993.30  988.60  986.00  988.70  991.90  992.90  990.20  985.00  993.60  1005.0
935.00  934.60  934.10  934.30  934.90  938.50  940.90  947.70  953.00  956.50  960.80  965.30  970.70  976.10  979.20  981.00  983.20  984.80  986.40  988.20  990.00  991.40  992.90  992.80  991.60  990.50  990.00  990.00  987.00  983.00  979.60  978.20  977.00  978.30  983.10  985.00  980.00  982.60  990.40  996.70  1002.6  1006.6  1010.0  1012.5  1014.9  1015.0  1015.8  1017.1  1012.8  1007.8  1002.1  998.30  996.10  993.60  990.40  985.70  982.30  980.00  980.00  979.60  979.50  978.80  976.20  973.80  973.60  975.50  980.00  982.10  984.90  987.10  989.20  991.20  993.10  995.50  997.90  1000.3  1002.5  1004.3  1005.6  1006.2  1004.5  1002.2  1001.1  996.90  993.90  992.40  990.80  989.00  988.50  989.30  989.10  987.40  985.80  987.00  992.30  996.20  998.10  1000.2  1002.5  1005.2  1006.8  1007.6  1008.3  1010.0  1010.8  1012.7  1014.6  1017.9  1023.5  1030.8  1035.6  1037.1  1031.0  1027.2  1026.7  1027.0  1026.0  1022.9  1017.8  1011.0  1005.1  1006.9  1010.8  1013.6  1015.2  1015.9  1015.1  1010.5  1003.6  999.40  1000.9  1000.3  1001.5  1005.1  1008.9  1011.7  1011.4  1010.0  1006.9  1000.8  995.50  987.80  985.00  985.60  988.60  989.10  986.20  982.00  991.50  1005.0
935.00  934.90  935.00  934.90  935.00  936.30  937.60  940.30  950.70  960.50  966.30  969.70  972.30  976.70  979.90  981.10  981.10  982.30  985.30  987.30  989.40  991.00  991.90  992.40  991.80  990.60  990.00  990.00  987.90  984.80  982.70  981.70  981.80  982.30  985.20  985.30  985.30  985.80  992.00  997.80  1002.6  1006.0  1008.7  1011.1  1012.6  1014.0  1015.2  1015.0  1013.8  1010.4  1005.3  1001.3  998.10  995.10  991.30  987.50  984.10  980.90  980.60  980.90  980.00  978.50  975.80  975.00  974.60  974.80  976.30  980.00  982.30  985.50  987.10  990.10  992.70  995.30  998.00  1000.6  1003.4  1005.4  1006.8  1008.0  1007.4  1006.0  1003.5  998.40  996.90  996.00  993.30  991.40  990.80  991.40  990.00  989.20  987.80  986.80  989.80  993.60  995.00  996.70  1000.0  1002.4  1005.0  1005.7  1008.5  1010.8  1012.6  1014.2  1016.8  1021.1  1025.7  1032.6  1038.9  1041.4  1035.6  1033.6  1033.8  1034.8  1034.0  1029.3  1020.9  1014.1  1008.2  1002.5  1004.1  1007.3  1008.9  1010.6  1011.7  1010.0  1006.3  997.40  995.60  994.50  997.00  1000.9  1004.7  1007.0  1007.3  1006.4  1004.6  1001.6  996.50  989.00  983.20  982.20  985.60  986.00  983.50  980.00  987.70  1003.2
943.00  942.50  940.00  938.40  936.30  936.40  937.30  938.80  947.80  959.40  967.00  971.00  974.40  977.00  979.40  980.10  979.30  979.30  983.00  985.60  987.40  989.50  990.50  991.00  991.20  990.80  990.00  990.00  987.30  984.40  983.20  983.00  984.60  985.50  986.40  988.10  989.00  990.50  994.90  998.20  1001.6  1004.3  1006.5  1008.1  1009.2  1010.6  1012.4  1013.3  1013.1  1011.1  1007.3  1003.0  998.60  994.90  991.10  987.40  984.90  982.70  983.00  982.70  980.60  978.50  975.80  975.00  975.10  974.80  974.70  976.00  979.40  981.40  985.70  990.00  992.20  994.60  996.90  999.60  1002.7  1005.4  1006.9  1008.2  1009.3  1007.4  1005.5  1001.7  1001.4  1000.2  996.90  995.70  995.10  992.90  990.00  990.00  989.40  987.90  988.90  991.10  995.50  998.10  1000.0  1001.7  1005.0  1007.3  1010.1  1012.0  1013.9  1016.2  1018.9  1022.9  1027.8  1033.7  1042.0  1046.4  1045.1  1041.0  1041.6  1042.6  1039.5  1033.5  1025.9  1018.4  1011.8  1006.0  1000.0  999.50  1002.6  1005.6  1006.6  1007.0  1005.3  1002.0  994.50  990.00  992.80  996.90  1000.0  1002.2  1002.4  1001.0  999.50  997.30  993.40  989.80  984.00  980.00  981.10  982.80  981.70  980.00  986.20  1001.7
949.70  945.60  941.60  944.20  941.80  939.40  939.50  939.90  945.40  959.20  966.50  971.30  974.70  977.10  977.70  977.50  975.50  977.10  980.40  982.60  984.60  986.40  987.40  988.60  990.00  990.00  989.50  988.00  985.80  982.40  980.10  981.50  984.10  985.60  987.10  989.20  991.20  993.40  995.70  997.70  999.10  1001.2  1002.6  1002.4  1003.5  1007.1  1010.0  1011.0  1011.0  1010.3  1007.3  1003.1  998.00  992.70  990.00  987.40  985.70  984.80  984.50  982.20  980.30  979.10  977.20  975.90  976.80  977.20  975.60  977.40  977.30  980.00  986.70  990.20  991.50  991.60  994.60  997.40  1000.8  1004.3  1006.0  1007.0  1009.2  1009.5  1008.2  1006.8  1005.0  1002.9  1000.6  998.90  996.50  993.50  991.90  993.40  990.70  990.00  991.00  990.90  995.00  998.40  1000.7  1003.7  1005.8  1007.9  1010.4  1012.4  1014.4  1017.2  1020.5  1024.1  1029.4  1035.9  1044.1  1050.4  1055.0  1054.6  1050.5  1049.6  1043.3  1036.2  1028.2  1020.2  1010.0  1005.0  1000.3  997.80  995.00  998.30  1001.0  1002.8  1003.1  1001.9  997.90  990.10  987.80  992.40  995.70  997.30  996.20  995.40  994.90  992.50  988.60  987.40  984.60  980.00  978.90  979.90  979.90  980.00  985.90  999.50
950.00  945.40  945.40  946.70  945.00  942.20  939.50  939.60  947.10  957.60  965.30  970.90  974.20  976.10  976.10  975.30  972.30  973.70  976.80  979.00  981.00  982.50  982.50  983.70  985.70  987.10  987.00  985.70  983.30  980.20  976.20  980.00  982.50  985.40  987.40  989.40  991.10  993.20  994.70  995.50  995.30  996.60  997.20  995.80  999.60  1003.7  1006.7  1008.5  1010.0  1009.0  1006.6  1003.3  998.40  993.80  990.40  989.40  987.70  985.80  985.00  983.20  980.70  980.00  979.60  979.40  979.30  980.00  976.90  979.90  979.70  980.00  985.00  988.50  989.80  986.70  988.90  994.80  998.60  1001.8  1004.5  1005.9  1008.6  1009.4  1008.5  1007.1  1005.0  1003.7  1001.6  999.80  995.50  993.80  995.10  996.20  992.80  990.70  995.00  995.40  995.00  996.30  1000.0  1002.0  1005.2  1007.4  1009.9  1011.1  1013.5  1016.5  1020.3  1024.9  1031.1  1038.3  1045.9  1054.6  1061.7  1065.0  1060.0  1055.1  1045.7  1037.1  1026.6  1015.6  1012.9  1010.7  1006.1  1001.3  996.50  990.00  994.90  997.70  997.90  998.20  996.20  988.80  984.80  988.10  991.20  992.90  991.80  990.90  990.10  988.60  984.60  983.50  982.70  979.60  977.40  977.10  977.50  975.00  984.80  995.40
952.60  950.20  949.10  946.50  944.20  939.90  938.20  940.00  948.50  956.70  964.60  970.00  972.60  974.40  974.50  972.70  970.00  970.90  972.60  975.00  976.40  976.50  976.30  979.70  982.30  983.50  983.90  983.00  980.40  975.90  973.40  977.80  981.70  984.90  987.30  989.60  991.20  991.40  991.30  989.20  988.90  990.90  990.10  992.60  997.40  1000.6  1004.1  1006.3  1007.8  1008.0  1006.5  1004.1  1000.3  996.00  992.90  989.90  988.50  987.20  985.70  983.70  981.20  980.10  981.20  981.30  980.00  980.00  979.80  980.80  982.50  981.40  980.60  982.60  985.00  985.00  985.00  990.40  995.10  998.10  1000.8  1002.7  1006.1  1006.5  1005.9  1005.2  1005.0  1001.9  999.80  997.90  995.00  996.20  998.30  996.60  993.40  993.00  996.70  998.70  999.10  998.40  1000.0  1000.0  1003.3  1005.8  1007.5  1008.7  1011.9  1015.2  1019.7  1025.5  1032.1  1039.4  1047.8  1056.2  1064.9  1069.7  1067.4  1059.3  1047.9  1037.0  1024.3  1022.4  1018.2  1012.9  1007.6  1002.4  996.90  992.20  990.00  989.10  992.10  993.20  992.10  988.40  980.00  984.00  987.20  989.10  987.40  986.00  985.70  985.30  982.50  980.00  980.00  978.40  975.00  975.20  975.20  975.00  978.50  987.10
955.00  952.20  947.90  943.30  944.80  940.00  940.00  940.50  947.80  955.30  962.60  966.80  970.20  971.60  971.90  969.20  965.00  968.40  966.80  967.20  968.80  968.60  970.70  975.70  977.20  977.50  978.70  979.20  976.80  971.40  972.50  978.00  982.40  985.00  987.20  989.30  990.40  990.40  988.10  983.80  983.10  985.70  986.70  990.40  993.60  998.10  1001.8  1004.2  1005.5  1006.0  1005.0  1004.1  1001.4  998.00  994.40  991.70  989.80  989.10  986.30  985.00  983.80  983.00  983.50  983.60  982.20  981.40  980.30  980.80  985.00  985.00  984.30  983.80  985.00  985.90  985.60  985.00  988.40  995.50  996.50  998.20  1003.1  1005.0  1005.0  1005.0  1005.0  1004.2  1002.0  1000.0  997.90  998.80  1000.1  998.20  995.00  995.20  999.20  1001.7  1002.8  1002.5  1001.8  1001.5  1001.5  1004.1  1005.0  1006.9  1010.9  1015.1  1019.9  1026.2  1033.0  1040.2  1048.8  1058.1  1065.6  1070.0  1070.0  1059.2  1048.8  1039.2  1032.0  1028.2  1021.1  1014.1  1007.4  1001.2  996.40  992.30  988.30  985.00  985.30  988.50  989.50  988.10  982.30  980.00  983.10  984.60  983.70  980.80  982.20  982.50  980.90  978.50  976.80  976.70  974.50  974.10  974.00  974.60  975.80  981.40
955.00  950.70  945.00  945.00  945.00  939.60  939.70  941.10  949.70  955.50  959.40  961.60  966.20  968.10  968.60  962.80  961.70  960.90  957.10  955.00  956.70  959.60  966.40  968.40  965.30  966.60  970.10  973.70  972.30  965.00  973.70  978.50  982.00  984.90  986.30  987.90  988.60  988.50  985.90  980.10  978.40  980.00  983.80  987.80  990.00  996.00  1000.0  1001.9  1002.7  1003.2  1003.5  1002.6  1001.1  998.00  994.40  992.10  990.00  989.60  986.10  985.30  985.00  985.00  985.70  985.00  984.20  983.60  982.30  981.70  985.00  986.70  986.90  987.20  987.50  987.70  988.00  987.20  987.80  989.90  993.80  996.80  1001.7  1005.0  1005.0  1005.0  1005.0  1005.7  1005.3  1002.2  1000.0  1000.8  1001.8  999.20  995.00  999.60  1003.2  1005.3  1006.5  1006.7  1006.3  1005.7  1006.6  1006.2  1007.3  1007.7  1011.3  1016.3  1021.7  1027.1  1034.9  1042.2  1051.4  1060.7  1066.1  1070.0  1070.0  1065.0  1053.3  1044.7  1039.8  1033.0  1023.0  1015.8  1008.7  1003.0  996.50  992.50  988.70  985.30  980.00  983.20  986.20  986.10  982.60  975.00  976.60  980.70  980.40  978.60  979.20  980.00  980.10  977.70  975.00  974.20  972.40  971.50  971.70  970.40  982.50  980.20
954.90  950.00  948.40  950.00  940.50  939.50  939.80  941.60  949.50  952.40  952.70  954.90  960.30  963.90  964.20  958.70  957.00  950.00  954.40  955.00  955.00  952.90  955.00  955.00  955.50  957.40  959.40  962.50  963.30  964.80  969.70  974.40  979.00  981.80  984.60  985.80  986.00  985.90  983.70  980.10  975.00  979.70  982.90  983.90  988.20  993.60  997.30  999.10  999.80  1000.2  1001.0  1000.7  999.60  997.60  994.80  992.50  990.20  990.00  989.30  989.00  987.30  987.30  987.80  987.00  986.10  985.50  985.00  984.70  985.00  986.70  989.30  990.00  990.10  989.80  990.10  990.20  989.70  990.00  991.00  997.00  1000.6  1004.2  1005.0  1005.0  1005.0  1006.5  1006.4  1005.1  1003.0  1003.4  1002.2  999.40  996.40  1001.4  1005.8  1008.5  1010.3  1011.1  1012.0  1010.9  1011.7  1011.4  1012.7  1012.8  1013.2  1018.2  1023.5  1030.3  1038.2  1044.6  1053.2  1060.8  1065.9  1070.0  1070.0  1069.2  1062.5  1053.1  1045.0  1036.5  1027.0  1018.1  1008.2  1002.4  998.90  993.10  988.90  985.00  982.50  980.00  979.40  981.30  980.60  977.10  972.90  975.90  977.80  975.00  976.00  977.10  977.50  976.50  972.40  971.40  970.60  970.00  970.00  971.20  980.00  979.90
953.30  950.00  953.90  953.60  940.70  940.00  940.00  940.60  943.40  945.00  944.80  948.00  954.50  959.50  959.00  953.40  950.00  952.50  956.20  958.00  957.10  954.80  955.30  958.10  958.90  958.30  957.90  960.00  960.00  959.00  961.60  967.00  973.00  976.30  978.20  979.40  977.20  974.80  974.00  974.90  972.00  977.50  979.40  981.70  988.10  992.40  994.40  995.30  995.60  996.20  998.20  998.90  998.70  997.00  994.80  994.00  993.10  992.70  992.30  991.80  989.70  989.20  989.90  989.10  988.40  987.70  987.20  987.10  985.10  985.90  989.40  990.90  991.10  991.20  992.20  992.30  991.50  990.30  990.00  996.20  999.50  1002.2  1004.0  1005.0  1005.3  1007.4  1007.7  1006.6  1006.0  1005.3  1002.6  999.80  998.40  1000.0  1005.3  1009.5  1011.8  1014.5  1016.4  1016.7  1018.2  1018.6  1019.0  1019.2  1018.7  1020.4  1027.6  1033.9  1041.5  1048.1  1055.0  1060.6  1064.9  1068.9  1070.0  1068.6  1065.0  1060.8  1054.4  1042.2  1032.2  1020.6  1012.7  1009.1  1000.0  999.10  993.50  988.70  984.70  980.00  975.00  975.00  973.00  972.70  970.00  973.10  975.00  975.00  971.70  974.10  974.80  973.80  970.50  968.60  968.50  966.90  968.60  974.20  979.70  977.70
954.40  955.20  958.30  956.50  949.40  942.10  940.00  941.80  942.80  945.00  944.40  944.80  947.40  951.30  949.70  950.00  950.40  956.70  960.20  961.10  960.50  957.30  956.20  960.00  960.00  961.40  960.40  960.50  960.90  960.00  960.00  960.00  962.80  966.80  968.20  965.90  965.00  964.40  965.60  968.80  970.00  975.00  978.00  983.80  988.10  990.80  991.60  991.60  991.50  993.40  995.50  996.40  996.80  997.00  995.60  996.60  996.70  996.10  995.70  994.40  992.00  991.10  992.50  991.00  989.90  989.30  989.90  990.30  988.50  987.40  990.20  991.30  992.40  993.40  994.30  994.10  992.90  991.40  990.00  994.20  997.30  999.90  1000.7  1002.1  1004.8  1007.2  1009.0  1008.4  1008.0  1006.9  1004.1  1002.3  1001.1  1000.0  1002.2  1006.1  1010.7  1015.1  1018.0  1020.6  1022.4  1023.6  1024.7  1025.5  1025.2  1023.2  1028.3  1036.0  1043.4  1049.9  1055.5  1060.0  1063.7  1066.5  1066.9  1065.7  1063.8  1061.2  1056.6  1048.5  1035.5  1026.1  1018.4  1012.2  1007.0  1003.5  997.40  992.60  986.40  982.70  981.10  978.70  976.40  970.00  970.00  969.70  972.60  971.30  970.00  970.90  970.80  969.30  966.40  965.80  965.70  965.60  969.40  975.90  976.40  974.20
960.40  961.00  960.40  957.50  950.10  949.80  946.00  944.30  945.00  945.00  946.40  945.00  945.50  946.90  948.70  950.00  955.00  958.30  961.00  962.90  961.30  959.50  958.00  959.80  962.20  963.70  963.00  962.80  963.60  961.80  961.60  963.20  964.60  965.00  965.00  965.00  965.00  966.10  965.00  965.90  971.40  977.00  980.00  981.90  986.20  988.00  988.40  988.20  989.10  991.40  992.70  994.30  995.30  997.80  999.50  1000.5  1001.0  1001.0  1000.0  998.30  995.60  994.60  994.60  992.90  991.90  991.20  992.30  991.70  990.20  988.70  990.60  992.10  993.20  993.90  994.80  995.00  994.40  992.50  990.80  991.70  994.90  996.20  998.40  1001.5  1004.5  1007.1  1009.0  1009.9  1009.9  1009.1  1006.8  1005.7  1004.4  1003.1  1003.1  1004.3  1006.3  1012.4  1016.8  1021.0  1024.4  1025.1  1027.6  1028.3  1029.4  1030.2  1032.9  1038.2  1043.4  1048.9  1054.3  1058.2  1061.4  1063.0  1063.3  1062.0  1060.2  1058.7  1056.3  1050.0  1043.5  1036.4  1025.2  1018.1  1014.4  1008.9  1001.8  992.30  987.50  986.10  984.70  982.70  980.20  975.00  971.40  966.10  965.00  967.20  965.00  966.80  966.60  964.10  965.00  965.00  965.00  968.20  976.00  975.00  974.40  971.60
963.50  963.80  962.40  960.40  957.60  956.10  952.70  946.60  943.90  945.70  951.70  948.90  947.80  949.20  952.30  953.50  955.00  956.00  960.40  961.30  960.60  960.00  960.00  960.00  963.80  965.00  964.80  965.00  965.60  964.40  965.00  966.50  968.80  968.40  966.30  966.40  969.10  970.00  967.70  965.40  970.50  974.60  972.70  973.00  979.00  984.10  984.50  985.00  987.30  989.10  990.50  993.40  996.10  999.00  1001.9  1003.7  1005.4  1005.9  1004.5  1002.0  999.80  998.60  997.20  995.00  994.20  994.40  994.60  993.40  991.50  990.20  991.40  992.90  993.90  994.80  995.40  995.90  995.10  993.80  992.30  992.10  994.60  995.00  997.80  1000.6  1003.7  1006.8  1009.1  1010.2  1011.1  1010.6  1010.0  1008.9  1007.2  1005.6  1007.0  1006.2  1005.0  1008.1  1010.3  1015.2  1019.9  1025.4  1027.1  1028.8  1030.6  1033.3  1036.1  1039.2  1043.1  1047.7  1052.1  1055.7  1057.9  1056.5  1058.2  1058.4  1054.9  1053.4  1052.4  1050.0  1045.2  1040.3  1034.4  1028.1  1022.4  1015.9  1005.0  997.00  994.70  992.30  988.90  984.70  982.30  980.90  979.00  972.80  966.40  965.00  962.90  965.30  964.00  961.00  967.00  972.50  971.70  976.20  980.00  976.10  972.30  970.00
965.10  965.00  963.70  961.80  960.00  957.50  954.80  950.10  945.00  945.60  954.90  959.90  960.40  960.70  962.50  962.00  959.80  958.90  960.00  960.00  961.00  961.70  962.30  961.60  963.90  965.00  965.00  966.60  966.40  965.20  965.00  967.10  970.60  972.10  971.30  971.10  972.80  972.90  972.30  968.80  970.00  969.50  968.10  969.40  970.00  978.20  981.00  981.30  983.50  985.60  990.00  993.20  996.80  999.80  1003.3  1006.0  1007.8  1008.7  1007.9  1006.4  1004.6  1003.3  1000.8  999.10  997.90  998.00  997.50  995.40  993.90  992.70  993.10  994.10  994.90  995.70  996.20  996.80  995.40  995.00  993.70  993.20  994.20  995.00  995.10  998.40  1002.1  1005.4  1007.8  1010.2  1011.8  1012.3  1012.0  1011.3  1010.3  1009.4  1010.5  1010.6  1010.0  1009.7  1010.0  1010.4  1014.4  1018.4  1025.2  1026.6  1029.2  1032.3  1035.8  1038.3  1041.7  1045.3  1049.2  1052.0  1053.1  1050.0  1051.3  1050.8  1045.5  1047.3  1047.1  1046.2  1044.1  1040.6  1036.0  1032.2  1027.2  1021.6  1011.7  1004.3  999.10  994.90  991.00  986.80  983.30  980.60  979.10  976.20  971.70  965.50  960.00  960.00  960.20  960.00  968.60  976.60  980.10  981.60  980.50  975.30  970.60  968.10
965.50  965.60  963.90  961.60  959.10  955.80  952.90  949.00  945.00  948.20  957.70  962.80  965.90  967.60  969.70  968.80  965.30  963.60  965.20  963.00  963.90  964.10  965.00  964.30  963.50  965.10  966.80  968.50  966.80  965.10  965.00  965.70  970.00  971.10  973.20  974.80  975.60  975.80  975.70  975.10  971.10  969.80  969.70  969.90  970.00  971.30  976.10  978.60  980.00  985.40  990.00  993.30  996.50  999.70  1003.7  1006.7  1009.1  1010.7  1011.0  1011.3  1010.4  1008.7  1006.9  1004.6  1002.8  1001.8  1000.1  996.80  994.50  994.80  995.00  995.00  996.00  997.20  997.60  997.40  995.70  995.00  995.00  994.50  994.80  994.90  994.90  996.50  999.80  1003.3  1006.5  1009.5  1010.9  1012.1  1013.5  1013.4  1012.6  1012.6  1014.0  1015.0  1015.8  1016.1  1015.6  1013.9  1013.9  1015.0  1018.8  1020.2  1024.2  1026.6  1030.6  1033.7  1036.3  1041.5  1045.2  1047.6  1048.5  1045.0  1043.8  1043.7  1040.6  1041.2  1041.9  1041.5  1039.2  1037.6  1035.1  1032.4  1028.2  1023.1  1015.8  1007.4  1001.1  995.40  991.40  987.40  982.50  977.90  977.00  975.00  971.70  969.30  965.50  961.20  958.80  959.00  967.00  974.60  979.60  980.90  979.60  975.30  970.80  965.30
965.00  965.30  962.50  960.00  956.00  955.00  952.20  949.10  945.00  949.50  958.60  964.50  967.90  970.60  971.80  971.30  969.60  968.30  969.50  967.10  965.40  965.00  965.00  965.00  965.00  967.00  970.00  969.10  967.20  965.30  964.20  964.10  966.80  970.00  972.10  974.90  976.50  977.80  977.40  977.00  976.30  975.50  973.40  972.60  971.30  970.80  973.70  976.20  981.10  985.40  989.80  992.90  996.00  999.20  1003.3  1006.6  1009.5  1011.5  1012.9  1013.8  1014.2  1013.5  1012.5  1010.8  1008.0  1005.2  1002.4  998.70  997.00  997.20  998.00  996.80  997.20  998.60  998.90  997.40  996.10  995.60  995.00  995.00  995.00  996.00  996.20  995.40  998.30  1001.5  1005.1  1007.8  1009.7  1011.0  1012.2  1013.3  1014.9  1015.5  1017.2  1019.0  1020.9  1021.4  1019.7  1018.8  1019.1  1019.4  1020.0  1020.0  1024.3  1026.7  1029.6  1031.8  1035.7  1040.7  1042.8  1044.0  1044.6  1045.0  1040.8  1035.0  1034.2  1033.4  1035.5  1035.9  1034.3  1032.8  1031.2  1029.8  1026.1  1022.0  1016.0  1008.2  1000.8  994.70  989.60  985.60  981.30  975.80  974.20  972.80  970.40  968.80  966.30  963.00  959.90  958.90  961.30  971.60  976.40  978.10  977.00  973.70  968.90  962.70
965.00  964.30  961.10  960.00  959.30  957.50  955.00  950.10  945.00  949.70  959.10  964.20  968.80  971.70  973.80  973.90  973.20  972.80  972.50  970.40  968.10  967.50  968.00  966.30  966.00  968.60  970.00  969.80  968.20  966.70  964.90  964.80  966.00  968.80  971.40  974.40  976.10  977.30  979.00  979.00  978.80  977.60  976.00  975.00  973.00  971.10  974.20  977.00  981.80  985.10  989.40  992.10  994.30  997.40  1001.2  1005.6  1008.8  1011.3  1013.6  1015.5  1016.7  1016.5  1016.3  1015.0  1012.4  1009.1  1004.8  1001.0  1000.2  1000.0  1000.8  999.30  999.40  1000.0  999.40  998.60  997.80  997.70  997.40  996.50  996.30  997.90  997.90  997.20  999.00  1000.4  1003.3  1005.6  1006.6  1008.2  1009.7  1011.2  1014.3  1016.5  1019.8  1022.2  1024.6  1026.4  1026.5  1026.1  1025.9  1024.6  1023.2  1022.2  1026.5  1031.0  1033.7  1035.7  1037.3  1039.7  1039.7  1039.7  1041.5  1043.5  1042.4  1040.3  1035.1  1025.9  1026.4  1027.7  1027.9  1026.5  1025.3  1024.3  1022.3  1019.3  1014.6  1008.3  1001.1  992.50  986.60  980.10  976.40  975.00  970.10  970.20  968.60  966.30  965.00  963.70  960.60  956.50  957.00  965.20  971.30  973.60  973.40  969.60  964.20  960.00
